-9787561.10 5164785.29 199.00
-9788398.33 5167314.39 198.94
-9789242.16 5167311.48 199.59
-9787554.11 5167308.00 199.41
-9786705.81 5167316.00 197.72
-9785024.98 5165621.98 197.55
-9785027.89 5166476.71 195.48
-9786713.99 5166466.29 197.88
-9785864.02 5166469.41 197.80
-9782489.29 5165624.90 189.28
-9782495.29 5167310.25 192.62
-9783342.94 5164779.64 193.65
-9784180.07 5165624.41 196.62
-9782491.10 5164783.38 193.07
-9781650.57 5167311.06 191.13
-9780808.72 5167297.57 192.14
-9779957.77 5164785.94 193.01
-9779971.02 5167318.56 194.48
-9779963.85 5166468.15 194.46
-9778277.55 5164786.00 197.62
-9779120.02 5167309.38 195.10
-9778273.98 5166462.30 196.64
-9777429.25 5164779.93 200.14
-9778275.62 5165627.24 196.93
-9778278.84 5167307.33 196.72
-9777430.54 5167310.22 201.05
-9776600.36 5165623.90 200.17
-9775746.40 5165626.68 197.37
-9774902.60 5164781.37 196.74
-9774889.77 5167310.40 196.18
-9777435.17 5166463.30 201.24
-9776576.86 5167309.61 199.90
-9774066.13 5164786.79 191.95
-9774070.91 5167313.54 195.56
-9774054.26 5166470.05 193.91
-9772373.40 5164782.20 189.54
-9774061.80 5165626.37 193.77
-9773214.51 5165621.10 184.66
-9771527.02 5166469.90 190.52
-9770719.48 5164809.46 190.62
-9770693.91 5165624.99 190.92
-9771528.80 5165614.29 190.00
-9771529.81 5167312.72 190.14
-9770679.07 5167309.14 189.99
-9768997.22 5164783.04 188.25
-9768998.51 5165628.48 189.53
-9769836.19 5167305.43 191.77
-9767314.83 5165619.80 184.74
-9769840.76 5166471.68 192.62
-9768995.79 5167297.82 191.52
-9767306.19 5167307.21 185.61
-9766465.50 5165622.39 184.29
-9766465.53 5167305.36 184.87
-9765620.09 5165616.64 182.15
-9765621.27 5167305.46 183.93
-9762253.52 5164777.66 183.58
-9763936.14 5167310.66 180.81
-9763093.88 5165629.02 181.01
-9762260.46 5167311.02 181.43
-9761405.90 5167310.43 186.23
-9762246.49 5165634.46 182.33
-9759731.21 5167311.30 180.81
-9758123.15 5167309.52 176.78
-9762255.76 5174909.08 176.83
-9761383.36 5174034.53 176.78
-9760566.65 5173217.68 176.64
-9760127.10 5173213.54 176.94
-9760547.31 5174012.86 176.93
-9760122.13 5174008.49 176.89
-9763094.38 5174903.98 176.86
-9763184.17 5175725.88 176.90
-9763935.53 5174902.46 185.78
-9768150.00 5173215.08 190.31
-9768150.33 5174042.17 188.95
-9766471.46 5173212.96 190.87
-9765621.69 5175749.90 188.72
-9764782.32 5173216.72 187.62
-9764783.00 5174898.38 186.31
-9770687.44 5175744.70 190.65
-9768995.25 5173219.82 190.18
-9768154.25 5174904.53 190.48
-9767314.98 5174909.02 190.87
-9767302.31 5175727.88 187.40
-9774107.06 5174908.51 191.98
-9773218.96 5174902.88 199.11
-9771528.06 5173221.57 187.82
-9771529.47 5175750.68 193.62
-9770688.18 5173215.63 190.30
-9775752.82 5173221.53 195.66
-9774900.76 5174051.75 191.76
-9773215.75 5175751.29 200.21
-9772366.49 5173227.36 194.54
-9778275.48 5174059.08 201.96
-9778284.46 5175745.39 202.07
-9777420.09 5173224.30 199.12
-9777438.74 5174904.56 198.36
-9774898.13 5174893.00 206.52
-9774900.65 5175746.79 189.44
-9781648.34 5174056.86 201.48
-9779961.61 5173212.79 206.92
-9779965.43 5174890.48 207.74
-9779961.25 5175751.41 208.13
-9784196.00 5173216.23 195.06
-9783343.76 5173210.04 194.22
-9782491.62 5174899.71 196.15
-9781648.42 5173217.25 199.77
-9780816.57 5173211.93 205.25
-9780806.25 5175745.42 204.46
-9779118.52 5174053.28 203.16
-9779124.94 5174902.96 205.07
-9786712.84 5174908.40 197.45
-9785853.55 5173216.62 197.48
-9782487.26 5173213.35 195.43
-9782495.73 5175741.32 196.29
-9781658.11 5174906.21 200.40
-9788399.20 5173216.34 203.31
-9785870.92 5174906.74 198.19
-9785876.57 5175745.78 197.18
-9784178.03 5174905.19 194.73
-9790921.48 5174895.86 205.95
-9790055.82 5175741.85 204.65
-9787558.90 5173214.99 200.59
-9794311.52 5174890.45 216.14
-9793456.31 5174902.55 209.23
-9793465.55 5175750.85 208.06
-9790929.32 5173221.26 204.62
-9789239.65 5174909.11 202.96
-9796001.84 5174909.54 216.60
-9795974.84 5175738.87 222.59
-9792614.35 5174904.00 209.88
-9791772.63 5173213.72 204.18
-9791774.53 5174902.15 207.35
-9798524.10 5174899.24 217.19
-9796830.93 5175739.89 220.11
-9795984.67 5173210.69 215.10
-9795147.27 5173214.95 214.44
-9795152.98 5174902.75 216.65
-9795142.10 5175752.44 220.86
-9794293.42 5173216.23 210.40
-9801903.41 5173214.98 222.34
-9801895.98 5174899.98 220.37
-9799353.62 5175745.94 223.07
-9797677.42 5174902.91 218.70
-9797680.89 5175751.09 218.83
-9796831.40 5174901.64 219.09
-9804385.72 5174038.07 231.43
-9802741.16 5174907.86 226.40
-9801059.04 5173197.58 230.16
-9806117.62 5175750.14 249.63
-9805297.38 5174878.86 238.79
-9805259.25 5175714.46 244.57
-9804409.93 5175762.61 240.84
-9803586.69 5175748.48 236.78
-9809482.65 5173219.47 246.16
-9806080.24 5173215.23 242.33
-9806099.70 5174917.73 251.66
-9805258.10 5173200.60 238.27
-9804431.42 5173242.40 230.00
-9812024.01 5174891.52 257.20
-9811168.09 5174049.96 254.00
-9811182.29 5175750.77 258.67
-9808625.30 5173209.49 243.86
-9808643.57 5174887.22 249.80
-9806945.77 5173215.03 247.39
-9812019.72 5175752.59 260.32
-9816241.96 5175746.85 262.89
-9815393.99 5173207.40 257.61
-9815408.55 5175756.33 263.25
-9812862.94 5175748.70 261.53
-9817927.38 5175746.46 250.49
-9815400.31 5174905.81 268.81
-9814561.12 5173218.55 258.77
-9814540.20 5174055.25 257.72
-9814575.36 5174903.63 264.50
-9821307.03 5173245.04 254.93
-9821275.30 5174911.70 262.23
-9818759.53 5174909.41 247.60
-9817082.49 5174901.01 252.28
-9822659.55 5175742.88 261.94
-9819606.74 5174063.69 249.95
-9819602.61 5174928.06 259.80
-9822147.83 5174057.45 265.41
-9822661.37 5174059.23 262.66
-9822660.48 5174891.39 263.69
-9822129.56 5176603.31 259.59
-9822140.04 5174897.39 264.53
-9821283.16 5176626.02 257.29
-9820454.46 5174908.85 265.16
-9819607.32 5176585.47 247.60
-9818790.10 5174058.91 247.99
-9820440.50 5176584.42 256.01
-9818768.29 5176593.39 243.58
-9817926.30 5174912.40 251.78
-9816240.44 5174899.09 260.67
-9815392.45 5174056.60 268.39
-9814543.58 5175753.86 266.55
-9813714.14 5174067.72 258.63
-9813704.56 5174929.28 259.31
-9813707.28 5176590.45 261.95
-9812886.02 5174913.63 261.45
-9812859.75 5176577.66 266.00
-9810332.24 5174905.54 259.29
-9810330.31 5175746.87 256.93
-9812854.00 5174036.85 255.44
-9811162.00 5174907.66 254.37
-9811170.91 5176590.33 259.91
-9810329.19 5174059.60 268.73
-9809484.49 5174907.65 258.51
-9809495.67 5176602.54 262.35
-9806942.25 5174052.10 249.98
-9807791.60 5176588.23 249.10
-9806117.88 5176583.74 247.64
-9807804.89 5174046.99 245.20
-9807802.21 5174906.21 255.57
-9806957.40 5174903.93 250.21
-9806105.16 5174062.02 247.75
-9803579.31 5174071.22 235.12
-9803585.74 5174903.43 233.70
-9805278.36 5176595.05 247.45
-9804420.16 5174907.28 236.69
-9801885.61 5175746.30 221.08
-9801053.68 5174909.74 226.84
-9801064.69 5175751.91 222.94
-9799347.64 5174043.89 220.74
-9798512.92 5174056.02 216.89
-9798516.18 5176591.56 219.32
-9800199.79 5174902.37 225.33
-9800208.62 5176588.25 223.42
-9799370.93 5174898.88 223.62
-9799364.04 5176599.51 222.12
-9796841.34 5176587.75 220.54
-9795987.18 5176583.87 222.44
-9794308.95 5175746.24 219.19
-9793463.54 5176591.21 210.89
-9794299.01 5176587.58 216.91
-9790109.97 5174916.52 202.87
-9791773.70 5174061.31 205.38
-9788397.66 5176588.03 197.16
-9789238.20 5175747.34 198.33
-9788401.18 5175746.33 200.66
-9787553.86 5176591.08 198.64
-9788395.73 5174898.90 203.39
-9786708.92 5174065.15 198.50
-9786711.08 5175759.88 196.04
-9785019.25 5175745.49 196.33
-9787555.37 5174905.45 198.88
-9786712.64 5176589.52 196.55
-9785869.45 5174066.26 195.22
-9783335.18 5174901.90 191.36
-9783332.72 5176585.76 192.12
-9785019.01 5174915.22 194.70
-9784173.26 5175758.58 193.98
-9783347.48 5175739.85 194.01
-9781656.05 5176584.59 201.56
-9780811.10 5176591.17 206.25
-9779953.36 5174059.84 207.02
-9779964.73 5176577.48 207.76
-9780808.80 5174065.87 209.07
-9780808.31 5174900.44 207.35
-9778272.68 5174908.11 199.40
-9779123.22 5176567.18 204.97
-9779121.70 5175742.18 204.83
-9778275.50 5176585.84 202.45
-9775746.97 5175746.51 194.07
-9776584.55 5174908.94 193.43
-9775749.06 5174067.20 193.85
-9775741.32 5174881.48 191.28
-9775747.73 5176591.91 192.99
-9774061.57 5174059.22 191.79
-9773213.55 5174058.18 199.33
-9771529.93 5174052.15 193.54
-9771508.74 5174897.60 192.34
-9771529.91 5176590.72 190.49
-9770689.82 5174910.80 188.65
-9769843.83 5174057.45 189.45
-9769839.80 5174903.62 190.59
-9768997.00 5174902.91 189.64
-9769848.20 5176589.20 188.57
-9772376.98 5174909.13 196.94
-9768149.56 5176588.38 189.46
-9767304.60 5176592.79 191.66
-9766470.14 5174901.82 190.85
-9769852.37 5175727.50 188.67
-9768989.90 5176588.81 189.14
-9766460.28 5174066.08 190.79
-9766465.84 5176584.25 198.42
-9765615.89 5174901.08 192.12
-9764801.89 5177142.32 176.83
-9764238.03 5177129.55 177.03
-9764783.56 5176590.07 176.71
-9795151.90 5107433.99 199.10
-9793435.76 5105747.49 217.31
-9795129.34 5106593.64 217.10
-9793450.97 5104896.49 227.33
-9792630.51 5104898.70 226.35
-9791773.90 5106584.46 201.61
-9791780.97 5104899.16 230.91
-9790111.22 5105742.47 210.43
-9790077.23 5107422.86 210.32
-9789254.32 5104888.61 233.19
-9790932.67 5104896.62 225.35
-9790104.41 5104901.65 222.28
-9789247.48 5107411.51 209.61
-9788396.75 5107399.71 209.61
-9788412.01 5104896.96 231.83
-9788399.05 5106578.68 217.22
-9785027.88 5107422.20 214.37
-9785866.05 5104891.93 213.38
-9785022.71 5106576.20 221.03
-9784177.93 5104891.27 217.59
-9784175.76 5107418.62 221.63
-9783348.31 5107425.55 217.54
-9781648.87 5104889.55 210.80
-9782485.62 5106605.13 212.04
-9783338.92 5105730.22 211.19
-9782499.39 5104894.80 226.40
-9780805.83 5107424.56 205.94
-9780805.49 5104907.68 220.36
-9779982.55 5104886.42 214.31
-9779957.60 5107410.23 209.08
-9779116.38 5104896.78 221.88
-9778273.41 5106574.28 211.81
-9778275.30 5105727.90 214.87
-9778276.22 5107417.67 211.82
-9776594.74 5107425.87 212.38
-9776588.92 5104899.64 207.74
-9776590.67 5106593.71 212.39
-9774896.30 5105716.44 208.30
-9774917.75 5104948.60 204.09
-9774896.93 5106592.88 206.11
-9774079.92 5107424.49 202.76
-9773219.10 5107422.28 201.09
-9774061.85 5105743.52 204.90
-9771535.09 5105745.94 200.35
-9771531.79 5104886.26 203.54
-9772378.69 5106590.22 196.35
-9771542.67 5107422.22 195.02
-9770676.65 5107422.60 191.08
-9769840.47 5104898.04 203.12
-9770687.06 5104899.84 198.80
-9770725.36 5106555.69 189.99
-9769002.69 5104892.10 201.75
-9768153.34 5104894.31 197.17
-9768160.22 5106582.49 189.36
-9768152.73 5107430.26 189.31
-9768996.76 5106581.88 193.94
-9767306.88 5105739.83 190.45
-9766468.36 5104892.83 190.76
-9766469.57 5107421.72 186.47
-9765624.85 5104891.10 189.31
-9764782.06 5104895.61 187.76
-9764777.29 5107423.47 185.45
-9763910.83 5104892.67 184.59
-9763945.67 5107426.55 184.14
-9763093.65 5106584.83 184.73
-9761402.08 5105733.62 183.77
-9760565.20 5104890.12 183.55
-9761407.71 5104892.13 184.35
-9760553.38 5106576.31 182.52
-9758035.08 5104890.16 183.93
-9760565.87 5105737.20 183.16
-9759729.82 5106584.80 181.33
-9758032.20 5106581.11 181.74
-9757189.04 5106578.43 181.96
-9757187.41 5107436.82 182.37
-9757198.42 5105727.15 181.76
-9756341.02 5105737.20 182.03
-9755497.83 5107403.92 182.20
-9754660.36 5106573.07 182.27
-9752979.09 5105731.54 183.80
-9754660.78 5104905.61 180.87
-9751282.41 5106581.55 179.89
-9750445.48 5105743.27 180.67
-9751281.18 5104896.17 184.16
-9749600.06 5107420.63 179.52
-9750436.07 5104877.36 184.31
-9747884.45 5107385.07 208.63
-9747082.49 5106585.24 178.27
-9746228.47 5104893.40 177.99
-9747073.08 5104892.76 178.61
-9747905.43 5106580.56 177.85
-9746223.04 5107428.23 176.58
-9745370.93 5106580.66 176.10
-9744548.27 5107419.27 178.79
-9746217.09 5106583.60 177.21
-9745429.65 5104894.80 173.03
-9743694.52 5106579.93 178.99
-9743700.83 5105742.54 179.99
-9741165.10 5104898.74 178.10
-9741163.22 5105731.78 178.57
-9740321.98 5104894.48 178.52
-9739474.62 5104905.96 177.99
-9739496.38 5106578.42 178.03
-9739482.46 5103208.35 179.10
-9742851.09 5104902.54 178.91
-9742857.08 5105737.84 178.50
-9740322.99 5104041.11 176.86
-9739474.90 5104049.77 177.76
-9745380.31 5105737.15 179.33
-9742010.15 5103203.83 179.73
-9742008.29 5104887.71 178.38
-9742008.83 5105734.85 178.82
-9741164.33 5104049.42 178.95
-9747907.63 5104901.78 179.23
-9745391.31 5103198.69 179.46
-9745392.54 5104053.14 178.64
-9744539.43 5104897.55 178.56
-9743689.25 5103210.11 179.28
-9743691.17 5104057.90 178.87
-9743695.12 5104893.17 180.02
-9749583.05 5104847.47 182.76
-9748756.79 5103209.73 182.43
-9748754.29 5105732.96 179.02
-9747910.58 5105727.30 178.53
-9751287.50 5104060.20 182.91
-9750441.51 5103205.30 182.09
-9749595.24 5104044.27 183.54
-9749590.20 5105742.17 179.63
-9748760.02 5104049.76 184.67
-9748755.83 5104897.83 179.81
-9755518.27 5104901.59 182.68
-9754659.83 5103207.37 182.69
-9752992.47 5103203.04 176.67
-9752129.09 5104886.42 182.73
-9751284.47 5103204.84 182.07
-9751283.81 5105736.17 184.57
-9757187.57 5104891.17 182.44
-9756338.47 5103205.28 183.14
-9755505.10 5103209.53 182.62
-9753815.16 5103205.60 182.31
-9753816.22 5104895.40 181.83
-9753810.73 5104049.61 181.74
-9752975.15 5104890.93 183.20
-9759721.37 5104894.76 183.37
-9758873.32 5103206.93 184.03
-9758872.07 5105737.61 183.05
-9758037.69 5103205.24 183.69
-9757190.13 5104051.64 183.39
-9758035.01 5105736.88 182.62
-9756343.90 5104891.75 182.40
-9761408.34 5103210.84 185.19
-9758873.88 5104895.88 182.98
-9764784.13 5104050.63 188.56
-9763095.80 5105738.07 185.09
-9762246.89 5103226.77 184.15
-9762252.31 5104053.27 184.51
-9762249.40 5104893.31 184.50
-9765623.90 5103206.87 190.15
-9765627.50 5104050.48 190.83
-9763947.60 5103206.86 186.34
-9763091.91 5104045.65 185.48
-9763093.37 5104892.36 185.26
-9769001.83 5103204.66 200.83
-9767318.53 5103206.55 194.27
-9766466.79 5104061.03 195.59
-9771530.26 5103209.02 209.94
-9770671.34 5103214.98 206.12
-9769842.49 5103206.67 206.19
-9768146.16 5105752.25 191.96
-9767313.19 5104890.25 196.44
-9774042.28 5104055.18 221.43
-9774049.48 5104901.56 216.12
-9773216.82 5105734.79 198.09
-9773211.10 5104888.73 208.64
-9772368.81 5103211.90 214.71
-9772353.63 5105734.11 193.29
-9770692.56 5105738.16 195.38
-9777431.87 5104891.51 213.31
-9775745.28 5104051.47 212.79
-9774898.41 5103199.62 218.28
-9774071.95 5103205.74 219.50
-9772379.99 5104897.91 206.83
-9776609.28 5103201.13 208.41
-9775746.86 5103209.15 214.72
-9775745.86 5104895.79 199.14
-9781631.85 5103178.53 216.85
-9781653.30 5105751.39 212.53
-9780798.40 5103199.44 219.65
-9780798.93 5104052.98 221.12
-9779962.09 5104050.95 219.12
-9778273.34 5103210.43 208.50
-9778274.16 5104053.00 213.63
-9778272.93 5104887.42 213.12
-9784169.43 5103219.06 214.77
-9783329.99 5104892.78 221.98
-9780828.04 5105721.17 207.84
-9785860.69 5103207.71 218.48
-9785876.30 5104047.52 219.60
-9785871.56 5105734.53 216.84
-9785025.48 5104883.29 215.78
-9784177.83 5105731.29 216.17
-9786707.47 5103207.30 228.12
-9786714.70 5105737.42 216.24
-9785031.78 5105744.90 210.72
-9791755.48 5104051.85 228.60
-9789233.51 5103190.58 221.76
-9789242.83 5105733.17 221.78
-9788405.84 5103217.09 227.66
-9788398.72 5105744.65 230.23
-9787542.70 5104901.00 224.48
-9786716.67 5104896.63 222.64
-9787556.46 5105724.45 217.93
-9793475.05 5104073.16 229.47
-9792606.74 5105726.93 223.87
-9791779.34 5105744.22 220.91
-9791765.50 5103474.04 229.83
-9789250.75 5104049.47 221.85
-9795152.39 5105739.55 226.53
-9795144.59 5104893.08 234.69
-9795144.62 5104056.17 236.74
-9794291.36 5104902.90 232.92
-9794296.48 5104049.55 236.86
-9795130.09 5109959.48 226.43
-9794307.89 5112506.01 207.16
-9793434.09 5110810.90 219.72
-9792622.37 5112475.17 208.96
-9792622.84 5110799.04 224.14
-9791773.26 5110805.76 219.82
-9791790.29 5112458.04 208.08
-9790096.07 5110815.42 215.95
-9790104.59 5112495.81 214.52
-9789245.05 5110804.59 217.01
-9787552.43 5111639.55 220.23
-9787559.28 5112484.99 211.73
-9786709.02 5109977.78 220.69
-9785870.58 5110794.50 211.29
-9787552.21 5110798.17 222.21
-9786714.81 5110802.48 219.15
-9786729.37 5112501.38 213.12
-9784184.57 5110805.95 232.81
-9783330.70 5112490.46 198.68
-9785038.84 5110790.70 216.27
-9785020.18 5112476.44 220.48
-9783333.77 5109958.02 219.30
-9781653.67 5110806.63 217.78
-9780804.42 5111650.68 210.93
-9782490.53 5110799.65 220.71
-9782506.73 5112451.83 206.86
-9781653.21 5111673.95 220.00
-9781634.49 5112470.82 211.87
-9779932.11 5109961.49 206.13
-9779965.67 5112490.94 210.84
-9779130.00 5111648.44 205.09
-9779954.02 5110797.36 203.04
-9779129.92 5112487.15 214.17
-9775754.52 5111644.39 189.72
-9777414.53 5112487.25 199.53
-9776580.91 5112514.83 192.48
-9775749.19 5112478.17 186.63
-9774059.88 5110796.53 196.34
-9773220.72 5110794.55 189.74
-9773227.68 5109953.80 186.83
-9772382.84 5109942.25 190.62
-9772376.40 5111645.18 188.92
-9771527.44 5111645.93 185.48
-9772369.55 5112497.13 175.83
-9771531.15 5112486.70 180.53
-9770683.89 5110797.67 186.56
-9770686.33 5111646.43 180.09
-9772367.91 5110797.82 187.62
-9771528.48 5110790.28 186.65
-9770686.41 5109958.34 188.61
-9768999.58 5112485.83 193.75
-9769844.11 5110789.00 181.06
-9769000.68 5109957.16 183.38
-9767314.53 5112480.39 188.62
-9766467.57 5112481.82 177.59
-9765615.50 5110808.51 188.27
-9767313.54 5110791.84 184.38
-9768161.94 5111634.95 185.40
-9767309.75 5111644.09 189.31
-9768160.92 5112486.90 188.59
-9763946.32 5112476.95 181.88
-9765622.50 5112489.48 182.38
-9764779.93 5112483.49 181.15
-9763936.80 5110798.26 180.51
-9763093.66 5109953.37 180.12
-9762252.64 5111647.35 187.96
-9762253.54 5109961.48 181.19
-9762253.99 5112482.05 189.25
-9761413.30 5111648.95 194.28
-9760566.18 5110796.46 193.05
-9760560.76 5112486.59 195.72
-9759721.93 5112488.06 189.25
-9758879.32 5110799.98 184.75
-9758882.23 5112481.53 185.95
-9757197.03 5110796.40 182.99
-9756340.64 5112483.73 185.92
-9758033.65 5110799.26 183.53
-9758036.71 5112481.27 185.39
-9757193.75 5112493.63 186.95
-9756346.36 5110785.32 182.94
-9754656.50 5111649.34 186.68
-9755503.48 5110799.89 183.60
-9755500.10 5112482.92 187.48
-9754702.26 5109983.77 175.82
-9754653.22 5112486.18 184.54
-9752133.60 5112483.07 180.42
-9753818.85 5112474.09 184.50
-9752961.38 5111633.89 180.61
-9750445.93 5110797.51 178.40
-9750583.92 5112614.62 176.85
-9750443.43 5111640.56 179.70
-9749603.45 5112499.63 178.58
-9748756.02 5110797.27 175.87
-9748809.58 5112483.98 179.99
-9747067.55 5110795.30 177.31
-9744539.20 5112482.36 178.30
-9743671.83 5110796.94 177.47
-9742854.23 5112478.10 178.61
-9742841.10 5110801.49 177.50
-9742008.81 5110796.88 177.44
-9743657.02 5111597.12 177.93
-9743697.13 5112485.92 177.83
-9742793.92 5111655.32 177.43
-9741939.31 5112639.02 177.30
-9740323.16 5112478.38 177.39
-9739481.85 5112482.20 178.81
-9741166.20 5110795.33 179.80
-9741166.34 5112481.80 177.79
-9740325.82 5110791.85 180.73
-9740296.79 5111668.00 177.32
-9740320.32 5114177.76 175.72
-9741167.37 5113323.17 177.56
-9739484.42 5111643.56 178.09
-9739485.66 5113324.92 179.61
-9744541.66 5111641.76 178.05
-9743686.86 5113341.89 178.07
-9743699.47 5114171.80 178.17
-9741875.92 5111481.86 177.36
-9741163.42 5111641.25 177.28
-9741163.71 5114170.32 178.25
-9747903.72 5113306.06 181.90
-9745384.86 5111638.59 178.42
-9742842.72 5113329.21 177.94
-9747910.75 5111645.08 178.90
-9747068.87 5112486.39 178.02
-9746241.76 5112439.83 176.91
-9746174.95 5113343.49 178.03
-9746222.25 5114172.16 177.78
-9745376.15 5112485.98 178.86
-9745379.23 5113319.54 177.78
-9750463.34 5113340.66 176.57
-9749602.97 5111639.21 178.71
-9747913.77 5114172.80 178.26
-9747905.44 5112485.79 182.34
-9753815.83 5111628.82 184.55
-9753815.31 5113332.93 180.80
-9753811.34 5114169.54 180.52
-9752968.92 5114170.13 180.03
-9752128.49 5114171.03 179.27
-9751288.41 5112490.98 178.04
-9757191.88 5113325.29 185.71
-9754662.12 5114176.49 184.97
-9752979.22 5112488.90 180.32
-9758036.61 5111649.47 184.94
-9757184.78 5111638.50 184.73
-9757185.75 5114172.83 187.88
-9756353.08 5111650.15 184.86
-9755507.15 5111640.14 185.12
-9755505.37 5113328.49 187.46
-9754663.13 5113329.54 184.37
-9761404.27 5112484.87 194.65
-9759718.01 5111643.44 186.57
-9758879.31 5111643.93 186.22
-9763930.82 5113330.30 188.92
-9763082.29 5112498.40 187.78
-9759730.81 5113328.24 188.81
-9766446.44 5111636.26 183.88
-9766464.65 5113328.32 181.61
-9764774.92 5111642.59 179.61
-9762258.29 5114169.34 190.72
-9769000.94 5113308.37 188.67
-9767312.06 5113338.36 181.92
-9767299.55 5114172.41 178.77
-9770686.48 5114178.18 186.93
-9769844.76 5112483.93 181.22
-9769841.06 5113320.82 187.02
-9768998.31 5114172.31 187.71
-9773205.75 5112477.78 180.98
-9773219.47 5114171.63 188.78
-9770690.93 5112476.10 180.57
-9769841.84 5111643.32 175.82
-9774901.37 5114173.52 187.76
-9774061.21 5111647.53 191.41
-9774053.05 5114173.33 183.90
-9773208.72 5111645.40 189.42
-9778313.47 5112515.43 206.35
-9775747.97 5114164.64 182.51
-9774901.29 5112496.41 185.58
-9774062.25 5112471.41 182.89
-9780808.16 5112485.05 204.18
-9780812.40 5114175.39 175.91
-9779970.78 5114183.43 180.71
-9778282.35 5111640.36 206.88
-9778278.63 5113335.52 191.73
-9785871.74 5112486.21 224.22
-9785860.71 5114175.07 183.82
-9784170.78 5111656.14 221.06
-9783335.63 5111652.20 225.28
-9782468.06 5113326.42 202.68
-9781661.00 5113329.07 205.69
-9782494.91 5114164.73 182.41
-9788396.92 5112483.67 223.18
-9785869.71 5111639.86 218.58
-9785011.96 5111639.54 219.80
-9785023.16 5113331.82 204.49
-9785035.71 5114192.77 190.93
-9784209.17 5112473.52 212.59
-9784187.77 5113316.64 208.11
-9790079.49 5113323.43 206.24
-9789240.02 5112486.84 216.81
-9788387.90 5111634.74 217.70
-9788392.85 5114173.07 194.66
-9785873.26 5113334.01 207.41
-9793463.94 5112489.36 208.23
-9791771.76 5111642.38 213.09
-9790928.88 5111646.93 215.13
-9790932.22 5114184.70 187.61
-9789292.59 5114212.98 195.99
-9795149.50 5111628.25 220.41
-9795149.60 5112481.66 196.31
-9794309.93 5111646.04 224.67
-9790929.44 5112480.93 216.91
-9795150.16 5113329.74 176.96
-9795149.80 5114169.48 179.36
-9794309.79 5113333.05 174.95
-9794297.72 5114999.73 185.96
-9795163.11 5114963.39 198.50
-9795153.13 5115865.12 225.50
-9794299.27 5114135.61 175.82
-9794294.79 5115851.96 217.14
-9793493.11 5113376.32 176.99
-9793464.80 5115014.61 179.63
-9793456.75 5115860.43 198.85
-9792583.58 5114118.04 175.78
-9792640.86 5113333.51 187.36
-9791778.96 5113328.00 213.79
-9792607.93 5114978.02 180.43
-9791771.15 5114177.61 178.61
-9792607.62 5115832.33 186.15
-9790937.74 5115859.96 181.44
-9790097.25 5115022.35 178.45
-9790077.93 5114203.55 194.41
-9789262.04 5115013.19 182.00
-9790929.21 5113317.13 211.26
-9790079.91 5115851.16 180.49
-9789245.37 5113323.96 216.56
-9788396.77 5113337.65 215.74
-9787530.90 5113329.18 202.31
-9786714.34 5113340.36 213.15
-9787560.93 5114184.26 198.95
-9786667.22 5115789.10 202.30
-9783344.01 5113331.08 188.06
-9783336.29 5114165.48 181.94
-9783327.02 5115848.53 189.46
-9781652.12 5115013.26 184.28
-9781651.55 5114191.30 175.84
-9783336.43 5115013.09 180.88
-9780806.38 5113331.73 182.97
-9779968.19 5113331.06 181.78
-9779971.52 5115013.51 192.01
-9779119.82 5113332.01 182.93
-9779128.47 5115856.81 201.33
-9777433.65 5113342.91 185.64
-9777433.04 5115014.29 180.05
-9779118.15 5115017.20 188.28
-9778273.55 5115013.42 180.34
-9777433.73 5115861.97 179.90
-9776586.72 5115865.79 181.27
-9776593.94 5113323.89 179.83
-9775745.03 5113328.03 175.81
-9775743.53 5115860.17 181.53
-9774940.11 5113320.97 179.38
-9774904.18 5115858.56 180.74
-9773224.87 5113323.98 180.66
-9773217.49 5115857.10 184.64
-9772372.79 5114177.06 183.55
-9774059.74 5113324.85 181.21
-9772367.79 5115868.13 186.00
-9772380.80 5115017.79 185.82
-9772368.73 5113332.07 179.99
-9771529.54 5113328.50 181.37
-9771531.13 5115017.28 186.63
-9770684.92 5113318.17 181.84
-9769841.76 5115009.65 188.82
-9769845.55 5115859.74 181.20
-9768996.56 5115013.56 184.00
-9768998.02 5115848.04 181.50
-9769839.97 5114167.99 188.48
-9768158.56 5113333.22 188.90
-9768157.99 5115867.99 181.54
-9764784.50 5113342.66 181.41
-9764782.43 5114169.41 186.42
-9767302.24 5115014.31 181.19
-9765618.59 5113328.47 181.58
-9765614.25 5114168.21 181.86
-9764777.76 5115863.07 189.30
-9763939.81 5115018.87 189.08
-9763102.72 5115021.05 188.56
-9763943.71 5114178.26 188.32
-9763094.73 5113322.39 188.24
-9763100.97 5115846.37 188.72
-9761416.23 5113329.47 193.74
-9761418.21 5114172.09 191.94
-9761406.11 5115026.87 193.27
-9760569.15 5113327.37 195.46
-9762251.83 5113333.01 189.71
-9760564.82 5115861.76 197.32
-9759712.82 5115858.26 201.11
-9759695.65 5114169.01 190.14
-9758873.35 5113331.65 187.48
-9758874.27 5115858.40 190.49
-9758031.27 5113323.19 185.81
-9758038.97 5115857.78 187.78
-9756339.46 5113330.60 187.33
-9755504.92 5115010.33 185.39
-9756347.24 5115859.61 186.24
-9756346.61 5115014.45 187.33
-9755501.56 5114169.50 186.84
-9754660.51 5115856.77 183.66
-9752970.53 5113330.73 180.28
-9752125.86 5113327.06 179.68
-9752128.54 5115834.26 179.59
-9752985.13 5115015.95 178.10
-9750439.56 5115016.19 184.29
-9751281.07 5113325.12 176.66
-9751287.78 5115011.68 176.59
-9750444.74 5115858.55 191.78
-9749585.64 5113293.10 176.88
-9748751.90 5113297.18 180.31
-9748747.60 5115860.83 177.92
-9747908.13 5115853.87 177.96
-9747076.77 5114171.63 178.31
-9747069.87 5113329.96 178.23
-9745381.48 5114171.22 178.74
-9744531.79 5113324.94 178.08
-9744533.60 5115017.17 178.06
-9742849.74 5115858.16 178.92
-9742846.75 5115019.86 178.83
-9742009.16 5113328.57 178.18
-9742000.96 5114170.20 177.77
-9742000.36 5115003.81 177.35
-9740320.54 5113327.33 178.07
-9759718.78 5168146.58 176.38
-9758880.23 5167310.16 176.78
-9759701.77 5169023.56 176.92
-9759721.18 5166468.70 180.63
-9758870.36 5166471.02 176.76
-9758129.80 5166466.48 176.88
-9763938.63 5166468.27 181.25
-9764787.74 5167311.38 182.30
-9763936.98 5168998.15 183.12
-9763089.69 5166465.78 182.40
-9760563.23 5167315.05 182.92
-9760570.73 5169000.97 181.62
-9767308.40 5168145.45 187.04
-9765628.45 5166467.25 183.69
-9765621.79 5168158.71 184.39
-9764785.56 5166465.51 182.03
-9763121.48 5167310.75 181.79
-9766471.64 5166469.23 184.43
-9764781.88 5168998.73 184.07
-9771527.81 5168997.89 189.81
-9769836.89 5168999.48 190.28
-9769005.73 5169001.28 189.93
-9768158.25 5167309.25 190.55
-9767305.05 5168982.31 192.09
-9766471.81 5168138.97 184.63
-9773213.66 5166464.55 189.80
-9774063.55 5168152.72 197.92
-9774061.64 5168997.32 196.67
-9772389.78 5167336.34 185.37
-9772372.94 5168995.53 191.70
-9770686.08 5166464.55 190.75
-9770685.01 5168997.10 189.76
-9776574.99 5168143.83 202.17
-9774907.22 5168164.29 197.74
-9774902.45 5168996.02 198.50
-9773224.02 5167312.39 192.56
-9772373.97 5166470.90 190.32
-9772371.06 5168154.09 190.35
-9776588.33 5166465.38 199.79
-9775748.62 5167314.00 199.50
-9775748.96 5168152.55 199.25
-9781654.78 5168158.13 193.43
-9780807.77 5168999.20 194.32
-9779121.80 5166475.33 195.83
-9778272.38 5168997.22 199.46
-9777434.87 5168149.69 201.19
-9776591.84 5168996.91 201.87
-9784177.86 5167305.99 194.45
-9783342.49 5167309.25 194.15
-9783321.20 5166478.67 192.29
-9780825.42 5168153.69 191.06
-9779976.33 5169000.94 195.35
-9779112.36 5168996.07 197.61
-9786706.21 5168156.49 198.97
-9785865.43 5167309.88 198.06
-9785868.66 5168154.19 196.35
-9785025.40 5167297.40 195.31
-9785026.16 5168995.84 195.35
-9784174.24 5166464.77 194.97
-9784186.43 5169837.97 194.90
-9782493.14 5166469.82 191.74
-9782496.13 5168151.50 192.17
-9782494.11 5168994.56 191.34
-9787545.96 5166476.51 198.29
-9786723.18 5168989.71 199.67
-9785870.12 5169836.59 198.68
-9785031.78 5168169.35 195.49
-9784174.04 5168997.37 194.20
-9789248.34 5168989.52 195.94
-9788396.93 5168997.15 200.46
-9787554.19 5168988.68 199.28
-9793449.75 5167313.20 212.91
-9792614.03 5166466.70 209.70
-9791769.33 5167312.18 208.97
-9790076.20 5166466.03 201.32
-9790082.21 5169024.30 197.28
-9788409.33 5168168.32 200.57
-9795990.84 5168997.80 213.62
-9795147.36 5167315.31 213.63
-9795136.85 5168997.80 218.75
-9794311.17 5166476.03 213.70
-9792610.00 5167311.63 209.61
-9792593.07 5168175.15 209.19
-9792604.86 5169004.02 211.47
-9791768.02 5166461.73 209.30
-9791778.88 5168162.82 207.08
-9791777.73 5168993.64 204.46
-9790927.56 5167307.35 206.40
-9790928.41 5168999.23 202.03
-9797672.65 5167318.82 209.05
-9797680.19 5168152.65 209.63
-9796829.05 5167316.52 211.41
-9796837.53 5166464.18 210.62
-9795988.49 5166464.73 220.80
-9795143.73 5166456.90 217.25
-9794278.69 5168983.20 215.81
-9793458.93 5168161.41 212.58
-9793464.71 5169008.51 212.67
-9801051.48 5169019.65 223.63
-9799354.82 5167299.33 215.08
-9798518.07 5166474.27 210.09
-9797680.49 5166465.95 209.48
-9797686.37 5169845.73 213.91
-9796836.54 5168993.49 212.57
-9802744.32 5169004.45 229.10
-9800237.63 5167317.93 222.60
-9800216.60 5166468.15 222.97
-9799319.01 5168151.68 218.56
-9798522.12 5167309.66 211.29
-9798524.70 5168150.73 213.19
-9806114.99 5167318.00 241.93
-9805273.79 5166462.46 242.15
-9805268.96 5169022.65 238.12
-9804425.06 5167304.56 236.32
-9804388.42 5168980.73 233.88
-9801898.29 5166467.66 219.16
-9808641.98 5168152.07 247.33
-9807800.54 5167311.39 248.64
-9806944.37 5168160.84 249.50
-9807801.16 5168998.46 253.29
-9805264.57 5167306.50 242.57
-9804426.54 5166473.67 231.98
-9804414.18 5168153.22 229.40
-9810330.19 5168147.97 240.71
-9810330.90 5168990.86 249.27
-9808639.22 5166456.99 242.25
-9809485.03 5168132.68 243.51
-9809469.11 5168987.84 247.57
-9808618.29 5167317.41 243.71
-9808640.74 5168994.91 250.30
-9815402.13 5167309.44 240.42
-9813707.86 5166454.98 240.03
-9813705.28 5167311.04 237.50
-9812856.42 5168996.03 237.90
-9811169.19 5167308.92 248.03
-9817081.61 5167314.51 239.82
-9816220.58 5167316.06 239.48
-9817070.43 5168154.01 243.10
-9816251.08 5168151.84 250.29
-9815391.90 5166473.73 249.79
-9814547.54 5166461.55 243.40
-9814549.56 5168152.64 245.01
-9813703.91 5168145.18 241.88
-9818769.54 5168996.58 240.24
-9817092.63 5166470.28 249.66
-9821293.83 5167316.09 260.75
-9822144.41 5168153.71 245.03
-9819612.89 5166476.22 239.95
-9819588.68 5169836.32 249.84
-9824671.39 5167316.91 236.03
-9823824.56 5167314.24 242.53
-9823825.92 5169008.84 238.84
-9825510.59 5166471.50 223.92
-9822980.62 5169006.24 245.89
-9744542.70 5123446.27 182.46
-9744539.64 5125652.54 176.86
-9743168.11 5123452.40 176.86
-9747072.23 5125141.89 178.75
-9745381.56 5123449.42 181.58
-9745393.35 5125660.44 176.76
-9748764.83 5123451.25 178.23
-9747913.93 5124292.47 178.52
-9747916.87 5125980.05 177.93
-9746232.76 5123452.92 178.01
-9745380.48 5125141.76 176.87
-9751284.71 5125136.38 178.47
-9747908.47 5123453.65 178.32
-9754658.98 5123457.68 178.42
-9754654.97 5125137.16 179.00
-9752981.85 5124290.97 178.77
-9751284.94 5123452.64 180.84
-9750437.73 5125136.37 178.71
-9756342.93 5123448.92 178.96
-9753817.27 5124295.23 178.54
-9759719.31 5125135.36 184.17
-9758879.82 5124293.63 184.00
-9757180.17 5123453.92 182.80
-9755505.23 5123450.11 180.34
-9755505.77 5125134.97 181.06
-9761390.82 5125140.13 184.16
-9760559.41 5123455.93 185.50
-9759715.85 5123448.17 184.71
-9758032.20 5125138.37 183.26
-9758036.62 5123451.85 183.54
-9763942.56 5123446.95 188.23
-9763094.23 5125139.28 186.69
-9761410.46 5123458.69 188.32
-9761407.78 5125978.70 184.02
-9760562.63 5125134.65 184.09
-9765625.35 5123450.30 188.86
-9765623.23 5125980.29 188.11
-9764779.65 5123451.17 188.70
-9762248.79 5123458.25 188.04
-9762250.04 5125135.33 185.07
-9768998.47 5123449.82 188.21
-9767308.73 5125134.73 188.23
-9766470.32 5123444.88 188.74
-9765620.88 5125141.41 188.29
-9770685.65 5123443.80 187.04
-9770688.49 5125140.17 187.12
-9769843.96 5125977.20 188.35
-9768155.08 5125133.05 187.62
-9772371.85 5123440.01 187.84
-9774892.74 5123456.84 189.08
-9774058.99 5123451.34 189.42
-9774059.11 5125983.62 188.18
-9778282.98 5123452.86 186.91
-9780796.87 5125129.98 182.16
-9779117.20 5123454.84 180.79
-9777426.74 5125137.53 181.76
-9778275.77 5124298.59 181.72
-9783298.93 5123434.17 197.73
-9780804.66 5124293.08 182.77
-9779960.17 5123440.82 179.14
-9779941.11 5125120.64 179.89
-9779137.11 5125186.74 175.88
-9825517.67 5168158.62 240.94
-9824665.88 5168154.21 241.70
-9825504.99 5169001.29 239.88
-9824649.12 5170693.10 246.15
-9784189.43 5123453.55 191.02
-9784182.01 5125975.51 211.29
-9783336.55 5125985.87 208.79
-9824661.89 5169003.83 243.13
-9824661.39 5169826.74 246.03
-9822141.08 5168993.66 251.56
-9821295.44 5169847.32 258.64
-9788396.57 5125124.98 215.86
-9787555.39 5125143.27 216.98
-9787550.09 5125966.80 214.52
-9785014.27 5124271.46 197.17
-9785012.24 5125132.07 195.67
-9784184.42 5125153.24 195.74
-9823824.32 5168166.49 239.90
-9823827.96 5169836.03 245.68
-9823821.01 5170687.69 248.00
-9822983.90 5168165.04 240.32
-9821279.16 5168157.62 259.32
-9820451.41 5170685.97 261.08
-9819600.51 5168143.83 235.62
-9788386.53 5123454.61 213.24
-9786714.88 5123446.87 214.39
-9787562.04 5123444.25 212.87
-9821314.20 5168989.38 263.78
-9820451.98 5168160.70 240.90
-9820443.63 5169000.12 249.41
-9819598.96 5169011.78 242.17
-9818761.94 5168150.77 234.32
-9818771.72 5170691.19 252.08
-9817080.51 5169000.11 246.63
-9816238.37 5168999.23 255.15
-9789267.40 5125106.59 223.08
-9817929.46 5168154.22 237.65
-9817918.67 5168992.32 246.61
-9817914.24 5170704.40 263.16
-9817082.09 5169850.42 256.81
-9816244.84 5170683.26 257.09
-9815398.87 5168156.00 238.22
-9815381.89 5168991.62 249.40
-9814546.18 5168996.95 254.11
-9790943.55 5125138.90 219.84
-9814558.12 5169843.37 252.44
-9814557.09 5170684.56 256.71
-9811174.05 5168156.50 238.59
-9813695.03 5168991.86 250.67
-9812021.83 5168995.87 248.28
-9812857.95 5168152.89 236.64
-9812011.23 5168168.94 242.32
-9812855.44 5170681.89 248.53
-9810317.71 5169846.58 249.18
-9811166.79 5169003.51 248.61
-9811175.54 5169846.66 241.73
-9806957.21 5170684.57 239.88
-9806126.85 5169009.43 236.02
-9807805.78 5168153.28 250.66
-9806952.38 5169003.78 251.80
-9807793.25 5169864.98 241.24
-9806109.25 5170695.98 236.96
-9805258.77 5169830.94 228.27
-9803583.85 5168998.86 233.80
-9803586.52 5169845.21 224.83
-9806106.77 5168152.11 246.24
-9805267.66 5168150.03 237.83
-9804429.05 5169849.69 228.98
-9803587.34 5170690.02 226.54
-9801922.65 5168161.07 220.45
-9801893.37 5168992.43 222.43
-9802738.23 5170687.71 221.50
-9801052.67 5168143.51 226.72
-9803575.99 5168153.88 232.77
-9802733.77 5168152.51 227.10
-9802732.56 5169851.69 226.06
-9801061.38 5170683.75 222.71
-9798523.35 5169002.63 214.62
-9800203.55 5168158.34 227.64
-9800212.08 5168998.72 225.14
-9799382.85 5168999.89 221.12
-9799368.07 5169845.20 223.51
-9797675.59 5168999.94 212.47
-9796840.29 5168157.49 210.82
-9795984.44 5168157.07 214.92
-9798516.88 5169845.16 218.58
-9795158.71 5168161.64 217.79
-9794286.91 5168170.79 215.80
-9794303.98 5170675.36 214.64
-9793457.28 5169843.21 211.60
-9795136.89 5169843.40 218.16
-9792606.33 5169849.18 209.35
-9793460.26 5170685.98 211.43
-9791775.55 5170697.72 208.02
-9790931.22 5168158.50 205.79
-9790930.05 5169847.78 205.32
-9790923.22 5170682.02 208.18
-9790085.16 5169836.61 203.40
-9789239.77 5169844.73 200.99
-9788395.34 5170690.46 198.96
-9790084.13 5168152.39 203.94
-9789244.10 5168148.37 201.51
-9787556.35 5168153.69 199.87
-9786711.31 5169833.37 201.36
-9785867.80 5168999.55 197.64
-9788402.35 5169842.83 200.03
-9785857.15 5170679.42 198.86
-9785019.74 5170686.13 198.20
-9785044.92 5169838.40 195.16
-9784183.16 5168155.17 194.51
-9783334.82 5168150.73 193.09
-9784185.90 5170675.37 193.79
-9781652.17 5168993.88 194.60
-9783330.26 5169008.42 190.26
-9779969.18 5168163.02 195.63
-9779980.77 5170679.56 200.09
-9778279.29 5168151.86 199.20
-9779126.77 5169840.67 197.13
-9778280.58 5169838.70 199.39
-9779117.22 5168146.10 196.71
-9776588.61 5170678.69 201.54
-9777434.92 5168993.10 202.19
-9777428.54 5170688.02 202.57
-9776588.62 5169849.66 201.41
-9774063.05 5169842.90 195.72
-9775747.51 5168998.21 200.42
-9775745.71 5169840.23 199.12
-9774904.20 5169844.90 196.74
-9774902.89 5170687.59 194.42
-9773218.45 5168159.58 194.67
-9771524.81 5168168.56 188.02
-9773222.24 5169004.79 194.44
-9773232.26 5169840.89 194.18
-9770692.92 5168158.61 190.52
-9770684.37 5170685.52 187.42
-9769846.91 5168145.50 190.06
-9768981.52 5169831.32 189.46
-9768999.73 5170684.34 190.20
-9768153.03 5168150.86 192.69
-9768151.99 5170689.43 190.60
-9768989.23 5168157.58 191.38
-9769839.07 5169838.91 190.19
-9766469.00 5170686.47 190.95
-9768156.05 5169004.58 190.88
-9768140.63 5169837.70 190.81
-9766467.35 5168993.85 185.57
-9763926.84 5168151.83 181.59
-9764776.53 5169838.59 184.85
-9762246.51 5168997.34 181.18
-9765624.26 5168997.04 184.85
-9764783.47 5168152.79 184.20
-9763110.92 5168153.49 181.07
-9763086.70 5170695.98 184.41
-9761424.99 5169000.25 185.49
-9760575.74 5168158.56 182.39
-9763096.28 5168994.96 181.78
-9762248.02 5168154.18 181.66
-9762251.12 5169844.66 182.16
-9762239.15 5170684.85 183.62
-9761408.03 5168175.21 184.76
-9759141.18 5168157.15 176.82
-9759134.46 5169008.67 176.87
-9759715.52 5169847.09 178.77
-9759128.00 5169852.55 176.71
-9759763.88 5170681.94 176.84
-9759122.68 5170691.49 176.85
-9758119.01 5167837.72 176.76
-9759118.40 5171963.60 176.94
-9759118.83 5171544.04 176.88
-9761413.04 5169835.18 182.20
-9761403.52 5172370.28 183.49
-9763939.81 5169838.02 183.87
-9763093.25 5169843.36 183.39
-9762263.55 5172372.40 185.66
-9760568.07 5169839.36 181.77
-9766456.45 5172363.90 192.32
-9766448.27 5171539.31 193.54
-9765627.88 5171528.08 194.37
-9763099.54 5172377.48 185.72
-9761409.52 5171542.06 182.82
-9768999.87 5171519.05 188.64
-9767308.62 5169840.62 191.62
-9767312.86 5172374.63 190.07
-9765626.10 5169839.95 186.02
-9764778.63 5172368.47 187.55
-9770687.59 5169838.90 186.92
-9770686.13 5172366.33 190.44
-9768157.45 5172364.31 189.81
-9768151.31 5171530.11 189.63
-9767306.74 5171535.32 189.87
-9766464.61 5169844.26 193.14
-9772368.84 5171535.27 197.47
-9771524.16 5169847.64 197.58
-9770684.78 5171530.38 190.21
-9769829.86 5172384.03 189.90
-9769820.63 5171527.71 188.92
-9775750.91 5170687.59 198.53
-9774052.09 5172368.22 189.86
-9773213.42 5172380.34 194.98
-9772363.45 5169866.70 190.40
-9772382.36 5170677.66 195.31
-9777436.50 5169842.59 202.61
-9780808.13 5169841.70 195.08
-9779995.11 5172391.27 203.63
-9777443.51 5172373.97 202.21
-9776583.62 5171530.61 199.95
-9782496.33 5169836.27 192.52
-9782495.69 5171528.83 194.18
-9781650.08 5169851.74 194.77
-9781653.11 5172363.28 194.90
-9781651.95 5171534.07 194.51
-9779965.28 5169845.00 197.62
-9779119.02 5170684.58 201.85
-9785884.06 5171532.29 198.26
-9781653.98 5170686.62 194.85
-9787559.42 5169833.42 199.79
-9788393.44 5171532.70 198.29
-9786706.02 5170687.64 200.11
-9786712.01 5171530.30 199.27
-9785027.74 5172377.97 196.53
-9783343.18 5169844.81 194.20
-9783336.56 5172371.59 193.43
-9790091.63 5171532.58 204.31
-9789228.13 5172368.82 202.27
-9787553.44 5170685.73 201.01
-9787555.12 5171530.13 199.90
-9788400.18 5172365.55 203.89
-9786705.79 5172372.83 198.75
-9793457.92 5171533.15 212.13
-9792601.37 5170682.75 209.07
-9790920.28 5172374.53 208.02
-9790088.11 5172380.42 205.26
-9795146.48 5171531.45 217.36
-9795142.06 5172378.80 209.08
-9794293.40 5169844.01 215.10
-9794295.90 5171533.33 213.17
-9791785.69 5169845.24 205.24
-9791770.98 5171530.06 205.44
-9790086.92 5170689.40 205.52
-9797675.71 5171531.44 214.77
-9797673.80 5172370.48 218.35
-9794301.92 5172376.84 209.49
-9796821.93 5169836.09 212.14
-9796823.78 5172384.98 214.69
-9795993.79 5169841.65 211.18
-9796031.90 5171524.08 203.24
-9796000.26 5172370.64 209.46
-9795143.27 5170691.10 218.37
-9802717.49 5171522.35 222.11
-9801053.26 5171518.84 224.66
-9799353.23 5171526.71 215.65
-9799362.50 5172379.65 220.93
-9798522.99 5172373.57 216.60
-9804419.17 5170683.51 229.59
-9801908.58 5169837.53 224.93
-9802729.79 5172383.84 219.66
-9801897.07 5172368.98 217.98
-9801047.61 5169852.10 224.20
-9801052.36 5172370.46 227.32
-9800213.33 5169825.96 221.09
-9800220.19 5170689.59 221.86
-9800215.91 5172362.03 218.11
-9806954.03 5171525.73 233.35
-9806925.72 5172362.39 241.62
-9806104.93 5169846.07 240.48
-9804424.06 5171531.21 230.28
-9810336.30 5171522.47 241.98
-9809491.15 5169822.76 242.92
-9809488.58 5170681.93 242.53
-9808641.25 5169842.20 239.10
-9808648.91 5170695.06 245.59
-9808634.79 5172376.97 245.20
-9806938.49 5169842.17 239.09
-9806110.42 5172369.30 239.77
-9811175.59 5171526.54 253.33
-9807791.17 5171539.91 242.74
-9807786.96 5172363.15 245.91
-9814532.40 5171524.18 257.44
-9814556.75 5172378.84 259.32
-9813699.43 5171539.64 254.31
-9812027.43 5169851.79 241.75
-9812852.59 5171531.72 252.91
-9811203.62 5170709.21 238.64
-9810335.23 5170672.88 238.91
-9816218.06 5169853.61 255.28
-9817080.59 5172376.94 256.01
-9815404.16 5171494.84 258.93
-9813687.14 5169835.14 252.83
-9813688.56 5172381.70 252.32
-9812861.36 5169838.12 239.68
-9819599.83 5171524.05 258.71
-9819622.69 5170706.85 258.62
-9818771.44 5169841.08 253.95
-9818764.61 5171528.82 249.79
-9817927.49 5169863.41 254.34
-9815397.15 5169843.92 254.50
-9822142.01 5170680.67 251.11
-9820443.92 5171547.77 259.57
-9818768.90 5172361.66 252.81
-9822983.64 5170688.71 250.58
-9822123.44 5169840.36 255.76
-9822663.23 5172370.55 257.01
-9822035.98 5172452.57 247.40
-9820437.97 5169837.21 260.02
-9820458.11 5172358.24 261.85
-9819604.64 5172384.75 255.81
-9825511.48 5169844.43 245.18
-9825538.14 5171221.49 244.11
-9822984.82 5169832.22 249.55
-9822978.88 5171219.09 249.63
-9747910.99 5126828.38 178.70
-9747900.82 5127663.40 176.85
-9748752.22 5128519.71 176.68
-9751290.17 5125984.22 178.31
-9751279.37 5127673.52 178.63
-9750442.48 5127667.69 178.90
-9750412.59 5128510.53 178.82
-9748755.19 5125979.66 178.85
-9748783.87 5127705.78 177.52
-9752989.03 5126845.21 178.33
-9751286.50 5128499.03 179.28
-9749600.90 5126820.13 179.15
-9756354.02 5126834.89 181.05
-9755510.17 5125981.78 181.38
-9754639.92 5125966.00 179.79
-9753821.35 5125980.59 178.93
-9752973.66 5125985.49 179.95
-9753816.58 5127666.28 182.33
-9753798.73 5128511.73 182.44
-9752122.85 5126821.66 179.84
-9752129.62 5127663.06 178.96
-9758025.93 5125981.04 182.30
-9758030.64 5126824.78 180.64
-9757203.28 5125990.56 179.44
-9755503.07 5126818.37 182.48
-9755491.60 5127668.50 182.14
-9754660.89 5127670.40 182.89
-9758881.61 5125975.17 183.12
-9758030.04 5127660.75 180.71
-9758875.63 5128515.82 180.59
-9758035.17 5128510.65 181.36
-9757185.33 5126825.28 181.25
-9763938.40 5126827.49 184.46
-9762259.69 5128511.86 183.12
-9760570.31 5125979.10 183.66
-9760565.14 5128524.49 183.41
-9759723.59 5125980.06 183.60
-9759720.47 5126825.94 183.48
-9758876.10 5127668.14 183.15
-9765635.23 5126830.85 186.15
-9764786.51 5125981.51 187.51
-9764785.96 5127670.01 184.79
-9764783.02 5128511.74 184.33
-9763935.28 5125984.93 186.50
-9763943.96 5128507.24 184.00
-9763097.10 5125967.58 183.51
-9762255.62 5127665.18 183.57
-9763088.43 5128514.04 183.67
-9761412.66 5126821.85 183.68
-9768161.41 5127672.63 188.88
-9768152.25 5128511.66 186.81
-9766468.16 5125981.27 188.74
-9770690.58 5128503.84 186.97
-9768992.44 5125993.67 187.37
-9768999.86 5128507.23 186.45
-9768157.09 5126008.82 186.86
-9767310.23 5126819.98 187.56
-9773214.25 5126816.27 188.58
-9772372.16 5127659.27 187.90
-9771530.51 5125986.55 187.45
-9771524.54 5127665.45 188.04
-9770682.81 5125982.67 187.36
-9769853.26 5127670.37 186.93
-9769840.54 5128512.64 187.46
-9768994.12 5127663.29 187.53
-9774903.41 5126823.70 188.49
-9774909.07 5128511.92 187.21
-9774062.24 5126827.91 188.79
-9774055.36 5127661.11 187.40
-9772372.39 5126827.03 188.20
-9772372.08 5125977.28 187.61
-9773227.34 5128523.16 185.77
-9772373.47 5128516.99 187.30
-9771527.05 5126828.32 187.30
-9770683.05 5127667.43 187.23
-9777317.54 5128383.83 89.80
-9773224.07 5127669.55 187.53
-9780808.79 5127660.25 199.13
-9780802.89 5126824.38 187.47
-9779965.40 5125975.39 182.72
-9779958.51 5126824.05 184.75
-9777437.55 5126816.12 183.09
-9778278.91 5125981.58 180.80
-9777438.38 5125984.70 179.38
-9778356.90 5128611.77 141.26
-9776592.44 5125980.81 181.77
-9776575.19 5126840.72 181.03
-9776590.78 5127668.53 181.43
-9775747.86 5126825.02 186.76
-9775759.62 5127656.74 182.40
-9782499.03 5127678.46 208.99
-9781648.65 5127670.75 202.66
-9780805.55 5125979.27 183.77
-9779958.69 5127656.99 121.02
-9779119.41 5126826.16 183.37
-9779115.98 5127667.82 93.99
-9783343.37 5128507.85 209.27
-9782492.52 5128517.23 201.88
-9782487.69 5125978.80 205.35
-9781655.57 5125956.20 192.03
-9782483.02 5126824.73 207.02
-9780809.94 5128509.77 197.29
-9785855.02 5125996.18 198.80
-9785865.94 5126823.76 194.36
-9785033.65 5125978.57 197.47
-9785033.32 5126823.15 209.62
-9784173.90 5126818.02 212.95
-9784182.37 5127661.83 215.11
-9784184.75 5128513.65 207.95
-9783328.63 5126816.17 212.74
-9790095.02 5126822.73 220.93
-9790088.58 5127658.87 218.25
-9789246.16 5125987.39 223.11
-9786695.49 5127676.00 208.22
-9790907.22 5125977.19 219.65
-9790086.60 5128510.44 216.37
-9789235.87 5127668.65 219.97
-9789244.86 5128508.78 218.08
-9788394.82 5128509.70 216.31
-9787557.59 5126824.40 214.66
-9824675.35 5171220.77 248.06
-9825511.98 5170681.13 245.13
-9823803.03 5171219.94 241.63
-9822662.40 5173210.00 258.93
-9822130.12 5173215.62 258.29
-9822142.93 5171533.49 254.80
-9821304.64 5171513.03 256.64
-9821297.13 5170689.03 258.54
-9821306.77 5174063.61 254.17
-9820450.30 5174056.24 249.31
-9821305.31 5172349.27 262.36
-9820455.27 5173224.47 253.30
-9819613.59 5173226.41 261.20
-9818763.27 5173215.14 251.48
-9817927.35 5172372.77 255.81
-9817918.10 5174056.18 253.73
-9816226.21 5171535.92 257.89
-9816232.55 5172369.69 252.50
-9817078.63 5173207.81 256.88
-9817102.49 5174059.64 252.07
-9817922.64 5171524.87 256.17
-9817920.59 5173217.21 252.20
-9817080.51 5171529.99 256.36
-9817066.51 5170684.89 262.44
-9816264.43 5173228.26 254.30
-9816242.80 5174042.61 258.81
-9815391.65 5170678.61 256.81
-9813710.21 5173213.28 256.61
-9815387.63 5172374.68 260.93
-9813709.33 5170694.46 252.34
-9811994.32 5172370.32 252.31
-9812842.44 5173213.00 255.45
-9812018.74 5174066.59 260.35
-9811178.12 5172396.39 252.63
-9812012.72 5171535.42 249.51
-9812017.81 5170683.16 245.81
-9812873.34 5172381.58 255.47
-9812016.17 5173214.71 256.02
-9811170.90 5173223.37 254.75
-9809486.60 5171527.03 246.90
-9808642.61 5171532.78 245.00
-9807791.81 5173192.94 251.20
-9810321.61 5172368.57 245.63
-9810322.50 5173192.39 250.15
-9809473.97 5172378.56 252.63
-9809473.83 5174056.39 251.84
-9808628.17 5174057.18 253.94
-9807809.86 5170684.48 240.35
-9805263.98 5172363.16 239.81
-9806113.99 5171536.27 232.29
-9805270.98 5170689.54 234.11
-9805264.55 5174061.83 240.96
-9804422.41 5172368.23 231.34
-9803581.10 5171524.58 223.60
-9802736.77 5173209.38 224.07
-9805274.82 5171527.00 237.91
-9803576.43 5172389.23 227.69
-9803572.51 5173205.16 232.36
-9801882.47 5171534.96 218.06
-9802734.70 5174059.17 224.63
-9801046.67 5174052.45 228.56
-9801894.02 5170703.75 222.19
-9801896.40 5174071.46 219.60
-9800196.22 5174061.05 225.03
-9799369.86 5170689.09 222.00
-9798523.54 5170680.67 213.49
-9800200.43 5171536.22 219.24
-9800210.09 5173211.51 225.41
-9799364.20 5173220.05 220.98
-9798520.96 5171531.76 210.89
-9797675.88 5170683.17 214.49
-9798521.34 5173207.46 216.41
-9797675.60 5174065.83 216.91
-9796832.62 5171528.02 213.93
-9796830.84 5170688.59 211.73
-9795995.24 5170687.01 215.03
-9797674.86 5173210.07 216.59
-9796829.03 5173216.14 216.25
-9796836.55 5174040.81 214.27
-9795984.89 5174061.17 214.51
-9795139.39 5174059.80 216.76
-9792611.14 5171534.16 207.35
-9792605.92 5172369.67 207.40
-9793440.19 5174047.92 208.14
-9792613.46 5173216.46 206.72
-9794300.32 5174037.46 215.82
-9793454.83 5172380.26 208.87
-9793458.44 5173221.78 206.14
-9792600.31 5174067.92 208.15
-9791779.50 5172372.30 204.84
-9790919.03 5171546.04 207.16
-9790928.66 5174059.77 204.97
-9790085.37 5174059.95 205.15
-9789245.12 5170688.97 204.58
-9789226.87 5171531.34 202.20
-9789247.45 5174067.77 204.70
-9788384.90 5174058.68 201.49
-9790088.29 5173211.80 205.88
-9789224.08 5173210.84 204.42
-9787556.36 5174059.48 199.33
-9786707.45 5173219.95 199.82
-9785030.77 5171525.97 195.48
-9785015.56 5173203.02 193.86
-9787553.69 5172375.47 199.57
-9785863.07 5172372.08 197.35
-9785020.30 5174057.89 195.19
-9783332.78 5170683.89 192.54
-9784180.22 5172379.37 194.12
-9783341.28 5171538.06 211.41
-9784184.09 5174059.74 195.80
