-9757822.20 5154026.74 180.20
-9757823.67 5155291.69 180.25
-9756135.07 5152760.35 179.23
-9756555.80 5154027.05 181.18
-9756136.06 5154025.64 179.34
-9756978.57 5152760.05 179.92
-9756154.14 5154884.31 177.71
-9755502.83 5155075.11 177.71
-9761196.85 5153604.02 180.27
-9761195.86 5153184.97 180.41
-9761196.63 5154026.80 180.55
-9760359.25 5153611.82 180.35
-9760774.01 5154448.25 181.83
-9760774.56 5152763.66 180.82
-9760773.33 5155292.46 181.76
-9759932.29 5152761.53 181.30
-9759509.69 5152761.44 181.58
-9759510.02 5155292.08 182.58
-9759931.61 5154870.07 182.63
-9758241.96 5153602.10 183.63
-9758665.89 5152767.15 182.57
-9758243.66 5154448.50 183.15
-9758666.39 5155291.38 183.60
-9758242.89 5155292.25 180.71
-9757823.25 5154449.93 180.05
-9756978.52 5153182.77 179.91
-9763305.76 5153185.74 179.89
-9762884.31 5152760.01 181.02
-9762463.11 5154448.37 182.07
-9762886.15 5155291.53 181.01
-9762462.52 5155291.96 180.80
-9762041.47 5153182.97 180.24
-9761196.02 5155292.25 181.20
-9762036.10 5154870.86 180.83
-9760353.40 5152761.44 181.54
-9760775.87 5154869.52 181.70
-9759087.93 5153182.39 182.75
-9759932.16 5154448.23 182.55
-9759087.91 5154867.61 183.11
-9765412.68 5154447.99 181.94
-9764993.22 5153182.74 174.98
-9764992.40 5152764.68 181.72
-9764992.26 5154869.76 181.29
-9764571.84 5154871.84 181.01
-9764149.01 5153604.67 180.80
-9763727.79 5153604.39 180.50
-9763723.01 5154446.98 180.78
-9763724.68 5153183.41 180.11
-9763727.19 5155292.37 181.02
-9763305.96 5155290.92 180.93
-9763727.93 5154866.73 180.76
-9762459.74 5152760.15 180.22
-9762038.19 5153611.45 180.48
-9761618.17 5153184.07 179.99
-9761195.02 5154448.56 180.87
-9762043.42 5152759.95 179.86
-9760776.39 5153605.71 181.50
-9767521.98 5154023.96 184.44
-9766678.66 5153191.20 183.93
-9766255.85 5153183.11 183.55
-9767100.63 5152761.46 184.65
-9766254.81 5152762.00 183.54
-9765835.67 5153605.61 182.47
-9765410.85 5152762.54 182.97
-9765833.35 5155290.45 183.15
-9765413.50 5155291.78 182.16
-9764570.84 5153604.95 181.11
-9764993.12 5155291.63 181.83
-9764146.36 5152762.70 181.01
-9763727.44 5152761.24 180.72
-9763305.87 5152761.09 179.98
-9763301.87 5154872.42 180.55
-9762884.54 5154870.10 180.45
-9769632.84 5153605.47 187.06
-9768366.79 5153182.78 186.61
-9769210.98 5154449.69 187.22
-9769209.79 5154026.93 187.21
-9768788.11 5155290.48 187.99
-9768366.53 5155289.87 186.47
-9769208.31 5154870.15 187.43
-9767942.64 5153602.95 186.30
-9767945.33 5154448.97 186.27
-9767944.55 5153181.73 186.50
-9767943.76 5152761.34 186.51
-9767938.40 5155282.33 187.99
-9766679.71 5152761.30 184.08
-9766680.54 5155292.10 184.02
-9766257.52 5155293.06 183.29
-9765838.55 5154449.65 183.32
-9765836.54 5153183.18 182.93
-9765413.59 5153183.16 182.60
-9765832.95 5152761.22 183.16
-9764992.83 5153608.84 181.45
-9771741.51 5154027.81 189.14
-9771318.06 5153182.92 189.24
-9770469.19 5152760.93 188.67
-9770050.80 5153183.50 188.16
-9769632.17 5153182.32 187.29
-9770053.67 5155290.67 188.41
-9769630.69 5154868.98 187.51
-9768365.09 5154449.51 187.59
-9769209.26 5155290.95 188.21
-9767521.32 5153604.35 186.22
-9767525.49 5155291.17 185.96
-9767523.65 5154868.23 190.19
-9767102.18 5153605.17 184.91
-9766679.50 5153602.45 183.77
-9767101.76 5154868.76 185.01
-9772583.98 5154026.33 193.31
-9773005.81 5155291.40 193.72
-9771736.68 5153604.49 189.21
-9771739.24 5154446.15 188.94
-9771737.09 5152761.74 189.34
-9771738.84 5154871.05 189.03
-9772163.80 5154869.71 189.43
-9770476.71 5155292.87 187.96
-9770896.93 5152760.86 189.09
-9771319.06 5152759.06 189.19
-9770476.49 5154870.24 187.90
-9769631.42 5152760.16 187.63
-9769632.11 5155292.15 187.54
-9770053.27 5154869.09 187.99
-9768788.72 5153604.11 186.70
-9769211.71 5153183.42 187.11
-9769210.83 5152759.50 187.11
-9775532.67 5154446.20 197.21
-9774681.87 5154447.37 196.21
-9775113.17 5154872.19 196.93
-9773850.53 5153607.13 196.04
-9773850.13 5153186.10 195.54
-9773848.90 5152761.83 194.58
-9774268.48 5155287.84 197.06
-9773420.60 5155284.05 193.71
-9772583.99 5153182.17 195.09
-9772586.90 5154455.04 190.60
-9773003.35 5152761.14 195.48
-9771736.93 5153184.85 189.37
-9771318.25 5154446.28 189.08
-9772161.58 5152762.18 190.95
-9771332.42 5154023.92 189.34
-9772162.52 5155287.94 188.49
-9771737.43 5155296.06 188.44
-9770897.54 5154026.75 188.79
-9777223.13 5154447.62 192.36
-9776801.95 5155291.85 196.38
-9776800.86 5154868.52 193.93
-9775958.52 5152763.40 194.25
-9776379.83 5153184.63 195.07
-9775956.50 5154448.37 197.43
-9776379.00 5154026.65 195.15
-9775956.07 5154870.19 198.78
-9774692.28 5154869.06 197.11
-9774270.22 5153605.62 195.90
-9774271.91 5153189.86 195.22
-9774271.53 5154447.04 196.11
-9773426.44 5154448.88 194.57
-9773427.21 5152761.63 195.49
-9773848.49 5154024.77 194.65
-9774270.54 5154025.48 195.39
-9774270.47 5154868.94 196.85
-9773006.65 5153182.74 195.07
-9778910.93 5154449.09 191.88
-9778487.86 5154449.54 191.43
-9778487.18 5153182.26 191.57
-9778909.44 5155292.03 192.62
-9778489.65 5155290.86 192.95
-9779330.71 5154870.06 191.91
-9778487.61 5154870.74 192.32
-9777640.82 5152764.83 191.09
-9778066.18 5154026.67 191.40
-9778064.27 5155294.38 192.85
-9777222.28 5152761.01 191.73
-9776379.12 5152760.60 193.40
-9775956.13 5153605.93 196.36
-9776381.26 5155293.50 197.40
-9774692.92 5153605.26 195.07
-9775115.73 5153183.50 196.23
-9774692.65 5154027.42 195.22
-9775111.85 5154026.63 196.02
-9781017.24 5153605.35 193.62
-9780601.87 5153606.45 192.00
-9781018.02 5153182.28 194.08
-9781018.36 5154025.97 193.44
-9781018.63 5154871.06 193.91
-9781442.84 5154869.10 194.03
-9779760.26 5152760.72 188.22
-9779754.57 5155292.23 191.03
-9779331.62 5152762.71 191.42
-9778488.06 5152761.40 191.60
-9778488.29 5153605.96 191.36
-9779331.87 5155291.99 191.88
-9778066.19 5153604.19 191.31
-9777645.21 5154448.24 191.88
-9777223.01 5153605.08 192.14
-9776802.38 5153602.57 193.26
-9776802.16 5154447.80 193.78
-9777223.09 5153183.47 192.02
-9781859.74 5153604.60 196.26
-9781863.36 5153182.75 197.07
-9781440.81 5152760.17 195.58
-9780596.88 5152761.56 203.07
-9780597.21 5153188.17 191.92
-9781020.06 5155291.20 194.01
-9780600.18 5154870.41 191.77
-9780175.05 5152760.53 190.77
-9780175.18 5153611.57 190.85
-9779756.56 5153181.35 189.04
-9780175.17 5154025.57 190.92
-9780171.40 5155286.06 188.37
-9779753.71 5154871.43 191.14
-9778910.95 5154025.99 191.53
-9778910.60 5154870.12 191.87
-9781860.33 5154027.45 195.16
-9781440.02 5153189.21 195.28
-9781863.86 5145593.92 192.32
-9781862.28 5145168.88 197.39
-9781864.00 5148115.10 198.10
-9781440.99 5145170.34 201.39
-9780598.00 5146435.66 192.60
-9781017.49 5145170.88 192.45
-9781440.57 5147278.68 195.13
-9781439.85 5146855.31 193.48
-9781439.54 5148122.80 193.31
-9781440.28 5147699.95 192.77
-9780596.83 5147701.81 191.99
-9780175.03 5145586.53 193.18
-9779752.09 5145589.82 192.54
-9779753.03 5146856.76 191.52
-9779753.69 5147700.43 194.03
-9779332.17 5147277.47 192.43
-9781861.13 5146015.66 192.33
-9781441.21 5146435.93 192.55
-9781017.08 5146435.46 192.44
-9781425.68 5145592.23 193.19
-9781020.96 5146013.72 192.91
-9781017.21 5147279.15 193.01
-9780597.17 5147277.44 193.31
-9781020.59 5147700.46 193.45
-9780172.19 5147283.82 192.05
-9779753.37 5147269.65 192.26
-9780175.44 5147701.22 192.88
-9778910.66 5146842.67 191.17
-9778912.09 5148121.96 192.74
-9778492.72 5146436.39 189.86
-9778487.43 5145591.11 191.55
-9778066.90 5148122.95 191.06
-9778489.06 5148122.34 191.29
-9778483.76 5147705.15 191.23
-9776800.28 5145590.54 190.89
-9779333.26 5146015.73 192.34
-9778909.74 5147279.38 191.86
-9779331.50 5146857.14 197.03
-9778488.71 5145172.35 191.73
-9778068.07 5146437.23 190.55
-9778487.35 5147278.80 191.73
-9777642.84 5147699.88 190.59
-9777223.26 5145171.57 187.02
-9776800.35 5145169.19 188.20
-9777223.35 5146014.44 190.55
-9776802.29 5146011.78 191.43
-9777222.23 5147278.88 190.18
-9777223.26 5148121.19 189.77
-9776378.80 5145170.48 190.66
-9775957.59 5145170.08 191.42
-9775958.03 5146428.88 191.53
-9775953.62 5146014.24 189.58
-9775535.52 5146856.89 191.76
-9775535.51 5147697.76 191.40
-9775114.17 5145168.98 190.94
-9774692.93 5145172.96 191.24
-9774690.52 5145590.92 191.59
-9775114.27 5147701.24 191.19
-9774271.38 5146855.87 192.82
-9774271.21 5147698.53 191.47
-9775534.43 5145169.69 191.31
-9776381.50 5146433.21 190.43
-9775536.14 5146014.17 190.95
-9776379.49 5147280.53 190.98
-9776380.62 5145591.67 191.72
-9776379.67 5146855.86 191.60
-9774688.52 5147279.15 191.35
-9774692.62 5146857.90 191.64
-9774270.88 5145167.06 192.00
-9773427.10 5145168.64 191.84
-9773849.30 5147278.94 191.32
-9774270.51 5145590.13 191.60
-9773427.38 5145592.27 191.27
-9774265.45 5148118.92 190.60
-9773426.71 5148121.16 193.55
-9773849.12 5147699.80 191.72
-9773427.27 5147701.99 192.46
-9773004.76 5145171.08 191.60
-9773007.78 5146013.80 190.87
-9772583.06 5146018.04 191.85
-9773007.53 5146855.73 191.50
-9772582.42 5145595.62 191.99
-9772582.23 5148120.88 197.50
-9773005.77 5147699.62 194.06
-9771737.93 5147698.34 189.93
-9771317.96 5147277.27 189.13
-9773430.71 5146436.95 191.26
-9772587.53 5147278.78 194.04
-9772160.75 5145169.29 188.47
-9772166.39 5146015.36 188.84
-9771743.18 5145592.61 188.40
-9770894.73 5145171.75 188.55
-9770473.29 5146434.22 188.63
-9771319.53 5145592.33 188.65
-9770469.58 5145593.46 188.94
-9770474.95 5147279.46 188.82
-9770899.83 5146853.48 188.26
-9770051.27 5146434.78 188.70
-9770053.15 5146014.06 189.20
-9769630.78 5147278.49 188.07
-9770068.89 5145592.48 189.70
-9769210.29 5147699.21 186.54
-9770895.13 5146436.53 189.04
-9770894.89 5146015.13 188.68
-9769629.86 5146013.82 188.52
-9770053.63 5147699.28 188.35
-9769631.50 5147699.45 187.83
-9769209.95 5145169.03 185.93
-9768366.54 5145170.43 185.20
-9769210.99 5148122.01 186.66
-9768787.32 5147702.70 185.75
-9768366.62 5147703.17 186.27
-9767529.59 5147277.48 185.90
-9767521.39 5145596.87 192.21
-9767943.60 5147700.19 186.47
-9767521.54 5147701.78 192.47
-9767100.99 5146435.43 185.01
-9766679.25 5146012.59 184.47
-9766260.95 5146011.85 184.14
-9766678.57 5145591.98 184.20
-9767496.13 5146855.42 186.82
-9767944.09 5145593.88 185.04
-9766678.84 5145170.19 189.64
-9767099.74 5146013.29 185.02
-9766679.27 5146856.21 184.75
-9767087.73 5145592.73 183.27
-9767100.89 5148120.77 189.46
-9766680.53 5148121.67 184.59
-9766677.81 5147701.49 184.65
-9766257.37 5145170.85 184.67
-9765838.28 5146014.55 184.29
-9765836.25 5147277.78 184.25
-9765413.94 5145591.64 183.72
-9766257.95 5145589.98 184.04
-9765414.20 5147697.31 184.00
-9764571.06 5146014.97 183.69
-9764569.35 5147279.53 183.25
-9764569.43 5146857.59 182.78
-9764993.42 5145593.83 183.62
-9764993.32 5147699.21 183.84
-9764148.88 5146435.47 182.80
-9763727.55 5147279.17 182.93
-9764148.18 5145591.81 182.65
-9766257.76 5147278.82 184.06
-9765414.59 5146012.76 183.94
-9765411.49 5147279.99 183.82
-9765833.37 5146853.65 184.05
-9764991.81 5146434.15 183.73
-9764571.06 5145592.35 183.69
-9764569.55 5148122.07 183.18
-9763303.64 5145170.01 182.93
-9763305.75 5146013.87 182.85
-9763306.88 5147278.51 183.77
-9763723.45 5145592.42 182.92
-9764150.92 5148122.03 184.56
-9763306.15 5146857.31 182.21
-9762459.63 5145171.01 183.66
-9762040.03 5145171.55 182.20
-9761197.72 5146434.49 181.80
-9761616.98 5146013.83 181.90
-9761620.51 5147281.20 181.30
-9763727.89 5146018.69 183.01
-9763304.18 5147700.12 182.49
-9762459.89 5147699.02 182.17
-9761623.45 5148122.68 182.01
-9762037.27 5146858.61 181.31
-9761617.72 5147700.56 181.62
-9760774.37 5146014.36 181.95
-9760354.97 5146860.34 182.10
-9760354.31 5147699.58 181.41
-9759931.12 5145172.20 181.42
-9759509.08 5145170.52 181.55
-9759930.72 5146855.10 181.53
-9758666.45 5146440.89 180.72
-9759084.39 5146857.10 180.56
-9761195.88 5146016.92 182.13
-9759933.12 5147701.16 180.73
-9759085.84 5145170.37 181.13
-9758666.28 5145168.37 180.64
-9758244.42 5146435.40 180.34
-9758667.40 5145593.74 180.69
-9758244.55 5147700.16 179.86
-9757839.33 5147277.89 180.14
-9756974.62 5145174.05 182.22
-9756562.16 5146018.30 180.41
-9756137.33 5147281.17 180.51
-9756558.11 5146856.99 180.83
-9758244.32 5147278.00 179.87
-9757823.05 5147700.61 178.67
-9756135.67 5145170.25 180.91
-9756561.33 5148122.13 180.78
-9756979.87 5146856.75 180.35
-9756135.75 5147703.07 181.21
-9755716.71 5148116.16 180.45
-9754450.46 5146436.15 178.55
-9754027.11 5147277.81 176.88
-9754869.92 5147702.62 181.52
-9753606.01 5146437.75 176.86
-9754870.38 5148122.82 179.62
-9752339.95 5145170.88 188.36
-9751497.09 5144747.98 178.68
-9753605.53 5146012.09 176.82
-9753605.71 5145590.66 180.26
-9752765.49 5146014.70 176.99
-9756135.21 5143905.32 185.77
-9755292.58 5143483.45 180.84
-9755290.10 5145171.52 180.85
-9755717.55 5145591.22 180.50
-9754870.59 5144327.55 183.64
-9754449.60 5143485.00 181.29
-9754871.25 5144750.07 180.52
-9754448.03 5146015.05 180.39
-9752760.74 5145171.14 181.63
-9758243.13 5144332.68 184.18
-9757822.86 5145169.22 176.07
-9757822.28 5144746.96 179.96
-9756981.16 5146434.40 178.61
-9755713.09 5146012.93 180.82
-9753605.34 5145170.01 180.85
-9760353.31 5144747.95 181.05
-9760353.26 5145588.75 181.82
-9759508.61 5143914.05 181.55
-9759510.28 5146434.84 181.00
-9759510.01 5146013.28 181.34
-9759079.31 5143490.71 181.45
-9759087.36 5146013.96 181.15
-9757399.54 5143905.32 180.65
-9757823.09 5143480.56 180.82
-9757401.39 5143483.86 180.77
-9757820.83 5146431.84 180.11
-9756978.94 5144327.11 179.83
-9756135.52 5145591.20 179.63
-9762037.27 5146009.78 182.15
-9759928.85 5146435.51 181.68
-9758243.19 5143904.88 181.13
-9759087.08 5146434.91 180.79
-9758666.01 5144748.09 181.34
-9758245.14 5145591.15 180.53
-9764151.05 5144327.07 182.95
-9763726.94 5144748.73 183.37
-9763727.46 5143483.86 183.24
-9764148.80 5146014.26 182.90
-9762462.40 5146438.02 181.77
-9762880.71 5146008.82 182.73
-9762883.54 5145592.62 182.83
-9761203.68 5144328.90 181.20
-9761196.42 5144752.41 182.21
-9761196.08 5145590.51 182.82
-9766257.67 5144326.35 185.04
-9765835.98 5144748.51 186.07
-9764991.17 5144326.08 183.81
-9764571.59 5144326.15 183.34
-9764571.93 5143482.68 182.80
-9764571.50 5146436.02 183.31
-9764992.24 5146011.03 183.87
-9763304.81 5143905.28 182.94
-9763303.19 5144748.42 182.56
-9763728.24 5146436.07 182.86
-9762460.98 5143906.65 182.37
-9762881.92 5145172.70 186.18
-9762883.30 5146434.22 182.21
-9762462.84 5146012.35 182.13
-9762887.08 5144748.73 182.72
-9762040.14 5143904.27 182.11
-9768365.73 5145591.00 185.09
-9767944.05 5144323.18 185.01
-9767939.42 5143905.91 185.48
-9767522.86 5143904.85 185.15
-9767944.71 5146014.82 185.35
-9767112.27 5144322.60 185.41
-9766679.83 5143904.27 184.49
-9766681.05 5143482.57 184.34
-9767099.37 5145171.01 188.31
-9767101.39 5144748.29 194.55
-9766258.01 5146435.69 184.28
-9765413.96 5145169.28 183.99
-9765844.76 5146436.99 184.33
-9765412.17 5146433.20 183.90
-9764993.84 5143904.07 183.15
-9764570.09 5143904.67 183.09
-9764147.36 5145168.62 183.66
-9763722.31 5145170.94 182.79
-9764150.53 5143905.32 183.15
-9770469.98 5144326.33 188.50
-9769634.73 5146430.61 188.24
-9769630.91 5145590.23 188.28
-9768785.87 5145169.84 185.81
-9768365.92 5143904.22 185.80
-9768366.63 5143485.72 185.20
-9768368.01 5146437.05 185.93
-9768791.25 5146015.85 185.16
-9768367.02 5146014.00 185.44
-9769211.22 5145588.37 186.10
-9767523.27 5144326.34 185.03
-9767524.56 5145169.27 185.21
-9767523.68 5143484.86 184.56
-9767942.41 5146436.66 185.76
-9767523.63 5146435.14 187.31
-9767521.79 5146013.73 185.42
-9767101.64 5143902.96 185.02
-9766681.27 5146429.34 184.78
-9765836.82 5144328.26 185.51
-9766257.65 5143903.83 184.19
-9765835.63 5145170.03 184.54
-9766268.65 5144747.38 185.11
-9765835.91 5145593.09 183.74
-9772583.88 5144333.83 188.96
-9772583.33 5145172.74 190.04
-9772583.44 5144749.31 189.05
-9771740.49 5145169.64 188.56
-9771317.18 5143483.92 188.12
-9770897.18 5144748.53 188.49
-9770895.39 5145593.07 188.47
-9768369.95 5144332.47 185.21
-9769208.79 5146436.58 185.64
-9768788.91 5146435.32 185.83
-9769209.31 5146014.45 185.82
-9768788.40 5145591.35 185.71
-9767942.30 5145170.90 184.99
-9773427.86 5144328.71 191.02
-9774273.79 5143905.31 192.09
-9773428.42 5143906.12 189.71
-9773848.77 5145168.82 191.68
-9773426.43 5144748.62 191.52
-9773427.95 5146013.47 191.07
-9773005.53 5144318.79 189.48
-9773006.60 5146433.90 191.23
-9772582.79 5146434.81 192.25
-9773005.65 5145593.16 191.69
-9772158.72 5143491.12 186.87
-9771742.14 5144326.37 188.31
-9772160.68 5146434.68 190.07
-9771741.08 5146434.21 188.91
-9771740.17 5146009.11 188.74
-9770900.74 5144330.58 188.49
-9771318.65 5143905.01 188.11
-9770897.03 5143904.71 187.92
-9770476.90 5143904.24 188.26
-9771316.49 5145172.38 188.22
-9770474.85 5145167.34 188.49
-9771319.34 5146432.80 188.74
-9771316.05 5146017.70 188.52
-9770474.33 5146012.37 189.10
-9770051.95 5145168.46 188.74
-9769629.57 5145166.66 187.85
-9776378.64 5144326.63 191.36
-9775536.39 5143907.61 191.82
-9775958.65 5144747.08 191.38
-9775534.92 5144745.11 191.66
-9775536.91 5145592.40 190.99
-9774692.39 5143483.71 189.32
-9774691.31 5143904.48 191.15
-9775116.44 5146433.94 191.20
-9774693.04 5146425.63 192.00
-9774669.96 5146013.06 191.41
-9774270.16 5143484.83 189.42
-9774269.55 5146427.91 191.56
-9773848.99 5146436.04 191.64
-9773852.48 5146016.57 190.92
-9772164.50 5143902.93 188.43
-9771740.55 5144747.86 188.64
-9772164.55 5145591.42 188.67
-9778485.79 5144335.87 191.45
-9778066.25 5143905.60 190.84
-9777643.09 5143905.27 190.92
-9778067.19 5146013.95 189.57
-9777643.99 5145589.96 187.58
-9777217.32 5146439.63 190.01
-9776801.23 5146434.82 190.74
-9776381.86 5143482.57 191.31
-9775958.46 5143483.33 191.31
-9775958.32 5143905.40 191.06
-9775535.68 5146435.65 191.47
-9774692.19 5144329.14 192.18
-9775116.17 5146012.61 190.83
-9775113.39 5145593.43 191.11
-9774272.37 5146014.93 191.50
-9773849.11 5145591.80 191.51
-9780595.10 5145588.96 192.74
-9780174.63 5144327.84 193.15
-9779752.90 5143903.31 192.64
-9779751.41 5146434.48 192.53
-9780174.12 5146013.59 192.88
-9779753.86 5146012.79 192.45
-9779324.36 5144326.46 193.85
-9778908.73 5143904.89 191.52
-9778909.61 5145170.69 192.66
-9778908.68 5145589.47 192.34
-9779330.93 5146435.04 191.35
-9778910.05 5146012.91 191.90
-9778910.13 5144748.00 193.00
-9779333.60 5144748.59 192.77
-9778066.30 5143483.60 191.02
-9778487.90 5143904.97 191.06
-9777644.57 5146438.56 188.44
-9777643.45 5146019.03 187.18
-9777223.24 5143905.24 186.79
-9776799.94 5144747.52 191.10
-9777223.80 5145592.35 190.48
-9776380.88 5143903.99 191.38
-9776380.26 5146012.72 191.20
-9775956.87 5145589.44 191.32
-9781860.30 5143905.40 192.92
-9781860.14 5144747.03 191.91
-9780598.15 5143481.71 192.07
-9780602.60 5144329.27 193.24
-9781438.63 5143903.77 192.45
-9780596.76 5143904.83 193.34
-9781016.66 5145594.79 192.63
-9780596.19 5146009.64 192.80
-9781440.82 5144751.07 193.04
-9780175.94 5146436.32 192.22
-9779333.29 5145170.69 192.57
-9779332.50 5145590.82 192.79
-9778912.24 5146433.42 191.00
-9778066.28 5144326.45 191.07
-9778065.52 5145591.20 190.79
-9777647.28 5145172.82 187.09
-9778488.92 5146013.30 189.74
-9778489.91 5144749.37 191.63
-9781862.51 5143483.07 192.00
-9781862.71 5146435.43 192.96
-9781438.30 5144324.88 192.60
-9781019.12 5144327.81 193.16
-9781440.97 5146014.48 193.38
-9780171.39 5145170.50 193.08
-9779752.33 5144747.34 192.85
-9781863.68 5144327.66 192.77
-9781866.28 5142219.25 190.70
-9781437.72 5142639.23 191.63
-9781863.89 5143060.02 191.88
-9781439.97 5142218.24 190.99
-9781019.00 5142217.18 191.13
-9780597.14 5142652.67 192.27
-9780599.12 5145164.48 193.38
-9780594.64 5144750.61 192.75
-9779750.80 5143063.28 192.24
-9780174.84 5143904.40 193.05
-9779750.61 5145169.72 192.60
-9779331.81 5143063.55 191.73
-9779331.17 5143905.13 192.29
-9780595.94 5142216.38 191.88
-9781019.09 5142640.28 197.39
-9781016.48 5143889.38 192.32
-9781017.67 5144748.41 194.36
-9780174.85 5143064.28 191.98
-9779752.60 5144326.76 192.75
-9780176.14 5142637.28 192.06
-9780167.44 5144749.83 193.07
-9778909.92 5142217.25 191.70
-9779331.80 5142639.83 191.25
-9777644.29 5142219.47 190.50
-9777644.10 5143483.31 190.95
-9778064.93 5143058.91 191.25
-9778489.19 5142639.29 191.58
-9778066.11 5142640.72 191.79
-9777641.48 5144745.84 190.95
-9777222.31 5144327.11 189.43
-9776802.77 5144326.42 191.23
-9778910.18 5144326.60 192.82
-9778064.23 5142214.65 191.95
-9778487.67 5143483.47 191.18
-9777644.86 5144325.83 190.77
-9778066.32 5145168.11 191.15
-9778066.50 5144748.78 191.34
-9777222.47 5143064.84 189.84
-9776801.02 5143905.88 190.76
-9777225.48 5144743.60 187.09
-9776380.46 5142217.88 190.01
-9775535.80 5143061.84 191.37
-9775543.27 5144322.83 191.85
-9775959.32 5142638.81 191.19
-9775536.65 5142640.48 191.73
-9776380.89 5144750.74 191.70
-9774692.50 5143064.44 189.39
-9775116.04 5144327.74 191.72
-9775114.19 5143900.05 192.73
-9774693.98 5142638.54 189.25
-9774692.05 5144747.10 191.76
-9776378.72 5143061.12 191.27
-9775957.17 5144318.11 192.14
-9775115.26 5144749.84 191.67
-9774269.88 5142216.18 188.82
-9774271.11 5144323.92 192.39
-9774270.03 5142639.33 188.88
-9773848.76 5142640.64 188.92
-9774273.38 5144748.11 192.09
-9773850.14 5144751.81 192.35
-9773426.46 5142217.30 188.71
-9773005.79 5143483.95 189.22
-9772585.69 5142639.46 188.41
-9771736.60 5142638.78 187.86
-9773848.21 5143483.69 189.20
-9773849.00 5144327.04 192.19
-9773850.04 5143904.72 191.24
-9773011.03 5142217.19 188.22
-9773426.89 5143481.48 189.02
-9773002.96 5143903.05 189.49
-9772582.99 5143901.44 188.93
-9773005.63 5144747.34 189.72
-9772162.05 5142218.47 188.27
-9771738.15 5142216.94 188.08
-9772162.36 5142639.82 188.35
-9772162.56 5144326.66 188.44
-9771740.87 5143904.69 188.51
-9772163.41 5144749.04 188.31
-9771317.19 5142216.83 187.87
-9770896.28 5143060.98 188.09
-9770896.68 5142639.63 187.97
-9770475.66 5142640.80 188.05
-9770479.01 5144748.92 188.47
-9771318.51 5144747.64 188.19
-9770053.73 5143904.36 188.28
-9769631.45 5143905.00 186.21
-9770052.60 5144748.16 188.80
-9768788.43 5144326.55 185.91
-9768788.83 5143904.95 185.79
-9769209.23 5144749.34 185.69
-9770894.59 5142218.15 188.33
-9770475.10 5142218.26 187.86
-9771318.94 5144327.90 188.37
-9770047.94 5142217.14 186.44
-9769630.47 5142217.67 185.90
-9769631.28 5142637.24 185.75
-9770054.47 5144325.82 189.09
-9769631.94 5144325.56 186.40
-9769632.39 5144747.62 186.53
-9769205.96 5142217.30 184.98
-9768790.22 5142220.23 185.80
-9768367.94 5142216.16 185.43
-9769210.88 5144326.13 185.94
-9769209.79 5143904.72 185.90
-9768785.18 5144750.23 185.38
-9767520.70 5142220.14 184.84
-9767523.93 5143061.11 185.27
-9767522.06 5142639.44 184.86
-9767944.99 5144740.82 185.36
-9767524.50 5144749.86 184.97
-9767101.65 5142217.78 184.17
-9766678.55 5144743.28 184.86
-9768788.77 5143060.93 185.60
-9768788.07 5142639.18 185.69
-9768363.45 5144747.04 185.41
-9768789.50 5143481.97 185.90
-9767944.46 5142220.93 185.05
-9766679.17 5142218.69 184.48
-9766671.18 5144325.83 186.68
-9766678.84 5142640.35 184.33
-9767102.35 5143484.76 184.77
-9766255.99 5142219.99 184.08
-9765411.67 5144325.96 183.91
-9765414.59 5143903.67 183.81
-9765414.21 5144746.77 184.09
-9764992.22 5142218.14 183.36
-9764991.30 5144749.67 183.72
-9764149.25 5144748.55 183.30
-9765835.07 5143905.04 184.42
-9765834.19 5142639.66 183.52
-9765414.07 5143482.53 183.93
-9764571.85 5142220.71 182.95
-9764569.92 5143060.88 182.91
-9764991.64 5145171.36 184.03
-9764570.01 5145167.81 183.57
-9764569.74 5144753.92 182.83
-9762462.12 5143061.49 181.69
-9762883.33 5144326.15 181.75
-9762883.46 5143904.92 182.54
-9761617.65 5143904.19 182.02
-9761197.73 5143906.20 181.88
-9763726.70 5144327.01 183.28
-9763303.05 5144326.43 182.88
-9763304.88 5142640.26 181.80
-9763725.08 5143903.25 182.29
-9762462.11 5142217.26 180.79
-9762883.12 5143061.27 182.16
-9762039.95 5143061.13 181.62
-9762040.91 5142218.47 181.23
-9761618.65 5142218.06 180.77
-9761196.75 5142217.92 180.72
-9762039.54 5144748.52 184.50
-9761615.22 5144755.99 182.61
-9760353.89 5142218.55 180.77
-9760350.97 5144326.72 182.14
-9759509.89 5143061.25 181.06
-9759931.83 5143483.44 181.25
-9759510.86 5144747.87 181.28
-9761617.62 5143060.50 180.75
-9760354.30 5143061.60 181.03
-9760776.30 5143897.68 181.66
-9760353.56 5143903.83 181.73
-9760774.78 5144746.27 181.51
-9759509.28 5142217.94 180.44
-9759931.01 5144326.54 181.47
-9759931.80 5143906.88 181.64
-9759930.88 5142638.02 180.68
-9759931.36 5144747.14 181.17
-9758666.66 5142217.76 181.19
-9758244.49 5142218.62 180.71
-9758666.96 5143061.51 180.96
-9759086.52 5144746.54 181.37
-9757822.25 5143062.14 181.12
-9757401.83 5142646.41 181.08
-9757401.08 5142217.03 181.14
-9757399.96 5143067.80 181.09
-9756158.55 5143484.53 180.60
-9755296.06 5144323.51 178.58
-9755714.70 5143905.33 178.04
-9754028.78 5143054.59 184.39
-9756542.56 5144325.18 187.30
-9755714.28 5143483.10 182.74
-9755292.98 5144749.25 180.74
-9753605.51 5143483.57 187.25
-9752339.46 5144744.15 183.89
-9751932.52 5144725.74 179.86
-9753606.41 5141372.19 182.80
-9755292.22 5143061.31 188.84
-9754869.99 5140952.56 180.34
-9754447.61 5140952.73 180.48
-9754448.39 5140531.09 180.64
-9754448.35 5141795.34 180.50
-9754027.14 5141796.02 183.36
-9754870.40 5141374.69 180.67
-9754026.72 5141374.88 179.04
-9754027.54 5142639.38 182.97
-9754024.44 5143484.46 183.92
-9757399.66 5141794.78 180.52
-9756561.27 5142216.85 178.53
-9756551.36 5143061.26 180.78
-9756550.38 5142637.78 180.88
-9755292.00 5140531.67 179.44
-9755713.83 5143061.37 182.82
-9754027.23 5142218.76 183.97
-9754869.06 5143060.16 180.73
-9754027.97 5140538.72 180.94
-9753605.57 5142219.49 178.92
-9759509.26 5142641.05 180.81
-9758245.05 5143058.86 181.01
-9756979.74 5140953.05 180.57
-9756977.07 5143061.84 180.53
-9756130.70 5143060.98 180.14
-9756979.44 5143482.41 180.71
-9755713.64 5141796.63 178.74
-9755309.22 5141792.92 180.82
-9754871.30 5142216.54 180.72
-9761196.38 5143061.31 180.77
-9760774.95 5140952.94 180.24
-9760349.07 5141795.78 180.29
-9760353.70 5142638.47 180.77
-9760775.04 5141373.36 180.49
-9760353.48 5143481.82 181.23
-9759087.66 5140531.28 180.65
-9758245.57 5140528.19 180.43
-9759087.68 5143060.74 180.98
-9758665.84 5143474.22 181.52
-9758244.10 5143477.55 181.37
-9764148.75 5142217.33 182.54
-9762459.46 5141374.22 183.28
-9762883.15 5142218.59 181.61
-9762883.89 5143482.62 182.81
-9762037.94 5140532.92 179.98
-9761198.85 5140520.07 182.39
-9762039.45 5142639.75 181.38
-9761196.77 5143482.94 181.38
-9760773.20 5142199.70 181.22
-9759511.21 5140951.61 180.49
-9765413.76 5143060.87 183.93
-9765414.34 5142639.73 184.04
-9764992.03 5140950.37 182.84
-9764992.03 5140530.80 182.75
-9764568.46 5140530.61 181.76
-9764569.73 5142638.99 182.74
-9764149.82 5140952.82 182.06
-9763306.37 5141374.42 182.01
-9763722.28 5140529.66 181.24
-9763305.44 5140530.07 180.95
-9763300.85 5143483.57 182.81
-9762461.96 5140953.32 180.75
-9762461.68 5143483.19 182.13
-9762043.67 5140951.51 180.96
-9762040.19 5141375.45 180.69
-9761619.33 5142639.44 181.01
-9762040.95 5143481.92 181.99
-9767943.10 5141374.37 185.37
-9767944.03 5141797.65 180.83
-9767523.70 5141795.79 181.19
-9767946.65 5143060.36 185.53
-9766679.41 5141373.87 191.87
-9766679.08 5140951.64 183.73
-9767101.11 5143061.01 184.69
-9766678.36 5143061.37 184.50
-9767098.85 5142630.12 184.75
-9766256.98 5143060.29 184.36
-9766259.08 5143482.08 184.36
-9765838.90 5143484.28 183.73
-9764990.79 5141373.40 183.11
-9764572.32 5140954.29 182.13
-9764991.68 5141795.91 183.22
-9764570.67 5141795.14 182.63
-9764991.56 5143060.03 183.36
-9764991.86 5142639.52 183.14
-9764994.75 5143485.35 183.85
-9764149.48 5141374.11 182.36
-9763729.31 5141379.62 182.20
-9763727.75 5142217.70 181.75
-9764149.19 5143063.59 182.93
-9763726.98 5143061.28 182.47
-9764142.89 5142642.21 182.85
-9763727.37 5142640.22 182.32
-9764143.47 5143486.00 181.98
-9769631.96 5140954.23 185.67
-9770053.34 5141796.08 185.99
-9770051.67 5142637.28 186.36
-9768785.58 5141372.47 185.50
-9768365.79 5141374.71 185.80
-9769210.22 5141793.64 184.20
-9768367.02 5140531.62 184.47
-9769209.80 5143060.65 185.72
-9768367.13 5143063.16 185.51
-9767522.36 5140952.02 184.93
-9767944.16 5143481.77 185.39
-9767101.48 5141379.16 184.45
-9767101.11 5140955.18 184.43
-9767100.22 5140530.82 187.29
-9766679.71 5141796.42 184.18
-9765415.02 5141375.59 185.77
-9765835.04 5142218.08 183.54
-9766256.93 5141796.31 183.92
-9765836.86 5143061.09 183.75
-9766256.72 5142639.24 184.44
-9772162.93 5141376.41 188.05
-9771739.43 5140950.86 188.09
-9772162.00 5141795.93 183.20
-9772155.49 5143061.68 188.90
-9770475.38 5140532.05 185.67
-9771320.27 5140531.78 187.76
-9771324.67 5143059.45 188.40
-9770893.85 5143483.26 188.08
-9770475.90 5143060.70 187.70
-9771317.73 5142639.29 188.17
-9770054.10 5143482.39 188.19
-9769631.72 5143061.31 186.08
-9769631.01 5143482.71 186.36
-9768365.65 5141796.53 182.05
-9769211.37 5140528.95 185.36
-9769209.99 5143484.09 185.88
-9768368.23 5142639.09 185.51
-9769208.68 5142644.61 185.47
-9767945.60 5140950.75 184.31
-9767950.58 5142641.44 184.93
-9774270.92 5141375.01 188.53
-9772582.43 5142219.37 188.42
-9773425.83 5141796.57 188.64
-9772583.94 5140530.75 188.38
-9772584.23 5143483.43 188.60
-9773429.32 5143060.07 188.84
-9773005.31 5143063.15 188.84
-9773425.97 5142638.68 188.56
-9771740.35 5143483.53 188.42
-9771741.28 5143061.58 188.33
-9771316.93 5141373.37 187.78
-9770897.01 5141380.56 187.86
-9770474.44 5141374.72 186.43
-9771318.71 5140953.07 187.85
-9770476.35 5143483.27 188.06
-9770053.77 5141374.73 186.08
-9770055.16 5140955.23 185.83
-9770053.62 5143062.13 187.82
-9776379.22 5141374.61 190.35
-9775955.85 5140952.99 189.47
-9775529.54 5140528.19 197.09
-9775958.05 5142218.65 191.04
-9775115.42 5140951.62 189.31
-9774692.64 5140952.83 188.74
-9775117.29 5143062.99 189.52
-9775113.75 5142639.87 189.29
-9774265.49 5140531.22 188.99
-9773845.13 5143062.25 188.67
-9774271.31 5143061.27 189.01
-9772583.58 5141372.45 188.26
-9773424.57 5140954.99 188.46
-9773004.29 5140529.19 188.10
-9773003.62 5141813.55 181.57
-9772584.14 5141790.67 181.88
-9772582.43 5143061.48 188.68
-9773003.84 5142640.62 188.43
-9772162.70 5140952.71 188.38
-9778065.44 5140952.85 190.15
-9778488.32 5142215.83 191.68
-9777642.47 5142639.00 190.92
-9776801.66 5141372.88 189.38
-9777222.71 5140952.22 189.23
-9776800.85 5140952.87 187.48
-9777205.91 5142205.69 190.62
-9776801.68 5142207.54 188.95
-9777223.65 5140531.27 189.41
-9776802.34 5143483.83 190.56
-9776802.66 5143060.99 189.60
-9775535.46 5140951.94 189.56
-9776379.78 5140529.94 189.37
-9775957.19 5140530.18 189.39
-9775536.40 5142218.19 185.73
-9775535.36 5143484.13 191.22
-9775958.66 5143056.43 190.93
-9775114.78 5142217.25 189.33
-9774692.38 5142217.56 188.94
-9775113.73 5143481.12 190.88
-9773849.21 5142218.67 189.09
-9780600.96 5141796.32 191.52
-9780174.07 5142217.39 191.88
-9779754.26 5142218.04 191.85
-9779331.39 5141377.27 191.66
-9779330.31 5142217.77 191.23
-9779331.22 5143482.86 191.76
-9778488.70 5140954.05 190.22
-9778067.38 5140531.81 189.63
-9777641.40 5140532.19 189.94
-9777645.65 5143061.96 190.00
-9777644.68 5141797.54 190.14
-9777221.58 5143484.90 186.78
-9777222.70 5142639.60 190.74
-9776802.83 5142639.63 189.53
-9776381.23 5142637.78 190.13
-9781861.14 5141794.01 191.13
-9781441.43 5143483.18 192.48
-9781018.32 5143483.05 192.21
-9781426.01 5143068.08 192.59
-9780596.92 5143062.34 192.11
-9779753.02 5140953.53 191.24
-9780174.47 5140531.52 191.46
-9780174.72 5143481.45 192.73
-9779757.34 5143480.33 192.74
-9779754.02 5142640.23 192.42
-9779331.62 5140952.32 191.40
-9778909.97 5140530.85 191.41
-9778909.90 5143481.73 191.67
-9778909.89 5143059.71 191.41
-9779330.12 5141797.32 191.45
-9778909.36 5141795.91 191.74
-9778910.20 5142639.53 191.44
-9778488.75 5141372.65 191.37
-9778487.75 5143060.38 191.39
-9781876.52 5140953.90 188.18
-9781857.11 5140533.66 187.41
-9781036.79 5141374.52 191.99
-9781441.60 5140953.63 190.97
-9780596.10 5140952.98 191.15
-9781440.45 5140532.08 190.56
-9781017.36 5143060.24 196.96
-9781861.89 5141375.66 190.50
-9781865.60 5142639.05 191.56
-9749386.80 5130831.63 179.12
-9748194.64 5131672.96 176.89
-9751075.20 5131674.49 180.14
-9751496.97 5131252.94 181.04
-9750653.61 5130830.48 179.47
-9750228.65 5130831.99 179.78
-9750651.63 5131673.66 178.56
-9750232.40 5131674.34 183.99
-9750652.09 5131248.55 179.75
-9749808.83 5131674.55 179.50
-9749388.90 5131674.41 176.74
-9748965.20 5131671.28 176.59
-9748966.50 5131252.14 176.67
-9748547.53 5131251.95 176.73
-9748198.38 5131250.60 176.81
-9753605.66 5130830.30 182.65
-9754026.57 5131251.80 182.01
-9752761.13 5130830.66 180.49
-9752340.17 5131252.43 180.57
-9751077.92 5130829.17 179.63
-9755293.54 5131673.78 180.73
-9756135.26 5131252.97 181.24
-9754870.71 5130831.00 181.84
-9754450.28 5131253.54 181.92
-9753182.51 5130830.17 181.86
-9754026.02 5131673.96 181.91
-9753605.75 5131251.78 182.29
-9753184.01 5131252.99 183.09
-9752340.94 5130815.27 180.49
-9752762.05 5131672.10 180.76
-9752762.01 5131252.96 181.24
-9751496.97 5130830.89 180.71
-9758244.53 5131674.08 180.73
-9758667.52 5131252.33 180.91
-9757821.75 5131252.36 181.07
-9756557.01 5131251.26 180.95
-9755713.78 5130831.56 185.08
-9756136.36 5131674.48 181.00
-9755291.36 5131252.87 181.14
-9754869.99 5131675.08 182.50
-9754448.35 5131673.10 181.94
-9759929.30 5131675.56 180.12
-9759930.86 5131253.26 180.70
-9758245.25 5131252.12 181.02
-9757400.42 5130829.74 180.52
-9757821.24 5131675.80 180.82
-9757400.39 5131253.03 180.67
-9756980.75 5131252.77 180.92
-9763307.15 5130825.41 183.12
-9762883.70 5131673.60 182.43
-9762462.34 5131673.84 182.51
-9762039.10 5130831.46 181.85
-9762041.93 5131252.11 181.27
-9760353.36 5130830.49 180.88
-9760774.84 5131675.90 180.73
-9760356.29 5131674.19 180.69
-9760353.70 5131252.04 179.22
-9758666.36 5130830.86 180.77
-9759087.75 5131252.24 180.86
-9765835.40 5130831.77 183.73
-9765414.27 5130830.91 183.58
-9765411.60 5131252.07 183.08
-9763726.86 5131669.77 182.97
-9763306.35 5131675.62 185.07
-9762883.45 5130830.30 182.69
-9762461.45 5130830.09 182.13
-9762466.24 5131250.76 187.03
-9762041.17 5131674.16 181.23
-9761620.88 5131252.18 181.15
-9767523.29 5130831.34 183.72
-9767100.80 5131674.71 181.77
-9766679.94 5131250.79 181.61
-9765838.01 5131253.56 182.76
-9764991.70 5131673.62 182.63
-9764994.70 5131252.39 183.05
-9764571.23 5131252.46 182.90
-9770476.10 5130831.43 181.41
-9769632.77 5130829.41 182.13
-9768787.92 5130832.00 182.92
-9768788.21 5131674.98 181.17
-9767941.93 5131676.89 181.54
-9768365.57 5131253.12 181.93
-9766680.86 5131674.53 181.71
-9767100.78 5131251.51 181.87
-9766257.93 5130830.25 183.31
-9772583.81 5130831.04 180.54
-9771739.91 5131674.62 180.46
-9771318.39 5131674.69 180.10
-9770475.35 5131669.94 186.08
-9770053.60 5131673.97 181.99
-9769630.43 5131674.00 180.72
-9770053.73 5131253.14 186.04
-9769210.52 5130830.93 182.68
-9769210.20 5131674.79 180.95
-9768788.69 5131251.69 181.80
-9774270.26 5130829.23 184.62
-9774270.06 5131675.02 180.72
-9773849.54 5131245.48 176.04
-9773032.96 5131678.64 178.35
-9772583.83 5131674.50 181.77
-9773007.27 5131256.14 181.09
-9772162.17 5131674.54 181.67
-9770900.86 5131254.17 175.63
-9770493.47 5131255.92 180.59
-9770054.66 5130830.13 181.66
-9777222.47 5130829.92 184.93
-9776379.53 5131674.12 186.27
-9776379.35 5131252.20 181.94
-9774691.78 5131673.49 179.01
-9774271.43 5131254.29 184.75
-9773006.26 5130833.57 181.09
-9773426.90 5131252.62 180.09
-9778909.40 5131665.16 188.93
-9778900.50 5131252.74 188.81
-9778489.28 5130830.63 187.56
-9778066.69 5130831.63 187.11
-9777644.79 5130832.24 186.01
-9778488.61 5131674.46 188.77
-9778067.22 5131674.45 188.10
-9775958.27 5131252.38 184.57
-9775537.36 5130830.86 190.84
-9775114.27 5131252.27 182.54
-9775529.97 5131244.48 180.14
-9780596.88 5131674.72 194.33
-9780182.35 5131651.30 152.95
-9779754.61 5131670.68 183.55
-9778488.14 5131252.59 203.09
-9777645.85 5131252.23 186.52
-9777222.73 5131257.49 186.94
-9781441.88 5130831.76 198.68
-9781017.25 5131252.47 195.04
-9780594.43 5131251.27 192.68
-9781860.64 5131252.97 198.25
-9781863.43 5130835.91 197.78
-9781019.94 5133358.75 190.70
-9780169.67 5130831.86 103.53
-9779753.68 5130831.26 191.15
-9780181.99 5131253.14 99.88
-9779753.24 5132939.02 189.70
-9779331.70 5132517.62 189.49
-9781439.55 5131251.68 197.37
-9781019.01 5130829.74 196.99
-9781439.08 5131675.53 196.04
-9781018.18 5132939.51 191.21
-9781018.66 5132517.02 193.43
-9780594.37 5130830.97 193.98
-9779749.30 5131235.15 105.51
-9780596.74 5132939.33 190.63
-9780173.71 5132518.53 190.62
-9779330.82 5130830.22 189.83
-9779334.03 5131251.13 189.38
-9779332.04 5132939.45 189.44
-9778910.58 5132936.56 189.44
-9778487.67 5132927.53 191.01
-9777644.47 5132517.77 187.14
-9778068.18 5133361.19 187.92
-9776801.53 5130831.80 184.05
-9778908.53 5130832.46 186.38
-9778067.48 5131254.06 187.92
-9778071.09 5132517.12 189.90
-9776801.02 5131250.07 186.65
-9777218.29 5132945.56 180.90
-9776801.53 5132940.26 189.48
-9777223.95 5132518.07 186.83
-9776379.42 5130829.68 181.94
-9775963.96 5130838.65 178.29
-9775957.35 5132939.05 188.14
-9775535.27 5132940.47 187.64
-9776379.31 5133360.86 190.18
-9775536.60 5133362.35 186.55
-9775114.70 5130842.20 186.17
-9775120.69 5132093.55 181.62
-9775112.24 5132514.81 183.58
-9774271.03 5132096.79 180.34
-9773849.90 5132099.37 179.72
-9774272.12 5132938.13 184.56
-9776800.18 5132096.26 187.26
-9776800.34 5131671.07 184.34
-9776378.00 5132940.56 189.50
-9774693.39 5130832.87 177.53
-9774691.11 5131253.93 181.77
-9774694.92 5132517.87 181.22
-9773847.76 5132934.18 183.43
-9774271.70 5132517.98 181.22
-9774270.64 5133362.04 185.07
-9773429.52 5132103.70 179.95
-9773004.11 5132084.92 181.56
-9773427.24 5131674.28 182.33
-9773428.59 5132937.14 182.27
-9772586.11 5131257.53 178.93
-9772584.71 5133361.99 182.12
-9771739.98 5130833.98 181.04
-9772162.13 5131252.20 181.08
-9771739.86 5131252.66 180.79
-9772162.41 5132516.71 180.48
-9771730.11 5132505.17 180.23
-9771318.10 5132093.71 181.66
-9773850.01 5130831.37 181.31
-9773430.42 5130830.48 180.03
-9772583.86 5132938.43 180.55
-9772161.46 5130832.29 181.11
-9772159.55 5132090.64 176.39
-9772161.69 5132938.74 180.56
-9771315.87 5130829.98 181.05
-9770897.78 5130830.83 181.06
-9770473.16 5132088.96 180.35
-9770896.77 5131675.26 180.70
-9771317.33 5131252.29 180.68
-9770475.99 5132517.20 181.35
-9770896.99 5133361.76 177.80
-9770053.54 5132096.61 181.84
-9769631.44 5131253.42 181.16
-9769209.32 5132518.05 181.38
-9769211.53 5131252.12 181.15
-9770473.86 5132939.43 181.34
-9770035.06 5132976.07 175.82
-9770053.73 5132516.60 181.62
-9769631.66 5133363.29 179.90
-9769209.19 5132939.78 183.57
-9768786.84 5132939.47 181.87
-9768366.25 5130832.23 182.51
-9767522.82 5131674.01 181.69
-9768364.12 5132939.89 180.79
-9767944.47 5132939.57 181.01
-9767521.85 5132939.09 181.19
-9767522.36 5132517.27 181.44
-9767521.26 5131252.81 181.97
-9767942.25 5133355.10 182.94
-9767523.65 5133361.25 181.16
-9767099.81 5130830.87 183.52
-9766682.86 5130829.90 182.67
-9767101.56 5132940.13 181.22
-9766679.00 5132506.03 181.05
-9769210.73 5132095.34 181.42
-9767942.22 5130832.64 183.84
-9767525.91 5132097.57 181.45
-9768364.97 5132517.25 181.17
-9767942.42 5131254.42 181.98
-9767098.31 5132521.50 181.27
-9767102.00 5133358.98 181.74
-9765411.33 5132095.89 182.89
-9765836.26 5131675.30 182.15
-9766256.74 5131249.17 182.62
-9765834.29 5133349.96 181.09
-9765413.24 5133350.77 181.06
-9764992.31 5130830.37 183.36
-9764570.03 5130833.69 183.35
-9764993.37 5132095.23 182.40
-9764992.69 5133359.15 180.69
-9764149.92 5132082.16 181.66
-9764148.89 5131252.42 183.48
-9766682.07 5132100.07 181.66
-9766258.54 5132093.15 182.06
-9765406.71 5132939.87 182.10
-9765835.96 5132517.17 181.78
-9764569.60 5132097.21 182.27
-9764991.01 5132940.10 181.24
-9764571.31 5132517.26 182.88
-9764145.59 5130829.79 184.18
-9763727.84 5132518.49 181.84
-9763730.16 5131254.91 183.24
-9762462.98 5132095.67 181.29
-9762881.43 5132516.37 181.19
-9761619.88 5130831.10 181.58
-9763726.71 5130829.28 182.88
-9763725.81 5132089.08 181.83
-9763305.60 5132094.52 182.08
-9763305.52 5131252.21 182.57
-9762885.12 5132938.79 181.12
-9762461.91 5132937.85 180.85
-9762881.69 5131252.47 182.03
-9762461.35 5132520.17 180.87
-9762040.75 5133361.98 180.52
-9761615.56 5133362.83 180.41
-9760781.88 5130845.35 181.31
-9761194.72 5132941.63 180.27
-9760774.82 5131252.07 180.79
-9760774.38 5132518.53 181.48
-9760350.90 5132517.77 182.74
-9760353.44 5133361.44 181.95
-9761197.82 5133361.47 180.46
-9760776.05 5133361.02 181.37
-9759510.37 5131669.93 180.98
-9759510.32 5131251.51 180.82
-9759930.11 5132940.32 182.03
-9759931.53 5132518.81 180.43
-9759506.56 5132516.72 180.50
-9759091.54 5131673.74 180.68
-9761618.26 5131670.46 181.66
-9761619.05 5132516.88 180.59
-9761193.85 5130827.47 181.03
-9761197.01 5132095.80 180.44
-9761196.59 5131675.16 180.45
-9760353.92 5132939.49 183.65
-9761198.60 5131251.55 181.12
-9759932.54 5130830.90 180.60
-9759510.90 5130832.54 180.18
-9759088.35 5130830.85 180.85
-9758244.04 5130831.45 180.91
-9758666.31 5132096.72 180.89
-9758244.26 5132938.49 190.01
-9758666.77 5133361.03 180.94
-9757821.49 5130830.96 180.96
-9757401.74 5131675.38 181.37
-9757401.31 5132938.85 180.67
-9757408.54 5132501.00 182.13
-9756979.99 5130831.31 180.80
-9756558.90 5130830.35 181.18
-9759086.63 5132519.16 180.78
-9757398.60 5132096.91 180.25
-9757822.53 5132936.86 181.09
-9757821.06 5132502.33 181.57
-9756978.58 5132937.57 180.28
-9756136.06 5133362.00 180.36
-9755292.39 5130831.40 181.02
-9756140.40 5132095.97 180.41
-9755713.77 5131674.22 185.27
-9755290.06 5132094.32 180.66
-9755714.87 5131250.63 185.43
-9755292.66 5132940.06 180.80
-9754872.50 5132096.28 182.80
-9754870.47 5131252.16 181.82
-9754871.16 5132518.07 181.27
-9754026.71 5132516.94 182.15
-9756558.61 5131674.17 180.94
-9756557.20 5132517.75 180.47
-9756135.72 5130832.12 181.38
-9755714.54 5132939.95 184.90
-9756135.80 5132517.09 180.42
-9755725.92 5132519.46 182.20
-9754448.14 5130830.88 181.79
-9754449.59 5132096.16 181.81
-9754450.04 5132938.93 181.89
-9754026.47 5130831.36 182.49
-9754027.10 5132939.65 181.90
-9753604.99 5132517.96 182.23
-9753183.51 5132517.50 183.14
-9754028.04 5133361.82 181.55
-9752338.81 5132939.30 181.45
-9752341.56 5132517.13 181.40
-9751919.20 5132096.37 181.20
-9753605.47 5131674.71 182.09
-9752340.07 5131673.95 181.13
-9752761.19 5132094.70 181.41
-9752340.64 5133361.43 182.14
-9751915.07 5130831.34 181.08
-9751918.02 5131253.12 180.77
-9751078.16 5131258.98 179.67
-9751917.65 5132939.44 181.54
-9751080.81 5132942.56 179.87
-9751919.04 5132518.44 181.48
-9751917.80 5133360.52 182.12
-9751500.89 5133360.14 181.76
-9750652.62 5132939.99 179.48
-9750231.41 5132940.18 176.81
-9750231.52 5131252.21 180.35
-9750654.98 5132519.33 177.20
-9750231.84 5132516.95 179.94
-9749810.53 5130831.09 179.40
-9749809.85 5131252.52 179.25
-9749812.51 5132940.55 176.67
-9749389.71 5132092.97 176.59
-9749810.17 5132095.67 176.53
-9751498.09 5131673.82 181.44
-9751074.76 5132519.51 180.50
-9751495.39 5132096.42 181.27
-9751073.36 5132092.37 181.14
-9749389.26 5131253.85 176.44
-9749388.55 5132940.08 176.88
-9748965.00 5130831.70 176.66
-9748543.04 5130829.85 176.55
-9748202.10 5130830.71 176.77
-9748544.24 5131671.80 176.49
-9748187.17 5132520.93 176.63
-9748190.87 5132099.81 176.99
-9748543.61 5132859.02 176.87
-9748184.21 5132854.73 177.01
-9748544.73 5132517.89 176.75
-9748966.35 5132519.86 176.71
-9781017.09 5135046.57 190.37
-9781439.12 5135891.45 190.44
-9781018.55 5135470.00 190.18
-9781439.89 5135470.84 190.66
-9780174.97 5133361.34 189.99
-9780174.02 5135048.00 189.82
-9780177.18 5134624.08 189.50
-9779753.59 5135469.75 189.27
-9779332.28 5134207.08 188.94
-9779331.98 5135047.56 189.21
-9781863.42 5133779.76 195.67
-9781862.28 5135470.34 190.86
-9781017.50 5134203.62 190.76
-9781019.47 5133783.34 189.36
-9781020.54 5135893.79 189.93
-9780596.43 5133360.35 190.55
-9780595.06 5135050.34 190.23
-9779750.53 5133361.97 189.78
-9780597.55 5134628.04 190.64
-9779753.87 5135891.97 189.28
-9780596.76 5135470.38 190.20
-9780175.63 5135470.60 189.53
-9779334.63 5133783.19 189.14
-9779327.32 5133360.38 188.75
-9778066.85 5134205.13 187.66
-9778490.24 5135890.16 185.83
-9777225.35 5133783.98 185.08
-9777224.98 5134623.80 187.65
-9777222.11 5135470.54 187.78
-9778910.21 5133360.99 188.92
-9778911.67 5135890.96 188.92
-9778486.69 5134206.48 188.21
-9777644.19 5134205.71 187.82
-9778491.30 5135049.25 186.19
-9778066.49 5135049.03 188.37
-9778487.90 5133781.82 188.01
-9777644.35 5133359.61 187.74
-9778067.27 5135891.26 188.76
-9778062.04 5135470.72 188.60
-9777644.91 5135470.29 188.31
-9776801.73 5134205.13 186.97
-9776802.98 5133783.58 185.06
-9776800.47 5133362.21 188.12
-9777222.27 5133361.73 185.86
-9775537.40 5134207.21 183.36
-9775536.15 5133786.65 185.29
-9775958.33 5135048.09 187.33
-9775534.95 5134625.64 181.96
-9776379.39 5135892.66 187.94
-9775958.77 5135467.73 188.57
-9775114.30 5133783.71 182.54
-9775111.90 5134626.70 185.89
-9775121.12 5135893.03 186.99
-9776801.17 5135048.31 187.04
-9775535.67 5135044.56 186.90
-9775958.41 5133363.53 188.28
-9775958.42 5135892.94 187.86
-9775537.46 5135888.37 187.26
-9775113.84 5135047.13 186.20
-9774696.09 5133359.85 184.97
-9773848.98 5133784.83 185.18
-9773850.28 5135048.25 185.05
-9773847.71 5133360.69 185.36
-9772583.92 5133783.11 184.93
-9773427.51 5133783.23 185.18
-9773423.68 5135897.87 185.85
-9774691.78 5134206.49 185.59
-9774692.73 5135470.52 186.21
-9774270.25 5135891.61 186.21
-9773848.72 5135889.09 186.05
-9773849.20 5135469.81 185.78
-9773005.66 5133361.20 184.75
-9773005.49 5135472.25 185.25
-9772584.17 5135469.23 184.98
-9772164.20 5133786.53 183.93
-9772160.76 5135890.52 184.76
-9771740.39 5135892.17 184.72
-9772162.04 5133362.10 181.16
-9771741.61 5135469.35 184.51
-9770894.96 5134204.91 183.44
-9771320.26 5133781.58 182.44
-9771316.65 5135047.58 183.97
-9770474.33 5135047.50 183.53
-9771318.48 5135891.04 184.88
-9770899.58 5135466.56 183.71
-9770052.73 5133783.91 181.97
-9769628.28 5135047.47 182.60
-9770053.39 5135892.19 184.22
-9771741.45 5133783.10 182.17
-9772161.41 5135467.86 185.09
-9771320.86 5133361.58 181.24
-9770474.33 5133360.82 181.17
-9769213.36 5134213.81 182.63
-9768787.74 5133786.79 185.53
-9768787.04 5134627.32 180.17
-9767522.63 5134205.23 181.47
-9767529.39 5133790.39 179.42
-9767943.41 5133768.27 175.94
-9767963.47 5134625.77 185.80
-9769631.93 5135470.23 183.29
-9768785.12 5135878.89 184.49
-9768787.53 5133360.99 181.88
-9769209.07 5133361.32 183.09
-9768787.03 5135469.50 182.81
-9767944.46 5134205.11 181.48
-9768366.38 5133360.38 186.67
-9768365.93 5135048.45 181.20
-9768365.19 5135886.51 183.04
-9767944.87 5135892.39 184.30
-9766679.53 5133363.09 180.99
-9766258.06 5133783.18 180.98
-9765835.65 5134205.72 180.59
-9765836.85 5133781.99 181.02
-9765414.12 5133783.96 181.17
-9766259.82 5133360.22 181.16
-9765837.13 5135048.41 180.55
-9765414.74 5134626.81 181.13
-9765414.38 5135891.15 180.73
-9766257.83 5135470.10 182.70
-9766676.66 5134207.51 182.62
-9766679.87 5133782.50 180.80
-9766261.10 5134209.22 181.47
-9765411.53 5134205.37 182.30
-9765835.95 5135891.37 180.22
-9764570.28 5133362.12 181.92
-9764571.23 5135470.73 181.23
-9763305.00 5134205.18 182.48
-9764148.46 5135892.49 190.70
-9763305.28 5135470.60 183.36
-9762884.70 5134205.67 180.41
-9762463.30 5133783.90 180.51
-9762885.00 5135047.29 184.30
-9764992.05 5134205.19 182.36
-9764992.91 5133784.56 181.36
-9764569.08 5133783.37 181.86
-9764571.01 5134627.26 181.52
-9764581.82 5135882.35 180.94
-9764149.10 5135048.94 178.55
-9763305.17 5133783.01 182.36
-9763304.89 5135892.26 182.81
-9763305.27 5134625.74 180.48
-9763726.47 5133359.79 181.16
-9763306.22 5133365.31 180.86
-9763728.69 5135471.78 184.51
-9762462.26 5133362.33 180.96
-9762884.60 5135470.73 180.45
-9762040.79 5134205.98 180.67
-9761617.94 5133784.99 180.28
-9761619.73 5135050.86 181.36
-9761621.02 5135464.72 180.15
-9761618.09 5134204.15 180.31
-9761195.85 5133783.65 180.01
-9760778.68 5134633.83 181.12
-9760358.53 5135469.80 180.67
-9759931.70 5134624.83 180.94
-9759927.89 5134199.70 181.35
-9759931.78 5135468.78 179.45
