-9755189.41 5135509.11 188.96
-9755188.92 5135505.10 186.22
-9755189.47 5135507.74 188.64
-9755189.21 5135508.53 187.90
-9755189.76 5135505.77 191.32
-9755191.25 5135501.08 186.30
-9755189.58 5135507.34 187.85
-9755189.14 5135507.75 187.66
-9755189.39 5135506.87 192.85
-9755190.51 5135502.43 193.30
-9755189.51 5135509.28 190.97
-9755190.18 5135502.70 189.09
-9755188.32 5135506.87 186.22
-9755189.85 5135505.69 192.81
-9755189.32 5135507.30 191.31
-9755189.25 5135508.52 188.76
-9755190.41 5135503.53 193.30
-9755189.36 5135507.65 189.64
-9755189.39 5135506.85 189.95
-9755190.20 5135502.63 188.30
-9755189.90 5135503.59 191.17
-9755190.20 5135501.95 188.40
-9755190.63 5135500.16 187.02
-9755189.47 5135509.12 186.83
-9755189.64 5135507.16 192.87
-9755255.61 5135495.20 183.58
-9755254.68 5135494.71 183.50
-9755257.36 5135498.38 181.23
-9755258.20 5135497.73 181.23
-9755257.94 5135495.14 181.22
-9755261.43 5135495.11 181.25
-9755254.95 5135499.19 181.13
-9755255.76 5135499.10 182.67
-9755262.32 5135492.19 181.25
-9755258.24 5135492.71 181.22
-9755256.69 5135494.21 182.64
-9755263.86 5135492.44 181.26
-9755255.60 5135492.62 183.04
-9755262.03 5135494.23 181.25
-9755257.07 5135493.38 183.54
-9755265.37 5135491.02 181.25
-9755274.55 5135474.51 181.25
-9755271.35 5135478.92 181.23
-9755276.05 5135474.76 181.25
-9755273.95 5135475.65 181.26
-9755270.39 5135481.22 181.23
-9755268.62 5135481.26 181.22
-9755268.64 5135477.93 181.22
-9755269.58 5135474.48 181.21
-9755269.54 5135481.23 181.23
-9755259.80 5135480.31 181.26
-9755262.12 5135478.56 181.12
-9755263.34 5135474.69 181.12
-9755258.36 5135481.07 184.34
-9755263.07 5135479.18 181.14
-9755266.29 5135476.20 181.16
-9755263.38 5135481.12 183.63
-9755256.56 5135481.91 184.44
-9755260.83 5135476.59 184.41
-9755257.45 5135477.78 184.78
-9755255.77 5135476.08 188.54
-9755260.67 5135484.40 183.61
-9755259.82 5135483.45 182.15
-9755256.64 5135476.07 187.86
-9755254.73 5135484.60 184.40
-9755262.46 5135482.69 181.25
-9755262.14 5135482.90 183.62
-9755265.68 5135481.84 181.23
-9755259.75 5135482.68 181.17
-9755263.31 5135477.05 181.12
-9755261.52 5135483.60 182.42
-9755261.58 5135482.87 183.62
-9755264.78 5135478.72 183.61
-9755261.33 5135484.05 182.42
-9755261.53 5135482.14 181.19
-9755264.17 5135477.69 181.13
-9755264.51 5135477.68 181.15
-9755257.20 5135476.05 187.99
-9755258.00 5135484.05 182.58
-9755263.03 5135473.80 181.14
-9755259.10 5135484.49 183.62
-9755258.23 5135481.70 184.06
-9755266.31 5135474.44 181.15
-9755256.26 5135476.29 188.54
-9755263.35 5135480.24 183.59
-9755268.27 5135487.77 181.24
-9755256.57 5135490.32 183.02
-9755260.63 5135489.20 181.24
-9755256.12 5135490.26 183.43
-9755267.44 5135486.01 181.26
-9755263.89 5135489.24 181.26
-9755254.98 5135490.27 183.59
-9755255.05 5135487.68 183.32
-9755262.12 5135485.92 181.23
-9755264.17 5135485.97 181.24
-9755257.65 5135486.19 181.73
-9755259.11 5135489.51 181.24
-9755266.57 5135486.01 181.26
-9755257.99 5135485.31 181.19
-9755256.52 5135489.40 183.48
-9755263.88 5135486.80 181.24
-9755254.66 5135488.48 183.78
-9755257.35 5135488.57 181.20
-9755260.16 5135485.02 182.22
-9755257.48 5135486.74 181.75
-9755256.29 5135487.41 182.61
-9755254.15 5135497.04 183.58
-9755252.98 5135495.28 183.23
-9755254.37 5135494.38 183.46
-9755253.25 5135494.41 183.59
-9755253.25 5135495.23 183.68
-9755252.50 5135494.94 183.77
-9755251.23 5135500.41 183.60
-9755252.36 5135499.17 183.40
-9755252.25 5135494.40 183.79
-9755253.22 5135492.90 183.37
-9755254.01 5135492.56 183.61
-9755250.79 5135495.21 183.59
-9755250.87 5135496.74 183.63
-9755250.91 5135497.89 183.35
-9755250.88 5135495.87 183.54
-9755245.83 5135495.16 184.73
-9755245.75 5135497.67 184.86
-9755240.82 5135496.73 185.54
-9755244.92 5135498.36 184.73
-9755249.10 5135495.23 183.86
-9755245.96 5135497.58 184.13
-9755241.49 5135498.13 185.35
-9755245.86 5135496.94 184.33
-9755246.69 5135496.03 184.50
-9755249.13 5135497.55 183.71
-9755243.10 5135496.93 185.18
-9755246.70 5135497.57 184.11
-9755249.21 5135498.11 184.27
-9755242.09 5135495.51 185.01
-9755246.64 5135494.54 184.50
-9755235.06 5135495.95 186.21
-9755234.39 5135496.79 186.43
-9755236.69 5135496.82 186.00
-9755237.63 5135497.73 185.81
-9755235.87 5135497.79 186.41
-9755239.12 5135495.06 185.57
-9755239.98 5135496.60 185.36
-9755240.30 5135495.08 185.36
-9755237.86 5135496.88 186.32
-9755233.53 5135495.32 186.62
-9755240.34 5135495.95 185.37
-9755238.51 5135498.62 185.59
-9755233.16 5135498.55 186.81
-9755235.86 5135495.91 186.22
-9755233.66 5135497.69 186.87
-9755234.45 5135494.13 186.80
-9755239.70 5135497.73 185.90
-9755236.71 5135497.69 186.16
-9755232.66 5135497.57 187.01
-9755234.15 5135495.86 186.85
-9755237.59 5135495.90 186.22
-9755240.66 5135495.82 185.90
-9755238.43 5135496.79 186.01
-9755235.80 5135496.25 186.80
-9755233.17 5135496.73 187.23
-9755248.20 5135499.96 183.72
-9755249.01 5135500.20 183.99
-9755241.78 5135500.16 185.08
-9755248.06 5135500.47 184.29
-9755246.97 5135500.02 184.52
-9755242.55 5135499.27 184.72
-9755243.52 5135499.32 184.52
-9755235.19 5135499.08 186.25
-9755232.89 5135500.01 186.42
-9755239.95 5135499.24 185.58
-9755236.76 5135499.20 186.22
-9755239.35 5135499.25 185.36
-9755232.90 5135500.00 186.86
-9755232.97 5135499.20 186.46
-9755244.39 5135494.31 184.75
-9755249.75 5135492.19 184.44
-9755242.35 5135491.90 185.25
-9755241.78 5135491.02 185.36
-9755248.13 5135492.62 184.51
-9755244.14 5135492.81 184.87
-9755245.88 5135492.80 184.54
-9755246.50 5135491.36 184.54
-9755240.87 5135491.85 185.55
-9755249.00 5135491.24 184.53
-9755244.58 5135491.92 185.23
-9755233.43 5135493.54 186.88
-9755239.12 5135492.74 185.80
-9755237.64 5135491.84 186.29
-9755238.25 5135491.86 186.03
-9755239.30 5135492.49 186.21
-9755232.61 5135493.48 187.25
-9755232.62 5135492.61 187.12
-9755240.64 5135490.91 186.02
-9755240.03 5135490.92 185.76
-9755234.38 5135492.64 186.64
-9755232.69 5135491.74 187.10
-9755239.34 5135493.85 185.96
-9755232.26 5135493.19 187.65
-9755235.09 5135493.17 186.85
-9755234.98 5135491.72 186.64
-9755236.11 5135494.10 186.68
-9755239.10 5135491.22 185.91
-9755238.27 5135490.97 186.09
-9755235.60 5135491.38 186.81
-9755229.38 5135495.22 187.57
-9755228.48 5135495.46 187.98
-9755228.51 5135496.70 187.55
-9755230.86 5135496.79 187.10
-9755230.82 5135497.64 187.12
-9755231.73 5135495.89 186.88
-9755227.61 5135498.46 187.89
-9755230.82 5135495.85 187.54
-9755229.41 5135496.99 187.76
-9755230.61 5135496.77 187.54
-9755230.32 5135496.40 187.52
-9755228.51 5135499.28 187.73
-9755230.28 5135499.09 187.10
-9755227.61 5135499.06 188.00
-9755231.12 5135500.00 186.88
-9755230.92 5135493.81 187.85
-9755229.36 5135492.58 187.98
-9755231.98 5135490.68 187.88
-9755230.07 5135492.65 188.11
-9755229.41 5135491.06 187.79
-9755230.27 5135493.66 187.74
-9755231.63 5135491.83 187.82
-9755227.93 5135491.93 188.00
-9755231.79 5135490.86 187.33
-9755227.69 5135491.63 188.45
-9755252.47 5135473.63 189.31
-9755252.52 5135477.21 189.73
-9755254.33 5135473.68 190.21
-9755252.56 5135474.52 189.75
-9755251.65 5135475.36 189.72
-9755252.98 5135481.30 187.85
-9755253.95 5135476.95 188.58
-9755254.08 5135474.52 190.20
-9755251.63 5135474.58 189.31
-9755254.20 5135482.79 184.70
-9755253.14 5135476.00 189.69
-9755251.57 5135477.17 189.74
-9755251.31 5135481.98 188.51
-9755252.47 5135479.59 188.55
-9755253.95 5135478.73 188.55
-9755252.42 5135477.73 190.09
-9755251.61 5135477.79 190.13
-9755251.86 5135476.28 189.72
-9755252.68 5135473.68 191.69
-9755253.87 5135487.60 183.90
-9755252.42 5135486.97 183.93
-9755252.58 5135486.42 183.98
-9755253.83 5135486.43 183.60
-9755253.87 5135486.61 184.34
-9755251.04 5135474.56 189.30
-9755250.98 5135481.63 187.87
-9755251.39 5135480.34 189.77
-9755250.70 5135478.04 190.17
-9755250.65 5135483.51 187.92
-9755250.33 5135491.02 184.48
-9755250.64 5135486.01 184.88
-9755251.27 5135489.38 184.49
-9755250.96 5135486.40 184.04
-9755250.14 5135475.40 189.30
-9755243.33 5135482.22 189.10
-9755249.24 5135481.88 190.32
-9755245.74 5135476.91 189.09
-9755242.46 5135481.92 189.10
-9755248.42 5135476.32 189.11
-9755249.85 5135483.76 188.50
-9755243.12 5135473.63 193.71
-9755243.39 5135475.40 189.06
-9755246.57 5135481.88 189.67
-9755249.05 5135473.62 189.09
-9755249.22 5135483.75 188.51
-9755245.71 5135478.67 189.09
-9755249.26 5135480.39 189.87
-9755247.52 5135476.00 189.09
-9755247.35 5135474.71 189.71
-9755241.60 5135480.40 189.07
-9755248.65 5135473.85 189.51
-9755248.37 5135475.43 189.11
-9755248.44 5135474.83 189.10
-9755248.38 5135474.49 189.70
-9755248.29 5135484.36 188.51
-9755243.37 5135480.43 189.09
-9755241.80 5135483.27 190.51
-9755249.40 5135477.75 189.59
-9755242.27 5135480.19 190.14
-9755247.52 5135473.68 189.08
-9755244.24 5135484.54 190.55
-9755246.62 5135482.77 189.68
-9755245.77 5135483.69 189.72
-9755247.14 5135481.06 189.10
-9755244.22 5135478.54 190.17
-9755243.55 5135483.66 191.68
-9755247.35 5135481.98 189.40
-9755245.09 5135481.94 189.12
-9755244.25 5135481.09 189.10
-9755247.49 5135480.49 189.11
-9755250.72 5135480.03 190.14
-9755245.13 5135476.90 189.09
-9755246.81 5135480.10 189.57
-9755242.47 5135481.28 189.09
-9755245.12 5135478.69 189.09
-9755240.95 5135483.10 189.10
-9755243.40 5135481.03 189.09
-9755247.96 5135481.05 189.68
-9755247.50 5135477.78 189.10
-9755245.08 5135483.36 189.12
-9755247.71 5135485.52 188.47
-9755247.58 5135481.26 189.70
-9755245.68 5135483.63 192.12
-9755243.95 5135479.24 190.17
-9755241.62 5135473.72 193.31
-9755240.74 5135477.79 189.07
-9755245.73 5135480.13 190.16
-9755249.80 5135477.15 190.21
-9755242.35 5135480.86 190.20
-9755240.98 5135483.57 190.44
-9755241.90 5135480.89 190.18
-9755241.00 5135478.64 189.06
-9755240.92 5135483.66 189.12
-9755241.80 5135483.06 190.51
-9755240.06 5135483.38 189.09
-9755238.33 5135480.42 189.02
-9755240.15 5135483.06 189.08
-9755236.93 5135480.40 189.04
-9755234.27 5135482.96 190.31
-9755240.11 5135481.90 189.08
-9755235.07 5135484.45 190.54
-9755234.21 5135480.39 189.04
-9755239.30 5135483.64 189.71
-9755239.41 5135483.60 190.42
-9755236.86 5135479.51 189.03
-9755240.12 5135484.50 190.53
-9755232.79 5135478.59 189.04
-9755238.61 5135476.20 189.64
-9755236.65 5135481.96 189.10
-9755234.30 5135473.63 191.23
-9755239.21 5135484.48 190.53
-9755234.24 5135473.61 194.42
-9755235.07 5135480.38 189.03
-9755240.11 5135478.05 189.05
-9755238.10 5135476.58 189.04
-9755235.14 5135474.55 194.04
-9755239.27 5135478.62 189.04
-9755234.99 5135483.64 189.06
-9755236.03 5135475.27 190.88
-9755235.10 5135482.12 189.06
-9755234.19 5135481.22 189.05
-9755235.11 5135476.70 191.21
-9755233.35 5135474.03 191.56
-9755238.35 5135481.89 189.05
-9755237.74 5135477.72 189.03
-9755234.21 5135483.61 190.45
-9755232.80 5135475.33 191.10
-9755234.46 5135484.48 190.56
-9755233.59 5135483.11 189.78
-9755236.62 5135474.59 194.04
-9755238.30 5135484.49 190.54
-9755238.08 5135474.86 190.81
-9755238.64 5135482.79 189.07
-9755239.16 5135483.62 189.11
-9755237.73 5135480.43 189.02
-9755237.72 5135481.29 189.05
-9755233.35 5135475.67 189.07
-9755236.84 5135474.69 191.30
-9755234.43 5135482.82 189.81
-9755232.73 5135481.28 189.05
-9755235.96 5135474.44 191.01
-9755236.55 5135484.41 190.54
-9755239.22 5135482.15 189.06
-9755232.79 5135477.98 189.04
-9755234.81 5135474.83 193.25
-9755233.34 5135483.61 189.69
-9755233.60 5135483.31 189.06
-9755233.37 5135476.78 189.03
-9755236.04 5135474.41 194.05
-9755233.32 5135481.25 189.04
-9755232.79 5135476.56 190.11
-9755234.45 5135476.72 191.23
-9755235.13 5135476.13 191.21
-9755237.57 5135483.37 189.68
-9755237.85 5135475.58 189.95
-9755248.30 5135490.14 184.85
-9755242.64 5135490.28 185.37
-9755243.30 5135490.15 185.53
-9755241.71 5135487.71 185.98
-9755243.43 5135489.53 185.56
-9755244.13 5135487.46 185.54
-9755249.89 5135486.92 184.79
-9755240.89 5135488.58 185.79
-9755248.19 5135489.51 184.73
-9755241.81 5135487.68 185.56
-9755245.65 5135488.54 185.53
-9755243.28 5135486.10 188.35
-9755241.79 5135489.17 185.58
-9755246.55 5135488.00 185.16
-9755245.09 5135486.99 188.43
-9755247.66 5135489.43 185.10
-9755247.63 5135488.67 184.49
-9755244.38 5135487.01 185.53
-9755244.09 5135488.57 185.14
-9755247.07 5135485.12 190.43
-9755244.95 5135487.72 185.31
-9755245.30 5135489.85 185.45
-9755249.77 5135488.43 184.48
-9755249.69 5135490.32 184.67
-9755248.40 5135487.72 185.07
-9755244.83 5135485.56 188.40
-9755241.00 5135485.96 190.52
-9755245.02 5135488.59 185.37
-9755241.14 5135487.02 186.30
-9755235.03 5135486.96 187.25
-9755233.54 5135487.89 187.09
-9755234.15 5135486.97 187.07
-9755236.81 5135487.01 186.66
-9755232.85 5135486.87 187.71
-9755240.06 5135485.94 190.54
-9755236.00 5135487.88 187.07
-9755238.54 5135488.50 186.21
-9755236.77 5135489.54 186.18
-9755237.10 5135490.27 186.34
-9755239.12 5135489.41 185.99
-9755233.07 5135487.70 187.92
-9755240.12 5135485.12 190.56
-9755235.93 5135489.98 186.59
-9755239.12 5135487.11 186.20
-9755236.14 5135488.41 187.18
-9755238.58 5135485.94 190.54
-9755235.03 5135485.94 190.52
-9755234.13 5135486.55 189.62
-9755236.60 5135486.17 190.50
-9755233.19 5135486.57 189.70
-9755237.41 5135486.92 186.77
-9755239.96 5135489.12 186.20
-9755233.56 5135486.16 190.50
-9755235.17 5135486.31 190.91
-9755237.57 5135486.28 190.57
-9755238.94 5135487.88 186.75
-9755240.32 5135487.67 185.81
-9755232.92 5135486.09 190.50
-9755235.33 5135490.57 186.65
-9755231.80 5135475.29 190.29
-9755230.08 5135478.55 189.05
-9755229.17 5135484.53 189.06
-9755231.87 5135483.05 190.44
-9755230.35 5135484.45 190.54
-9755231.81 5135484.43 190.55
-9755230.16 5135473.64 192.99
-9755231.89 5135480.41 189.05
-9755230.12 5135483.52 189.68
-9755231.86 5135483.67 189.71
-9755229.43 5135483.62 190.39
-9755230.94 5135482.71 189.05
-9755231.04 5135474.10 191.92
-9755230.99 5135474.71 189.03
-9755230.13 5135476.21 189.04
-9755228.62 5135480.34 189.04
-9755231.85 5135477.72 189.04
-9755229.22 5135474.70 189.03
-9755230.06 5135473.82 189.03
-9755230.14 5135474.73 189.03
-9755227.70 5135484.17 189.06
-9755230.16 5135473.95 190.38
-9755231.25 5135484.40 190.55
-9755231.20 5135475.27 190.30
-9755229.22 5135478.55 189.05
-9755229.23 5135480.33 189.03
-9755230.13 5135475.58 189.04
-9755230.96 5135477.99 189.03
-9755230.14 5135473.58 191.10
-9755231.24 5135483.54 190.49
-9755232.26 5135482.07 190.74
-9755231.77 5135483.61 189.06
-9755229.46 5135482.10 189.03
-9755231.25 5135483.60 189.06
-9755231.84 5135482.16 189.15
-9755231.57 5135476.00 190.31
-9755230.74 5135474.38 192.58
-9755231.74 5135487.14 188.00
-9755229.97 5135490.16 187.79
-9755229.43 5135490.73 188.37
-9755230.27 5135489.62 187.95
-9755228.18 5135490.67 188.43
-9755228.52 5135490.18 188.02
-9755230.34 5135486.95 187.80
-9755232.04 5135490.22 187.32
-9755228.60 5135485.06 189.03
-9755230.91 5135487.84 187.69
-9755230.93 5135486.95 187.81
-9755227.87 5135487.54 188.84
-9755227.74 5135490.17 188.08
-9755231.78 5135487.86 187.56
-9755230.09 5135485.34 189.55
-9755230.97 5135485.31 190.56
-9755231.49 5135488.81 187.52
-9755230.20 5135486.18 188.72
-9755226.79 5135494.89 188.02
-9755226.76 5135498.41 187.80
-9755225.26 5135496.62 188.26
-9755224.64 5135497.55 188.27
-9755224.36 5135497.57 188.51
-9755223.54 5135495.19 188.70
-9755222.04 5135495.13 189.03
-9755222.74 5135495.10 188.72
-9755222.97 5135494.52 188.70
-9755224.36 5135496.05 188.48
-9755224.34 5135498.38 188.69
-9755221.65 5135496.50 189.70
-9755222.00 5135495.98 189.02
-9755226.71 5135494.25 188.47
-9755221.15 5135496.90 189.04
-9755226.72 5135500.22 187.78
-9755226.07 5135499.35 188.02
-9755224.07 5135500.14 188.65
-9755225.30 5135498.78 188.39
-9755224.65 5135499.29 188.24
-9755226.09 5135498.99 188.59
-9755222.30 5135499.88 189.29
-9755223.75 5135500.22 188.30
-9755222.05 5135499.51 189.15
-9755215.20 5135497.47 188.99
-9755214.63 5135496.85 188.99
-9755214.67 5135495.05 188.98
-9755221.18 5135494.21 189.02
-9755221.17 5135498.39 189.02
-9755212.86 5135497.74 188.97
-9755220.21 5135500.18 189.03
-9755218.76 5135500.12 189.04
-9755221.15 5135499.51 189.03
-9755217.68 5135500.49 189.38
-9755220.86 5135499.78 189.78
-9755219.41 5135494.22 189.04
-9755223.26 5135494.26 189.15
-9755224.37 5135492.80 188.73
-9755226.77 5135492.77 188.34
-9755227.10 5135491.92 188.78
-9755224.45 5135491.83 189.24
-9755225.26 5135493.42 188.48
-9755224.40 5135493.66 188.79
-9755222.40 5135493.66 189.77
-9755222.99 5135490.98 189.04
-9755225.61 5135493.36 188.25
-9755225.85 5135493.27 188.68
-9755222.28 5135493.78 189.77
-9755223.26 5135492.62 189.46
-9755221.18 5135492.74 189.03
-9755221.20 5135491.86 189.03
-9755220.27 5135492.75 189.04
-9755213.79 5135492.12 188.99
-9755216.15 5135493.63 189.00
-9755214.36 5135493.62 188.98
-9755218.83 5135493.63 189.04
-9755214.66 5135491.79 189.01
-9755219.39 5135491.81 189.04
-9755217.02 5135492.76 189.02
-9755217.94 5135490.96 189.03
-9755216.13 5135492.71 189.00
-9755220.58 5135491.85 189.04
-9755220.59 5135490.95 189.03
-9755212.94 5135493.58 188.99
-9755212.64 5135492.69 188.99
-9755200.51 5135496.53 199.44
-9755200.89 5135495.20 199.36
-9755200.86 5135494.83 200.36
-9755200.69 5135495.95 194.49
-9755200.73 5135496.35 201.83
-9755202.92 5135497.76 192.84
-9755200.56 5135495.95 193.96
-9755200.41 5135497.42 195.14
-9755200.77 5135496.04 198.59
-9755200.29 5135497.72 194.72
-9755203.29 5135495.32 192.80
-9755209.63 5135497.36 188.98
-9755200.54 5135496.61 194.59
-9755202.83 5135496.97 192.81
-9755201.23 5135494.18 199.68
-9755203.75 5135495.95 192.90
-9755200.24 5135497.92 197.94
-9755211.06 5135496.86 188.96
-9755212.63 5135495.36 188.96
-9755200.70 5135495.79 195.35
-9755200.60 5135495.18 197.29
-9755202.32 5135496.94 192.56
-9755200.55 5135496.90 192.40
-9755207.87 5135495.34 188.99
-9755200.67 5135497.57 199.84
-9755203.79 5135495.16 192.91
-9755201.41 5135497.64 203.02
-9755200.54 5135495.14 192.39
-9755201.17 5135494.81 200.36
-9755201.20 5135494.36 194.60
-9755204.64 5135495.53 193.08
-9755209.36 5135495.92 188.97
-9755201.41 5135496.90 192.41
-9755201.30 5135495.88 194.68
-9755204.53 5135496.07 193.06
-9755200.99 5135494.20 195.48
-9755201.81 5135497.51 192.29
-9755211.12 5135495.96 188.96
-9755200.47 5135498.34 192.42
-9755201.18 5135494.22 197.73
-9755200.68 5135495.66 197.21
-9755201.16 5135494.13 200.15
-9755200.90 5135497.50 193.89
-9755208.79 5135494.17 188.98
-9755200.27 5135498.35 195.07
-9755201.55 5135494.41 201.99
-9755201.04 5135496.79 193.64
-9755200.55 5135494.26 192.38
-9755200.36 5135498.49 203.03
-9755201.30 5135494.01 198.40
-9755200.26 5135497.79 196.93
-9755211.11 5135495.05 188.96
-9755200.93 5135494.41 195.48
-9755200.82 5135495.32 195.56
-9755200.50 5135496.94 197.86
-9755200.62 5135494.95 203.75
-9755200.97 5135494.60 197.36
-9755204.68 5135494.19 193.03
-9755200.57 5135495.85 208.50
-9755200.46 5135496.68 195.33
-9755203.73 5135494.22 192.87
-9755200.79 5135495.48 198.22
-9755201.26 5135495.34 208.47
-9755200.29 5135497.81 198.63
-9755202.84 5135498.38 192.89
-9755203.74 5135498.33 192.98
-9755200.22 5135498.63 194.65
-9755200.35 5135498.27 198.56
-9755207.90 5135498.28 188.99
-9755201.92 5135496.00 204.69
-9755211.13 5135498.60 188.99
-9755200.24 5135499.47 192.72
-9755200.49 5135499.94 194.63
-9755201.49 5135499.30 193.05
-9755206.40 5135499.18 189.01
-9755208.75 5135500.11 189.00
-9755202.88 5135499.05 192.91
-9755200.20 5135498.45 202.01
-9755200.74 5135498.57 193.80
-9755203.83 5135493.39 192.82
-9755201.40 5135493.61 199.15
-9755201.20 5135493.74 198.56
-9755203.82 5135491.99 192.75
-9755201.48 5135491.90 192.39
-9755212.05 5135491.81 188.99
-9755201.34 5135492.93 193.99
-9755202.05 5135491.87 192.42
-9755211.14 5135490.92 188.98
-9755201.98 5135491.76 200.40
-9755204.49 5135492.78 192.93
-9755208.80 5135493.27 188.99
-9755211.12 5135491.82 188.99
-9755201.57 5135492.01 197.92
-9755201.37 5135492.43 200.13
-9755201.45 5135493.67 192.41
-9755201.40 5135493.41 203.56
-9755201.77 5135491.76 194.57
-9755201.78 5135494.63 203.61
-9755201.95 5135491.16 195.32
-9755212.00 5135492.65 188.98
-9755201.35 5135492.65 198.59
-9755204.10 5135491.23 192.69
-9755202.05 5135490.83 200.28
-9755202.16 5135491.10 203.04
-9755205.17 5135492.78 193.05
-9755200.93 5135494.12 194.65
-9755201.48 5135492.82 197.12
-9755201.41 5135490.93 192.42
-9755202.03 5135490.96 192.39
-9755201.50 5135492.17 200.36
-9755201.29 5135492.55 194.66
-9755201.45 5135493.60 200.49
-9755201.65 5135493.57 208.50
-9755204.44 5135491.90 192.84
-9755201.47 5135492.70 195.03
-9755203.00 5135491.08 203.03
-9755201.96 5135491.95 195.09
-9755204.10 5135492.82 192.84
-9755201.91 5135490.95 198.60
-9755201.55 5135491.37 203.01
-9755201.31 5135493.65 194.32
-9755201.09 5135493.72 195.43
-9755200.76 5135491.62 203.73
-9755201.73 5135491.34 194.09
-9755200.58 5135493.64 192.38
-9755200.91 5135493.69 194.67
-9755201.24 5135492.85 203.63
-9755201.24 5135490.68 203.75
-9755201.53 5135491.65 202.97
-9755201.85 5135491.82 198.57
-9755201.86 5135491.06 198.04
-9755201.61 5135491.95 197.09
-9755201.65 5135492.63 199.50
-9755201.84 5135491.68 197.09
-9755225.09 5135476.21 189.02
-9755226.82 5135483.54 189.03
-9755226.90 5135477.06 189.03
-9755224.46 5135480.94 189.04
-9755222.72 5135475.27 189.00
-9755223.59 5135474.73 189.00
-9755225.99 5135477.98 189.03
-9755225.98 5135477.06 189.03
-9755221.79 5135482.66 189.02
-9755224.48 5135480.30 189.03
-9755225.90 5135483.62 189.02
-9755223.87 5135481.22 189.04
-9755225.89 5135482.71 189.03
-9755222.70 5135478.82 189.01
-9755223.50 5135483.90 190.11
-9755226.00 5135473.50 189.01
-9755225.98 5135478.84 189.03
-9755221.81 5135483.55 189.03
-9755222.10 5135483.49 190.29
-9755224.53 5135475.28 189.01
-9755227.08 5135484.17 189.04
-9755222.98 5135484.20 193.09
-9755222.13 5135484.44 189.03
-9755222.77 5135484.39 190.13
-9755224.50 5135474.43 189.00
-9755223.55 5135484.45 193.01
-9755226.85 5135488.61 188.48
-9755222.67 5135489.51 189.03
-9755222.95 5135486.83 189.03
-9755222.08 5135489.53 189.03
-9755223.59 5135490.04 189.03
-9755225.32 5135489.51 188.71
-9755221.82 5135486.88 189.02
-9755223.51 5135488.61 189.04
-9755222.07 5135485.29 190.31
-9755224.41 5135488.60 189.05
-9755222.69 5135485.30 190.29
-9755224.17 5135489.18 189.77
-9755222.62 5135485.27 191.37
-9755222.67 5135488.01 189.03
-9755222.68 5135485.21 191.73
-9755222.56 5135487.04 190.11
-9755226.18 5135488.71 188.89
-9755222.45 5135485.87 191.60
-9755225.29 5135486.28 188.92
-9755221.80 5135486.78 193.03
-9755222.38 5135486.92 193.01
-9755220.39 5135477.94 189.01
-9755215.99 5135477.00 189.01
-9755220.39 5135474.69 188.97
-9755221.24 5135483.55 189.02
-9755220.34 5135482.69 189.00
-9755215.39 5135473.78 189.00
-9755213.88 5135476.41 189.00
-9755221.24 5135477.95 189.00
-9755218.89 5135480.29 189.00
-9755214.49 5135479.37 188.99
-9755219.46 5135482.08 188.99
-9755217.98 5135480.33 188.99
-9755215.98 5135473.76 188.99
-9755219.43 5135482.71 188.99
-9755218.59 5135473.52 188.97
-9755215.39 5135477.93 189.00
-9755217.13 5135477.07 189.02
-9755221.28 5135477.06 188.99
-9755215.33 5135479.38 188.99
-9755220.35 5135480.89 189.01
-9755221.28 5135474.37 188.99
-9755221.23 5135479.72 189.03
-9755217.09 5135480.59 188.99
-9755219.49 5135474.66 188.97
-9755220.35 5135482.05 189.00
-9755218.61 5135479.42 189.01
-9755219.43 5135481.16 189.00
-9755217.71 5135478.50 189.01
-9755213.86 5135482.05 188.96
-9755217.68 5135483.54 188.96
-9755213.90 5135478.76 189.00
-9755213.60 5135474.32 190.01
-9755213.62 5135473.75 190.01
-9755212.76 5135474.55 190.05
-9755212.71 5135483.48 188.97
-9755215.27 5135490.31 189.02
-9755219.42 5135489.47 189.01
-9755218.82 5135488.59 188.99
-9755219.42 5135486.79 188.99
-9755213.83 5135487.06 188.98
-9755221.21 5135486.24 189.02
-9755218.82 5135487.72 188.99
-9755217.94 5135485.29 188.97
-9755220.29 5135490.06 189.02
-9755219.41 5135488.59 189.01
-9755216.20 5135486.24 188.96
-9755218.53 5135486.81 188.99
-9755212.93 5135484.41 188.96
-9755212.69 5135486.19 188.99
-9755212.66 5135487.97 189.00
-9755212.70 5135480.29 188.99
-9755207.95 5135478.83 192.78
-9755213.00 5135473.61 191.28
-9755212.73 5135475.58 190.06
-9755207.17 5135475.21 192.71
-9755207.09 5135481.19 192.79
-9755205.30 5135481.13 195.52
-9755205.32 5135480.07 195.74
-9755204.50 5135482.85 194.33
-9755207.70 5135483.13 192.93
-9755212.81 5135475.40 191.47
-9755203.00 5135476.80 192.34
-9755205.63 5135479.87 198.33
-9755206.15 5135483.66 192.80
-9755207.14 5135473.86 192.36
-9755213.00 5135473.99 190.04
-9755204.82 5135481.76 194.55
-9755204.01 5135484.73 200.24
-9755208.00 5135481.30 192.98
-9755207.73 5135475.35 192.94
-9755208.88 5135479.45 192.98
-9755201.23 5135478.54 192.32
-9755204.77 5135480.44 203.57
-9755207.06 5135475.27 192.33
-9755205.14 5135480.31 202.96
-9755212.06 5135473.93 190.07
-9755205.14 5135481.12 200.96
-9755205.97 5135478.64 195.38
-9755205.41 5135479.66 193.87
-9755201.24 5135480.32 192.33
-9755204.52 5135477.04 192.37
-9755202.13 5135478.01 192.34
-9755204.60 5135482.64 203.62
-9755203.85 5135480.36 192.38
-9755207.99 5135479.49 192.84
-9755206.30 5135474.74 192.94
-9755203.84 5135484.53 197.93
-9755203.88 5135484.64 199.43
-9755208.86 5135476.13 192.55
-9755208.60 5135473.81 192.67
-9755203.68 5135474.90 193.77
-9755206.64 5135477.15 192.69
-9755206.34 5135477.73 203.01
-9755202.98 5135476.21 192.33
-9755205.36 5135479.89 200.33
-9755208.01 5135479.50 192.39
-9755212.42 5135475.37 191.47
-9755205.59 5135479.58 195.18
-9755204.50 5135479.74 192.38
-9755206.18 5135482.97 191.70
-9755206.19 5135480.20 194.40
-9755208.92 5135481.70 193.12
-9755204.07 5135483.40 204.54
-9755203.98 5135473.81 192.41
-9755204.14 5135483.70 195.29
-9755204.06 5135483.52 199.60
-9755206.34 5135479.58 203.04
-9755205.44 5135477.93 203.66
-9755202.96 5135477.70 192.34
-9755206.16 5135484.56 192.79
-9755205.47 5135479.66 199.54
-9755204.05 5135483.58 198.63
-9755201.24 5135475.34 192.30
-9755207.42 5135474.74 192.69
-9755200.63 5135484.45 192.35
-9755203.62 5135474.12 193.62
-9755200.85 5135484.14 203.57
-9755204.90 5135481.32 203.55
-9755205.38 5135479.47 192.41
-9755206.25 5135473.88 192.63
-9755207.91 5135481.88 192.94
-9755203.01 5135473.81 192.33
-9755207.11 5135483.05 192.88
-9755203.94 5135484.29 194.72
-9755206.29 5135477.76 197.64
-9755204.26 5135474.42 193.79
-9755206.01 5135478.61 199.97
-9755205.36 5135480.08 198.24
-9755202.96 5135483.65 203.66
-9755203.89 5135484.41 198.46
-9755207.19 5135476.19 192.71
-9755206.26 5135478.04 195.06
-9755204.10 5135482.15 192.37
-9755209.75 5135479.40 189.01
-9755208.65 5135478.05 192.67
-9755205.38 5135474.40 192.96
-9755203.03 5135475.31 192.33
-9755207.02 5135476.22 203.67
-9755204.51 5135482.98 194.03
-9755207.14 5135483.56 192.90
-9755203.86 5135479.74 192.37
-9755210.18 5135473.46 192.83
-9755202.82 5135483.69 193.15
-9755205.67 5135479.61 194.54
-9755203.91 5135484.36 195.18
-9755208.86 5135478.57 192.80
-9755205.79 5135479.05 200.03
-9755206.28 5135477.87 194.49
-9755212.16 5135475.49 190.04
-9755206.86 5135476.25 192.40
-9755204.52 5135482.86 199.45
-9755207.10 5135484.50 192.98
-9755204.09 5135475.39 203.61
-9755204.32 5135483.00 200.83
-9755203.00 5135482.71 192.36
-9755203.01 5135482.08 192.37
-9755202.15 5135476.16 192.32
-9755202.12 5135475.34 192.31
-9755205.34 5135480.40 197.69
-9755204.87 5135481.23 199.52
-9755204.77 5135481.75 195.90
-9755206.77 5135483.85 192.37
-9755200.66 5135473.78 192.31
-9755205.99 5135478.51 193.97
-9755206.28 5135477.72 200.15
-9755201.24 5135481.25 192.34
-9755205.16 5135480.50 197.35
-9755204.23 5135483.46 194.04
-9755203.78 5135484.25 204.73
-9755205.50 5135480.95 208.51
-9755204.87 5135481.38 199.89
-9755204.75 5135482.16 199.40
-9755208.02 5135480.30 192.86
-9755206.15 5135477.37 200.04
-9755207.71 5135484.46 193.11
-9755202.03 5135483.03 192.88
-9755205.35 5135478.60 192.39
-9755205.02 5135481.36 195.59
-9755206.27 5135477.65 192.38
-9755204.13 5135483.90 194.22
-9755204.19 5135483.18 198.47
-9755204.72 5135482.11 198.35
-9755205.87 5135475.42 203.70
-9755204.31 5135484.60 204.48
-9755204.49 5135482.86 200.47
-9755205.61 5135481.24 192.41
-9755205.36 5135480.37 192.39
-9755204.54 5135483.31 203.76
-9755203.91 5135481.25 192.37
-9755204.63 5135477.91 192.72
-9755205.70 5135479.45 195.91
-9755204.02 5135483.67 197.79
-9755204.46 5135482.92 195.75
-9755204.00 5135482.90 203.66
-9755207.54 5135473.49 204.89
-9755203.82 5135484.45 202.52
-9755206.01 5135472.92 192.38
-9755203.84 5135478.59 192.89
-9755205.49 5135479.27 197.77
-9755204.68 5135481.97 195.34
-9755206.18 5135478.55 194.54
-9755205.09 5135483.56 204.71
-9755205.15 5135484.41 201.24
-9755205.37 5135480.58 194.72
-9755203.86 5135484.46 197.18
-9755205.79 5135478.90 194.81
-9755206.31 5135477.43 195.11
-9755206.23 5135477.30 194.39
-9755204.44 5135482.55 195.43
-9755205.52 5135479.86 208.52
-9755207.52 5135484.54 191.49
-9755204.91 5135482.78 203.05
-9755202.17 5135482.06 203.77
-9755206.78 5135477.05 210.06
-9755204.85 5135481.00 203.00
-9755204.78 5135481.23 198.58
-9755202.09 5135484.47 192.37
-9755203.89 5135477.11 192.35
-9755205.96 5135478.80 198.60
-9755207.88 5135474.75 203.65
-9755208.14 5135473.64 208.52
-9755205.63 5135479.00 197.96
-9755205.42 5135480.14 199.82
-9755200.27 5135482.99 192.34
-9755204.00 5135483.52 197.30
-9755206.09 5135478.84 197.77
-9755204.76 5135481.88 202.99
-9755203.85 5135484.37 194.04
-9755203.98 5135483.83 195.87
-9755205.36 5135479.99 193.88
-9755204.70 5135481.75 208.02
-9755204.86 5135481.19 193.94
-9755205.35 5135480.21 195.21
-9755202.13 5135472.91 192.31
-9755206.53 5135476.64 214.16
-9755205.12 5135480.33 200.65
-9755206.69 5135476.69 208.04
-9755209.51 5135472.95 192.61
-9755204.80 5135481.47 195.89
-9755204.96 5135481.90 193.98
-9755205.74 5135478.81 199.22
-9755207.77 5135475.49 198.27
-9755206.24 5135477.38 193.85
-9755204.21 5135483.11 197.64
-9755205.29 5135479.87 197.29
-9755203.04 5135472.97 192.33
-9755204.24 5135482.30 199.85
-9755204.54 5135482.92 197.70
-9755203.73 5135484.71 195.86
-9755204.65 5135490.18 192.81
-9755203.05 5135486.30 192.54
-9755202.28 5135487.61 193.55
-9755202.96 5135485.35 192.38
-9755202.06 5135489.95 202.94
-9755205.56 5135486.15 192.81
-9755205.64 5135487.69 192.93
-9755208.77 5135490.28 188.99
-9755201.47 5135490.11 192.38
-9755202.93 5135486.01 192.38
-9755201.35 5135487.29 192.87
-9755202.94 5135486.80 192.40
-9755202.87 5135487.78 195.26
-9755203.60 5135485.32 197.93
-9755202.42 5135488.77 194.85
-9755202.18 5135489.42 194.59
-9755206.26 5135485.89 192.89
-9755201.37 5135488.28 193.11
-9755203.01 5135488.69 198.39
-9755202.87 5135489.64 196.99
-9755202.07 5135488.78 193.62
-9755211.12 5135490.05 189.00
-9755202.76 5135488.71 194.47
-9755202.36 5135490.20 198.62
-9755202.97 5135487.93 202.22
-9755203.65 5135485.19 194.66
-9755209.67 5135490.01 188.99
-9755201.25 5135487.69 192.84
-9755202.97 5135486.72 194.42
-9755200.54 5135487.71 192.56
-9755202.94 5135487.72 192.39
-9755205.41 5135486.90 192.36
-9755205.19 5135490.76 192.91
-9755200.56 5135488.37 192.37
-9755202.25 5135490.57 200.60
-9755202.95 5135486.92 194.00
-9755212.04 5135487.08 188.99
-9755202.80 5135490.48 203.67
-9755201.38 5135485.03 203.57
-9755203.03 5135488.32 195.36
-9755202.37 5135489.45 199.09
-9755202.17 5135489.45 197.08
-9755200.49 5135485.92 203.69
-9755203.38 5135488.31 193.70
-9755202.11 5135486.80 203.70
-9755202.31 5135489.38 195.51
-9755203.76 5135486.78 192.43
-9755206.24 5135485.33 192.84
-9755203.03 5135487.07 195.28
-9755201.43 5135488.50 193.58
-9755202.15 5135489.58 198.58
-9755202.31 5135488.75 197.13
-9755202.53 5135488.92 197.86
-9755202.32 5135489.47 192.40
-9755202.89 5135487.70 199.93
-9755200.54 5135485.34 192.35
-9755202.94 5135487.27 201.99
-9755203.27 5135485.32 197.32
-9755202.95 5135487.86 198.27
-9755203.20 5135485.88 195.25
-9755200.54 5135487.74 203.54
-9755205.39 5135487.16 192.84
-9755202.90 5135487.74 199.18
-9755203.83 5135485.09 195.58
-9755202.48 5135488.47 200.48
-9755201.45 5135489.52 192.40
-9755205.97 5135487.68 192.96
-9755206.25 5135487.10 192.98
-9755202.41 5135488.90 198.52
-9755204.67 5135488.30 192.77
-9755201.32 5135488.87 203.71
-9755203.66 5135485.15 208.47
-9755202.03 5135486.85 192.39
-9755201.48 5135486.84 192.37
-9755203.34 5135485.50 198.88
-9755203.34 5135485.53 194.76
-9755203.19 5135486.15 194.37
-9755203.28 5135485.44 195.61
-9755202.28 5135490.13 195.40
-9755203.52 5135485.66 197.30
-9755202.01 5135487.76 192.41
-9755200.58 5135488.60 193.32
-9755204.72 5135487.50 191.79
-9755203.08 5135486.96 200.95
-9755203.34 5135485.78 203.01
-9755202.17 5135490.42 197.32
-9755202.15 5135488.01 202.90
-9755202.26 5135489.75 194.07
-9755203.30 5135485.53 197.61
-9755203.06 5135486.99 203.04
-9755202.10 5135490.30 194.31
-9755203.10 5135487.02 200.43
-9755201.49 5135487.75 192.36
-9755203.70 5135485.02 198.70
-9755205.47 5135485.40 191.53
-9755203.21 5135486.01 199.62
-9755205.19 5135488.53 192.63
-9755203.12 5135486.42 197.68
-9755206.52 5135484.93 193.97
-9755203.50 5135485.62 200.17
-9755200.03 5135497.62 194.69
-9755200.20 5135496.87 194.05
-9755200.08 5135497.56 197.10
-9755199.69 5135495.13 192.35
-9755199.87 5135498.54 194.60
-9755199.65 5135496.90 192.38
-9755200.04 5135498.30 197.21
-9755199.68 5135494.22 192.35
-9755194.58 5135496.58 193.09
-9755197.90 5135496.05 192.35
-9755194.65 5135497.78 192.30
-9755197.35 5135497.59 203.61
-9755197.26 5135496.00 192.33
-9755195.56 5135496.86 192.31
-9755194.67 5135494.21 192.28
-9755197.27 5135496.90 192.35
-9755197.25 5135497.45 192.35
-9755199.03 5135496.91 192.36
-9755195.24 5135496.53 193.12
-9755194.91 5135495.69 192.82
-9755196.41 5135498.38 192.33
-9755199.07 5135495.13 192.37
-9755197.20 5135496.81 203.58
-9755195.49 5135495.08 192.30
-9755197.27 5135498.36 192.34
-9755199.92 5135497.96 203.56
-9755198.18 5135494.51 192.33
-9755198.79 5135496.64 203.58
-9755194.06 5135495.05 193.84
-9755193.78 5135495.12 192.29
-9755199.18 5135497.87 203.72
-9755199.72 5135499.39 195.52
-9755199.77 5135499.53 199.45
-9755199.91 5135498.28 195.38
-9755199.87 5135499.40 194.49
-9755199.93 5135499.32 208.46
-9755200.00 5135498.49 203.02
-9755199.64 5135499.29 192.42
-9755200.00 5135498.73 199.60
-9755200.01 5135498.70 202.10
-9755199.75 5135499.28 202.90
-9755199.97 5135499.25 198.26
-9755195.48 5135498.94 192.32
-9755198.12 5135500.12 192.36
-9755196.82 5135500.48 203.64
-9755199.82 5135499.49 193.98
-9755199.16 5135499.40 203.65
-9755199.66 5135493.64 192.94
-9755199.66 5135492.74 192.36
-9755198.20 5135493.62 192.33
-9755193.83 5135492.77 192.27
-9755199.68 5135490.97 192.37
-9755197.89 5135492.73 192.33
-9755197.32 5135491.85 192.31
-9755195.59 5135490.94 192.29
-9755198.96 5135492.56 203.64
-9755198.73 5135493.58 192.88
-9755195.57 5135492.16 192.28
-9755199.65 5135491.04 203.51
-9755199.84 5135493.93 192.94
-9755198.71 5135493.64 203.57
-9755197.31 5135490.96 192.31
-9755194.97 5135490.95 192.28
-9755198.31 5135493.61 203.60
-9755193.18 5135496.27 192.31
-9755193.15 5135497.42 192.32
-9755193.16 5135494.51 192.28
-9755191.35 5135496.12 188.68
-9755190.86 5135496.74 190.61
-9755191.28 5135496.85 191.76
-9755191.27 5135496.72 187.83
-9755190.71 5135497.41 192.66
-9755191.35 5135496.92 188.51
-9755191.65 5135495.13 186.23
-9755191.41 5135495.17 189.77
-9755191.33 5135497.79 186.91
-9755188.72 5135495.03 186.20
-9755190.76 5135497.81 191.33
-9755190.90 5135497.64 188.85
-9755191.23 5135497.74 188.83
-9755189.89 5135495.08 186.22
-9755190.83 5135498.28 188.48
-9755191.64 5135495.97 187.10
-9755191.27 5135496.01 191.81
-9755191.34 5135496.12 189.66
-9755191.39 5135494.21 186.22
-9755190.86 5135498.49 190.30
-9755191.04 5135496.99 192.13
-9755191.22 5135497.66 188.07
-9755191.33 5135496.75 186.97
-9755190.83 5135498.28 192.77
-9755187.49 5135497.69 186.20
-9755190.87 5135496.27 193.29
-9755190.84 5135497.58 187.08
-9755188.11 5135496.82 186.20
-9755191.93 5135495.41 186.32
-9755191.55 5135494.66 188.89
-9755188.10 5135497.39 186.20
-9755192.13 5135494.08 187.94
-9755191.70 5135495.08 190.24
-9755189.85 5135497.46 186.21
-9755191.70 5135495.30 187.94
-9755190.84 5135498.50 191.00
-9755191.30 5135496.83 186.23
-9755191.69 5135495.17 188.88
-9755191.53 5135496.14 187.91
-9755191.37 5135496.67 189.59
-9755191.08 5135498.17 188.59
-9755191.30 5135497.69 186.28
-9755191.69 5135494.40 188.10
-9755187.21 5135494.42 186.19
-9755192.19 5135494.23 186.25
-9755191.01 5135496.86 186.76
-9755191.00 5135497.87 189.67
-9755190.74 5135498.50 186.82
-9755190.82 5135498.04 190.29
-9755191.95 5135493.99 189.67
-9755191.36 5135496.03 191.32
-9755190.93 5135496.39 192.33
-9755190.86 5135496.65 193.30
-9755191.80 5135494.30 187.00
-9755191.59 5135494.50 192.60
-9755191.24 5135498.28 186.29
-9755189.84 5135498.33 186.20
-9755191.25 5135497.76 191.06
-9755191.28 5135498.60 186.90
-9755191.17 5135498.16 189.54
-9755188.09 5135498.66 186.21
-9755190.56 5135498.53 191.71
-9755191.84 5135494.59 190.44
-9755191.08 5135498.07 191.30
-9755188.91 5135498.31 186.19
-9755188.93 5135499.49 186.20
-9755191.60 5135499.84 186.28
-9755191.25 5135499.19 193.28
-9755190.71 5135498.87 192.80
-9755190.79 5135499.30 191.18
-9755190.67 5135499.19 187.34
-9755190.73 5135499.24 189.37
-9755188.07 5135499.24 186.20
-9755191.29 5135499.55 186.27
-9755190.60 5135499.25 190.29
-9755191.06 5135499.08 188.89
-9755190.43 5135499.23 186.21
-9755190.57 5135499.97 189.95
-9755192.72 5135491.68 187.93
-9755194.06 5135490.98 192.27
-9755192.34 5135490.89 191.97
-9755192.78 5135491.80 191.41
-9755192.55 5135491.01 189.55
-9755192.92 5135490.79 189.75
-9755192.28 5135492.73 191.36
-9755192.32 5135492.75 192.31
-9755192.96 5135491.79 186.28
-9755193.00 5135491.08 188.75
-9755192.91 5135492.91 186.42
-9755192.28 5135492.75 190.56
-9755192.98 5135491.08 188.17
-9755193.03 5135493.71 186.20
-9755192.52 5135491.05 190.08
-9755192.57 5135490.84 187.93
-9755192.31 5135491.82 186.23
-9755193.14 5135491.11 186.31
-9755192.29 5135491.94 189.67
-9755192.29 5135493.45 187.21
-9755192.92 5135490.77 190.16
-9755192.91 5135491.10 191.10
-9755192.22 5135492.72 186.22
-9755192.28 5135492.54 188.99
-9755192.27 5135490.93 186.22
-9755192.29 5135492.89 187.84
-9755192.18 5135493.71 189.77
-9755190.78 5135491.81 186.21
-9755192.26 5135493.36 188.67
-9755191.33 5135492.70 186.22
-9755189.60 5135491.81 186.22
-9755188.09 5135492.67 186.21
-9755188.40 5135493.57 186.21
-9755192.25 5135493.68 190.41
-9755191.40 5135493.75 192.03
-9755192.23 5135492.60 189.49
-9755191.37 5135492.12 186.22
-9755191.38 5135491.20 186.21
-9755190.79 5135490.92 186.22
-9755199.46 5135481.23 192.30
-9755199.78 5135484.48 192.32
-9755196.97 5135477.08 190.35
-9755197.44 5135475.67 191.29
-9755196.51 5135476.38 187.71
-9755197.13 5135476.28 192.11
-9755197.33 5135478.00 193.31
-9755196.24 5135479.70 191.20
-9755194.19 5135484.49 191.75
-9755193.79 5135481.04 187.71
-9755195.64 5135480.89 190.33
-9755195.60 5135479.91 192.45
-9755194.70 5135483.64 191.77
-9755196.48 5135478.75 187.73
-9755197.35 5135482.97 192.30
-9755197.96 5135482.70 192.34
-9755195.59 5135481.11 193.03
-9755196.97 5135477.94 190.52
-9755197.08 5135477.00 188.56
-9755198.88 5135483.60 192.30
-9755198.24 5135483.56 192.29
-9755197.21 5135476.18 191.07
-9755198.85 5135482.07 192.31
-9755195.29 5135481.76 190.56
-9755197.79 5135475.62 189.66
-9755194.53 5135484.62 187.06
-9755194.67 5135482.03 188.01
-9755198.03 5135473.78 192.25
-9755194.70 5135482.93 191.82
-9755197.93 5135479.39 192.94
-9755198.87 5135476.16 192.29
-9755198.80 5135480.22 193.00
-9755198.04 5135474.38 192.32
-9755196.53 5135478.75 193.33
-9755196.28 5135478.68 190.36
-9755196.35 5135479.36 189.27
-9755195.84 5135480.24 189.86
-9755197.13 5135476.02 192.95
-9755197.34 5135476.92 187.75
-9755194.95 5135483.26 187.74
-9755197.65 5135476.88 187.88
-9755194.63 5135482.65 186.32
-9755195.34 5135477.86 187.70
-9755198.89 5135480.89 192.28
-9755198.01 5135474.01 188.79
-9755197.10 5135477.06 191.38
-9755197.67 5135475.16 188.66
-9755197.11 5135473.70 187.71
-9755197.18 5135477.87 191.73
-9755196.19 5135480.19 189.35
-9755198.06 5135473.84 189.43
-9755197.94 5135474.75 191.23
-9755197.99 5135479.62 193.48
-9755198.20 5135474.60 187.73
-9755195.30 5135481.96 189.59
-9755195.62 5135481.08 189.45
-9755197.86 5135475.29 191.32
-9755197.99 5135482.07 192.32
-9755198.00 5135474.54 189.74
-9755197.89 5135474.66 188.71
-9755198.87 5135479.46 192.29
-9755194.09 5135484.44 186.24
-9755194.70 5135484.25 189.47
-9755198.03 5135474.79 190.17
-9755194.22 5135483.60 193.26
-9755197.12 5135478.57 187.68
-9755197.37 5135483.58 192.29
-9755197.96 5135477.93 192.29
-9755194.95 5135483.31 183.79
-9755197.97 5135480.07 192.30
-9755197.21 5135476.21 193.30
-9755195.54 5135480.43 190.08
-9755194.08 5135483.08 182.97
-9755194.66 5135480.18 187.71
-9755196.61 5135478.65 188.52
-9755198.65 5135479.47 193.51
-9755196.47 5135473.74 187.70
-9755195.58 5135480.49 187.73
-9755194.77 5135475.37 190.34
-9755198.92 5135478.56 192.28
-9755195.57 5135479.66 187.72
-9755194.69 5135483.96 189.72
-9755193.72 5135482.71 183.92
-9755195.60 5135476.96 187.71
-9755195.62 5135481.04 187.73
-9755197.18 5135475.23 191.91
-9755195.32 5135481.91 188.87
-9755196.42 5135481.36 187.81
-9755196.43 5135479.50 190.54
-9755197.73 5135476.47 193.31
-9755195.56 5135476.13 187.70
-9755196.54 5135478.69 189.42
-9755196.51 5135477.74 190.31
-9755194.41 5135484.31 188.01
-9755198.87 5135474.38 192.31
-9755197.91 5135475.38 187.97
-9755196.19 5135480.04 188.88
-9755199.47 5135478.75 193.80
-9755197.66 5135475.98 190.06
-9755197.07 5135480.34 192.30
-9755198.60 5135472.88 192.31
-9755194.85 5135482.61 190.17
-9755194.74 5135483.66 189.13
-9755194.59 5135484.53 190.45
-9755197.70 5135475.46 190.49
-9755195.30 5135481.91 190.91
-9755194.91 5135484.72 186.40
-9755196.74 5135477.76 191.25
-9755195.72 5135480.30 188.91
-9755194.68 5135483.05 183.22
-9755197.47 5135475.53 193.32
-9755196.21 5135480.51 187.77
-9755195.80 5135479.34 189.79
-9755195.53 5135481.75 191.75
-9755197.10 5135477.55 191.38
-9755194.06 5135483.49 186.45
-9755194.84 5135483.75 185.20
-9755196.81 5135477.33 192.31
-9755194.02 5135483.33 182.86
-9755197.48 5135474.74 190.91
-9755195.00 5135482.79 188.86
-9755198.80 5135484.47 192.31
-9755194.21 5135484.68 189.67
-9755193.79 5135480.18 187.70
-9755193.82 5135478.74 187.70
-9755197.37 5135475.49 187.72
-9755195.33 5135482.62 189.08
-9755194.32 5135484.49 191.13
-9755197.12 5135477.81 189.66
-9755196.82 5135477.08 191.25
-9755195.32 5135482.71 187.03
-9755195.57 5135484.46 192.31
-9755196.45 5135483.83 192.31
-9755194.32 5135484.35 187.93
-9755193.84 5135473.84 190.33
-9755198.87 5135473.66 187.85
-9755198.69 5135479.01 193.85
-9755195.02 5135482.36 188.82
-9755193.98 5135474.56 189.83
-9755194.10 5135477.83 187.70
-9755196.78 5135476.68 193.31
-9755197.07 5135481.20 192.31
-9755195.57 5135478.72 187.71
-9755196.00 5135480.45 190.55
-9755196.00 5135480.10 191.17
-9755193.89 5135472.85 188.56
-9755197.51 5135475.43 189.66
-9755195.33 5135482.61 193.30
-9755198.50 5135474.34 193.34
-9755194.55 5135483.65 183.36
-9755198.30 5135472.89 191.19
-9755195.04 5135482.03 193.33
-9755194.14 5135483.95 191.53
-9755197.87 5135475.98 187.74
-9755195.97 5135479.41 193.30
-9755194.53 5135483.66 182.45
-9755194.95 5135482.21 189.28
-9755194.21 5135484.38 192.95
-9755200.02 5135490.71 189.03
-9755200.01 5135487.89 193.21
-9755199.69 5135487.71 192.35
-9755199.70 5135489.15 192.34
-9755199.69 5135490.07 192.34
-9755198.21 5135489.49 192.32
-9755194.57 5135484.60 191.15
-9755195.58 5135489.46 192.28
-9755196.37 5135488.54 192.79
-9755198.78 5135489.54 192.34
-9755193.85 5135486.08 192.88
-9755199.67 5135488.50 193.38
-9755194.14 5135485.37 190.20
-9755195.57 5135488.57 192.28
-9755198.84 5135485.33 192.32
-9755193.92 5135485.97 191.23
-9755199.13 5135487.67 193.24
-9755193.90 5135486.26 188.90
-9755197.92 5135486.23 192.31
-9755195.58 5135485.32 192.31
-9755197.36 5135485.36 192.30
-9755199.75 5135487.96 193.39
-9755197.93 5135486.81 192.31
-9755194.01 5135485.20 188.77
-9755194.04 5135486.11 189.58
-9755194.29 5135485.41 189.54
-9755194.12 5135484.72 188.53
-9755199.88 5135488.55 203.57
-9755197.39 5135486.78 192.30
-9755200.08 5135487.27 203.63
-9755196.43 5135490.35 192.29
-9755194.05 5135486.16 186.82
-9755198.80 5135487.98 192.34
-9755197.30 5135489.51 192.31
-9755196.47 5135485.03 192.31
-9755198.81 5135485.96 192.32
-9755195.59 5135487.68 192.28
-9755194.01 5135486.91 188.61
-9755194.54 5135485.45 191.55
-9755193.81 5135486.96 190.07
-9755197.05 5135488.80 192.72
-9755194.38 5135485.21 187.39
-9755194.05 5135485.35 186.25
-9755193.93 5135486.88 189.41
-9755194.37 5135485.01 186.25
-9755194.17 5135485.09 190.97
-9755193.75 5135487.12 187.03
-9755196.70 5135487.19 193.82
-9755199.39 5135487.09 193.19
-9755193.79 5135486.94 191.20
-9755193.31 5135473.94 189.72
-9755193.24 5135482.79 183.69
-9755193.17 5135481.93 184.35
-9755192.24 5135482.81 184.58
-9755193.30 5135473.74 187.68
-9755193.17 5135482.03 187.89
-9755192.62 5135482.01 184.25
-9755192.34 5135481.34 188.03
-9755192.79 5135482.35 183.87
-9755193.18 5135484.48 186.23
-9755192.34 5135479.62 187.70
-9755192.86 5135483.12 185.13
-9755192.30 5135478.68 187.68
-9755193.11 5135482.90 183.09
-9755192.36 5135482.73 183.14
-9755192.69 5135490.39 191.05
-9755193.82 5135487.07 187.86
-9755192.91 5135490.60 191.06
-9755193.06 5135490.00 186.25
-9755193.74 5135486.16 188.08
-9755193.19 5135489.49 189.47
-9755192.99 5135490.19 188.62
-9755193.16 5135489.52 188.66
-9755193.20 5135489.48 191.11
-9755193.18 5135489.45 186.26
-9755193.18 5135489.26 190.41
-9755193.03 5135488.59 188.78
-9755193.69 5135487.55 191.12
-9755193.16 5135489.35 187.76
-9755193.15 5135488.84 187.00
-9755192.96 5135490.27 187.20
-9755192.97 5135490.21 192.84
-9755193.24 5135488.72 191.04
-9755193.15 5135489.19 192.18
-9755192.86 5135487.69 186.22
-9755192.43 5135489.64 193.32
-9755192.93 5135485.90 186.24
-9755193.18 5135485.27 186.23
-9755193.83 5135487.67 190.50
-9755193.00 5135490.21 190.36
-9755193.72 5135487.62 189.67
-9755193.23 5135488.64 191.99
-9755192.63 5135489.73 192.25
-9755193.83 5135489.67 186.28
-9755192.87 5135490.11 189.77
-9755193.07 5135489.62 187.17
-9755193.40 5135487.95 187.12
-9755193.15 5135486.76 186.22
-9755192.29 5135489.15 186.21
-9755193.70 5135487.62 188.45
-9755193.68 5135487.98 187.85
-9755192.04 5135486.17 186.22
-9755193.01 5135489.37 192.72
-9755192.56 5135490.46 187.03
-9755193.62 5135487.71 187.03
-9755193.48 5135487.83 190.27
-9755193.79 5135486.17 186.25
-9755192.26 5135488.59 186.21
-9755193.76 5135487.64 186.26
-9755193.48 5135487.66 193.32
-9755188.19 5135482.01 186.45
-9755187.32 5135480.18 181.54
-9755188.86 5135473.68 187.64
-9755189.70 5135473.95 187.64
-9755190.61 5135475.45 187.66
-9755188.18 5135483.45 186.19
-9755189.70 5135482.88 186.29
-9755187.29 5135482.02 186.45
-9755190.00 5135475.46 187.66
-9755188.21 5135479.55 182.84
-9755187.31 5135475.43 187.64
-9755190.60 5135482.77 184.34
-9755189.11 5135478.11 187.66
-9755192.15 5135482.98 182.22
-9755188.43 5135480.41 182.46
-9755189.81 5135482.12 186.46
-9755191.43 5135481.10 187.99
-9755188.20 5135480.14 182.93
-9755191.48 5135482.92 186.45
-9755191.44 5135483.54 186.24
-9755189.90 5135481.04 181.63
-9755191.49 5135473.64 188.02
-9755191.46 5135479.61 187.68
-9755187.34 5135484.39 186.18
-9755189.01 5135480.16 181.62
-9755190.62 5135476.90 187.67
-9755191.49 5135474.84 187.67
-9755189.94 5135481.74 181.62
-9755191.57 5135482.09 181.64
-9755190.92 5135473.54 190.32
-9755187.34 5135476.32 187.63
-9755190.56 5135477.80 187.68
-9755187.35 5135474.60 187.63
-9755189.70 5135476.94 187.66
-9755189.63 5135482.46 181.67
-9755189.17 5135474.60 187.65
-9755188.86 5135479.75 188.02
-9755188.81 5135480.23 183.26
-9755191.36 5135482.76 184.35
-9755190.60 5135476.39 187.66
-9755188.24 5135480.43 181.57
-9755189.57 5135479.95 181.61
-9755189.64 5135479.31 188.03
-9755189.74 5135480.33 188.03
-9755190.74 5135481.98 181.63
-9755191.51 5135476.35 187.68
-9755190.91 5135474.58 187.66
-9755189.82 5135482.70 184.53
-9755189.55 5135479.72 181.63
-9755190.65 5135473.08 187.66
-9755188.75 5135480.21 182.40
-9755191.46 5135480.47 187.71
-9755192.00 5135482.28 182.05
-9755190.86 5135478.70 187.67
