-9755305.69 5135492.73 181.33
-9755300.08 5135493.60 181.30
-9755298.64 5135493.27 181.30
-9755304.21 5135494.49 181.32
-9755306.60 5135493.60 181.33
-9755296.83 5135493.28 181.30
-9755299.48 5135492.71 181.31
-9755301.88 5135491.79 181.31
-9755301.27 5135491.80 181.30
-9755301.00 5135494.18 181.31
-9755296.00 5135492.66 181.30
-9755295.97 5135494.12 181.30
-9755308.36 5135492.75 181.34
-9755303.37 5135492.13 181.32
-9755298.62 5135492.72 181.30
-9755306.62 5135494.45 181.32
-9755305.10 5135494.48 181.32
-9755307.45 5135494.51 181.33
-9755305.12 5135492.41 181.31
-9755300.09 5135494.16 181.31
-9755296.60 5135491.78 181.30
-9755293.06 5135492.06 181.28
-9755294.53 5135495.01 181.29
-9755294.50 5135494.14 181.29
-9755293.61 5135493.23 181.29
-9755308.73 5135477.03 181.29
-9755301.95 5135480.86 181.29
-9755307.54 5135476.75 181.28
-9755301.05 5135482.94 181.29
-9755300.17 5135483.80 181.29
-9755303.48 5135475.51 181.28
-9755301.95 5135477.31 181.28
-9755303.43 5135476.41 181.27
-9755306.64 5135477.01 181.27
-9755299.01 5135483.48 181.29
-9755299.33 5135478.77 181.27
-9755297.53 5135480.21 181.28
-9755300.16 5135481.43 181.28
-9755305.78 5135477.94 181.29
-9755308.14 5135481.16 181.30
-9755298.44 5135474.60 181.26
-9755298.43 5135479.95 181.29
-9755307.52 5135483.55 181.29
-9755304.00 5135483.52 181.30
-9755304.34 5135474.36 181.27
-9755306.93 5135482.66 181.30
-9755303.75 5135474.36 181.27
-9755305.21 5135476.40 181.28
-9755306.64 5135482.05 181.29
-9755300.18 5135480.53 181.28
-9755306.06 5135482.65 181.30
-9755303.40 5135482.06 181.29
-9755301.09 5135476.07 181.27
-9755298.42 5135475.23 181.27
-9755308.18 5135475.29 181.28
-9755302.58 5135474.63 181.26
-9755306.68 5135474.67 181.27
-9755307.57 5135478.81 181.29
-9755304.30 5135481.73 181.28
-9755299.28 5135474.35 181.27
-9755307.56 5135484.44 181.30
-9755297.81 5135477.04 181.26
-9755303.48 5135477.31 181.28
-9755300.20 5135478.79 181.27
-9755305.84 5135473.76 181.26
-9755296.03 5135480.22 181.29
-9755297.79 5135481.13 181.30
-9755306.92 5135484.41 181.30
-9755306.08 5135480.57 181.29
-9755306.97 5135480.29 181.28
-9755304.32 5135476.14 181.29
-9755299.35 5135477.28 181.28
-9755306.70 5135476.43 181.27
-9755298.39 5135484.40 181.30
-9755305.20 5135485.04 181.31
-9755295.11 5135482.89 181.29
-9755295.47 5135477.86 181.28
-9755298.41 5135479.32 181.28
-9755300.18 5135485.26 181.30
-9755296.07 5135477.58 181.28
-9755295.18 5135481.16 181.29
-9755298.69 5135485.29 181.30
-9755295.19 5135478.73 181.28
-9755301.07 5135479.05 181.28
-9755302.56 5135482.93 181.29
-9755308.43 5135473.79 181.27
-9755304.97 5135473.78 181.27
-9755307.57 5135473.51 181.27
-9755293.66 5135483.76 181.27
-9755295.41 5135483.79 181.30
-9755292.82 5135481.98 181.29
-9755294.55 5135484.33 181.29
-9755293.39 5135482.85 181.29
-9755294.31 5135477.26 181.28
-9755292.48 5135484.37 181.28
-9755294.57 5135479.61 181.29
-9755292.52 5135478.71 181.27
-9755293.71 5135474.59 181.26
-9755293.78 5135473.98 181.25
-9755292.82 5135473.98 181.26
-9755294.64 5135478.75 181.28
-9755293.43 5135477.25 181.28
-9755292.80 5135485.24 181.28
-9755294.56 5135483.49 181.29
-9755301.92 5135485.30 181.30
-9755303.63 5135489.73 181.31
-9755296.90 5135486.13 181.28
-9755295.75 5135488.48 181.29
-9755295.96 5135491.18 181.30
-9755306.04 5135488.27 181.31
-9755300.99 5135490.89 181.30
-9755302.81 5135488.57 181.31
-9755303.38 5135490.05 181.32
-9755296.04 5135489.11 181.28
-9755302.47 5135490.93 181.31
-9755307.52 5135486.84 181.31
-9755300.98 5135489.43 181.31
-9755307.55 5135487.69 181.31
-9755308.44 5135490.35 181.34
-9755304.60 5135486.19 181.31
-9755296.87 5135490.03 181.28
-9755306.07 5135489.19 181.32
-9755304.27 5135489.17 181.31
-9755307.79 5135490.07 181.31
-9755308.66 5135489.48 181.33
-9755300.08 5135489.69 181.31
-9755299.26 5135489.41 181.30
-9755302.79 5135487.68 181.31
-9755295.42 5135490.00 181.29
-9755305.12 5135490.94 181.32
-9755305.69 5135490.94 181.32
-9755300.15 5135488.54 181.30
-9755308.39 5135486.82 181.32
-9755295.41 5135489.42 181.29
-9755294.24 5135486.99 181.29
-9755292.75 5135489.41 181.28
-9755292.49 5135490.90 181.29
-9755294.54 5135487.59 181.29
-9755293.69 5135489.97 181.29
-9755292.80 5135486.15 181.27
-9755297.01 5135473.76 181.26
-9755296.95 5135473.12 181.26
-9755303.76 5135472.90 181.26
-9755295.49 5135473.11 181.26
-9755292.53 5135473.10 181.25
-9755293.75 5135471.95 181.25
-9755298.76 5135471.09 181.26
-9755295.20 5135471.35 181.25
-9755304.95 5135470.20 181.24
-9755299.34 5135471.41 181.25
-9755302.54 5135471.99 181.25
-9755300.27 5135470.47 181.23
-9755302.88 5135470.47 181.25
-9755301.46 5135470.20 181.26
-9755299.34 5135470.50 181.24
-9755307.04 5135471.09 181.25
-9755296.13 5135471.36 181.25
-9755307.60 5135470.21 181.24
-9755294.62 5135470.73 181.24
-9755294.65 5135471.33 181.25
-9755293.77 5135471.05 181.25
-9755295.50 5135472.25 181.26
-9755296.11 5135472.23 181.25
-9755301.68 5135471.98 181.24
-9755297.85 5135471.92 181.26
-9755297.01 5135471.97 181.26
-9755393.70 5135518.35 181.49
-9755397.80 5135522.56 181.47
-9755394.33 5135517.22 181.48
-9755391.35 5135517.78 181.51
-9755391.33 5135519.57 181.52
-9755390.16 5135521.04 181.52
-9755390.47 5135518.96 181.51
-9755391.09 5135518.06 181.50
-9755392.17 5135520.73 181.51
-9755389.01 5135516.29 181.51
-9755391.33 5135520.45 181.52
-9755397.27 5135517.55 181.45
-9755388.64 5135521.31 181.53
-9755394.31 5135518.39 181.48
-9755397.21 5135521.38 181.47
-9755389.59 5135518.67 181.52
-9755396.06 5135518.95 181.47
-9755389.26 5135520.38 181.52
-9755390.49 5135516.28 181.50
-9755397.24 5135518.11 181.45
-9755393.08 5135519.27 181.50
-9755388.70 5135516.27 181.50
-9755388.40 5135517.21 181.51
-9755395.46 5135519.62 181.48
-9755394.02 5135517.20 181.48
-9755397.53 5135517.54 181.45
-9755388.66 5135518.97 181.52
-9755391.97 5135520.45 181.51
-9755397.56 5135518.66 181.45
-9755396.63 5135520.49 181.48
-9755396.08 5135518.71 181.46
-9755392.52 5135521.32 181.53
-9755389.56 5135518.06 181.52
-9755388.43 5135516.28 181.50
-9755387.81 5135516.28 181.51
-9755384.57 5135518.94 181.52
-9755383.39 5135518.06 181.51
-9755382.84 5135516.55 181.51
-9755381.88 5135518.30 181.52
-9755384.32 5135516.28 181.51
-9755383.07 5135521.91 181.52
-9755383.11 5135517.17 181.51
-9755384.58 5135518.33 181.52
-9755384.54 5135520.72 181.51
-9755385.13 5135521.85 181.53
-9755382.80 5135518.33 181.52
-9755387.51 5135521.06 181.52
-9755386.32 5135517.45 181.51
-9755387.23 5135520.39 181.52
-9755386.63 5135521.84 181.53
-9755386.29 5135522.48 181.54
-9755386.32 5135520.43 181.52
-9755387.81 5135518.37 181.52
-9755385.45 5135520.68 181.53
-9755384.90 5135517.76 181.50
-9755383.39 5135517.12 181.52
-9755386.92 5135519.51 181.52
-9755386.32 5135521.63 181.53
-9755381.30 5135520.40 181.51
-9755378.90 5135522.73 181.55
-9755374.79 5135522.68 181.54
-9755377.23 5135516.21 181.51
-9755375.73 5135522.71 181.54
-9755376.28 5135518.54 181.51
-9755379.86 5135520.07 181.53
-9755378.39 5135522.73 181.55
-9755381.29 5135520.70 181.52
-9755380.46 5135521.55 181.52
-9755375.44 5135517.71 181.52
-9755380.40 5135522.47 181.54
-9755379.56 5135520.70 181.54
-9755378.95 5135519.79 181.53
-9755375.68 5135522.17 181.54
-9755378.36 5135517.09 181.51
-9755376.29 5135522.72 181.54
-9755374.84 5135516.80 181.51
-9755378.36 5135520.95 181.54
-9755376.62 5135519.17 181.52
-9755375.69 5135519.78 181.51
-9755378.66 5135518.00 181.52
-9755378.94 5135521.50 181.54
-9755378.09 5135521.85 181.54
-9755378.35 5135518.01 181.51
-9755380.14 5135519.49 181.52
-9755375.99 5135521.84 181.54
-9755379.23 5135520.40 181.52
-9755378.65 5135518.87 181.52
-9755376.56 5135521.25 181.54
-9755379.55 5135521.58 181.54
-9755376.93 5135516.25 181.51
-9755375.75 5135519.49 181.52
-9755375.70 5135521.24 181.54
-9755376.32 5135517.39 181.52
-9755376.89 5135521.27 181.54
-9755375.77 5135517.09 181.52
-9755378.94 5135522.16 181.54
-9755373.93 5135522.71 181.54
-9755374.55 5135517.97 181.52
-9755374.23 5135517.96 181.51
-9755373.05 5135520.35 181.52
-9755373.01 5135519.75 181.51
-9755373.36 5135522.71 181.54
-9755373.96 5135517.38 181.51
-9755373.03 5135522.09 181.53
-9755365.67 5135521.17 181.53
-9755364.81 5135518.82 181.52
-9755369.20 5135522.70 181.52
-9755364.76 5135520.89 181.52
-9755366.56 5135517.65 181.51
-9755370.43 5135517.92 181.51
-9755371.57 5135520.09 181.52
-9755362.49 5135516.41 181.51
-9755368.06 5135522.38 181.52
-9755364.81 5135520.00 181.52
-9755372.22 5135518.26 181.51
-9755365.64 5135522.35 181.52
-9755363.93 5135518.20 181.51
-9755368.06 5135517.66 181.50
-9755371.30 5135516.48 181.51
-9755370.66 5135522.40 181.52
-9755371.93 5135517.68 181.51
-9755369.52 5135517.95 181.51
-9755369.76 5135522.65 181.53
-9755361.62 5135517.91 181.51
-9755368.95 5135518.23 181.51
-9755369.81 5135521.77 181.52
-9755370.09 5135520.31 181.51
-9755369.50 5135520.34 181.52
-9755368.97 5135517.63 181.51
-9755366.57 5135520.30 181.51
-9755372.18 5135517.39 181.51
-9755363.66 5135518.77 181.51
-9755369.81 5135522.08 181.52
-9755361.57 5135516.44 181.50
-9755362.45 5135517.91 181.51
-9755370.70 5135521.18 181.52
-9755370.71 5135518.26 181.51
-9755366.86 5135520.28 181.51
-9755370.38 5135519.46 181.51
-9755363.95 5135521.18 181.52
-9755369.83 5135518.85 181.51
-9755361.90 5135517.92 181.51
-9755370.98 5135517.08 181.51
-9755364.18 5135521.18 181.52
-9755367.45 5135519.40 181.52
-9755366.54 5135518.79 181.51
-9755366.60 5135516.47 181.51
-9755367.45 5135521.18 181.51
-9755371.29 5135517.65 181.50
-9755366.61 5135520.57 181.51
-9755371.28 5135518.82 181.51
-9755361.82 5135519.66 181.52
-9755364.45 5135522.67 181.52
-9755367.74 5135522.06 181.51
-9755362.78 5135520.30 181.51
-9755365.37 5135520.27 181.52
-9755370.15 5135518.86 181.51
-9755371.26 5135521.23 181.52
-9755367.47 5135522.69 181.53
-9755366.54 5135522.10 181.51
-9755361.84 5135522.02 181.53
-9755363.33 5135522.00 181.52
-9755371.58 5135518.88 181.51
-9755368.05 5135520.62 181.52
-9755363.09 5135517.32 181.51
-9755369.83 5135520.03 181.51
-9755371.87 5135521.25 181.51
-9755369.84 5135516.79 181.51
-9755361.59 5135519.68 181.52
-9755353.31 5135519.92 181.51
-9755358.02 5135520.85 181.52
-9755359.76 5135518.80 181.51
-9755356.53 5135522.62 181.53
-9755355.04 5135522.59 181.51
-9755358.63 5135520.28 181.52
-9755357.41 5135522.65 181.52
-9755359.24 5135517.92 181.51
-9755358.35 5135518.18 181.51
-9755355.05 5135519.67 181.49
-9755353.03 5135520.19 181.51
-9755360.42 5135517.90 181.51
-9755354.19 5135518.18 181.50
-9755353.56 5135522.02 181.51
-9755358.64 5135518.78 181.51
-9755357.72 5135519.67 181.51
-9755355.66 5135522.60 181.52
-9755351.81 5135517.85 181.49
-9755359.19 5135521.41 181.52
-9755360.95 5135520.29 181.52
-9755360.94 5135522.03 181.52
-9755359.79 5135522.61 181.53
-9755354.21 5135516.41 181.47
-9755351.88 5135516.97 181.49
-9755359.22 5135517.28 181.51
-9755351.82 5135520.20 181.49
-9755360.72 5135518.17 181.51
-9755360.96 5135522.64 181.53
-9755352.41 5135519.64 181.50
-9755356.82 5135521.97 181.52
-9755352.71 5135522.59 181.51
-9755359.47 5135521.13 181.53
-9755358.92 5135521.16 181.53
-9755356.54 5135517.27 181.50
-9755361.01 5135517.90 181.52
-9755357.12 5135522.03 181.51
-9755360.96 5135521.16 181.51
-9755357.13 5135521.11 181.51
-9755358.88 5135522.64 181.52
-9755349.21 5135517.87 181.48
-9755350.08 5135516.11 181.47
-9755351.54 5135518.46 181.49
-9755349.50 5135518.76 181.49
-9755350.66 5135518.74 181.49
-9755350.68 5135518.14 181.48
-9755350.62 5135522.01 181.50
-9755349.44 5135521.96 181.49
-9755349.19 5135516.62 181.49
-9755350.42 5135516.06 181.48
-9755350.32 5135521.13 181.49
-9755348.31 5135518.74 181.48
-9755348.27 5135521.93 181.50
-9755346.54 5135516.93 181.47
-9755347.77 5135516.91 181.47
-9755346.24 5135517.81 181.48
-9755348.32 5135521.09 181.49
-9755348.28 5135520.52 181.49
-9755346.85 5135519.59 181.47
-9755346.81 5135520.48 181.49
-9755346.82 5135517.22 181.48
-9755347.77 5135516.37 181.47
-9755345.93 5135516.04 181.46
-9755395.79 5135512.15 181.44
-9755393.75 5135512.74 181.44
-9755389.60 5135512.44 181.51
-9755396.97 5135512.53 181.44
-9755397.02 5135511.63 181.42
-9755396.39 5135512.76 181.43
-9755396.66 5135512.78 181.44
-9755393.48 5135512.44 181.46
-9755397.56 5135511.92 181.43
-9755381.37 5135511.81 181.49
-9755386.34 5135512.70 181.50
-9755381.98 5135512.42 181.50
-9755385.79 5135512.70 181.51
-9755382.56 5135512.09 181.49
-9755396.95 5135515.99 181.44
-9755393.67 5135516.02 181.48
-9755388.41 5135515.39 181.51
-9755396.67 5135515.47 181.45
-9755394.36 5135515.99 181.47
-9755392.82 5135515.69 181.48
-9755389.03 5135514.50 181.50
-9755391.97 5135514.52 181.48
-9755394.89 5135515.40 181.47
-9755394.29 5135514.51 181.46
-9755393.44 5135514.78 181.46
-9755394.34 5135513.34 181.45
-9755390.49 5135515.11 181.50
-9755397.56 5135514.85 181.44
-9755387.82 5135513.62 181.50
-9755384.27 5135513.60 181.50
-9755384.28 5135514.44 181.50
-9755384.30 5135513.00 181.50
-9755381.62 5135515.95 181.51
-9755382.84 5135512.75 181.50
-9755381.65 5135512.71 181.50
-9755381.37 5135515.37 181.50
-9755381.98 5135514.46 181.50
-9755384.31 5135515.34 181.51
-9755387.21 5135513.31 181.50
-9755386.92 5135514.48 181.51
-9755392.97 5135492.92 181.39
-9755397.09 5135490.00 181.31
-9755394.43 5135497.36 181.39
-9755391.23 5135488.19 181.38
-9755397.69 5135488.51 181.55
-9755396.45 5135497.08 181.38
-9755391.27 5135492.04 181.39
-9755397.67 5135492.97 181.32
-9755392.10 5135495.88 181.42
-9755391.79 5135491.48 181.38
-9755391.17 5135498.83 181.44
-9755388.84 5135493.22 181.41
-9755396.16 5135496.50 181.37
-9755393.53 5135496.47 181.39
-9755390.32 5135493.48 181.42
-9755390.89 5135494.68 181.42
-9755397.72 5135486.73 181.55
-9755397.14 5135487.92 181.76
-9755397.18 5135488.20 181.29
-9755397.11 5135486.93 181.94
-9755390.34 5135488.45 181.38
-9755397.69 5135489.99 181.31
-9755394.42 5135497.05 181.39
-9755394.44 5135494.43 181.39
-9755397.70 5135487.31 181.54
-9755395.25 5135498.24 181.40
-9755394.43 5135498.84 181.40
-9755395.04 5135495.32 181.39
-9755388.86 5135489.93 181.42
-9755395.37 5135491.48 181.36
-9755395.89 5135492.65 181.37
-9755390.29 5135496.17 181.43
-9755395.90 5135497.38 181.38
-9755388.86 5135490.26 181.42
-9755397.67 5135487.65 181.99
-9755391.81 5135489.94 181.37
-9755396.22 5135489.65 181.32
-9755392.13 5135489.69 181.38
-9755392.04 5135494.98 181.40
-9755390.62 5135491.42 181.39
-9755397.47 5135488.23 181.47
-9755396.70 5135486.63 181.30
-9755390.57 5135496.43 181.43
-9755397.03 5135498.30 181.38
-9755396.82 5135496.46 181.37
-9755396.45 5135499.43 181.37
-9755397.47 5135488.80 181.74
-9755397.75 5135489.67 181.77
-9755393.57 5135496.77 181.39
-9755397.42 5135491.46 181.32
-9755391.46 5135496.17 181.42
-9755392.12 5135494.10 181.38
-9755389.38 5135497.36 181.43
-9755395.93 5135491.73 181.35
-9755396.83 5135492.95 181.34
-9755393.33 5135490.54 181.37
-9755395.06 5135490.87 181.36
-9755394.43 5135496.47 181.40
-9755389.16 5135491.42 181.42
-9755392.32 5135498.25 181.44
-9755395.01 5135494.13 181.38
-9755390.02 5135489.66 181.40
-9755389.40 5135494.97 181.43
-9755388.87 5135488.73 181.42
-9755391.76 5135496.18 181.42
-9755397.05 5135492.66 181.35
-9755394.75 5135487.87 181.35
-9755388.54 5135491.73 181.42
-9755395.95 5135492.95 181.37
-9755397.67 5135494.70 181.33
-9755394.73 5135490.89 181.37
-9755396.23 5135490.85 181.34
-9755396.80 5135489.34 181.31
-9755395.60 5135496.50 181.39
-9755390.31 5135498.25 181.43
-9755391.19 5135490.90 181.39
-9755394.44 5135491.45 181.37
-9755397.08 5135488.19 181.75
-9755393.25 5135498.84 181.42
-9755391.76 5135498.85 181.44
-9755394.13 5135496.48 181.40
-9755391.17 5135497.32 181.43
-9755389.49 5135486.98 181.38
-9755395.02 5135498.83 181.39
-9755395.58 5135497.39 181.39
-9755397.08 5135487.55 181.82
-9755395.34 5135492.60 181.37
-9755386.48 5135495.49 181.45
-9755381.44 5135498.44 181.44
-9755384.75 5135489.89 181.43
-9755384.70 5135494.36 181.44
-9755383.19 5135498.78 181.45
-9755387.43 5135489.64 181.41
-9755382.12 5135491.35 181.42
-9755383.27 5135493.75 181.43
-9755385.63 5135490.21 181.44
-9755384.42 5135492.29 181.42
-9755383.24 5135489.87 181.42
-9755382.95 5135490.18 181.42
-9755384.67 5135497.30 181.44
-9755381.51 5135488.12 181.42
-9755387.68 5135492.03 181.42
-9755387.93 5135497.95 181.44
-9755385.57 5135498.22 181.44
-9755386.46 5135494.99 181.45
-9755385.04 5135492.88 181.44
-9755386.19 5135490.48 181.43
-9755382.34 5135489.88 181.42
-9755387.65 5135494.13 181.44
-9755387.07 5135492.90 181.43
-9755383.23 5135494.92 181.44
-9755386.20 5135489.91 181.42
-9755385.29 5135496.44 181.44
-9755381.79 5135487.19 181.41
-9755387.36 5135492.85 181.43
-9755382.98 5135487.82 181.42
-9755381.76 5135489.89 181.42
-9755387.74 5135487.32 181.41
-9755386.54 5135486.66 181.41
-9755381.80 5135489.02 181.43
-9755384.74 5135488.43 181.43
-9755381.48 5135496.96 181.43
-9755384.13 5135488.11 181.43
-9755383.23 5135489.02 181.42
-9755384.36 5135498.79 181.44
-9755382.35 5135496.44 181.43
-9755384.77 5135487.31 181.42
-9755382.65 5135488.09 181.42
-9755387.64 5135495.55 181.44
-9755384.71 5135496.11 181.44
-9755387.99 5135489.97 181.41
-9755381.44 5135497.93 181.44
-9755384.46 5135489.33 181.42
-9755387.97 5135493.81 181.43
-9755383.25 5135497.32 181.44
-9755382.02 5135498.50 181.44
-9755384.48 5135486.63 181.42
-9755386.50 5135487.89 181.41
-9755382.93 5135492.89 181.44
-9755385.63 5135488.17 181.42
-9755383.23 5135493.18 181.44
-9755392.07 5135499.71 181.44
-9755394.66 5135511.32 181.44
-9755389.71 5135500.33 181.44
-9755393.45 5135509.50 181.44
-9755394.40 5135503.00 181.42
-9755388.75 5135504.72 181.47
-9755389.32 5135509.45 181.49
-9755395.53 5135502.98 181.40
-9755394.33 5135507.69 181.42
-9755395.84 5135504.48 181.41
-9755393.78 5135509.50 181.44
-9755396.17 5135502.74 181.40
-9755389.97 5135502.98 181.45
-9755396.14 5135507.13 181.41
-9755393.50 5135506.23 181.44
-9755389.62 5135509.46 181.50
-9755396.42 5135506.25 181.40
-9755396.45 5135502.18 181.39
-9755396.44 5135500.65 181.38
-9755390.84 5135505.35 181.46
-9755393.47 5135510.41 181.44
-9755389.03 5135510.38 181.48
-9755392.05 5135505.94 181.44
-9755389.96 5135504.74 181.46
-9755393.19 5135507.72 181.44
-9755397.60 5135509.56 181.40
-9755395.52 5135508.06 181.43
-9755395.83 5135506.26 181.42
-9755394.39 5135506.81 181.43
-9755397.04 5135501.23 181.38
-9755391.11 5135506.21 181.47
-9755389.73 5135500.58 181.44
-9755395.89 5135502.14 181.38
-9755396.10 5135510.99 181.43
-9755389.66 5135508.58 181.48
-9755391.12 5135508.90 181.48
-9755397.02 5135500.97 181.38
-9755393.46 5135502.98 181.45
-9755391.37 5135508.03 181.46
-9755393.18 5135510.97 181.45
-9755396.77 5135501.83 181.39
-9755392.62 5135500.64 181.43
-9755392.02 5135508.03 181.46
-9755394.99 5135504.45 181.42
-9755390.53 5135506.49 181.47
-9755388.75 5135506.53 181.48
-9755396.70 5135510.14 181.43
-9755396.09 5135510.41 181.44
-9755394.37 5135511.30 181.44
-9755395.56 5135499.71 181.39
-9755393.26 5135499.76 181.43
-9755393.52 5135504.76 181.45
-9755391.15 5135501.20 181.44
-9755395.85 5135499.74 181.38
-9755388.43 5135511.25 181.49
-9755391.97 5135510.05 181.47
-9755397.62 5135508.94 181.39
-9755390.83 5135504.45 181.46
-9755397.62 5135503.90 181.38
-9755397.34 5135502.12 181.38
-9755396.18 5135503.61 181.38
-9755394.98 5135502.11 181.41
-9755391.16 5135499.70 181.44
-9755397.04 5135499.75 181.37
-9755393.48 5135503.60 181.44
-9755395.83 5135505.39 181.42
-9755391.19 5135501.83 181.44
-9755388.81 5135501.50 181.44
-9755394.68 5135507.45 181.42
-9755389.64 5135505.36 181.46
-9755396.41 5135506.01 181.38
-9755391.14 5135505.04 181.45
-9755388.72 5135509.50 181.49
-9755393.79 5135505.68 181.44
-9755396.40 5135505.40 181.39
-9755396.75 5135499.76 181.37
-9755395.81 5135510.40 181.44
-9755385.26 5135511.52 181.49
-9755386.71 5135506.23 181.47
-9755383.15 5135506.20 181.48
-9755383.77 5135510.01 181.49
-9755386.45 5135502.34 181.46
-9755385.49 5135510.04 181.49
-9755386.41 5135502.95 181.46
-9755383.17 5135499.67 181.44
-9755381.69 5135503.81 181.46
-9755384.03 5135507.66 181.47
-9755384.61 5135505.31 181.48
-9755381.41 5135507.95 181.48
-9755387.92 5135503.83 181.47
-9755384.89 5135510.33 181.49
-9755387.33 5135502.93 181.46
-9755382.02 5135499.66 181.45
-9755386.13 5135507.10 181.48
-9755382.53 5135507.68 181.47
-9755382.91 5135502.36 181.45
-9755385.55 5135503.51 181.46
-9755381.70 5135502.94 181.46
-9755382.91 5135503.81 181.46
-9755385.51 5135506.48 181.47
-9755382.25 5135509.48 181.48
-9755382.28 5135507.67 181.48
-9755385.27 5135499.65 181.45
-9755383.22 5135500.57 181.45
-9755383.51 5135499.71 181.45
-9755387.91 5135502.08 181.46
-9755382.57 5135509.42 181.49
-9755387.62 5135502.92 181.47
-9755384.94 5135502.05 181.46
-9755387.92 5135501.76 181.46
-9755383.21 5135500.85 181.46
-9755381.97 5135504.69 181.46
-9755381.40 5135508.85 181.48
-9755383.79 5135501.48 181.45
-9755384.04 5135507.37 181.48
-9755385.49 5135506.78 181.47
-9755385.81 5135502.03 181.46
-9755382.62 5135502.93 181.45
-9755382.55 5135510.37 181.49
-9755384.31 5135507.68 181.47
-9755386.11 5135510.66 181.48
-9755383.16 5135502.94 181.45
-9755385.27 5135502.62 181.45
-9755382.00 5135505.90 181.47
-9755384.11 5135500.60 181.45
-9755381.67 5135507.08 181.48
-9755384.67 5135502.08 181.45
-9755382.30 5135506.16 181.48
-9755382.29 5135503.50 181.46
-9755382.88 5135504.44 181.47
-9755384.62 5135506.25 181.48
-9755383.17 5135509.44 181.48
-9755385.55 5135504.42 181.46
-9755375.44 5135511.47 181.49
-9755374.86 5135512.03 181.49
-9755373.96 5135512.33 181.48
-9755376.31 5135515.92 181.51
-9755375.44 5135515.90 181.50
-9755375.75 5135514.70 181.49
-9755376.06 5135512.63 181.49
-9755376.93 5135512.98 181.50
-9755378.96 5135513.26 181.50
-9755379.86 5135514.49 181.49
-9755380.19 5135512.92 181.50
-9755380.77 5135513.23 181.51
-9755375.75 5135512.93 181.50
-9755378.10 5135515.32 181.50
-9755373.12 5135513.22 181.50
-9755374.53 5135515.63 181.51
-9755372.20 5135515.92 181.51
-9755372.82 5135512.07 181.48
-9755373.98 5135515.00 181.50
-9755373.69 5135512.93 181.49
-9755374.56 5135513.84 181.49
-9755372.51 5135514.41 181.50
-9755358.35 5135515.84 181.50
-9755363.35 5135512.00 181.49
-9755361.60 5135511.67 181.47
-9755362.19 5135511.99 181.50
-9755368.65 5135511.42 181.48
-9755368.96 5135511.43 181.49
-9755363.74 5135511.39 181.48
-9755365.75 5135511.40 181.49
-9755368.12 5135511.75 181.48
-9755364.85 5135512.01 181.48
-9755365.77 5135512.35 181.48
-9755352.44 5135511.32 181.46
-9755354.85 5135511.39 181.45
-9755358.98 5135511.67 181.47
-9755354.53 5135511.95 181.47
-9755356.30 5135511.37 181.47
-9755353.00 5135511.93 181.47
-9755360.71 5135511.39 181.48
-9755353.92 5135511.37 181.46
-9755372.79 5135513.84 181.50
-9755369.84 5135513.82 181.50
-9755361.90 5135513.78 181.48
-9755365.15 5135514.35 181.51
-9755361.59 5135513.75 181.48
-9755366.59 5135515.25 181.51
-9755365.73 5135515.89 181.50
-9755370.49 5135514.68 181.50
-9755361.61 5135514.06 181.49
-9755367.81 5135514.39 181.49
-9755366.02 5135512.87 181.49
-9755363.37 5135516.15 181.50
-9755368.37 5135512.87 181.49
-9755365.70 5135512.59 181.49
-9755365.75 5135513.20 181.49
-9755361.58 5135514.33 181.50
-9755361.92 5135514.35 181.50
-9755365.17 5135513.77 181.50
-9755369.89 5135515.86 181.50
-9755369.28 5135513.49 181.50
-9755368.07 5135515.57 181.49
-9755371.90 5135515.94 181.51
-9755365.75 5135514.36 181.50
-9755371.33 5135514.39 181.49
-9755362.19 5135514.67 181.49
-9755372.24 5135513.22 181.49
-9755363.35 5135514.06 181.50
-9755363.38 5135512.61 181.49
-9755368.34 5135514.45 181.50
-9755363.37 5135514.94 181.50
-9755365.99 5135515.56 181.51
-9755366.59 5135514.05 181.50
-9755371.02 5135514.43 181.49
-9755362.48 5135514.05 181.49
-9755363.94 5135514.67 181.50
-9755366.59 5135512.32 181.50
-9755367.50 5135514.37 181.49
-9755352.72 5135514.30 181.48
-9755357.45 5135514.31 181.49
-9755356.58 5135516.09 181.50
-9755356.29 5135515.48 181.49
-9755355.45 5135513.72 181.48
-9755359.81 5135515.28 181.49
-9755355.37 5135516.10 181.49
-9755359.22 5135514.64 181.49
-9755360.17 5135512.27 181.48
-9755357.48 5135512.84 181.47
-9755353.36 5135513.71 181.48
-9755358.06 5135514.03 181.48
-9755353.63 5135512.86 181.48
-9755359.23 5135512.58 181.48
-9755359.52 5135515.24 181.50
-9755358.63 5135515.50 181.51
-9755356.00 5135515.22 181.49
-9755360.74 5135513.18 181.48
-9755360.41 5135516.13 181.50
-9755352.49 5135513.12 181.49
-9755354.84 5135514.29 181.48
-9755352.15 5135515.20 181.48
-9755382.06 5135490.20 181.42
-9755377.39 5135486.59 181.41
-9755376.70 5135496.38 181.43
-9755380.63 5135487.78 181.42
-9755376.19 5135489.24 181.41
-9755379.68 5135493.15 181.43
-9755380.32 5135491.65 181.43
-9755374.95 5135498.13 181.44
-9755378.28 5135487.82 181.41
-9755380.86 5135493.14 181.44
-9755380.94 5135487.25 181.42
-9755380.65 5135486.94 181.41
-9755381.18 5135492.28 181.43
-9755376.51 5135489.57 181.41
-9755381.14 5135494.63 181.43
-9755378.53 5135491.35 181.42
-9755379.69 5135496.41 181.43
-9755375.61 5135490.15 181.41
-9755379.39 5135498.20 181.44
-9755375.61 5135489.56 181.41
-9755378.80 5135491.64 181.42
-9755375.32 5135489.26 181.40
-9755379.41 5135494.01 181.42
-9755378.52 5135488.99 181.43
-9755377.95 5135487.49 181.41
-9755376.20 5135488.41 181.41
-9755375.60 5135491.92 181.41
-9755378.23 5135486.59 181.41
-9755374.97 5135497.58 181.44
-9755375.86 5135497.02 181.43
-9755375.60 5135488.36 181.41
-9755380.29 5135498.19 181.44
-9755377.12 5135486.91 181.41
-9755379.12 5135496.37 181.43
-9755380.02 5135490.76 181.43
-9755376.18 5135491.36 181.41
-9755377.67 5135490.76 181.42
-9755376.41 5135494.01 181.42
-9755378.81 5135495.16 181.43
-9755374.95 5135497.28 181.44
-9755375.89 5135490.48 181.41
-9755375.58 5135487.78 181.40
-9755378.78 5135497.52 181.44
-9755380.32 5135489.59 181.42
-9755379.72 5135492.54 181.43
-9755378.54 5135497.86 181.45
-9755379.40 5135495.82 181.44
-9755377.91 5135497.23 181.44
-9755380.91 5135490.49 181.43
-9755377.94 5135499.06 181.44
-9755375.00 5135490.74 181.41
-9755376.50 5135488.71 181.41
-9755380.87 5135497.28 181.44
-9755381.12 5135498.76 181.45
-9755377.91 5135490.75 181.42
-9755377.95 5135496.41 181.44
-9755380.86 5135498.19 181.44
-9755380.03 5135487.51 181.43
-9755380.89 5135493.78 181.42
-9755380.29 5135490.21 181.42
-9755374.73 5135486.90 181.39
-9755374.74 5135487.18 181.39
-9755374.70 5135495.80 181.43
-9755373.18 5135497.81 181.42
-9755374.66 5135495.48 181.42
-9755373.78 5135494.59 181.41
-9755373.86 5135493.12 181.41
-9755373.81 5135486.63 181.39
-9755374.38 5135495.81 181.43
-9755374.15 5135493.40 181.41
-9755374.09 5135497.25 181.44
-9755372.97 5135486.59 181.38
-9755376.39 5135499.62 181.44
-9755376.12 5135500.51 181.44
-9755376.14 5135499.07 181.43
-9755377.32 5135502.91 181.45
-9755377.26 5135504.67 181.46
-9755375.80 5135505.26 181.46
-9755374.96 5135501.40 181.44
-9755380.78 5135504.38 181.47
-9755379.60 5135502.91 181.47
-9755376.39 5135504.10 181.45
-9755378.13 5135508.54 181.48
-9755377.89 5135503.78 181.46
-9755379.65 5135501.73 181.46
-9755374.92 5135505.52 181.46
-9755379.07 5135499.96 181.45
-9755376.36 5135508.51 181.48
-9755377.86 5135504.10 181.46
-9755379.58 5135510.91 181.49
-9755376.36 5135509.73 181.48
-9755379.67 5135506.18 181.47
-9755375.52 5135507.94 181.47
-9755378.45 5135503.80 181.47
-9755376.05 5135510.55 181.50
-9755374.91 5135504.37 181.44
-9755378.46 5135501.42 181.45
-9755380.48 5135510.01 181.48
-9755377.25 5135509.37 181.48
-9755379.06 5135501.41 181.45
-9755380.18 5135506.18 181.47
-9755381.10 5135506.17 181.47
-9755379.29 5135510.32 181.48
-9755381.09 5135505.31 181.47
-9755380.49 5135510.89 181.49
-9755377.00 5135500.20 181.45
-9755375.49 5135510.00 181.49
-9755376.99 5135507.92 181.47
-9755379.90 5135507.37 181.48
-9755380.80 5135509.75 181.48
-9755376.69 5135500.52 181.44
-9755377.23 5135506.44 181.46
-9755377.02 5135500.52 181.44
-9755374.63 5135508.21 181.46
-9755372.52 5135511.17 181.49
-9755374.64 5135500.51 181.43
-9755373.14 5135508.19 181.46
-9755374.33 5135503.74 181.44
-9755373.15 5135505.57 181.46
-9755374.64 5135501.71 181.44
-9755372.89 5135499.93 181.43
-9755374.02 5135507.63 181.46
-9755374.57 5135511.19 181.49
-9755373.16 5135508.83 181.48
-9755374.01 5135506.13 181.45
-9755372.80 5135508.80 181.47
-9755371.46 5135498.71 181.43
-9755371.46 5135491.64 181.40
-9755372.62 5135499.62 181.43
-9755369.69 5135487.46 181.39
-9755372.93 5135487.20 181.39
-9755370.56 5135496.04 181.43
-9755367.34 5135488.04 181.39
-9755370.58 5135491.60 181.41
-9755369.97 5135493.37 181.41
-9755369.11 5135489.84 181.40
-9755364.12 5135491.59 181.40
-9755367.89 5135492.18 181.40
-9755362.05 5135488.04 181.38
-9755372.92 5135496.93 181.43
-9755367.35 5135489.81 181.40
-9755364.68 5135491.57 181.41
-9755361.73 5135488.02 181.39
-9755363.82 5135491.01 181.40
-9755365.00 5135486.26 181.39
-9755371.50 5135487.17 181.39
-9755371.74 5135497.27 181.43
-9755364.07 5135488.30 181.38
-9755367.04 5135491.29 181.40
-9755364.95 5135495.46 181.42
-9755369.67 5135489.84 181.40
-9755364.41 5135487.98 181.39
-9755371.17 5135488.97 181.39
-9755361.74 5135494.79 181.41
-9755368.14 5135496.32 181.42
-9755371.51 5135490.70 181.39
-9755364.62 5135498.08 181.43
-9755365.83 5135496.30 181.42
-9755367.02 5135489.79 181.39
-9755361.77 5135487.40 181.38
-9755371.14 5135493.06 181.41
-9755369.36 5135497.22 181.43
-9755365.54 5135494.81 181.41
-9755363.84 5135488.61 181.39
-9755370.88 5135488.04 181.38
-9755371.17 5135490.76 181.39
-9755370.63 5135487.76 181.39
-9755372.28 5135496.65 181.42
-9755368.25 5135487.15 181.38
-9755371.41 5135498.11 181.43
-9755364.06 5135493.07 181.41
-9755371.47 5135490.13 181.40
-9755367.06 5135494.84 181.41
-9755371.12 5135497.23 181.43
-9755369.68 5135492.49 181.41
-9755361.71 5135495.97 181.42
-9755369.94 5135498.72 181.42
-9755372.31 5135491.92 181.41
-9755362.01 5135493.93 181.41
-9755363.81 5135486.51 181.38
-9755363.49 5135488.89 181.39
-9755364.99 5135492.20 181.41
-9755364.93 5135494.23 181.41
-9755370.91 5135487.45 181.38
-9755367.32 5135496.01 181.43
-9755370.33 5135493.10 181.41
-9755368.18 5135497.19 181.41
-9755362.29 5135497.47 181.42
-9755365.83 5135492.46 181.40
-9755368.21 5135490.10 181.41
-9755371.42 5135488.67 181.39
-9755370.83 5135491.61 181.40
-9755364.96 5135487.48 181.39
-9755370.55 5135495.13 181.42
-9755366.43 5135497.78 181.43
-9755364.95 5135498.09 181.43
-9755361.99 5135498.10 181.42
-9755368.49 5135493.95 181.42
-9755365.31 5135487.97 181.38
-9755366.45 5135493.07 181.41
-9755369.07 5135498.14 181.44
-9755363.20 5135494.23 181.40
-9755370.29 5135489.25 181.39
-9755363.50 5135495.71 181.41
-9755368.54 5135490.70 181.40
-9755364.05 5135493.30 181.40
-9755365.60 5135488.64 181.38
-9755362.93 5135490.40 181.40
-9755367.31 5135490.11 181.40
-9755362.29 5135496.89 181.42
-9755362.58 5135495.42 181.41
-9755368.47 5135498.08 181.43
-9755366.45 5135492.47 181.41
-9755368.21 5135496.64 181.42
-9755372.91 5135490.12 181.40
-9755367.04 5135492.50 181.41
-9755364.97 5135490.40 181.40
-9755369.06 5135494.30 181.41
-9755364.09 5135489.80 181.39
-9755352.30 5135491.46 181.39
-9755356.13 5135490.61 181.39
-9755358.46 5135493.60 181.41
-9755353.20 5135487.39 181.37
-9755354.94 5135496.52 181.40
-9755356.72 5135490.08 181.38
-9755354.10 5135490.05 181.38
-9755360.22 5135491.52 181.40
-9755361.10 5135491.56 181.41
-9755360.19 5135497.17 181.43
-9755360.54 5135496.57 181.42
-9755355.54 5135494.17 181.40
-9755353.41 5135498.91 181.41
-9755361.41 5135493.63 181.41
-9755356.42 5135493.89 181.40
-9755354.04 5135489.73 181.38
-9755353.19 5135492.10 181.40
-9755361.22 5135487.43 181.38
-9755361.13 5135494.79 181.41
-9755359.39 5135487.14 181.37
-9755352.30 5135490.91 181.39
-9755354.94 5135497.16 181.41
-9755356.74 5135486.81 181.37
-9755352.32 5135486.44 181.37
-9755354.30 5135496.80 181.41
-9755355.00 5135488.55 181.37
-9755360.26 5135490.65 181.39
-9755358.17 5135490.05 181.40
-9755359.91 5135496.86 181.41
-9755357.95 5135486.51 181.38
-9755359.60 5135498.06 181.41
-9755352.28 5135496.54 181.40
-9755356.44 5135493.33 181.40
-9755360.01 5135490.98 181.40
-9755361.15 5135493.31 181.41
-9755352.02 5135492.97 181.39
-9755357.33 5135490.93 181.39
-9755360.82 5135498.33 181.42
-9755354.09 5135487.99 181.37
-9755357.92 5135488.00 181.38
-9755359.71 5135490.07 181.39
-9755358.46 5135495.38 181.41
-9755358.80 5135495.72 181.41
-9755353.80 5135489.72 181.39
-9755354.05 5135497.41 181.41
-9755359.34 5135490.38 181.40
-9755354.11 5135487.68 181.37
-9755356.70 5135490.63 181.38
-9755354.62 5135493.90 181.40
-9755357.87 5135493.32 181.40
-9755361.45 5135490.98 181.40
-9755358.17 5135498.05 181.41
-9755354.95 5135486.19 181.37
-9755358.79 5135488.86 181.38
-9755361.40 5135498.95 181.42
-9755372.21 5135511.15 181.48
-9755366.06 5135509.60 181.48
-9755365.85 5135499.56 181.43
-9755370.50 5135504.66 181.46
-9755372.51 5135509.38 181.47
-9755368.13 5135509.96 181.48
-9755363.43 5135505.48 181.45
-9755369.92 5135503.75 181.45
-9755365.20 5135499.55 181.44
-9755365.75 5135506.38 181.47
-9755367.84 5135501.32 181.45
-9755368.12 5135508.49 181.47
-9755366.32 5135510.25 181.48
-9755361.63 5135501.29 181.43
-9755369.07 5135501.08 181.43
-9755367.26 5135501.36 181.44
-9755364.84 5135510.50 181.48
-9755365.78 5135508.16 181.47
-9755364.04 5135501.63 181.44
-9755368.98 5135507.89 181.47
-9755372.23 5135507.93 181.48
-9755363.38 5135509.61 181.47
-9755368.99 5135507.61 181.47
-9755368.11 5135508.17 181.47
-9755366.40 5135503.74 181.45
-9755364.64 5135501.63 181.44
-9755369.03 5135505.79 181.47
-9755371.41 5135502.89 181.44
-9755362.26 5135505.77 181.45
-9755371.36 5135508.19 181.46
-9755366.67 5135503.75 181.45
-9755371.65 5135508.51 181.47
-9755363.48 5135503.69 181.44
-9755366.61 5135509.66 181.48
-9755361.70 5135500.46 181.43
-9755369.67 5135500.44 181.43
-9755365.74 5135507.57 181.47
-9755363.44 5135506.02 181.46
-9755371.34 5135508.76 181.48
-9755365.52 5135501.35 181.44
-9755370.78 5135506.13 181.46
-9755367.24 5135502.87 181.45
-9755361.63 5135508.77 181.46
-9755364.06 5135499.59 181.43
-9755364.89 5135503.74 181.44
-9755366.41 5135500.45 181.44
-9755372.29 5135501.40 181.44
-9755364.86 5135511.13 181.48
-9755372.25 5135507.64 181.48
-9755371.31 5135509.39 181.48
-9755365.43 5135510.51 181.47
-9755371.38 5135503.15 181.44
-9755362.53 5135506.06 181.46
-9755369.93 5135503.10 181.44
-9755364.63 5135502.82 181.44
-9755368.11 5135508.75 181.47
-9755362.53 5135501.03 181.44
-9755366.37 5135505.18 181.47
-9755362.54 5135502.82 181.44
-9755369.85 5135509.62 181.48
-9755372.54 5135506.13 181.46
-9755364.90 5135501.37 181.44
-9755364.05 5135499.85 181.43
-9755366.70 5135501.36 181.44
-9755362.25 5135506.38 181.46
-9755369.86 5135510.55 181.48
-9755371.96 5135509.35 181.48
-9755365.79 5135502.83 181.44
-9755371.34 5135510.54 181.48
-9755364.36 5135500.48 181.44
-9755364.60 5135507.56 181.46
-9755362.87 5135499.86 181.43
-9755371.95 5135502.28 181.44
-9755370.52 5135502.61 181.44
-9755361.92 5135509.31 181.47
-9755366.64 5135510.24 181.48
-9755371.39 5135500.82 181.44
-9755371.05 5135507.31 181.47
-9755363.66 5135509.62 181.47
-9755359.59 5135498.96 181.42
-9755353.97 5135509.29 181.45
-9755355.18 5135502.16 181.42
-9755359.02 5135499.53 181.43
-9755351.96 5135498.92 181.41
-9755353.09 5135506.63 181.44
-9755359.30 5135501.92 181.43
-9755359.32 5135505.75 181.43
-9755354.90 5135500.42 181.41
-9755358.72 5135498.96 181.41
-9755351.88 5135510.43 181.47
-9755360.47 5135505.73 181.44
-9755360.21 5135498.96 181.43
-9755361.38 5135503.08 181.44
-9755354.00 5135505.44 181.44
-9755358.47 5135500.45 181.43
-9755359.62 5135500.41 181.42
-9755357.25 5135503.06 181.43
-9755356.66 5135500.70 181.42
-9755352.78 5135504.53 181.42
-9755358.99 5135503.10 181.43
-9755357.49 5135511.06 181.47
-9755353.06 5135506.91 181.44
-9755353.95 5135507.22 181.44
-9755359.28 5135511.04 181.47
-9755357.52 5135509.30 181.45
-9755360.79 5135503.43 181.43
-9755355.48 5135498.91 181.41
-9755354.23 5135506.58 181.45
-9755354.84 5135509.87 181.47
-9755358.75 5135501.29 181.44
-9755360.74 5135506.37 181.45
-9755357.53 5135507.84 181.45
-9755357.89 5135498.89 181.42
-9755355.73 5135506.58 181.44
-9755356.60 5135505.42 181.44
-9755361.03 5135506.99 181.45
-9755358.41 5135499.26 181.42
-9755357.51 5135506.38 181.44
-9755357.81 5135508.69 181.45
-9755360.13 5135510.18 181.46
-9755353.07 5135508.97 181.45
-9755360.43 5135511.07 181.47
-9755354.59 5135501.30 181.41
-9755356.95 5135501.33 181.42
-9755353.41 5135503.66 181.43
-9755359.26 5135510.81 181.48
-9755360.47 5135506.04 181.44
-9755355.81 5135504.55 181.43
-9755354.57 5135506.29 181.44
-9755355.13 5135509.29 181.46
-9755357.20 5135504.27 181.44
-9755354.85 5135507.52 181.45
-9755357.86 5135500.44 181.43
-9755352.48 5135509.28 181.45
-9755353.07 5135509.56 181.45
-9755354.89 5135500.98 181.41
-9755358.98 5135507.50 181.43
-9755356.07 5135503.91 181.43
-9755353.10 5135503.93 181.43
-9755353.39 5135502.18 181.42
-9755353.96 5135510.14 181.46
-9755360.13 5135509.27 181.46
-9755356.60 5135508.40 181.45
-9755360.77 5135504.87 181.44
-9755358.17 5135502.76 181.42
-9755355.20 5135501.29 181.41
-9755357.24 5135505.72 181.44
-9755355.41 5135508.98 181.45
-9755361.05 5135507.85 181.46
-9755354.87 5135506.61 181.44
-9755356.62 5135505.15 181.44
-9755360.79 5135499.88 181.43
-9755361.37 5135507.23 181.46
-9755359.53 5135509.61 181.46
-9755353.38 5135502.46 181.42
-9755356.37 5135498.93 181.41
-9755358.12 5135501.31 181.43
-9755355.15 5135508.41 181.45
-9755352.23 5135508.06 181.44
-9755357.79 5135507.19 181.44
-9755361.35 5135505.77 181.45
-9755351.87 5135509.85 181.46
-9755359.60 5135508.73 181.45
-9755357.52 5135510.76 181.47
-9755356.34 5135505.45 181.43
-9755348.62 5135511.34 181.46
-9755350.95 5135511.66 181.47
-9755350.67 5135511.34 181.47
-9755346.03 5135511.30 181.44
-9755350.10 5135514.01 181.47
-9755350.96 5135514.85 181.47
-9755349.23 5135513.08 181.47
-9755349.24 5135513.43 181.47
-9755349.23 5135512.52 181.46
-9755351.57 5135514.01 181.47
-9755348.60 5135515.43 181.48
-9755350.96 5135514.58 181.48
-9755346.83 5135515.77 181.47
-9755346.88 5135515.44 181.46
-9755345.97 5135513.37 181.46
-9755345.98 5135514.89 181.47
-9755345.10 5135511.56 181.45
-9755345.09 5135514.27 181.47
-9755351.71 5135493.90 181.39
-9755349.36 5135495.03 181.39
-9755350.78 5135497.43 181.40
-9755349.96 5135491.80 181.38
-9755349.92 5135496.50 181.40
-9755348.45 5135492.37 181.38
-9755351.15 5135492.41 181.38
-9755349.31 5135498.30 181.40
-9755349.96 5135488.51 181.37
-9755350.88 5135488.52 181.38
-9755348.42 5135495.63 181.41
-9755348.42 5135497.43 181.39
-9755350.78 5135492.98 181.38
-9755350.23 5135487.34 181.36
-9755349.90 5135497.13 181.40
-9755348.44 5135496.21 181.40
-9755349.66 5135493.26 181.39
-9755348.46 5135489.71 181.37
-9755351.39 5135493.87 181.39
-9755348.49 5135489.11 181.37
-9755349.34 5135493.28 181.38
-9755351.40 5135489.10 181.37
-9755349.07 5135488.51 181.38
-9755351.67 5135493.29 181.40
-9755351.72 5135492.08 181.38
-9755350.82 5135489.68 181.37
-9755347.34 5135488.53 181.37
-9755346.75 5135490.29 181.38
-9755346.44 5135487.31 181.36
-9755348.21 5135487.36 181.36
-9755347.26 5135488.82 181.37
-9755346.66 5135495.02 181.38
-9755346.12 5135488.20 181.37
-9755346.94 5135497.40 181.39
-9755346.69 5135494.12 181.39
-9755347.54 5135493.24 181.38
-9755346.36 5135496.50 181.40
-9755347.58 5135494.73 181.38
-9755351.58 5135509.55 181.46
-9755351.66 5135505.09 181.44
-9755350.50 5135503.63 181.42
-9755351.12 5135499.78 181.41
-9755350.18 5135505.43 181.43
-9755349.27 5135506.31 181.43
-9755349.29 5135503.03 181.43
-9755348.42 5135500.34 181.40
-9755351.61 5135503.91 181.42
-9755349.26 5135508.39 181.44
-9755351.06 5135509.55 181.45
-9755350.70 5135508.31 181.44
-9755349.23 5135509.58 181.45
-9755349.85 5135503.90 181.42
-9755351.62 5135508.95 181.46
-9755350.43 5135510.44 181.46
-9755349.88 5135504.81 181.43
-9755348.97 5135500.66 181.41
-9755348.66 5135508.07 181.44
-9755350.75 5135503.63 181.42
-9755349.24 5135507.75 181.43
-9755351.60 5135508.09 181.45
-9755350.80 5135501.84 181.41
-9755350.74 5135500.07 181.41
-9755348.94 5135504.51 181.43
-9755351.65 5135501.01 181.41
-9755348.67 5135506.87 181.43
-9755347.24 5135501.21 181.40
-9755347.18 5135509.49 181.45
-9755346.89 5135510.41 181.46
-9755347.49 5135504.53 181.43
-9755348.36 5135510.43 181.45
-9755346.35 5135499.76 181.40
-9755346.03 5135503.01 181.42
-9755347.46 5135503.01 181.41
-9755346.64 5135500.08 181.41
-9755346.95 5135499.14 181.40
-9755348.37 5135505.97 181.43
-9755347.81 5135501.27 181.42
-9755348.10 5135502.15 181.41
-9755346.95 5135501.20 181.41
-9755346.92 5135502.46 181.42
-9755346.94 5135500.32 181.40
-9755346.92 5135505.39 181.44
-9755346.91 5135503.89 181.43
-9755347.50 5135506.59 181.44
-9755348.34 5135505.08 181.43
-9755347.20 5135508.03 181.45
-9755346.13 5135487.35 181.36
-9755345.83 5135486.47 181.35
-9755345.82 5135493.54 181.38
-9755345.21 5135490.89 181.38
-9755345.83 5135491.74 181.37
-9755345.51 5135489.70 181.37
-9755345.26 5135485.87 181.35
-9755346.05 5135498.88 181.40
-9755345.43 5135507.73 181.44
-9755345.10 5135510.15 181.44
-9755345.14 5135503.00 181.41
-9755345.17 5135504.17 181.42
-9755345.20 5135502.73 181.42
-9755345.72 5135499.79 181.40
-9755345.15 5135504.50 181.42
-9755396.23 5135484.91 181.51
-9755396.86 5135486.30 181.50
-9755397.46 5135486.41 181.53
-9755396.10 5135485.47 181.74
-9755389.51 5135485.46 181.38
-9755396.26 5135485.60 181.30
-9755392.97 5135485.81 181.35
-9755394.51 5135484.93 181.31
-9755397.15 5135484.98 181.51
-9755392.68 5135485.50 181.36
-9755396.82 5135484.97 181.51
-9755395.92 5135485.25 181.30
-9755391.24 5135484.90 181.35
-9755395.02 5135485.51 181.32
-9755395.93 5135484.97 181.75
-9755387.99 5135485.46 181.41
-9755387.97 5135485.84 181.41
-9755388.60 5135485.50 181.39
-9755385.66 5135484.87 181.41
-9755384.42 5135485.75 181.42
-9755382.44 5135486.35 181.42
-9755386.22 5135485.44 181.41
-9755396.83 5135486.40 181.33
-9755382.95 5135486.05 181.41
-9755391.01 5135471.89 181.26
-9755391.19 5135472.47 181.26
-9755396.67 5135472.45 182.22
-9755394.62 5135470.68 182.04
-9755393.71 5135471.30 181.89
-9755395.17 5135470.09 182.05
-9755394.64 5135470.93 182.40
-9755392.68 5135471.34 182.11
-9755394.26 5135472.41 181.88
-9755394.53 5135471.86 181.88
-9755394.53 5135470.35 182.01
-9755390.56 5135470.17 181.54
-9755392.43 5135471.53 182.11
-9755392.81 5135471.06 181.69
-9755391.31 5135471.26 181.54
-9755395.66 5135470.14 182.69
-9755394.00 5135472.47 181.82
-9755391.30 5135471.57 181.53
-9755392.57 5135470.14 181.69
-9755394.30 5135471.85 181.87
-9755391.36 5135472.51 181.60
-9755391.90 5135472.78 181.54
-9755393.73 5135472.80 181.76
-9755391.86 5135471.32 182.13
-9755396.24 5135471.17 182.54
-9755395.48 5135471.20 182.67
-9755396.63 5135471.01 182.25
-9755393.95 5135471.88 181.87
-9755390.20 5135471.59 181.26
-9755397.24 5135470.73 182.43
-9755392.71 5135472.22 181.59
-9755391.07 5135470.99 181.54
-9755395.55 5135471.52 182.67
-9755397.24 5135471.52 182.38
-9755392.83 5135471.28 181.69
-9755392.76 5135471.95 182.20
-9755394.89 5135472.50 181.96
-9755396.38 5135472.16 182.20
-9755396.90 5135471.88 182.30
-9755393.13 5135471.58 181.69
-9755394.67 5135471.73 182.46
-9755397.58 5135470.69 182.44
-9755390.99 5135471.67 181.29
-9755393.10 5135472.49 181.69
-9755397.52 5135472.52 182.35
-9755394.05 5135471.28 182.54
-9755392.21 5135471.56 181.54
-9755393.93 5135471.51 182.54
-9755394.81 5135470.60 182.45
-9755394.60 5135472.18 181.91
-9755394.56 5135471.30 181.86
-9755392.83 5135470.69 181.69
-9755397.79 5135470.69 182.47
-9755393.95 5135472.78 181.78
-9755397.52 5135470.05 182.44
-9755396.93 5135472.12 182.30
-9755384.54 5135471.90 181.34
-9755382.21 5135471.53 181.36
-9755382.49 5135471.83 181.35
-9755387.23 5135471.92 181.32
-9755387.80 5135471.85 181.32
-9755383.08 5135470.05 181.34
-9755386.31 5135472.74 181.35
-9755383.96 5135470.37 181.34
-9755384.85 5135470.08 181.33
-9755391.30 5135472.78 181.27
-9755396.01 5135473.93 182.37
-9755394.56 5135473.66 181.85
-9755393.95 5135476.61 181.52
-9755391.36 5135477.48 181.31
-9755393.95 5135477.55 181.52
-9755394.82 5135477.51 181.66
-9755396.36 5135473.99 182.05
-9755396.90 5135481.91 182.24
-9755394.84 5135473.94 181.88
-9755396.91 5135478.15 181.86
-9755394.27 5135473.07 181.83
-9755390.41 5135479.89 181.35
-9755392.47 5135484.06 181.35
-9755394.55 5135484.68 181.30
-9755394.22 5135477.22 181.52
-9755391.85 5135473.32 181.81
-9755388.96 5135483.40 181.37
-9755390.48 5135475.17 181.31
-9755396.31 5135475.73 182.29
-9755396.56 5135478.32 182.30
-9755391.94 5135476.61 181.58
-9755397.18 5135475.19 182.05
-9755395.14 5135476.93 181.69
-9755397.78 5135476.95 182.04
-9755395.07 5135479.94 181.50
-9755394.27 5135473.90 181.75
-9755396.30 5135477.52 181.83
-9755394.81 5135474.23 181.80
-9755396.61 5135474.84 182.04
-9755392.74 5135477.79 181.27
-9755392.75 5135482.55 181.34
-9755396.85 5135476.01 182.04
-9755392.18 5135473.62 181.96
-9755396.35 5135476.62 181.86
-9755394.01 5135475.41 181.70
-9755395.01 5135477.25 182.20
-9755397.73 5135477.50 182.02
-9755397.20 5135480.17 181.82
-9755396.28 5135484.63 181.55
-9755396.88 5135479.89 181.76
-9755394.30 5135475.47 181.70
-9755397.15 5135484.07 181.51
-9755392.79 5135479.00 181.28
-9755395.11 5135481.41 181.51
-9755393.96 5135474.25 181.69
-9755393.93 5135479.62 181.75
-9755395.36 5135479.40 181.89
-9755392.44 5135480.80 181.30
-9755389.52 5135481.36 181.36
-9755393.38 5135475.99 181.52
-9755396.00 5135479.59 181.69
-9755394.73 5135481.69 181.30
-9755396.71 5135478.99 182.32
-9755395.09 5135483.14 181.29
-9755393.38 5135477.22 181.55
-9755395.49 5135474.25 181.87
-9755395.18 5135474.28 181.88
-9755395.32 5135479.64 182.08
-9755391.67 5135473.01 181.57
-9755389.51 5135476.33 181.33
-9755396.93 5135477.89 182.45
-9755393.88 5135483.46 181.31
-9755395.06 5135476.65 182.25
-9755390.38 5135482.83 181.36
-9755397.46 5135479.34 181.87
-9755391.97 5135473.69 181.55
-9755391.25 5135483.73 181.36
-9755392.99 5135477.19 181.76
-9755394.93 5135479.70 181.90
-9755394.63 5135480.24 181.54
-9755396.31 5135482.25 181.52
-9755397.47 5135478.14 181.89
-9755396.58 5135476.62 181.87
-9755396.30 5135480.81 181.66
-9755395.76 5135472.52 182.08
-9755389.50 5135473.97 181.31
-9755396.92 5135483.45 181.53
-9755395.65 5135479.87 181.56
-9755396.85 5135477.72 182.39
-9755392.47 5135479.91 181.30
-9755394.85 5135474.46 181.78
-9755397.59 5135476.65 182.04
-9755392.16 5135483.43 181.34
-9755393.66 5135478.74 181.27
-9755391.91 5135473.95 181.55
-9755396.92 5135478.72 181.86
-9755397.76 5135473.05 182.03
-9755396.65 5135482.49 182.15
-9755395.42 5135478.73 181.69
-9755395.18 5135476.34 181.69
-9755396.41 5135478.52 181.84
-9755391.01 5135475.71 181.29
-9755394.65 5135480.43 181.51
-9755390.67 5135481.33 181.34
-9755394.51 5135479.64 181.52
-9755395.05 5135478.52 182.14
-9755395.75 5135483.84 181.29
-9755396.05 5135475.74 181.87
-9755392.80 5135473.96 181.58
-9755394.54 5135479.33 181.52
-9755397.15 5135477.67 182.45
-9755393.87 5135479.32 181.26
-9755397.20 5135476.62 182.04
-9755393.11 5135477.64 181.76
-9755397.76 5135484.91 181.69
-9755396.42 5135482.28 182.19
-9755392.72 5135483.49 181.34
-9755394.32 5135476.66 181.55
-9755397.09 5135479.50 182.49
-9755394.80 5135474.88 182.26
-9755393.71 5135475.44 181.54
-9755393.40 5135475.11 181.53
-9755394.58 5135474.02 181.80
-9755396.57 5135478.19 182.30
-9755397.49 5135475.16 182.21
-9755390.40 5135473.69 181.28
-9755393.63 5135483.13 181.32
-9755393.65 5135476.67 181.52
-9755389.49 5135477.53 181.33
-9755396.32 5135483.17 181.52
-9755393.74 5135475.97 182.03
-9755390.11 5135483.13 181.37
-9755392.74 5135485.20 181.36
-9755391.27 5135479.63 181.33
-9755394.25 5135481.33 181.29
-9755393.97 5135476.07 181.53
-9755393.96 5135479.62 181.26
-9755394.54 5135478.41 181.52
-9755397.69 5135482.83 182.23
-9755394.16 5135478.96 181.67
-9755394.94 5135477.50 182.16
-9755394.52 5135478.67 181.52
-9755394.56 5135476.01 181.68
-9755394.79 5135474.22 182.31
-9755394.25 5135479.29 181.65
-9755394.21 5135477.55 181.52
-9755395.42 5135475.39 181.86
-9755395.17 5135481.97 181.51
-9755395.05 5135478.14 181.39
-9755394.82 5135479.00 181.52
-9755394.60 5135477.75 182.11
