-9755000.04 5135669.75 177.08
-9755000.71 5135673.01 189.70
-9754999.87 5135669.43 189.76
-9754998.61 5135669.42 189.79
-9754995.43 5135671.87 186.55
-9754997.15 5135668.64 187.08
-9754999.00 5135672.58 189.72
-9755000.20 5135671.20 189.72
-9754995.99 5135668.56 185.91
-9755000.81 5135672.00 189.72
-9754995.80 5135669.64 189.77
-9754998.71 5135670.03 186.21
-9754998.09 5135669.42 189.22
-9755000.76 5135671.50 189.72
-9754997.82 5135668.60 187.07
-9755001.06 5135669.42 189.22
-9754994.35 5135669.47 189.67
-9754995.97 5135668.91 185.93
-9754997.93 5135670.03 177.11
-9754999.89 5135671.16 189.75
-9754999.86 5135669.39 189.22
-9754997.47 5135673.25 189.72
-9754994.64 5135670.78 190.44
-9754994.82 5135669.65 189.69
-9755000.11 5135668.26 177.08
-9754994.68 5135668.47 177.02
-9754995.51 5135672.88 189.68
-9754999.28 5135669.68 189.77
-9754998.46 5135669.11 189.21
-9754997.06 5135667.78 177.10
-9754999.30 5135670.58 189.75
-9754999.31 5135669.03 189.66
-9754995.84 5135669.39 189.76
-9754995.18 5135668.87 187.11
-9754997.46 5135671.39 186.37
-9755000.05 5135669.17 177.07
-9754997.52 5135670.07 189.22
-9754998.99 5135670.78 189.72
-9754995.17 5135668.67 185.92
-9754995.10 5135668.94 186.02
-9754996.28 5135668.60 187.08
-9754996.34 5135672.96 189.70
-9755000.64 5135673.24 189.70
-9754997.46 5135673.79 189.73
-9754998.32 5135670.81 189.73
-9754997.20 5135674.12 182.91
-9754995.37 5135669.40 177.06
-9754997.34 5135670.01 177.04
-9754999.12 5135669.44 177.07
-9754996.07 5135669.49 186.17
-9754996.05 5135674.37 189.69
-9754995.67 5135669.58 177.03
-9755000.18 5135673.59 189.69
-9755000.33 5135670.70 189.23
-9754994.64 5135669.30 189.67
-9755000.45 5135671.77 189.72
-9754999.87 5135669.66 189.76
-9754994.89 5135668.21 189.69
-9754994.51 5135670.24 177.03
-9754999.20 5135667.65 177.04
-9754995.42 5135670.84 189.74
-9754998.74 5135673.49 189.69
-9754999.18 5135669.10 187.05
-9754999.03 5135668.88 189.20
-9754994.96 5135670.55 177.04
-9754999.25 5135672.92 189.74
-9754998.76 5135669.38 189.23
-9754995.97 5135668.74 177.04
-9754998.69 5135674.11 189.67
-9754995.38 5135674.10 190.37
-9754999.19 5135669.95 177.12
-9754999.41 5135670.02 177.11
-9754998.74 5135669.97 189.75
-9755000.45 5135674.15 189.70
-9755000.72 5135669.00 186.07
-9754997.79 5135668.30 177.10
-9754994.26 5135674.16 189.63
-9754999.26 5135669.28 186.11
-9755000.44 5135668.64 187.05
-9754996.73 5135669.45 177.10
-9754994.80 5135669.99 177.04
-9754995.97 5135669.04 177.06
-9754999.27 5135668.21 189.68
-9754994.75 5135668.75 177.04
-9754995.94 5135670.59 177.06
-9754995.43 5135669.90 189.21
-9754998.07 5135671.76 189.70
-9754998.39 5135669.96 189.75
-9754998.11 5135670.82 189.73
-9754997.54 5135668.62 185.93
-9754995.14 5135669.78 186.17
-9755000.34 5135668.56 177.06
-9754998.30 5135669.36 177.10
-9754997.21 5135672.91 189.73
-9754995.40 5135670.61 189.89
-9754998.70 5135672.69 189.70
-9754999.30 5135668.62 185.91
-9754996.10 5135673.54 189.68
-9754995.43 5135668.68 177.06
-9754998.15 5135672.61 189.67
-9755000.77 5135669.86 186.19
-9754995.47 5135669.40 189.67
-9754998.36 5135672.61 189.68
-9754996.59 5135668.85 187.09
-9754999.55 5135668.73 185.99
-9754999.34 5135670.85 189.75
-9754999.20 5135669.52 186.15
-9754995.14 5135673.20 189.71
-9754997.21 5135671.70 189.75
-9754996.66 5135674.15 189.68
-9754998.39 5135669.43 189.23
-9754997.18 5135669.49 186.17
-9755000.14 5135668.95 187.05
-9754996.05 5135668.62 187.07
-9754994.79 5135669.62 177.06
-9754995.79 5135668.89 187.08
-9754994.45 5135670.21 189.69
-9754995.91 5135670.00 177.03
-9754996.07 5135669.41 189.23
-9754998.04 5135673.58 189.70
-9754994.28 5135673.84 189.20
-9754994.59 5135671.96 190.41
-9754996.04 5135669.76 187.10
-9754994.87 5135669.06 189.68
-9754996.04 5135671.17 186.31
-9754998.09 5135669.87 186.18
-9754996.03 5135670.05 186.19
-9754998.99 5135674.14 189.70
-9754994.87 5135669.25 186.13
-9754994.55 5135670.17 189.23
-9754995.16 5135670.84 190.41
-9754996.72 5135671.15 189.75
-9754995.76 5135669.21 187.06
-9754999.85 5135669.56 186.15
-9754998.47 5135669.48 187.12
-9755000.13 5135668.36 187.05
-9755000.40 5135667.88 177.06
-9754995.41 5135669.65 189.21
-9754994.62 5135673.29 190.40
-9754995.66 5135672.03 189.71
-9754997.21 5135670.28 177.10
-9754994.83 5135672.62 190.41
-9754997.50 5135669.58 186.18
-9754999.26 5135669.39 189.23
-9754996.67 5135670.85 189.73
-9754998.08 5135669.61 187.07
-9754994.36 5135671.09 190.41
-9754994.64 5135670.24 190.42
-9754996.13 5135670.00 177.04
-9754995.71 5135669.48 186.16
-9754996.90 5135669.57 186.17
-9754996.95 5135670.22 189.23
-9754998.26 5135669.05 177.10
-9755000.54 5135670.36 177.08
-9754998.92 5135669.09 177.06
-9754994.93 5135669.81 186.17
-9754997.22 5135671.17 189.76
-9754999.27 5135673.82 189.72
-9754998.98 5135670.55 189.72
-9754995.13 5135672.01 190.40
-9754997.68 5135669.60 177.05
-9755000.80 5135671.77 189.73
-9754998.66 5135668.50 177.08
-9754994.27 5135669.52 186.16
-9754999.79 5135669.90 186.20
-9754995.96 5135669.93 189.24
-9754998.04 5135668.58 187.07
-9754995.66 5135668.82 177.06
-9754996.50 5135669.74 177.09
-9754998.33 5135673.53 189.69
-9754998.96 5135673.48 189.69
-9754996.89 5135668.82 177.08
-9754995.65 5135668.53 177.05
-9754996.95 5135669.94 177.06
-9754998.01 5135668.80 185.99
-9754995.39 5135671.69 189.70
-9754999.58 5135669.53 186.15
-9754995.20 5135669.90 189.22
-9754999.05 5135668.87 186.05
-9754995.83 5135670.24 177.04
-9755000.80 5135669.90 189.25
-9754994.51 5135669.15 187.06
-9754999.16 5135670.56 177.13
-9754995.12 5135669.38 189.21
-9754995.45 5135673.51 190.38
-9754994.89 5135671.36 190.42
-9754995.43 5135668.54 177.05
-9754998.98 5135669.59 186.18
-9754995.11 5135672.09 189.71
-9754995.11 5135669.69 177.06
-9754998.63 5135670.85 189.72
-9754996.84 5135669.89 189.22
-9754994.26 5135669.92 186.24
-9754997.51 5135673.53 189.73
-9754995.11 5135672.17 186.63
-9754999.34 5135668.47 189.68
-9754992.83 5135669.68 189.23
-9754992.71 5135673.80 182.92
-9754994.16 5135669.35 187.08
-9754989.16 5135672.02 176.16
-9754990.07 5135673.21 182.89
-9754993.89 5135668.58 187.08
-9754989.11 5135671.43 176.15
-9754993.21 5135670.42 189.73
-9754993.99 5135669.50 186.14
-9754988.44 5135673.79 185.91
-9754993.31 5135672.16 186.60
-9754993.94 5135671.16 177.02
-9754990.18 5135671.10 185.43
-9754993.32 5135668.89 187.07
-9754992.19 5135672.04 189.66
-9754992.67 5135674.07 182.94
-9754991.95 5135672.68 189.16
-9754988.89 5135670.23 176.15
-9754993.99 5135668.86 187.09
-9754989.14 5135674.11 182.88
-9754992.45 5135671.70 189.23
-9754993.07 5135670.95 186.39
-9754988.53 5135672.64 176.18
-9754992.79 5135674.11 189.21
-9754993.94 5135669.37 187.09
-9754987.96 5135671.95 185.56
-9754987.67 5135670.23 176.19
-9754989.14 5135672.33 176.15
-9754989.16 5135673.63 185.96
-9754992.45 5135669.36 177.00
-9754988.27 5135672.06 176.19
-9754991.98 5135669.38 189.57
-9754988.57 5135667.88 176.17
-9754987.70 5135667.85 176.19
-9754989.78 5135672.86 182.88
-9754987.43 5135673.48 182.87
-9754992.70 5135670.22 177.01
-9754993.71 5135669.40 189.22
-9754990.76 5135672.76 183.62
-9754988.01 5135672.77 185.72
-9754990.10 5135672.48 185.74
-9754992.46 5135673.20 189.24
-9754989.77 5135672.64 182.87
-9754988.03 5135674.10 182.87
-9754991.48 5135670.75 189.63
-9754993.36 5135672.69 186.72
-9754993.60 5135671.10 186.42
-9754990.72 5135670.24 189.67
-9754989.14 5135671.36 185.42
-9754991.88 5135672.47 189.66
-9754988.05 5135672.88 182.88
-9754989.44 5135671.29 185.43
-9754992.42 5135668.47 176.99
-9754991.81 5135669.34 177.14
-9754987.78 5135672.91 182.86
-9754993.70 5135669.18 187.08
-9754989.48 5135673.21 182.88
-9754990.72 5135671.97 189.66
-9754990.97 5135673.76 189.58
-9754993.73 5135671.59 186.51
-9754991.54 5135668.77 176.13
-9754990.40 5135672.87 182.89
-9754993.34 5135673.16 189.20
-9754992.11 5135670.80 177.17
-9754993.13 5135669.63 189.22
-9754992.46 5135671.83 186.54
-9754993.74 5135671.90 186.56
-9754990.42 5135667.88 189.69
-9754989.28 5135671.93 185.62
-9754990.41 5135671.07 185.44
-9754993.10 5135669.93 189.68
-9754990.68 5135671.96 183.64
-9754988.81 5135671.93 185.58
-9754989.20 5135673.22 182.87
-9754988.30 5135673.77 182.87
-9754993.65 5135669.99 189.23
-9754991.75 5135670.84 189.42
-9754989.42 5135672.05 176.16
-9754992.83 5135671.78 189.66
-9754993.31 5135673.82 189.20
-9754991.82 5135668.80 177.14
-9754995.63 5135667.56 177.06
-9754990.01 5135670.85 176.14
-9754989.82 5135673.45 182.89
-9754992.83 5135671.73 189.21
-9754989.77 5135669.96 176.15
-9754988.12 5135671.58 185.43
-9754993.37 5135669.16 187.07
-9754990.88 5135670.29 176.09
-9754992.81 5135670.84 189.22
-9754990.17 5135673.75 189.65
-9754992.48 5135669.69 189.67
-9754991.36 5135672.03 189.65
-9754990.11 5135671.43 185.53
-9754993.47 5135670.48 186.35
-9754992.67 5135669.36 176.96
-9754992.80 5135671.16 189.22
-9754989.23 5135672.45 185.68
-9754989.16 5135674.29 186.22
-9754993.33 5135670.54 186.36
-9754988.00 5135670.99 185.34
-9754993.37 5135672.31 189.25
-9754992.66 5135668.80 176.97
-9754990.93 5135671.76 189.66
-9754990.68 5135674.11 182.89
-9754993.12 5135671.58 186.50
-9754993.36 5135670.97 186.39
-9754992.49 5135670.87 189.22
-9754992.40 5135671.04 186.41
-9754990.64 5135673.53 182.88
-9754990.97 5135672.52 183.62
-9754988.24 5135671.16 176.18
-9754991.13 5135671.72 183.61
-9754992.70 5135669.94 176.99
-9754989.12 5135669.37 176.16
-9754988.27 5135672.65 182.88
-9754988.59 5135673.49 182.87
-9754990.19 5135671.22 183.75
-9754993.33 5135669.54 186.17
-9754991.80 5135669.65 177.13
-9754989.40 5135668.79 176.16
-9754993.94 5135671.71 189.66
-9754992.47 5135670.20 189.21
-9754990.09 5135674.11 182.88
-9754988.67 5135671.00 185.36
-9754990.41 5135671.98 185.64
-9754992.71 5135670.63 177.08
-9754990.18 5135672.61 189.65
-9754994.11 5135672.57 189.68
-9754987.74 5135673.18 182.86
-9754992.96 5135668.48 176.99
-9754992.47 5135669.51 186.13
-9754987.69 5135671.67 183.64
-9754992.55 5135672.09 186.62
-9754989.17 5135670.84 176.17
-9754992.58 5135669.16 187.08
-9754990.70 5135673.18 182.89
-9754992.83 5135669.98 189.24
-9754987.92 5135672.59 176.21
-9754993.59 5135669.96 186.22
-9754991.81 5135672.00 182.89
-9754991.33 5135669.94 189.68
-9754992.46 5135672.60 189.23
-9754992.78 5135670.99 186.40
-9754992.44 5135674.04 189.62
-9754987.65 5135671.59 185.47
-9754987.95 5135668.50 176.20
-9754991.55 5135674.14 182.89
-9754987.95 5135671.68 183.69
-9755000.65 5135679.19 189.62
-9754994.62 5135674.34 190.39
-9754997.47 5135680.36 189.66
-9754999.26 5135676.75 189.69
-9754996.57 5135679.14 189.64
-9754995.39 5135674.41 189.70
-9755000.35 5135677.35 189.68
-9754996.08 5135678.21 189.65
-9754995.07 5135677.09 182.85
-9754996.58 5135678.84 189.63
-9754999.26 5135675.90 189.70
-9754996.89 5135680.02 189.63
-9754999.85 5135677.99 189.67
-9754997.09 5135678.60 182.67
-9755000.70 5135675.29 189.68
-9754996.29 5135676.84 189.67
-9754994.36 5135677.15 182.65
-9754997.71 5135680.63 189.65
-9754996.87 5135680.34 189.63
-9754998.35 5135677.69 189.65
-9754997.83 5135676.14 189.69
-9754997.30 5135677.68 182.67
-9754995.68 5135680.59 190.32
-9754995.48 5135679.12 189.70
-9755000.41 5135679.49 189.61
-9754995.77 5135676.80 189.65
-9754997.16 5135674.40 189.72
-9754995.50 5135677.64 189.65
-9754999.81 5135677.36 189.70
-9754996.23 5135678.34 182.63
-9754998.03 5135674.36 189.69
-9754995.71 5135678.55 189.67
-9754994.65 5135679.98 190.33
-9754995.41 5135677.61 190.34
-9754996.84 5135679.15 189.67
-9754994.56 5135680.87 190.32
-9754998.91 5135679.43 189.64
-9754996.99 5135676.20 189.71
-9754995.72 5135674.79 190.32
-9754997.74 5135679.16 189.67
-9754995.13 5135677.04 190.36
-9754999.24 5135677.06 189.67
-9754994.83 5135676.77 189.72
-9754994.81 5135680.02 190.34
-9754997.68 5135679.74 189.66
-9754999.84 5135675.96 189.71
-9754998.42 5135679.11 189.64
-9754998.97 5135677.36 189.66
-9754994.78 5135678.51 190.37
-9754995.71 5135675.57 189.69
-9754999.26 5135680.31 189.63
-9755000.71 5135680.23 189.63
-9755000.79 5135676.23 189.66
-9754997.77 5135680.05 189.66
-9755000.12 5135677.18 189.69
-9754998.36 5135677.36 189.66
-9754998.07 5135677.02 189.67
-9754998.61 5135680.29 189.63
-9754997.75 5135678.86 189.67
-9754998.92 5135678.18 189.66
-9754994.65 5135678.51 182.65
-9754999.26 5135677.96 189.67
-9755000.14 5135679.13 189.65
-9754999.21 5135675.29 189.71
-9754998.49 5135680.53 182.76
-9754994.20 5135680.89 189.57
-9754995.67 5135679.15 190.32
-9754995.10 5135676.38 190.36
-9754999.55 5135680.33 189.66
-9754996.56 5135677.11 189.66
-9754997.47 5135678.83 189.68
-9754995.34 5135680.87 189.65
-9754995.08 5135678.88 189.69
-9754994.82 5135678.83 189.60
-9754999.84 5135676.19 189.72
-9754998.91 5135676.49 189.66
-9754994.23 5135678.89 182.63
-9754997.18 5135674.98 189.72
-9754998.97 5135675.31 189.69
-9754997.20 5135676.78 189.70
-9754995.13 5135677.89 190.35
-9754998.64 5135678.19 189.66
-9754994.20 5135676.45 189.63
-9754997.17 5135675.90 189.71
-9754998.07 5135676.52 189.68
-9754994.63 5135675.06 190.41
-9754995.75 5135678.44 190.34
-9754994.80 5135674.62 182.87
-9754997.45 5135679.70 189.67
-9754996.33 5135675.27 189.68
-9754997.33 5135678.96 182.67
-9755000.47 5135675.31 189.69
-9754994.64 5135678.92 182.63
-9754994.87 5135676.60 182.83
-9754995.82 5135675.80 189.69
-9754995.13 5135674.68 189.72
-9754999.87 5135677.08 189.70
-9754996.07 5135675.81 189.68
-9754997.46 5135678.56 189.69
-9754996.89 5135676.73 189.70
-9754995.92 5135680.05 190.28
-9754994.25 5135676.76 189.64
-9754991.83 5135674.39 182.89
-9754987.68 5135674.36 182.87
-9754993.27 5135679.13 182.64
-9754992.49 5135680.58 189.14
-9754992.12 5135678.30 182.62
-9754993.89 5135678.57 182.64
-9754989.45 5135677.64 182.82
-9754990.09 5135677.37 182.86
-9754992.63 5135678.59 182.64
-9754994.14 5135677.04 182.88
-9754992.67 5135679.75 182.65
-9754990.31 5135677.35 182.86
-9754991.86 5135674.70 182.89
-9754989.70 5135677.71 182.62
-9754987.96 5135676.79 182.83
-9754990.34 5135676.13 182.86
-9754988.81 5135679.40 182.61
-9754988.88 5135679.48 182.61
-9754992.20 5135676.04 189.20
-9754987.96 5135679.15 182.59
-9754990.62 5135676.48 182.86
-9754992.74 5135680.04 189.15
-9754989.17 5135674.38 182.87
-9754989.74 5135678.59 182.61
-9754989.18 5135678.83 182.61
-9754992.43 5135676.77 189.62
-9754992.19 5135676.78 189.62
-9754990.03 5135679.14 182.63
-9754987.70 5135677.62 182.81
-9754992.64 5135676.52 182.86
-9754987.99 5135679.43 182.61
-9754988.54 5135675.57 182.85
-9754993.01 5135674.37 182.94
-9754993.31 5135679.16 189.15
-9754992.10 5135677.65 182.61
-9754993.38 5135676.41 189.62
-9754992.03 5135680.70 182.67
-9754989.46 5135680.35 182.64
-9754990.62 5135676.20 182.86
-9754991.69 5135676.20 189.40
-9754993.23 5135676.19 182.87
-9754989.17 5135676.21 182.84
-9754992.76 5135677.06 189.17
-9754990.60 5135675.60 182.86
-9754992.64 5135676.80 182.86
-9754988.57 5135676.45 182.86
-9754989.72 5135680.02 182.62
-9754992.38 5135679.18 182.64
-9754990.09 5135677.05 182.86
-9754992.76 5135674.71 189.22
-9754993.02 5135680.65 189.15
-9754993.60 5135680.76 189.14
-9754989.78 5135680.33 182.64
-9754989.40 5135677.72 182.62
-9754990.30 5135680.67 182.65
-9754990.93 5135674.98 182.89
-9754992.40 5135680.05 182.66
-9754993.54 5135679.27 187.84
-9754990.74 5135678.54 189.60
-9754991.92 5135674.35 189.65
-9754988.59 5135675.87 182.86
-9754987.68 5135675.59 182.85
-9754987.67 5135678.81 182.58
-9754992.13 5135678.53 182.62
-9754992.81 5135676.73 189.17
-9754990.02 5135679.74 182.63
-9754988.23 5135680.65 182.64
-9754988.22 5135679.40 182.61
-9754989.16 5135674.98 182.86
-9754987.92 5135680.03 182.63
-9754989.42 5135679.47 182.61
-9754990.05 5135680.63 182.65
-9754989.47 5135676.16 182.84
-9754989.44 5135678.84 182.62
-9754991.80 5135679.41 182.64
-9754993.95 5135676.46 189.63
-9754992.37 5135677.96 182.61
-9754993.30 5135680.61 189.15
-9754992.42 5135677.04 182.86
-9754990.65 5135679.44 182.63
-9754992.46 5135677.96 189.16
-9754989.75 5135677.61 182.83
-9754992.75 5135675.87 189.21
-9754993.77 5135677.63 182.82
-9754989.44 5135676.77 182.85
-9754987.41 5135677.48 182.69
-9754989.19 5135677.11 182.83
-9754990.30 5135677.66 182.63
-9754990.15 5135679.12 189.63
-9754991.87 5135679.14 189.59
-9754988.85 5135676.76 182.84
-9754990.90 5135677.90 189.60
-9754989.44 5135678.25 182.60
-9754992.37 5135677.35 182.85
-9754992.39 5135677.70 182.61
-9754992.60 5135677.56 182.82
-9754990.35 5135674.96 182.87
-9754990.38 5135679.10 189.62
-9754993.98 5135680.45 189.54
-9754994.26 5135675.96 189.53
-9754987.71 5135678.21 182.58
-9754992.42 5135676.51 182.86
-9754992.11 5135678.52 189.58
-9754991.28 5135676.17 189.63
-9754992.63 5135675.94 182.86
-9754993.61 5135680.36 187.86
-9754991.82 5135679.70 182.65
-9754989.75 5135680.90 182.64
-9754992.50 5135679.14 189.15
-9754988.25 5135677.37 182.83
-9754991.31 5135680.89 189.59
-9754993.07 5135675.91 182.87
-9754992.75 5135676.18 189.19
-9754993.05 5135677.38 189.17
-9754992.20 5135674.97 189.63
-9754991.98 5135676.05 189.30
-9754988.27 5135680.02 182.63
-9754991.32 5135679.17 189.62
-9754989.14 5135679.42 182.61
-9754989.74 5135677.38 182.83
-9754990.04 5135674.70 182.88
-9754992.65 5135678.88 182.65
-9754990.37 5135677.39 182.64
-9754990.63 5135679.17 182.62
-9754992.44 5135677.07 189.17
-9754990.06 5135678.31 182.60
-9754993.04 5135674.98 189.22
-9754992.10 5135676.17 182.87
-9754991.63 5135674.70 189.66
-9754992.42 5135678.89 182.64
-9754988.61 5135678.21 182.60
-9754992.20 5135680.88 189.57
-9754990.35 5135678.21 189.61
-9754993.05 5135675.88 189.20
-9754988.29 5135678.87 182.60
-9754990.10 5135677.98 182.62
-9754993.54 5135679.44 182.64
-9754993.04 5135678.56 189.61
-9754990.97 5135678.54 189.59
-9754991.60 5135676.47 189.63
-9754989.43 5135679.69 182.62
-9754992.37 5135679.77 182.65
-9754992.69 5135679.44 182.65
-9754990.94 5135676.20 182.86
-9754990.56 5135677.41 182.62
-9754987.67 5135676.74 182.83
-9754990.32 5135679.18 182.63
-9754987.70 5135680.05 182.63
-9754993.05 5135676.49 189.18
-9754988.27 5135676.15 182.85
-9754990.73 5135677.92 189.61
-9754992.79 5135674.64 189.64
-9754988.83 5135680.30 182.63
-9754992.77 5135677.96 182.63
-9754988.58 5135677.36 182.83
-9754987.38 5135676.19 182.84
-9754990.31 5135680.89 182.67
-9754988.55 5135677.05 182.83
-9754992.40 5135676.78 182.87
-9754989.74 5135676.75 182.87
-9754987.93 5135678.22 182.59
-9754987.96 5135680.34 182.63
-9754989.13 5135680.88 182.64
-9754987.45 5135674.38 182.86
-9754986.76 5135670.86 176.23
-9754985.10 5135671.52 185.40
-9754985.29 5135669.41 176.22
-9754983.52 5135667.89 176.24
-9754981.84 5135673.18 182.80
-9754983.92 5135671.27 185.32
-9754982.71 5135671.95 183.58
-9754985.92 5135672.29 183.56
-9754985.35 5135672.84 182.81
-9754986.46 5135670.82 176.23
-9754985.69 5135673.46 182.82
-9754986.54 5135670.97 185.34
-9754983.53 5135672.57 176.28
-9754986.54 5135667.86 176.20
-9754983.58 5135673.17 182.81
-9754985.89 5135672.59 176.24
-9754982.75 5135671.47 185.33
-9754983.58 5135674.09 182.80
-9754984.45 5135670.25 176.23
-9754984.46 5135671.68 176.25
-9754987.38 5135670.27 176.19
-9754983.84 5135671.62 183.65
-9754982.73 5135671.61 183.60
-9754984.98 5135671.67 176.24
-9754985.27 5135672.84 176.24
-9754987.50 5135671.26 185.36
-9754982.45 5135672.53 183.52
-9754985.98 5135671.73 183.63
-9754984.42 5135673.16 182.82
-9754986.20 5135669.95 176.20
-9754983.53 5135669.65 176.26
-9754986.82 5135673.82 182.84
-9754985.34 5135673.81 182.82
-9754986.55 5135671.57 185.44
-9754985.87 5135672.35 176.22
-9754982.09 5135674.06 182.79
-9754986.75 5135671.43 176.22
-9754984.12 5135673.00 185.64
-9754985.07 5135674.09 182.82
-9754984.45 5135669.96 176.23
-9754983.01 5135673.46 182.80
-9754985.93 5135674.11 182.81
-9754986.01 5135671.10 185.38
-9754983.87 5135673.72 182.80
-9754985.10 5135673.80 182.82
-9754984.86 5135671.85 185.48
-9754983.59 5135673.36 185.71
-9754985.97 5135671.62 184.18
-9754982.54 5135671.43 183.60
-9754982.41 5135672.46 185.62
-9754982.71 5135671.03 185.29
-9754984.69 5135670.26 176.23
-9754986.52 5135672.50 185.66
-9754983.09 5135673.17 185.68
-9754985.04 5135673.20 182.82
-9754985.86 5135671.70 176.22
-9754982.11 5135673.47 182.79
-9754987.13 5135671.30 185.38
-9754984.55 5135672.53 185.63
-9754987.40 5135671.41 183.68
-9754985.61 5135672.00 183.60
-9754986.82 5135674.10 182.84
-9754983.25 5135673.21 185.69
-9754983.82 5135670.22 176.25
-9754985.40 5135671.29 185.38
-9754986.20 5135671.94 183.60
-9754986.52 5135671.97 185.60
-9754986.54 5135672.19 185.65
-9754984.17 5135673.17 182.82
-9754982.42 5135672.85 183.51
-9754986.14 5135672.63 176.23
-9754984.09 5135671.81 185.43
-9754982.39 5135671.78 185.42
-9754986.76 5135672.32 176.21
-9754985.31 5135668.47 176.22
-9754986.23 5135672.53 183.56
-9754986.52 5135674.10 182.84
-9754986.59 5135671.31 185.39
-9754982.96 5135672.57 176.29
-9754985.10 5135670.94 185.32
-9754983.68 5135673.02 185.64
-9754986.83 5135674.34 182.84
-9754982.72 5135672.51 185.62
-9754986.43 5135668.52 176.21
-9754983.59 5135671.12 176.25
-9754984.71 5135672.63 176.26
-9754983.08 5135671.96 185.47
-9754986.30 5135671.25 185.38
-9754983.52 5135667.58 176.25
-9754982.95 5135670.19 176.28
-9754982.68 5135673.40 185.79
-9754983.01 5135671.96 183.57
-9754983.96 5135672.47 185.63
-9754982.36 5135668.46 176.26
-9754986.49 5135673.37 185.88
-9754986.46 5135669.41 176.21
-9754984.43 5135671.57 185.40
-9754982.96 5135671.12 176.27
-9754986.55 5135672.03 176.21
-9754987.12 5135672.95 182.85
-9754985.06 5135669.64 176.23
-9754982.06 5135671.28 185.29
-9754981.84 5135671.00 185.29
-9754984.81 5135670.99 185.32
-9754986.82 5135669.64 176.19
-9754982.07 5135672.77 185.62
-9754985.08 5135672.01 183.59
-9754983.36 5135670.69 185.27
-9754986.18 5135671.97 176.22
-9754984.15 5135669.34 176.25
-9754982.09 5135671.13 176.29
-9754985.03 5135668.77 176.22
-9754984.44 5135674.05 182.81
-9754985.01 5135672.51 183.56
-9754986.50 5135673.20 182.84
-9754982.38 5135668.15 176.26
-9754987.40 5135672.03 176.21
-9754986.47 5135671.87 185.51
-9754984.43 5135673.50 182.83
-9754986.18 5135674.26 185.94
-9754984.69 5135672.50 185.63
-9754987.37 5135677.64 182.81
-9754985.94 5135674.33 182.82
-9754985.35 5135674.35 182.81
-9754987.41 5135677.31 182.83
-9754987.34 5135680.01 182.62
-9754986.20 5135676.16 182.82
-9754984.45 5135674.37 182.81
-9754984.76 5135674.33 182.82
-9754985.32 5135678.26 182.57
-9754982.69 5135674.95 182.79
-9754982.65 5135678.19 182.55
-9754986.79 5135675.87 182.83
-9754987.38 5135678.25 182.59
-9754986.79 5135677.02 182.82
-9754986.78 5135677.35 182.82
-9754987.08 5135679.14 182.61
-9754983.59 5135674.32 182.81
-9754982.40 5135678.55 182.53
-9754982.95 5135677.36 182.78
-9754984.13 5135677.62 182.78
-9754982.66 5135675.27 182.79
-9754985.91 5135676.13 182.82
-9754985.91 5135680.88 182.63
-9754983.59 5135676.43 182.80
-9754986.82 5135676.45 182.83
-9754985.05 5135674.65 182.82
-9754985.90 5135680.66 182.62
-9754983.54 5135674.64 182.80
-9754985.93 5135676.72 182.83
-9754984.42 5135680.03 182.59
-9754987.04 5135679.73 182.62
-9754985.28 5135677.93 182.57
-9754984.13 5135675.27 182.81
-9754983.54 5135680.30 182.58
-9754983.29 5135675.21 182.80
-9754986.78 5135680.29 182.63
-9754987.15 5135677.59 182.67
-9754986.18 5135677.37 182.81
-9754984.11 5135678.79 182.58
-9754982.08 5135678.48 182.53
-9754985.56 5135680.87 182.62
-9754985.60 5135680.30 182.61
-9754986.49 5135676.47 182.83
-9754983.86 5135674.96 182.80
-9754983.87 5135674.37 182.81
-9754985.28 5135678.81 182.58
-9754982.95 5135675.25 182.79
-9754984.44 5135674.94 182.82
-9754983.21 5135680.60 182.59
-9754981.77 5135680.86 182.57
-9754986.79 5135678.85 182.60
-9754985.90 5135677.06 182.83
-9754982.96 5135676.72 182.79
-9754985.02 5135676.42 182.81
-9754984.13 5135678.21 182.56
-9754984.44 5135676.70 182.80
-9754986.81 5135677.89 182.58
-9754986.26 5135674.96 182.83
-9754982.64 5135680.32 182.58
-9754982.36 5135677.05 182.78
-9754984.73 5135679.08 182.59
-9754984.42 5135680.32 182.60
-9754986.81 5135677.68 182.80
-9754984.16 5135674.71 182.81
-9754982.69 5135680.02 182.57
-9754986.53 5135675.88 182.83
-9754982.34 5135678.22 182.54
-9754985.93 5135678.55 182.59
-9754983.27 5135679.41 182.56
-9754983.24 5135676.99 182.79
-9754983.86 5135677.92 182.55
-9754982.09 5135677.65 182.77
-9754987.12 5135676.77 182.83
-9754983.54 5135677.31 182.80
-9754985.02 5135677.93 182.57
-9754982.61 5135677.87 182.55
-9754984.25 5135674.75 186.12
-9754986.79 5135680.60 182.64
-9754982.92 5135677.88 182.55
-9754986.15 5135678.53 182.59
-9754986.52 5135675.25 182.84
-9754985.93 5135676.49 182.82
-9754982.97 5135676.14 182.80
-9754987.37 5135674.66 182.86
-9754985.02 5135677.34 182.82
-9754985.04 5135676.14 182.82
-9754982.97 5135678.19 182.55
-9754985.05 5135678.82 182.58
-9754982.31 5135677.62 182.77
-9754984.45 5135675.26 182.82
-9754985.62 5135676.11 182.82
-9754985.91 5135677.94 182.58
-9754982.66 5135679.42 182.56
-9754986.52 5135677.36 182.81
-9754985.61 5135675.86 182.82
-9754983.88 5135675.85 182.80
-9754983.25 5135678.83 182.55
-9754986.81 5135675.53 182.84
-9754986.79 5135679.43 182.62
-9754986.49 5135674.94 182.83
-9754983.56 5135676.98 182.80
-9754985.30 5135679.70 182.61
-9754985.04 5135677.01 182.81
-9754982.07 5135678.84 182.54
-9754985.90 5135677.29 182.82
-9754984.13 5135676.73 182.80
-9754985.87 5135680.00 182.60
-9754984.69 5135679.96 182.60
-9754983.53 5135680.60 182.58
-9754983.89 5135677.62 182.58
-9754984.12 5135680.04 182.58
-9754982.42 5135674.54 186.12
-9754985.00 5135680.63 182.61
-9754982.62 5135679.69 182.57
-9754983.25 5135678.50 182.55
-9754982.73 5135674.75 186.12
-9754985.03 5135675.87 182.82
-9754984.72 5135677.03 182.80
-9754985.92 5135678.15 182.57
-9754982.09 5135676.41 182.78
-9754986.57 5135677.61 182.65
-9754983.90 5135675.26 182.80
-9754984.77 5135680.28 182.61
-9754986.76 5135679.71 182.62
-9754982.70 5135674.59 182.79
-9754983.51 5135678.25 182.55
-9754984.15 5135677.27 182.80
-9754982.07 5135677.02 182.78
-9754983.25 5135675.54 182.80
-9754985.92 5135675.82 182.82
-9754986.13 5135679.12 182.60
-9754984.12 5135680.27 182.58
-9754983.28 5135674.95 182.80
-9755001.54 5135664.09 177.05
-9755002.49 5135662.27 189.72
-9754996.60 5135667.66 177.09
-9754995.75 5135667.27 189.70
-9754998.62 5135664.40 177.05
-9754996.21 5135667.64 177.06
-9754994.88 5135664.31 189.72
-9754999.72 5135667.63 177.06
-9754997.71 5135667.60 177.09
-9754995.73 5135662.84 189.75
-9754998.59 5135663.34 176.92
-9754997.70 5135665.16 177.09
-9754995.47 5135667.55 189.71
-9754998.32 5135667.69 177.10
-9754995.57 5135667.03 177.06
-9754999.31 5135666.15 189.69
-9754994.76 5135666.07 177.04
-9754997.17 5135664.36 177.09
-9754999.33 5135663.76 189.71
-9754999.88 5135666.33 189.68
-9754999.03 5135663.47 189.73
-9754996.85 5135666.76 177.06
-9754999.12 5135663.70 189.72
-9754999.33 5135663.46 189.71
-9754996.07 5135662.86 189.75
-9754995.33 5135667.57 177.08
-9754999.08 5135665.80 189.68
-9754998.57 5135666.20 177.07
-9754996.00 5135662.57 177.05
-9754998.45 5135662.91 189.72
-9754996.34 5135667.58 189.70
-9754999.06 5135664.89 189.70
-9754998.72 5135665.21 189.71
-9754994.21 5135666.44 177.03
-9754995.90 5135666.74 177.05
-9754996.58 5135663.17 177.07
-9754998.90 5135665.21 177.05
-9755000.35 5135664.35 177.05
-9754998.89 5135666.17 177.05
-9755000.51 5135665.24 189.71
-9754995.65 5135663.49 177.05
-9754997.97 5135666.11 177.09
-9754994.86 5135662.85 189.73
-9755000.23 5135667.28 189.68
-9754997.68 5135664.04 177.09
-9754999.55 5135663.75 189.70
-9754998.86 5135663.73 177.02
-9754999.20 5135663.14 177.01
-9754998.07 5135667.32 189.69
-9754999.32 5135667.27 189.69
-9754999.49 5135665.51 177.05
-9754998.30 5135667.10 177.07
-9754995.28 5135662.87 189.72
-9754997.42 5135662.55 177.10
-9754998.82 5135664.38 189.74
-9754996.85 5135664.94 177.06
-9755000.63 5135666.11 177.04
-9754999.62 5135667.08 189.69
-9755000.98 5135662.89 177.05
-9754994.63 5135666.66 189.70
-9754998.39 5135664.93 189.71
-9754996.36 5135665.22 189.70
-9754999.01 5135663.10 189.74
-9754994.91 5135663.12 189.73
-9754997.47 5135666.42 177.07
-9754995.73 5135663.43 189.74
-9754997.76 5135664.39 177.08
-9754998.46 5135663.14 189.73
-9754999.18 5135662.62 177.02
-9754998.37 5135664.94 177.06
-9754994.85 5135663.42 189.73
-9754999.86 5135666.19 189.68
-9754994.63 5135663.71 189.73
-9754994.50 5135665.20 177.03
-9754996.73 5135662.82 189.74
-9754997.11 5135662.60 177.09
-9755000.44 5135665.27 177.06
-9754998.51 5135665.52 189.71
-9754999.94 5135664.99 189.71
-9754994.44 5135664.71 189.70
-9755000.66 5135667.04 189.68
-9754997.95 5135662.83 177.43
-9754998.44 5135664.70 189.70
-9754997.71 5135665.53 177.08
-9754998.50 5135665.21 189.72
-9754994.86 5135664.61 189.71
-9754998.16 5135662.84 189.72
-9754995.18 5135663.14 189.73
-9754998.68 5135662.87 177.06
-9755000.83 5135664.95 189.71
-9754998.11 5135663.80 177.05
-9754999.50 5135664.38 177.03
-9754991.68 5135667.55 189.68
-9754990.17 5135662.79 189.76
-9754990.17 5135667.55 189.71
-9754992.00 5135665.15 189.71
-9754990.92 5135667.60 176.10
-9754990.09 5135666.46 176.12
-9754992.95 5135663.45 176.97
-9754989.17 5135665.24 176.15
-9754992.73 5135666.01 177.90
-9754992.38 5135666.98 177.01
-9754992.61 5135664.52 177.89
-9754992.12 5135662.74 177.90
-9754988.29 5135664.64 176.19
-9754992.40 5135662.88 177.19
-9754993.60 5135667.62 176.99
-9754991.97 5135664.53 177.88
-9754991.56 5135667.59 177.17
-9754990.93 5135664.93 176.10
-9754993.02 5135667.59 177.00
-9754992.42 5135665.18 177.10
-9754989.19 5135665.84 176.16
-9754991.85 5135662.81 177.13
-9754994.38 5135662.55 189.71
-9754991.06 5135662.81 189.75
-9754992.12 5135665.16 177.15
-9754993.63 5135666.08 176.97
-9754989.16 5135663.77 176.15
-9754988.27 5135667.59 176.18
-9754991.40 5135662.83 189.76
-9754992.45 5135663.72 177.91
-9754992.73 5135664.07 176.96
-9754988.88 5135666.14 176.16
-9754992.38 5135663.38 177.18
-9754990.21 5135663.11 189.76
-9754992.89 5135663.40 189.73
-9754989.95 5135662.80 189.76
-9754992.46 5135663.50 189.72
-9754992.17 5135662.22 177.16
-9754990.50 5135665.18 189.70
-9754988.23 5135662.85 176.18
-9754990.21 5135665.78 189.70
-9754990.16 5135666.63 189.70
-9754988.28 5135664.34 176.18
-9754991.09 5135665.51 189.70
-9754990.95 5135663.46 176.10
-9754994.13 5135667.30 177.00
-9754992.70 5135664.64 176.97
-9754990.04 5135664.90 176.12
-9754991.52 5135663.45 177.15
-9754992.14 5135667.64 177.06
-9754990.48 5135664.58 189.73
-9754991.58 5135664.44 176.14
-9754989.17 5135663.18 176.15
-9754992.00 5135663.45 189.75
-9754992.23 5135665.13 189.72
-9754990.19 5135664.07 189.74
-9754991.06 5135663.12 189.75
-9754992.72 5135665.23 177.00
-9754990.50 5135665.48 189.70
-9754992.79 5135666.97 189.63
-9754989.16 5135664.95 176.15
-9754993.71 5135667.57 189.70
-9754992.37 5135665.84 177.06
-9754993.39 5135662.87 189.72
-9754993.34 5135664.92 189.71
-9754991.48 5135665.51 177.13
-9754991.23 5135662.27 176.10
-9754991.98 5135665.46 189.71
-9754992.89 5135665.18 189.70
-9754989.16 5135664.29 176.15
-9754990.19 5135663.38 189.74
-9754992.39 5135664.61 177.04
-9754990.95 5135665.52 176.10
-9754993.89 5135665.19 176.99
-9754991.40 5135662.77 177.13
-9754991.02 5135667.59 189.70
-9754987.68 5135662.54 176.18
-9754987.41 5135663.71 176.19
-9754985.02 5135667.55 176.22
-9754984.75 5135666.08 176.23
-9754987.43 5135665.19 176.18
-9754984.14 5135667.60 176.23
-9754985.03 5135666.37 176.23
-9754986.24 5135662.00 176.20
-9754982.68 5135665.18 176.26
-9754984.72 5135665.19 176.23
-9754984.13 5135667.03 176.23
-9754986.79 5135666.13 176.19
-9754984.45 5135663.42 176.23
-9754985.36 5135664.34 176.21
-9754987.36 5135666.96 176.20
-9754982.37 5135662.82 176.26
-9754986.21 5135664.31 176.20
-9754987.42 5135666.16 176.18
-9754985.90 5135666.71 176.21
-9754983.57 5135662.81 176.25
-9754986.76 5135664.04 176.20
-9754986.80 5135666.37 176.19
-9754983.28 5135663.74 176.25
-9754982.96 5135666.95 176.26
-9754985.08 5135662.58 176.21
-9754985.61 5135665.22 176.21
-9754985.62 5135666.14 176.21
-9754986.76 5135665.77 176.19
-9754983.58 5135663.11 176.25
-9754981.80 5135671.06 176.30
-9754981.45 5135673.49 182.78
-9754981.16 5135669.62 176.30
-9754982.41 5135670.94 185.27
-9754981.15 5135671.10 176.32
-9754981.23 5135672.84 183.51
-9754981.01 5135672.11 185.48
-9754980.96 5135673.46 182.77
-9754981.76 5135673.02 185.69
-9754981.14 5135670.24 176.30
-9754981.17 5135670.82 176.30
-9754981.53 5135674.18 185.85
-9754981.56 5135672.82 183.50
-9754981.90 5135671.90 183.58
-9754981.31 5135671.28 184.15
-9754981.78 5135669.33 176.28
-9754981.76 5135670.50 176.30
-9754981.24 5135671.89 185.47
-9754982.05 5135671.95 176.28
-9754981.19 5135672.63 182.76
-9754981.24 5135672.12 185.50
-9754980.56 5135672.87 176.32
-9754980.58 5135672.75 185.62
-9754981.21 5135668.46 176.29
-9754980.71 5135672.43 185.60
-9754981.78 5135671.37 183.58
-9754980.62 5135672.52 183.50
-9754983.01 5135661.98 176.26
-9754980.58 5135670.82 176.31
-9754978.25 5135670.20 176.34
-9754977.33 5135670.22 176.34
-9754976.53 5135671.84 185.32
-9754976.84 5135671.59 185.31
-9754978.85 5135673.73 182.75
-9754980.03 5135672.77 185.61
-9754978.55 5135667.86 176.34
-9754978.32 5135672.46 185.54
-9754977.43 5135673.74 182.72
-9754977.34 5135671.11 176.34
-9754978.56 5135672.13 185.42
-9754978.88 5135669.59 176.34
-9754977.38 5135673.46 182.72
-9754976.79 5135668.10 176.31
-9754979.45 5135669.01 176.31
-9754977.08 5135672.08 185.48
-9754980.05 5135673.72 182.77
-9754976.83 5135672.66 185.57
-9754977.65 5135670.99 185.22
-9754977.65 5135671.95 183.50
-9754978.26 5135671.65 176.35
-9754979.16 5135671.96 183.54
-9754977.95 5135671.63 176.36
-9754979.35 5135670.53 176.34
-9754980.72 5135673.37 176.37
-9754979.48 5135673.24 185.74
-9754979.41 5135672.54 176.35
-9754979.44 5135672.51 183.49
-9754979.99 5135670.82 176.31
-9754977.66 5135669.65 176.34
-9754978.50 5135672.21 183.49
-9754977.48 5135672.41 185.51
-9754977.07 5135671.96 183.48
-9754976.81 5135672.36 185.54
-9754980.86 5135671.37 176.32
-9754978.80 5135667.83 176.33
-9754977.37 5135668.42 176.32
-9754979.44 5135673.05 185.61
-9754980.06 5135672.01 183.54
-9754978.52 5135672.60 176.36
-9754977.81 5135671.47 183.57
-9754979.12 5135673.39 185.75
-9754978.93 5135670.96 185.25
-9754978.27 5135672.05 185.36
-9754977.42 5135672.75 185.54
-9754980.26 5135672.45 185.53
-9754980.29 5135673.86 185.82
-9754980.02 5135669.87 176.31
-9754978.86 5135670.21 176.33
-9754976.46 5135673.53 185.77
-9754976.13 5135671.67 183.53
-9754976.44 5135670.20 176.31
-9754980.04 5135671.00 185.25
-9754977.64 5135673.55 176.30
-9754979.41 5135670.84 176.33
-9754976.62 5135671.02 185.24
-9754976.18 5135670.15 176.31
-9754979.73 5135670.25 176.32
-9754976.20 5135674.04 185.84
-9754979.23 5135673.07 185.61
-9754980.37 5135672.16 185.49
-9754979.71 5135673.44 182.76
-9754977.96 5135674.01 182.73
-9754978.58 5135671.59 185.30
-9754979.67 5135671.93 176.34
-9754980.35 5135671.26 185.27
-9754977.71 5135673.69 182.72
-9754979.76 5135668.46 176.31
-9754978.33 5135673.17 182.73
-9754978.88 5135672.50 183.48
-9754977.70 5135672.48 183.46
-9754980.04 5135672.46 185.56
-9754976.45 5135669.30 176.32
-9754979.49 5135671.69 183.57
-9754978.00 5135672.83 182.76
-9754976.52 5135671.92 183.49
-9754976.79 5135669.61 176.32
-9754978.26 5135671.95 176.35
-9754977.99 5135672.53 183.47
-9754978.02 5135672.03 185.38
-9754976.49 5135673.74 182.70
-9754980.00 5135672.32 176.32
-9754978.58 5135673.32 185.71
-9754979.46 5135674.06 182.75
-9754981.76 5135680.59 182.57
-9754981.80 5135676.09 182.77
-9754981.20 5135676.69 182.77
-9754981.77 5135679.70 182.55
-9754981.78 5135675.54 182.78
-9754981.78 5135674.48 186.06
-9754981.24 5135677.02 182.76
-9754981.75 5135678.81 182.54
-9754981.13 5135679.73 182.55
-9754981.47 5135677.01 182.77
-9754980.88 5135680.90 182.56
-9754981.55 5135675.21 182.78
-9754981.96 5135674.81 186.09
-9754980.93 5135674.92 182.78
-9754980.58 5135679.12 182.53
-9754981.22 5135678.53 182.52
-9754980.59 5135677.61 182.74
-9754981.48 5135679.11 182.54
-9754981.22 5135676.46 182.77
-9754981.48 5135680.28 182.55
-9754980.95 5135674.69 182.78
-9754980.89 5135677.60 182.74
-9754981.23 5135676.39 182.77
-9754981.17 5135678.18 182.53
-9754981.15 5135680.85 182.56
-9754980.59 5135679.35 182.52
-9754980.96 5135674.34 182.76
-9754980.86 5135680.26 182.55
-9754980.61 5135678.21 182.52
-9754980.91 5135678.19 182.53
-9754981.23 5135675.23 182.77
-9754981.20 5135678.75 182.52
-9754980.60 5135677.03 182.75
-9754981.20 5135675.55 182.76
-9754981.77 5135674.34 182.79
-9754979.45 5135678.50 182.49
-9754976.80 5135680.80 182.50
-9754976.50 5135677.55 182.69
-9754980.00 5135679.12 182.53
-9754976.15 5135680.28 182.47
-9754979.68 5135678.48 182.50
-9754979.98 5135679.36 182.52
-9754979.43 5135674.66 182.75
-9754980.00 5135674.63 182.75
-9754978.48 5135677.58 182.56
-9754978.57 5135674.62 182.73
-9754980.57 5135678.48 182.51
-9754978.55 5135676.40 182.73
-9754979.13 5135675.82 182.74
-9754976.74 5135680.56 182.50
-9754976.77 5135679.69 182.47
-9754980.28 5135677.92 182.52
-9754979.19 5135677.69 182.49
-9754979.14 5135676.70 182.75
-9754978.25 5135676.98 182.72
-9754977.35 5135674.92 182.71
-9754977.64 5135680.86 182.52
-9754977.06 5135679.11 182.47
-9754979.73 5135674.98 182.74
-9754977.96 5135680.26 182.51
-9754977.97 5135678.50 182.47
-9754977.64 5135678.19 182.47
-9754978.82 5135675.22 182.74
-9754978.55 5135678.80 182.49
-9754979.73 5135674.33 182.75
-9754979.45 5135676.99 182.75
-9754977.62 5135680.30 182.51
-9754979.04 5135680.87 182.53
-9754979.14 5135678.76 182.49
-9754978.54 5135677.30 182.72
-9754979.41 5135680.54 182.52
-9754980.31 5135674.62 182.75
-9754978.54 5135680.88 182.53
-9754977.07 5135680.89 182.51
-9754977.91 5135679.09 182.49
-9754979.06 5135679.97 182.52
-9754979.39 5135677.81 182.72
-9754980.33 5135677.62 182.74
-9754978.51 5135675.49 182.73
-9754978.59 5135674.58 186.05
-9754979.68 5135679.95 182.52
-9754976.44 5135680.25 182.48
-9754978.84 5135676.16 182.74
-9754976.20 5135674.59 186.03
-9754978.53 5135677.91 182.48
-9754976.80 5135677.27 182.70
-9754978.83 5135674.92 182.73
-9754980.03 5135677.00 182.75
-9754976.51 5135676.07 182.70
-9754979.42 5135680.84 182.53
-9754978.88 5135675.83 182.73
-9754977.63 5135680.50 182.52
-9754978.59 5135679.69 182.51
-9754977.04 5135679.65 182.49
-9754979.12 5135680.53 182.53
-9754976.44 5135678.49 182.45
-9754977.33 5135680.25 182.50
-9754976.46 5135675.20 182.71
-9754976.51 5135676.99 182.70
-9754976.14 5135679.37 182.46
-9754980.02 5135676.42 182.76
-9754978.57 5135679.34 182.50
-9754977.97 5135674.33 182.72
-9754978.31 5135677.87 182.70
-9754977.05 5135674.93 182.71
-9754977.09 5135675.18 182.71
-9754980.04 5135677.32 182.74
-9754976.18 5135677.23 182.69
-9754980.25 5135680.86 182.55
-9754977.08 5135675.82 182.70
-9754979.43 5135677.89 182.47
-9754977.68 5135674.62 182.72
-9754976.77 5135676.97 182.71
-9754977.52 5135674.85 186.05
-9754977.29 5135678.18 182.47
-9754977.08 5135678.77 182.47
-9754979.43 5135676.12 182.75
-9754978.84 5135679.99 182.51
-9754980.29 5135677.31 182.75
-9754979.10 5135679.64 182.50
-9754980.02 5135678.48 182.51
-9754978.56 5135680.26 182.50
-9754979.40 5135675.24 182.74
-9754979.44 5135675.76 182.74
-9754977.07 5135676.72 182.72
-9754977.41 5135675.23 182.71
-9754977.37 5135675.82 182.71
-9754978.48 5135680.56 182.51
-9754979.13 5135674.59 182.74
-9754977.09 5135675.49 182.71
-9754977.98 5135674.67 182.72
-9754976.48 5135677.93 182.47
-9754976.74 5135678.80 182.46
-9754979.46 5135676.71 182.75
-9754978.30 5135675.53 182.72
-9754977.96 5135676.44 182.72
-9754977.91 5135677.56 182.72
-9754977.06 5135680.27 182.50
-9754977.05 5135677.89 182.48
-9754979.13 5135677.89 182.48
-9754976.51 5135675.83 182.70
-9754982.44 5135663.69 176.25
-9754982.40 5135662.51 176.26
-9754980.32 5135667.54 176.31
-9754981.52 5135664.29 176.28
-9754981.20 5135664.87 176.28
-9754981.16 5135665.17 176.28
-9754980.65 5135663.72 176.30
-9754980.89 5135664.60 176.29
-9754978.87 5135662.77 176.33
-9754977.64 5135664.86 176.31
-9754978.27 5135664.88 176.33
-9754976.76 5135664.60 176.32
-9754979.11 5135666.98 176.32
-9754976.80 5135666.33 176.31
-9754978.25 5135666.93 176.34
-9754979.14 5135664.53 176.32
-9754979.72 5135663.72 176.30
-9754977.65 5135666.93 176.33
-9754976.84 5135662.21 176.31
-9754976.22 5135661.89 176.31
-9754980.28 5135666.66 176.30
-9754980.02 5135664.03 176.29
-9754979.46 5135665.72 176.32
-9754976.20 5135665.72 176.31
-9754977.38 5135665.16 176.32
-9754976.22 5135663.97 176.30
-9754980.03 5135666.08 176.29
-9754978.31 5135662.79 176.32
-9754976.48 5135665.14 176.31
-9754976.47 5135665.98 176.31
-9754977.35 5135666.01 176.32
-9755025.59 5135643.81 176.23
-9755027.01 5135647.08 176.19
-9755024.06 5135646.76 176.24
-9755025.53 5135643.54 176.24
-9755023.47 5135643.84 176.25
-9755027.91 5135646.24 176.19
-9755022.89 5135645.03 176.25
-9755023.77 5135645.00 176.25
-9755023.79 5135645.89 176.25
-9755025.50 5135645.35 176.24
-9755027.03 5135643.86 176.21
-9755027.90 5135646.80 176.19
-9755022.26 5135646.18 176.26
-9755028.21 5135643.84 176.20
-9755022.91 5135643.51 176.26
-9755028.76 5135645.64 176.19
-9755026.41 5135646.20 176.20
-9755021.69 5135646.19 176.28
-9755021.69 5135644.67 176.28
-9755022.02 5135643.55 176.28
-9755020.57 5135643.77 176.30
-9755024.96 5135654.77 176.25
-9755025.24 5135647.98 176.24
-9755028.70 5135656.27 176.18
-9755028.69 5135654.52 176.20
-9755022.88 5135654.50 176.26
-9755022.25 5135658.01 176.28
-9755026.39 5135649.50 176.22
-9755025.79 5135656.30 176.24
-9755024.61 5135654.46 176.26
-9755026.68 5135656.26 176.21
-9755028.75 5135660.73 176.19
-9755025.53 5135652.39 176.23
-9755025.47 5135658.95 176.24
-9755027.29 5135656.85 176.21
-9755024.58 5135653.31 176.24
-9755022.56 5135651.50 176.26
-9755022.29 5135651.20 176.27
-9755024.92 5135648.00 176.24
-9755023.44 5135651.23 176.24
-9755025.85 5135651.23 176.22
-9755027.25 5135660.14 176.21
-9755024.56 5135660.68 176.27
-9755023.75 5135655.37 176.26
-9755023.75 5135657.72 176.25
-9755023.12 5135656.23 176.26
-9755027.25 5135655.97 176.20
-9755027.25 5135649.74 176.19
-9755022.28 5135656.22 176.28
-9755021.98 5135648.86 176.27
-9755025.54 5135648.59 176.23
-9755022.54 5135660.12 176.27
-9755027.85 5135659.27 176.21
-9755022.25 5135653.58 176.28
-9755023.69 5135660.11 176.27
-9755028.74 5135649.15 176.18
-9755027.27 5135649.44 176.19
-9755022.51 5135657.71 176.28
-9755023.47 5135648.53 176.24
-9755028.44 5135653.87 176.20
-9755022.21 5135660.38 176.28
-9755024.02 5135655.10 176.26
-9755027.29 5135647.95 176.22
-9755024.59 5135658.02 176.24
-9755026.40 5135647.95 176.22
-9755026.34 5135659.52 176.23
-9755024.03 5135656.84 176.25
-9755027.35 5135647.42 176.21
-9755024.33 5135652.70 176.24
-9755027.57 5135657.79 176.21
-9755021.98 5135648.56 176.28
-9755021.96 5135657.15 176.29
-9755026.37 5135660.96 176.23
-9755026.40 5135652.42 176.23
-9755028.19 5135651.25 176.18
-9755022.84 5135652.94 176.26
-9755023.44 5135652.71 176.24
-9755026.39 5135651.22 176.22
-9755028.68 5135659.85 176.19
-9755023.41 5135660.34 176.27
-9755026.35 5135652.99 176.23
-9755028.70 5135650.66 176.17
-9755026.03 5135657.74 176.24
-9755024.91 5135656.86 176.25
-9755021.98 5135653.55 176.29
-9755022.24 5135659.16 176.29
-9755025.54 5135654.19 176.25
-9755026.40 5135653.29 176.22
-9755023.98 5135659.82 176.27
-9755023.18 5135647.70 176.26
-9755024.03 5135650.03 176.24
-9755023.43 5135652.95 176.25
-9755028.13 5135660.11 176.20
-9755022.27 5135656.56 176.28
-9755022.01 5135647.69 176.28
-9755023.47 5135650.33 176.25
-9755028.70 5135655.75 176.18
-9755026.92 5135657.75 176.22
-9755022.85 5135655.69 176.27
-9755023.11 5135654.16 176.27
-9755022.21 5135655.05 176.28
-9755025.42 5135660.68 176.24
-9755028.71 5135653.91 176.19
-9755028.16 5135652.43 176.20
-9755021.96 5135647.97 176.28
-9755021.66 5135658.03 176.29
-9755021.40 5135647.35 176.28
-9755021.64 5135659.21 176.29
-9755021.70 5135648.90 176.28
-9755021.67 5135653.87 176.27
-9755021.39 5135654.75 176.30
-9755021.12 5135647.97 176.28
-9755026.34 5135662.48 176.24
-9755026.95 5135661.28 176.21
-9755026.39 5135661.31 176.22
-9755028.08 5135661.60 176.20
-9755026.06 5135662.18 176.23
-9755023.92 5135662.17 176.25
-9755028.36 5135662.21 176.20
-9755021.57 5135662.15 176.28
-9755017.58 5135645.57 176.26
-9755018.48 5135647.07 176.28
-9755017.03 5135646.15 176.25
-9755019.03 5135645.58 176.28
-9755019.67 5135644.41 176.30
-9755020.52 5135645.88 176.30
-9755017.02 5135644.64 176.27
-9755019.02 5135646.72 176.28
-9755018.76 5135643.80 176.29
-9755017.26 5135646.12 176.25
-9755019.11 5135645.89 176.28
-9755019.63 5135643.49 176.30
-9755017.05 5135643.82 176.27
-9755020.45 5135658.59 176.30
-9755020.45 5135657.44 176.31
-9755018.72 5135660.07 176.28
-9755018.04 5135659.47 176.26
-9755019.64 5135652.68 176.29
-9755019.01 5135652.11 176.27
-9755020.48 5135654.12 176.30
-9755017.55 5135647.96 176.26
-9755017.25 5135655.05 176.26
-9755018.16 5135648.20 176.26
-9755018.79 5135650.32 176.26
-9755019.04 5135655.59 176.28
-9755019.05 5135654.75 176.28
-9755017.84 5135652.34 176.27
-9755020.50 5135649.37 176.29
-9755018.98 5135660.65 176.28
-9755019.59 5135655.92 176.29
-9755019.30 5135655.33 176.29
-9755017.53 5135654.48 176.26
-9755018.14 5135654.78 176.28
-9755017.57 5135655.59 176.28
-9755017.26 5135651.20 176.24
-9755017.25 5135651.75 176.24
-9755019.31 5135651.22 176.28
-9755018.76 5135649.43 176.28
-9755017.53 5135653.53 176.26
-9755019.61 5135649.40 176.30
-9755016.90 5135659.47 176.27
-9755019.57 5135656.54 176.29
-9755016.66 5135657.34 176.26
-9755019.93 5135650.92 176.28
-9755020.20 5135652.68 176.29
-9755019.01 5135648.55 176.28
-9755019.62 5135658.33 176.29
-9755016.63 5135656.23 176.26
-9755016.91 5135660.37 176.26
-9755017.44 5135661.86 176.28
-9755018.08 5135661.54 176.27
-9755018.66 5135661.86 176.28
-9755018.74 5135661.28 176.27
-9755019.60 5135661.25 176.30
-9755017.53 5135661.26 176.27
-9755016.71 5135643.22 176.26
-9755015.85 5135644.38 176.25
-9755014.65 5135644.63 176.23
-9755015.56 5135647.00 176.24
-9755010.53 5135645.49 176.18
-9755009.93 5135646.43 176.17
-9755011.13 5135643.14 176.20
-9755011.42 5135644.99 176.17
-9755013.18 5135644.05 176.21
-9755014.94 5135647.01 176.23
-9755010.82 5135646.15 176.18
-9755013.77 5135643.77 176.21
-9755011.98 5135646.99 176.19
-9755011.40 5135644.61 176.17
-9755009.96 5135644.91 176.18
-9755013.48 5135645.54 176.20
-9755015.84 5135645.21 176.23
-9755000.96 5135662.29 177.05
-9755013.97 5135658.57 176.23
-9755011.93 5135656.21 176.20
-9755012.55 5135653.82 176.21
-9755011.93 5135660.32 176.20
-9755015.20 5135653.84 176.25
-9755016.96 5135653.56 176.25
-9755009.93 5135648.18 176.16
-9755012.24 5135647.89 176.20
-9755013.37 5135659.48 176.21
-9755015.22 5135652.05 176.24
-9755015.81 5135650.27 176.24
-9755012.22 5135654.10 176.20
-9755012.21 5135660.64 176.20
-9755012.53 5135649.40 176.18
-9755012.53 5135654.45 176.20
-9755012.82 5135652.90 176.21
-9755011.89 5135657.93 176.21
-9755014.88 5135660.63 176.24
-9755015.48 5135655.60 176.26
-9755012.01 5135648.10 176.19
-9755010.76 5135655.00 176.17
-9755014.03 5135649.09 176.22
-9755013.06 5135657.66 176.22
-9755013.06 5135660.67 176.21
-9755012.25 5135648.76 176.18
-9755012.25 5135649.41 176.18
-9755013.73 5135647.94 176.21
-9755011.93 5135654.70 176.19
-9755015.73 5135660.06 176.27
-9755016.06 5135652.68 176.25
-9755010.73 5135655.58 176.19
-9755012.52 5135652.05 176.20
-9755012.23 5135650.53 176.19
-9755009.24 5135659.72 176.14
-9755014.30 5135651.49 176.21
-9755013.71 5135657.66 176.23
-9755010.14 5135657.05 176.18
-9755015.81 5135651.15 176.24
-9755014.86 5135656.48 176.24
-9755009.84 5135655.02 176.15
-9755009.57 5135658.87 176.15
-9755014.57 5135656.49 176.24
-9755013.72 5135649.72 176.20
-9755013.08 5135658.21 176.22
-9755014.85 5135659.75 176.25
-9755014.84 5135657.40 176.24
-9755011.38 5135647.89 176.18
-9755013.69 5135660.34 176.22
-9755013.35 5135659.76 176.21
-9755015.78 5135648.51 176.23
-9755010.12 5135660.33 176.17
-9755013.39 5135652.63 176.20
-9755011.92 5135649.38 176.18
-9755013.40 5135657.09 176.22
-9755012.20 5135654.72 176.19
-9755009.86 5135659.12 176.15
-9755015.45 5135658.31 176.24
-9755010.13 5135659.44 176.17
-9755016.03 5135660.33 176.27
-9755013.14 5135649.36 176.20
