-9755499.41 5135579.32 181.56
-9755499.53 5135581.42 190.66
-9755499.34 5135579.26 182.51
-9755496.57 5135579.39 181.56
-9755498.28 5135579.37 181.53
-9755499.26 5135578.39 184.25
-9755499.37 5135578.14 182.55
-9755499.15 5135579.24 186.37
-9755497.16 5135577.05 181.51
-9755494.88 5135578.98 181.58
-9755499.19 5135579.94 181.56
-9755495.77 5135577.30 181.51
-9755499.64 5135577.28 182.00
-9755496.21 5135577.06 181.53
-9755498.01 5135576.41 181.50
-9755499.24 5135577.71 186.53
-9755499.39 5135576.50 182.19
-9755499.82 5135577.48 190.42
-9755499.24 5135578.53 186.57
-9755499.69 5135576.83 186.04
-9755499.40 5135577.95 181.51
-9755496.87 5135577.88 181.53
-9755499.17 5135580.18 181.93
-9755497.13 5135577.91 181.53
-9755498.63 5135577.07 181.49
-9755495.31 5135578.68 181.58
-9755499.28 5135577.99 186.52
-9755499.22 5135580.04 186.58
-9755497.06 5135579.70 181.54
-9755499.31 5135579.34 182.00
-9755495.29 5135577.99 181.57
-9755499.26 5135576.66 182.64
-9755497.94 5135577.00 181.50
-9755497.38 5135579.33 181.54
-9755499.19 5135579.13 186.58
-9755496.49 5135579.68 181.55
-9755499.25 5135578.90 184.50
-9755499.30 5135577.14 186.60
-9755497.69 5135578.76 181.55
-9755499.53 5135579.61 190.56
-9755499.24 5135578.34 184.65
-9755499.44 5135577.12 184.35
-9755496.84 5135578.18 181.54
-9755499.13 5135578.95 185.99
-9755499.85 5135576.77 197.66
-9755495.03 5135577.92 181.55
-9755499.42 5135580.08 186.62
-9755498.90 5135576.74 181.49
-9755499.24 5135577.36 186.58
-9755499.25 5135579.75 186.61
-9755499.52 5135578.25 186.65
-9755495.03 5135577.54 181.55
-9755495.94 5135577.01 181.52
-9755495.87 5135579.02 181.54
-9755498.02 5135578.99 181.53
-9755495.28 5135577.10 181.54
-9755499.28 5135578.58 194.13
-9755497.46 5135577.54 181.51
-9755499.20 5135578.53 186.05
-9755496.36 5135578.70 181.54
-9755495.69 5135578.31 181.56
-9755496.80 5135577.64 181.51
-9755496.32 5135577.97 181.52
-9755498.44 5135592.69 183.45
-9755499.50 5135581.23 186.62
-9755498.17 5135592.63 183.33
-9755499.30 5135586.66 197.99
-9755499.41 5135587.77 181.62
-9755499.17 5135589.92 190.66
-9755499.37 5135583.79 181.60
-9755497.31 5135592.16 181.59
-9755499.48 5135589.23 181.61
-9755496.19 5135592.68 181.64
-9755499.67 5135581.80 181.62
-9755499.21 5135587.16 197.97
-9755499.20 5135582.45 186.63
-9755498.30 5135592.05 186.14
-9755499.57 5135587.80 190.61
-9755495.66 5135579.66 181.55
-9755499.29 5135583.41 190.71
-9755494.91 5135588.95 181.59
-9755498.33 5135592.22 183.86
-9755494.99 5135580.87 181.59
-9755495.97 5135579.94 181.57
-9755499.15 5135585.36 187.05
-9755499.55 5135581.20 186.99
-9755496.48 5135588.58 181.56
-9755499.03 5135585.56 190.71
-9755499.22 5135580.45 182.66
-9755498.97 5135591.58 197.96
-9755499.68 5135583.13 197.87
-9755494.12 5135587.36 181.60
-9755499.54 5135587.79 186.89
-9755496.14 5135587.69 181.57
-9755499.18 5135588.56 194.30
-9755499.20 5135582.97 186.63
-9755499.17 5135583.37 186.01
-9755498.01 5135579.66 181.57
-9755498.85 5135587.40 182.52
-9755494.43 5135588.24 181.58
-9755498.97 5135581.22 186.57
-9755497.41 5135581.78 181.61
-9755498.34 5135588.44 186.57
-9755497.63 5135587.02 181.53
-9755499.17 5135591.38 190.68
-9755494.42 5135582.05 181.59
-9755498.48 5135592.73 184.77
-9755499.54 5135586.21 194.27
-9755498.46 5135592.32 186.13
-9755498.96 5135583.63 185.97
-9755498.98 5135583.78 183.19
-9755495.54 5135588.63 181.55
-9755498.84 5135583.96 185.97
-9755498.86 5135584.53 185.23
-9755499.26 5135584.05 190.73
-9755499.03 5135585.73 182.40
-9755499.16 5135584.45 186.64
-9755497.62 5135588.31 181.54
-9755497.09 5135581.26 181.57
-9755496.48 5135590.37 181.56
-9755496.57 5135584.04 181.55
-9755499.19 5135588.79 190.64
-9755494.38 5135588.65 181.47
-9755497.05 5135590.05 181.57
-9755499.17 5135580.57 181.58
-9755496.29 5135582.02 181.59
-9755499.32 5135583.98 198.03
-9755498.66 5135592.62 190.67
-9755498.93 5135581.47 186.61
-9755497.03 5135587.97 181.54
-9755499.50 5135583.86 187.05
-9755497.71 5135582.93 181.60
-9755494.04 5135588.58 181.52
-9755499.41 5135586.99 190.66
-9755498.51 5135588.69 186.55
-9755494.71 5135583.49 181.56
-9755495.62 5135586.77 181.57
-9755498.66 5135592.74 194.29
-9755499.12 5135588.78 194.37
-9755498.31 5135589.76 181.51
-9755498.90 5135582.98 186.59
-9755498.67 5135584.06 186.59
-9755499.11 5135587.53 186.67
-9755495.85 5135585.59 181.56
-9755498.84 5135587.69 186.61
-9755499.13 5135588.57 186.99
-9755498.56 5135588.84 182.35
-9755498.90 5135591.76 194.32
-9755498.88 5135583.87 182.52
-9755498.84 5135582.28 182.49
-9755498.91 5135585.61 182.55
-9755498.41 5135590.90 185.75
-9755495.05 5135591.76 181.63
-9755497.98 5135580.30 181.57
-9755497.93 5135588.65 181.51
-9755495.01 5135582.41 181.58
-9755496.45 5135584.70 181.56
-9755498.89 5135590.21 190.66
-9755499.03 5135588.25 194.34
-9755498.81 5135585.56 182.46
-9755498.36 5135591.48 184.08
-9755498.94 5135589.80 186.61
-9755494.77 5135585.94 181.59
-9755495.24 5135585.37 181.59
-9755499.08 5135583.04 185.30
-9755499.48 5135584.53 187.03
-9755499.47 5135591.00 197.89
-9755496.16 5135592.16 181.65
-9755498.28 5135591.29 183.29
-9755499.07 5135586.34 185.22
-9755498.41 5135591.87 182.59
-9755494.11 5135590.64 181.55
-9755498.51 5135591.98 182.94
-9755499.48 5135584.56 190.70
-9755494.36 5135590.33 181.57
-9755498.96 5135590.97 194.30
-9755496.86 5135583.48 181.58
-9755498.93 5135585.97 186.61
-9755497.13 5135586.18 181.54
-9755494.68 5135590.92 181.60
-9755499.19 5135580.82 182.66
-9755498.60 5135591.30 186.64
-9755498.56 5135588.32 182.51
-9755497.36 5135587.13 181.54
-9755499.17 5135589.14 194.30
-9755499.10 5135588.73 190.72
-9755496.70 5135590.41 181.57
-9755499.08 5135582.47 186.05
-9755499.19 5135581.91 185.87
-9755498.95 5135589.32 197.97
-9755498.58 5135589.85 186.61
-9755496.21 5135586.21 181.54
-9755499.46 5135590.11 186.95
-9755498.97 5135582.71 186.08
-9755498.84 5135588.86 186.62
-9755498.24 5135586.20 181.50
-9755495.00 5135581.51 181.61
-9755499.67 5135581.73 194.14
-9755499.51 5135584.35 181.62
-9755498.46 5135589.08 182.47
-9755498.61 5135591.75 194.30
-9755495.92 5135586.83 181.57
-9755498.89 5135592.51 197.97
-9755499.13 5135591.62 190.66
-9755499.08 5135585.18 182.12
-9755499.11 5135592.34 194.31
-9755499.15 5135583.54 186.61
-9755499.16 5135585.76 186.64
-9755494.96 5135592.12 181.63
-9755495.67 5135581.22 181.58
-9755499.30 5135586.40 181.57
-9755498.34 5135591.96 185.72
-9755494.34 5135583.81 181.58
-9755499.12 5135588.88 186.67
-9755498.68 5135588.01 183.36
-9755495.27 5135587.88 181.57
-9755494.94 5135591.22 181.62
-9755498.86 5135582.84 184.66
-9755498.45 5135591.39 184.08
-9755498.57 5135582.94 181.58
-9755499.23 5135581.50 186.62
-9755495.61 5135588.04 181.58
-9755494.37 5135591.77 181.58
-9755499.12 5135586.25 186.61
-9755498.87 5135589.84 190.65
-9755495.56 5135591.82 181.64
-9755499.85 5135586.67 194.26
-9755494.71 5135590.34 181.58
-9755499.29 5135584.84 198.01
-9755497.11 5135581.98 181.58
-9755499.18 5135590.49 194.32
-9755493.89 5135588.50 181.52
-9755498.82 5135588.71 182.00
-9755493.80 5135590.30 181.55
-9755499.20 5135585.09 186.62
-9755498.97 5135584.39 185.25
-9755498.26 5135592.55 183.86
-9755498.73 5135583.02 184.47
-9755498.38 5135591.99 184.37
-9755498.88 5135588.60 186.62
-9755499.27 5135583.43 198.02
-9755494.79 5135581.95 181.58
-9755497.39 5135585.56 181.55
-9755494.74 5135584.39 181.57
-9755498.99 5135584.10 185.17
-9755499.13 5135588.24 181.58
-9755498.88 5135580.55 186.49
-9755499.06 5135582.82 183.54
-9755499.51 5135582.86 181.65
-9755494.19 5135586.46 181.58
-9755499.10 5135583.65 183.59
-9755498.66 5135588.60 186.61
-9755494.08 5135592.14 181.56
-9755495.34 5135582.02 181.58
-9755499.07 5135584.01 183.19
-9755496.82 5135590.18 185.12
-9755499.24 5135584.38 194.39
-9755496.14 5135584.68 181.56
-9755498.91 5135584.43 182.28
-9755497.09 5135585.34 181.54
-9755498.99 5135591.89 197.94
-9755495.02 5135583.57 181.57
-9755498.94 5135584.29 183.19
-9755498.70 5135581.94 186.55
-9755495.61 5135584.75 181.56
-9755498.88 5135590.40 186.63
-9755498.84 5135583.51 185.91
-9755498.47 5135591.39 182.35
-9755499.49 5135591.08 186.89
-9755498.30 5135591.30 184.56
-9755499.60 5135588.64 186.92
-9755498.58 5135589.48 186.58
-9755496.73 5135589.80 181.58
-9755495.02 5135592.35 181.62
-9755498.92 5135590.11 181.52
-9755499.19 5135584.70 187.06
-9755499.12 5135586.59 198.02
-9755498.89 5135581.38 186.11
-9755498.55 5135589.45 181.55
-9755498.68 5135586.25 185.28
-9755499.08 5135589.99 197.77
-9755498.55 5135592.30 183.45
-9755496.71 5135589.08 181.57
-9755498.67 5135588.44 184.93
-9755498.93 5135586.19 181.87
-9755498.75 5135582.63 186.59
-9755498.62 5135587.51 182.36
-9755496.29 5135581.13 181.57
-9755498.93 5135590.95 197.94
-9755498.33 5135591.36 186.62
-9755498.30 5135591.64 185.23
-9755498.64 5135588.06 186.57
-9755499.06 5135587.98 182.73
-9755499.21 5135581.83 187.05
-9755499.32 5135580.59 186.93
-9755498.25 5135585.35 181.53
-9755498.91 5135580.44 183.56
-9755494.98 5135590.53 181.57
-9755499.21 5135588.33 194.29
-9755498.37 5135591.21 183.75
-9755498.84 5135583.39 182.40
-9755497.68 5135590.64 181.57
-9755498.77 5135587.11 186.07
-9755497.08 5135584.66 181.55
-9755496.50 5135581.41 181.57
-9755494.74 5135581.21 181.59
-9755498.88 5135585.03 181.56
-9755498.76 5135589.36 182.40
-9755493.95 5135587.64 181.61
-9755494.38 5135583.59 181.61
-9755497.13 5135583.48 181.57
-9755498.30 5135592.17 185.65
-9755495.02 5135589.43 181.58
-9755498.78 5135589.47 194.27
-9755499.07 5135590.73 187.03
-9755499.57 5135588.10 197.90
-9755499.11 5135586.62 186.61
-9755494.50 5135584.74 181.57
-9755498.86 5135591.59 186.66
-9755498.72 5135589.15 182.47
-9755498.57 5135584.70 181.55
-9755495.27 5135591.81 181.63
-9755498.68 5135589.28 186.58
-9755499.18 5135592.15 197.91
-9755495.84 5135583.23 181.57
-9755498.91 5135590.93 186.64
-9755494.77 5135586.74 181.58
-9755498.59 5135580.26 181.55
-9755498.24 5135591.62 184.04
-9755497.99 5135582.61 181.58
-9755499.00 5135589.42 194.32
-9755499.13 5135591.81 194.30
-9755499.13 5135582.40 181.62
-9755498.56 5135582.67 181.58
-9755499.12 5135587.74 186.69
-9755499.20 5135584.16 187.06
-9755498.83 5135587.90 182.96
-9755498.57 5135588.35 181.98
-9755498.75 5135588.60 197.99
-9755498.47 5135591.64 185.00
-9755498.24 5135591.20 181.57
-9755497.65 5135589.22 181.55
-9755498.54 5135583.80 181.56
-9755498.94 5135588.09 182.17
-9755498.86 5135592.07 194.30
-9755494.04 5135589.69 181.57
-9755498.73 5135586.21 182.39
-9755496.70 5135591.82 181.62
-9755498.44 5135591.13 184.56
-9755499.07 5135585.63 186.32
-9755499.19 5135581.12 182.74
-9755498.60 5135591.82 187.03
-9755499.16 5135587.44 187.02
-9755498.33 5135590.96 183.94
-9755497.06 5135590.95 181.60
-9755498.99 5135583.19 185.07
-9755498.89 5135591.97 190.56
-9755493.77 5135589.40 181.60
-9755499.18 5135585.35 186.62
-9755498.48 5135591.46 182.65
-9755498.84 5135585.40 182.58
-9755498.73 5135583.06 184.84
-9755498.86 5135586.43 182.20
-9755498.68 5135586.88 186.63
-9755495.87 5135587.33 181.57
-9755498.69 5135582.96 186.01
-9755498.82 5135585.48 198.03
-9755498.92 5135588.59 186.18
-9755498.83 5135588.44 182.05
-9755497.67 5135585.01 181.55
-9755499.01 5135588.26 183.33
-9755499.23 5135585.36 194.37
-9755498.30 5135592.11 182.88
-9755497.92 5135592.13 181.59
-9755497.98 5135587.97 181.53
-9755498.04 5135583.01 181.58
-9755498.71 5135587.20 186.64
-9755497.99 5135580.57 181.57
-9755498.81 5135583.77 182.12
-9755498.48 5135589.26 182.25
-9755499.18 5135581.27 186.61
-9755498.58 5135589.35 182.33
-9755495.88 5135591.43 181.65
-9755498.69 5135585.41 186.59
-9755498.55 5135592.41 186.64
-9755499.33 5135582.60 187.03
-9755496.15 5135590.35 181.55
-9755498.86 5135584.03 182.56
-9755495.03 5135586.50 181.57
-9755499.17 5135587.62 194.37
-9755498.88 5135587.39 182.25
-9755496.69 5135587.43 181.55
-9755499.04 5135589.38 186.62
-9755495.00 5135589.24 181.58
-9755494.75 5135587.94 181.58
-9755496.49 5135591.27 181.62
-9755499.22 5135585.57 187.02
-9755499.02 5135588.95 197.97
-9755498.03 5135586.15 181.50
-9755495.36 5135580.50 181.56
-9755498.78 5135589.83 194.32
-9755495.32 5135584.45 181.58
-9755495.41 5135582.95 181.58
-9755498.83 5135584.57 182.38
-9755499.13 5135588.05 187.02
-9755498.51 5135592.18 186.64
-9755499.08 5135581.46 182.74
-9755499.07 5135587.40 182.44
-9755498.34 5135592.46 186.10
-9755498.70 5135588.30 186.61
-9755499.06 5135590.73 186.65
-9755494.60 5135591.79 181.60
-9755498.69 5135587.04 182.51
-9755498.86 5135583.64 182.93
-9755498.69 5135585.06 186.47
-9755495.45 5135589.59 181.60
-9755498.53 5135585.63 181.54
-9755496.89 5135581.71 181.58
-9755498.31 5135592.10 185.04
-9755497.36 5135583.81 181.56
-9755499.07 5135582.51 184.73
-9755498.10 5135591.62 186.57
-9755498.69 5135584.86 186.60
-9755499.21 5135585.06 187.04
-9755494.41 5135586.75 181.58
-9755499.28 5135582.19 198.04
-9755498.98 5135588.21 190.72
-9755499.15 5135589.95 181.56
-9755497.94 5135583.81 181.55
-9755495.37 5135581.41 181.58
-9755498.91 5135585.07 186.60
-9755495.66 5135580.31 181.57
-9755495.67 5135586.11 181.57
-9755498.64 5135588.67 186.11
-9755496.70 5135588.33 181.56
-9755498.49 5135592.00 184.48
-9755498.50 5135590.91 182.26
-9755499.17 5135580.37 186.56
-9755498.69 5135583.60 186.57
-9755498.89 5135583.40 184.93
-9755493.52 5135591.20 181.56
-9755493.18 5135591.51 181.58
-9755493.23 5135590.32 181.58
-9755454.59 5135592.76 187.90
-9755455.27 5135592.23 188.00
-9755454.52 5135592.48 187.80
-9755454.06 5135592.78 187.67
-9755455.22 5135592.19 187.46
-9755454.04 5135593.03 187.63
-9755453.97 5135592.82 187.96
-9755454.33 5135592.55 188.00
-9755454.51 5135592.52 188.02
-9755454.27 5135592.78 188.00
-9755452.31 5135592.71 188.22
-9755451.97 5135592.44 188.14
-9755453.32 5135592.70 188.06
-9755453.55 5135592.15 187.95
-9755453.78 5135593.10 187.92
-9755455.42 5135592.17 187.46
-9755454.24 5135593.29 187.63
-9755454.04 5135593.56 188.01
-9755453.74 5135593.23 187.92
-9755453.81 5135594.37 187.97
-9755454.59 5135593.16 187.85
-9755452.01 5135593.09 188.15
-9755452.06 5135593.29 188.15
-9755452.00 5135592.53 192.56
-9755452.03 5135593.58 188.14
-9755452.02 5135595.44 188.21
-9755451.82 5135593.28 199.79
-9755451.71 5135595.15 188.20
-9755451.98 5135594.26 188.20
-9755451.92 5135594.71 188.18
-9755453.21 5135593.49 187.90
-9755452.81 5135594.18 188.23
-9755453.57 5135593.64 188.00
-9755451.63 5135593.76 199.78
-9755451.79 5135594.19 196.19
-9755451.74 5135594.28 188.16
-9755451.70 5135593.58 188.02
-9755451.92 5135593.18 192.56
-9755451.42 5135592.98 188.03
-9755451.42 5135592.40 188.03
-9755451.03 5135592.13 187.91
-9755451.59 5135592.43 192.52
-9755451.38 5135594.25 192.59
-9755450.78 5135596.81 188.19
-9755451.99 5135598.98 187.51
-9755451.35 5135598.66 187.77
-9755451.41 5135593.62 188.02
-9755450.58 5135595.32 188.00
-9755450.64 5135594.58 187.91
-9755451.43 5135593.66 192.51
-9755451.58 5135593.82 196.16
-9755450.73 5135593.12 187.83
-9755451.12 5135595.37 199.76
-9755450.96 5135600.91 187.58
-9755450.98 5135595.34 196.02
-9755450.57 5135601.93 187.98
-9755450.75 5135596.26 188.01
-9755451.09 5135600.83 187.58
-9755451.06 5135600.42 187.75
-9755451.45 5135595.45 188.24
-9755451.48 5135593.45 192.51
-9755450.55 5135595.39 196.12
-9755450.55 5135597.43 188.22
-9755450.58 5135602.30 187.59
-9755451.43 5135598.48 187.76
-9755451.08 5135596.92 188.22
-9755450.90 5135594.46 188.00
-9755450.77 5135600.11 187.79
-9755450.53 5135595.09 195.87
-9755451.20 5135595.12 199.77
-9755451.31 5135595.29 188.03
-9755451.71 5135598.54 187.76
-9755451.00 5135595.07 199.74
-9755451.06 5135601.28 187.53
-9755451.51 5135594.52 192.68
-9755451.51 5135593.63 196.16
-9755450.77 5135595.40 195.86
-9755450.66 5135593.71 187.84
-9755450.66 5135603.01 187.52
-9755450.58 5135596.80 199.83
-9755451.40 5135593.88 188.01
-9755451.41 5135594.23 188.02
-9755454.46 5135577.96 199.74
-9755454.48 5135577.65 187.99
-9755453.92 5135577.62 198.16
-9755454.45 5135578.84 188.03
-9755453.98 5135576.75 188.02
-9755454.75 5135579.37 188.17
-9755454.74 5135578.85 196.32
-9755454.85 5135577.93 188.17
-9755454.68 5135579.14 188.08
-9755455.23 5135577.95 188.25
-9755453.99 5135577.72 198.61
-9755456.01 5135578.87 188.02
-9755454.57 5135578.82 199.79
-9755455.26 5135578.53 188.25
-9755453.92 5135576.18 187.96
-9755454.78 5135577.20 197.93
-9755454.14 5135577.00 188.03
-9755455.28 5135576.00 188.22
-9755453.94 5135579.70 187.99
-9755455.06 5135576.45 188.23
-9755454.14 5135578.83 188.00
-9755455.33 5135577.65 188.25
-9755455.05 5135577.88 188.24
-9755454.50 5135578.97 196.84
-9755455.28 5135577.03 188.21
-9755454.66 5135577.10 199.81
-9755454.73 5135576.65 188.03
-9755453.95 5135576.55 197.93
-9755454.79 5135576.85 199.77
-9755453.84 5135576.13 187.82
-9755455.39 5135576.31 197.91
-9755454.35 5135578.77 199.74
-9755455.16 5135576.85 199.82
-9755454.72 5135578.83 192.52
-9755454.42 5135576.52 188.02
-9755454.46 5135579.26 197.03
-9755453.88 5135577.45 187.97
-9755454.46 5135576.75 188.02
-9755455.60 5135577.94 188.30
-9755455.28 5135579.43 188.24
-9755454.67 5135577.01 188.03
-9755454.40 5135577.30 188.02
-9755454.83 5135579.34 196.35
-9755454.43 5135579.44 188.02
-9755455.09 5135578.58 188.24
-9755454.70 5135578.27 188.06
-9755454.10 5135577.96 188.04
-9755455.08 5135578.80 196.36
-9755454.26 5135578.48 199.71
-9755454.51 5135577.12 197.93
-9755454.53 5135578.95 197.02
-9755453.93 5135577.99 198.61
-9755454.11 5135578.58 188.01
-9755455.06 5135578.78 188.21
-9755454.05 5135576.13 198.44
-9755455.44 5135577.28 188.24
-9755454.24 5135576.90 197.93
-9755454.40 5135578.54 188.03
-9755455.04 5135579.65 196.35
-9755454.45 5135577.93 188.03
-9755454.75 5135579.75 196.36
-9755452.44 5135577.02 187.57
-9755452.37 5135578.03 187.57
-9755452.59 5135577.90 188.21
-9755452.40 5135577.57 188.21
-9755452.96 5135578.19 187.78
-9755453.67 5135576.26 197.92
-9755453.52 5135577.96 187.81
-9755452.73 5135578.91 187.76
-9755453.24 5135576.53 187.78
-9755453.74 5135577.68 187.84
-9755452.97 5135579.09 187.78
-9755452.14 5135577.08 187.56
-9755452.06 5135578.82 187.57
-9755453.36 5135577.25 187.67
-9755453.56 5135576.84 187.79
-9755452.83 5135576.15 197.46
-9755452.55 5135576.01 198.18
-9755453.24 5135577.35 187.80
-9755453.23 5135578.87 187.79
-9755452.05 5135578.55 187.55
-9755453.04 5135576.60 198.36
-9755453.25 5135576.69 197.48
-9755451.77 5135578.45 187.53
-9755452.78 5135576.20 188.15
-9755452.98 5135578.58 187.77
-9755452.93 5135578.79 187.77
-9755452.12 5135579.10 187.57
-9755452.01 5135577.12 187.88
-9755452.51 5135577.26 188.11
-9755453.68 5135576.86 197.92
-9755453.31 5135576.55 197.91
-9755452.20 5135576.22 198.06
-9755453.71 5135577.16 197.90
-9755453.28 5135577.20 197.75
-9755453.08 5135577.04 198.40
-9755452.06 5135576.53 187.56
-9755452.93 5135576.69 187.74
-9755452.69 5135578.38 188.25
-9755452.94 5135577.60 187.78
-9755453.61 5135576.17 187.78
-9755452.57 5135578.20 187.58
-9755452.12 5135576.18 187.57
-9755453.80 5135576.68 187.84
-9755452.35 5135577.64 187.58
-9755453.67 5135577.45 198.18
-9755453.50 5135577.05 187.80
-9755453.53 5135576.46 197.52
-9755454.49 5135581.06 197.04
-9755454.48 5135585.01 188.25
-9755454.95 5135579.58 197.08
-9755454.76 5135582.28 196.34
-9755455.26 5135579.82 196.36
-9755454.74 5135580.27 188.20
-9755453.85 5135584.49 188.01
-9755454.09 5135580.33 188.02
-9755454.76 5135582.94 196.35
-9755454.84 5135583.15 196.36
-9755454.23 5135580.24 197.06
-9755454.41 5135580.29 188.04
-9755454.36 5135579.81 192.52
-9755455.59 5135581.84 187.96
-9755455.09 5135579.77 188.25
-9755454.40 5135579.42 195.24
-9755453.82 5135589.33 188.25
-9755454.50 5135581.96 197.04
-9755455.35 5135585.28 187.75
-9755454.06 5135592.00 187.79
-9755454.19 5135583.55 196.53
-9755453.82 5135580.87 188.01
-9755455.92 5135581.35 187.86
-9755454.13 5135580.59 188.04
-9755453.80 5135580.32 187.98
-9755454.62 5135583.45 188.21
-9755454.44 5135584.65 188.21
-9755454.57 5135581.66 197.06
-9755455.12 5135581.97 196.36
-9755454.46 5135586.19 188.23
-9755454.79 5135581.90 196.33
-9755455.42 5135585.97 187.76
-9755454.41 5135580.87 188.15
-9755454.48 5135580.33 199.79
-9755454.08 5135585.89 188.20
-9755453.82 5135584.27 196.15
-9755454.11 5135582.09 195.76
-9755454.34 5135581.46 188.15
-9755454.40 5135582.18 199.77
-9755453.82 5135585.61 188.02
-9755453.89 5135586.74 188.19
-9755454.28 5135592.05 187.74
-9755454.69 5135580.87 188.20
-9755454.72 5135592.06 187.72
-9755455.33 5135580.64 188.29
-9755455.92 5135580.98 188.03
-9755454.24 5135581.87 192.44
-9755454.10 5135582.69 188.02
-9755455.12 5135582.94 188.24
-9755454.25 5135581.33 196.61
-9755455.86 5135580.48 188.05
-9755454.08 5135585.24 188.21
-9755454.25 5135581.35 192.50
-9755454.19 5135582.78 199.77
-9755454.20 5135582.27 196.55
-9755453.83 5135584.75 199.80
-9755453.88 5135582.92 188.00
-9755454.22 5135583.67 199.77
-9755455.30 5135581.49 196.32
-9755454.59 5135581.71 199.75
-9755455.83 5135581.61 188.14
-9755453.72 5135592.12 187.95
-9755454.35 5135589.28 188.22
-9755454.68 5135582.98 188.22
-9755454.41 5135582.04 188.14
-9755454.18 5135581.95 197.03
-9755454.20 5135582.14 199.77
-9755454.09 5135584.32 188.28
-9755455.22 5135582.06 188.29
-9755454.83 5135581.69 196.33
-9755454.72 5135582.12 188.22
-9755455.54 5135582.06 187.93
-9755456.15 5135580.65 188.04
-9755456.53 5135583.07 187.82
-9755454.59 5135581.20 199.81
-9755454.23 5135582.99 192.53
-9755454.47 5135580.99 196.64
-9755453.86 5135586.29 188.69
-9755454.37 5135582.31 195.64
-9755454.68 5135582.33 188.21
-9755454.44 5135582.47 192.49
-9755455.28 5135579.95 188.24
-9755454.07 5135581.46 188.07
-9755454.75 5135584.10 188.22
-9755455.53 5135585.64 187.75
-9755456.73 5135582.95 187.79
-9755455.45 5135582.93 188.14
-9755454.98 5135581.48 188.26
-9755453.84 5135591.44 187.79
-9755454.50 5135579.94 199.80
-9755454.55 5135582.12 197.04
-9755454.11 5135583.14 196.99
-9755454.37 5135585.89 188.22
-9755454.63 5135581.30 196.32
-9755454.28 5135583.01 199.79
-9755454.77 5135581.19 188.22
-9755455.66 5135583.63 188.19
-9755454.14 5135581.49 188.10
-9755454.49 5135584.27 188.23
-9755455.21 5135582.41 188.26
-9755454.54 5135580.84 197.06
-9755454.41 5135580.95 199.82
-9755454.46 5135582.55 197.01
-9755454.58 5135585.02 188.25
-9755454.99 5135580.58 188.24
-9755454.17 5135579.73 188.00
-9755455.05 5135582.64 188.23
-9755453.78 5135587.18 188.24
-9755452.94 5135580.34 187.82
-9755452.08 5135579.72 187.55
-9755453.77 5135585.55 188.56
-9755452.93 5135582.09 187.80
-9755453.38 5135590.44 188.23
-9755453.78 5135582.35 188.01
-9755452.71 5135589.43 199.76
-9755452.87 5135586.84 187.99
-9755452.35 5135591.99 192.66
-9755453.69 5135587.42 188.25
-9755452.63 5135588.44 192.41
-9755453.26 5135587.13 192.57
-9755453.62 5135587.19 192.62
-9755453.20 5135589.43 188.19
-9755453.75 5135585.90 188.58
-9755453.27 5135583.03 188.31
-9755452.96 5135590.60 188.21
-9755453.74 5135586.49 192.51
-9755452.29 5135587.16 187.85
-9755452.36 5135582.07 187.71
-9755453.23 5135586.24 188.01
-9755452.34 5135584.74 187.76
-9755453.25 5135582.15 187.85
-9755452.07 5135580.36 187.62
-9755452.95 5135580.88 187.88
-9755452.33 5135587.71 188.45
-9755453.18 5135587.40 188.00
-9755453.30 5135582.65 187.85
-9755452.67 5135583.81 187.74
-9755452.28 5135588.59 188.03
-9755451.79 5135585.54 187.67
-9755453.03 5135588.25 199.78
-9755452.85 5135590.41 188.21
-9755452.92 5135589.10 196.15
-9755453.00 5135582.68 187.79
-9755453.63 5135586.17 192.57
-9755452.25 5135591.28 188.06
-9755452.40 5135583.54 187.73
-9755453.20 5135586.83 188.00
-9755452.01 5135582.06 187.59
-9755453.71 5135586.92 192.60
-9755453.54 5135582.70 187.96
-9755453.53 5135589.53 188.24
-9755452.94 5135589.27 192.53
-9755453.06 5135585.64 188.01
-9755452.06 5135582.00 187.63
-9755453.70 5135586.79 188.08
-9755453.56 5135581.47 187.99
-9755452.02 5135580.04 187.57
-9755452.93 5135585.00 187.85
-9755452.88 5135587.39 188.00
-9755453.21 5135587.53 192.57
-9755452.64 5135585.53 188.25
-9755452.32 5135585.95 187.80
-9755452.33 5135581.82 187.71
-9755452.90 5135588.85 196.15
-9755452.84 5135588.33 188.04
-9755453.54 5135586.94 199.82
-9755453.61 5135586.93 192.60
-9755452.13 5135588.32 187.94
-9755452.13 5135583.05 187.59
-9755452.30 5135586.22 187.82
-9755452.93 5135588.63 192.50
-9755453.77 5135581.53 188.02
-9755453.56 5135586.50 188.04
-9755452.59 5135589.78 199.78
-9755452.70 5135590.05 196.23
-9755452.66 5135580.33 187.79
-9755453.16 5135582.94 187.79
-9755452.95 5135580.61 187.85
-9755451.76 5135589.67 187.81
-9755453.56 5135586.43 192.29
-9755452.86 5135584.21 188.42
-9755452.34 5135582.74 187.66
-9755451.99 5135587.69 187.80
-9755453.54 5135585.34 188.02
-9755452.85 5135588.87 188.04
-9755453.14 5135585.56 188.49
-9755452.60 5135583.59 187.75
-9755453.05 5135588.42 192.62
-9755453.59 5135586.25 199.78
-9755452.39 5135580.62 187.72
-9755452.00 5135590.36 188.02
-9755452.34 5135589.26 192.45
-9755453.54 5135584.42 187.99
-9755453.33 5135583.27 188.04
-9755452.30 5135589.25 188.00
-9755453.05 5135587.47 192.54
-9755453.18 5135583.96 187.85
-9755453.17 5135587.04 196.16
-9755452.62 5135586.76 187.90
-9755452.03 5135581.49 187.63
-9755452.18 5135590.78 192.55
-9755452.59 5135582.68 187.75
-9755452.08 5135582.36 187.56
-9755452.00 5135591.57 188.08
-9755451.97 5135589.80 188.00
-9755452.75 5135590.05 199.79
-9755451.99 5135590.95 188.02
-9755452.62 5135587.17 187.98
-9755451.72 5135591.84 188.05
-9755452.69 5135583.95 188.37
-9755452.05 5135583.90 187.60
-9755452.32 5135580.92 187.71
-9755452.85 5135590.93 188.20
-9755452.58 5135587.70 188.03
-9755452.56 5135590.39 188.03
-9755452.95 5135588.77 199.78
-9755452.25 5135584.06 188.33
-9755452.32 5135585.68 187.77
-9755453.45 5135589.57 192.46
-9755452.93 5135588.96 192.49
-9755453.36 5135586.83 192.23
-9755453.36 5135587.52 199.82
-9755452.67 5135588.61 192.44
-9755452.33 5135584.22 187.74
-9755453.21 5135585.10 187.99
-9755452.15 5135592.68 196.17
-9755453.62 5135582.93 187.97
-9755452.04 5135583.48 187.57
-9755452.37 5135581.53 187.70
-9755452.90 5135584.20 187.78
-9755452.58 5135590.88 188.06
-9755452.36 5135585.35 187.77
-9755452.89 5135588.00 188.03
-9755452.31 5135590.94 188.03
-9755452.95 5135579.97 187.79
-9755453.19 5135583.63 188.18
-9755453.48 5135587.75 188.01
-9755452.82 5135589.16 188.05
-9755452.58 5135587.97 188.03
-9755452.35 5135591.02 192.57
-9755452.37 5135582.38 187.67
-9755452.39 5135579.96 187.60
-9755452.44 5135591.24 199.78
-9755452.83 5135585.32 188.37
-9755452.03 5135590.01 188.03
-9755453.17 5135587.65 188.01
-9755451.99 5135582.40 188.05
-9755453.18 5135588.43 199.78
-9755453.18 5135589.19 192.57
-9755451.72 5135588.04 187.78
-9755453.06 5135588.08 192.58
-9755452.87 5135591.30 188.21
-9755452.22 5135582.15 188.09
-9755452.29 5135586.84 188.34
-9755452.92 5135584.80 187.82
-9755451.69 5135588.76 192.36
-9755452.29 5135586.50 187.83
-9755452.10 5135587.10 187.79
-9755451.71 5135585.05 187.56
-9755453.13 5135588.95 192.59
-9755451.81 5135578.24 187.53
-9755451.82 5135576.22 187.53
-9755451.78 5135579.48 187.54
-9755451.14 5135578.24 187.33
-9755450.90 5135578.79 187.31
-9755451.24 5135578.52 187.33
-9755451.55 5135579.77 187.53
-9755451.72 5135576.47 187.52
-9755450.71 5135577.14 187.30
-9755450.68 5135578.88 187.30
-9755450.92 5135577.68 187.33
-9755451.47 5135577.65 187.47
-9755450.62 5135579.75 187.29
-9755451.45 5135578.54 187.98
-9755450.91 5135578.00 187.33
-9755450.67 5135576.15 187.28
-9755450.86 5135576.47 187.30
-9755450.60 5135577.29 187.27
-9755452.00 5135577.39 187.55
-9755451.26 5135576.97 187.92
-9755451.18 5135576.17 187.31
-9755451.15 5135576.76 187.32
-9755451.53 5135576.21 187.92
-9755451.20 5135578.82 187.33
-9755451.10 5135578.87 187.87
-9755450.84 5135580.35 187.38
-9755451.74 5135581.21 187.58
-9755450.91 5135580.28 187.40
-9755452.00 5135585.94 187.78
-9755451.44 5135585.34 187.55
-9755451.72 5135587.70 187.78
-9755451.12 5135590.50 188.31
-9755450.81 5135588.61 187.57
-9755452.05 5135584.28 187.71
-9755450.61 5135579.94 187.29
-9755451.76 5135582.94 187.54
-9755451.13 5135582.96 187.82
-9755451.52 5135583.82 187.55
-9755450.88 5135582.05 187.32
-9755450.74 5135583.49 187.31
-9755450.84 5135586.25 187.55
-9755450.80 5135589.45 187.74
-9755451.21 5135582.66 187.35
-9755451.86 5135589.02 192.36
-9755450.89 5135580.56 187.41
-9755450.85 5135588.06 187.57
-9755451.08 5135591.79 187.92
-9755451.54 5135590.73 187.89
-9755451.17 5135582.10 187.82
-9755450.92 5135585.00 187.50
-9755450.81 5135590.35 187.77
-9755450.92 5135584.48 187.51
-9755450.54 5135584.46 187.32
-9755451.41 5135587.60 188.15
-9755451.43 5135589.15 187.79
-9755451.11 5135590.05 187.81
-9755451.49 5135580.65 187.51
-9755450.77 5135589.16 188.19
-9755451.36 5135588.90 187.78
-9755450.56 5135583.53 187.31
-9755450.99 5135590.87 188.08
-9755451.20 5135581.47 187.46
-9755451.38 5135584.20 187.55
-9755451.27 5135584.17 187.54
-9755450.85 5135586.81 187.56
-9755450.94 5135585.37 187.53
-9755450.56 5135588.33 187.56
-9755451.19 5135582.55 187.92
-9755450.54 5135585.90 187.82
-9755452.00 5135583.33 187.57
-9755450.76 5135590.64 187.77
-9755450.56 5135587.44 187.55
-9755450.62 5135585.37 187.89
-9755450.56 5135581.51 187.32
-9755450.54 5135589.47 187.56
-9755450.59 5135586.22 187.50
-9755451.06 5135582.39 187.33
-9755451.10 5135588.56 187.64
-9755451.48 5135581.49 187.52
-9755451.37 5135583.71 187.92
-9755450.79 5135583.92 187.30
-9755450.72 5135584.49 188.00
-9755451.35 5135587.09 187.68
-9755450.55 5135581.80 187.29
-9755450.91 5135588.32 187.60
-9755451.16 5135580.86 187.46
-9755451.38 5135591.29 187.96
-9755450.83 5135587.69 188.14
-9755450.67 5135585.72 187.53
-9755450.53 5135591.17 187.78
-9755451.36 5135582.62 188.07
-9755450.60 5135580.59 187.32
-9755450.89 5135585.69 187.54
-9755451.16 5135589.50 187.79
-9755451.39 5135583.54 187.54
-9755451.16 5135591.58 187.94
-9755500.10 5135575.59 193.85
-9755500.19 5135575.90 186.53
-9755500.52 5135576.89 197.55
-9755499.28 5135576.43 186.38
-9755500.30 5135576.22 181.57
-9755500.13 5135575.58 186.64
-9755499.59 5135576.38 194.01
-9755499.69 5135575.90 182.67
-9755499.89 5135575.68 197.61
-9755499.48 5135575.81 181.90
-9755500.23 5135576.05 193.84
-9755499.82 5135575.62 186.64
-9755499.93 5135575.65 190.31
-9755499.99 5135576.24 197.63
-9755499.57 5135575.61 186.63
-9755500.76 5135575.90 193.83
-9755500.62 5135576.45 186.59
-9755499.55 5135576.50 197.64
-9755499.47 5135575.55 181.52
-9755499.52 5135575.50 182.02
-9755499.80 5135575.90 186.64
-9755500.52 5135575.52 193.82
-9755500.00 5135575.92 194.04
-9755500.67 5135575.87 186.51
-9755496.30 5135575.53 181.55
-9755499.30 5135576.05 182.15
-9755498.57 5135575.54 181.50
-9755495.71 5135575.60 181.55
-9755496.86 5135575.51 181.54
-9755499.19 5135575.55 181.51
-9755495.10 5135575.51 181.55
-9755499.33 5135575.94 186.57
-9755497.08 5135575.48 181.55
-9755495.65 5135576.50 181.53
-9755497.76 5135575.57 181.54
-9755496.84 5135575.87 181.53
-9755498.83 5135576.45 181.49
-9755499.30 5135575.65 186.57
-9755499.28 5135575.71 182.84
-9755453.99 5135576.03 197.94
-9755455.45 5135575.96 197.91
-9755454.60 5135575.98 188.03
-9755454.89 5135576.18 188.06
-9755454.81 5135575.58 188.03
-9755454.56 5135575.89 198.46
-9755454.14 5135576.09 188.01
-9755453.94 5135575.65 197.93
-9755455.33 5135575.62 197.92
-9755454.15 5135575.56 188.00
-9755455.73 5135575.58 197.95
-9755453.41 5135576.06 197.49
-9755453.01 5135575.82 187.79
-9755453.12 5135575.63 197.48
-9755453.31 5135576.18 187.78
-9755451.88 5135575.54 187.56
-9755452.25 5135575.68 197.98
-9755453.63 5135575.73 197.93
-9755453.02 5135575.52 188.21
-9755452.76 5135575.53 188.17
-9755452.37 5135575.87 187.57
-9755453.50 5135575.62 187.80
-9755453.25 5135575.56 187.78
-9755450.88 5135576.20 187.30
-9755451.32 5135576.05 187.78
-9755451.65 5135575.65 197.75
-9755451.37 5135575.95 187.78
-9755451.47 5135575.61 187.61
-9755451.45 5135575.64 187.32
-9755450.83 5135575.52 187.85
-9755448.46 5135672.70 180.93
-9755441.40 5135672.71 180.96
-9755448.22 5135672.99 180.92
-9755440.79 5135680.35 181.05
-9755440.84 5135672.68 180.97
-9755442.28 5135678.28 180.98
-9755444.39 5135678.59 180.97
-9755442.55 5135680.04 181.04
-9755441.98 5135675.88 180.87
-9755440.55 5135675.01 180.85
-9755439.93 5135674.18 180.91
-9755449.34 5135680.12 181.01
-9755447.00 5135675.05 180.80
-9755448.79 5135677.42 180.91
-9755449.41 5135675.98 180.84
-9755441.35 5135677.08 180.92
-9755448.44 5135680.09 181.01
-9755445.84 5135675.32 180.84
-9755442.24 5135677.40 180.94
-9755445.54 5135678.32 180.97
-9755448.80 5135673.03 180.92
-9755441.39 5135673.24 180.95
-9755441.37 5135678.89 181.00
-9755447.33 5135672.73 180.92
-9755450.46 5135679.79 181.01
-9755447.32 5135673.56 180.90
-9755449.96 5135675.91 180.83
-9755448.45 5135675.95 180.86
-9755442.28 5135678.86 181.00
-9755445.51 5135678.62 180.98
-9755447.86 5135677.41 180.91
-9755443.48 5135676.52 180.90
-9755440.53 5135673.20 180.96
-9755447.27 5135675.64 180.82
-9755447.28 5135678.33 180.96
-9755440.53 5135677.15 180.94
-9755440.81 5135673.26 180.95
-9755449.07 5135674.21 180.81
-9755449.98 5135673.00 180.91
-9755447.01 5135676.32 180.87
-9755448.83 5135673.88 180.89
-9755444.93 5135678.29 180.97
-9755449.01 5135678.69 180.96
-9755447.00 5135676.87 180.89
-9755449.64 5135676.30 180.86
-9755446.07 5135680.12 181.02
-9755447.24 5135679.80 181.02
-9755442.86 5135677.41 180.94
-9755449.92 5135679.49 180.99
-9755445.82 5135676.56 180.87
-9755446.72 5135673.57 180.90
-9755439.94 5135674.71 180.85
-9755443.11 5135678.02 180.95
-9755443.53 5135675.08 180.85
-9755443.80 5135676.24 180.88
-9755441.68 5135677.68 180.94
-9755447.54 5135675.98 180.84
-9755444.97 5135679.46 181.01
-9755441.39 5135677.34 180.94
-9755442.28 5135674.20 180.88
-9755449.02 5135680.14 181.02
-9755447.92 5135673.91 180.88
-9755439.94 5135677.71 180.95
-9755450.20 5135674.21 180.81
-9755444.03 5135680.09 181.02
-9755447.89 5135678.32 180.95
-9755445.82 5135679.52 180.99
-9755447.88 5135674.16 180.81
-9755443.19 5135672.97 180.93
-9755443.18 5135677.09 180.93
-9755444.60 5135675.92 180.86
-9755440.46 5135677.68 180.96
-9755440.22 5135673.57 180.95
-9755439.41 5135677.65 180.96
-9755439.59 5135680.02 181.04
-9755440.61 5135669.23 190.47
-9755441.24 5135667.77 190.56
-9755440.34 5135670.92 186.53
-9755442.26 5135667.68 187.95
-9755442.32 5135670.54 180.98
-9755442.20 5135667.04 188.06
-9755440.65 5135670.42 185.77
-9755440.17 5135670.99 186.38
-9755440.71 5135667.15 190.32
-9755440.14 5135669.20 190.14
-9755440.63 5135665.34 190.34
-9755450.29 5135667.02 181.43
-9755440.40 5135667.54 190.34
-9755443.17 5135671.50 180.95
-9755440.15 5135665.45 190.49
-9755450.29 5135672.40 180.92
-9755440.08 5135669.58 189.09
-9755441.51 5135665.60 191.91
-9755449.95 5135667.31 181.35
-9755446.99 5135667.85 181.64
-9755444.68 5135669.43 180.98
-9755441.89 5135665.54 192.04
-9755441.23 5135665.49 188.27
-9755448.51 5135668.45 181.08
-9755441.41 5135669.82 184.89
-9755440.67 5135665.87 191.93
-9755446.21 5135667.86 181.28
-9755441.72 5135666.99 189.81
-9755447.67 5135665.28 181.46
-9755447.33 5135671.55 180.93
-9755441.58 5135668.19 185.78
-9755440.35 5135665.71 189.98
-9755449.36 5135666.16 181.44
-9755439.84 5135670.32 191.18
-9755441.85 5135666.53 191.33
-9755440.04 5135670.02 186.78
-9755440.68 5135666.75 191.90
-9755445.23 5135671.78 180.94
-9755440.67 5135668.38 189.48
-9755439.85 5135667.69 190.80
-9755446.44 5135667.28 181.59
-9755440.40 5135668.57 188.44
-9755440.05 5135667.58 188.26
-9755449.73 5135669.44 180.97
-9755440.59 5135666.28 191.80
-9755444.35 5135668.52 181.11
-9755445.02 5135667.91 181.37
-9755440.70 5135667.35 189.37
-9755440.25 5135670.97 184.44
-9755440.73 5135668.74 189.48
-9755447.33 5135667.35 181.38
-9755442.16 5135669.57 186.85
-9755440.97 5135666.20 192.23
-9755441.26 5135666.20 192.38
-9755440.54 5135671.18 180.98
-9755443.79 5135668.80 182.37
-9755442.07 5135668.27 188.23
-9755441.44 5135667.39 190.84
-9755440.31 5135665.51 188.04
-9755448.80 5135666.79 181.44
-9755446.23 5135669.09 182.34
-9755446.69 5135667.36 181.62
-9755441.77 5135669.40 186.90
-9755445.52 5135670.90 180.96
-9755441.47 5135669.90 184.93
-9755446.20 5135668.19 182.36
-9755446.60 5135666.76 181.60
-9755444.67 5135667.32 181.36
-9755446.72 5135669.42 180.97
-9755443.84 5135670.31 180.98
-9755440.04 5135669.18 190.70
-9755441.85 5135665.91 191.94
-9755441.22 5135666.79 190.45
-9755440.07 5135665.35 190.54
-9755440.41 5135667.38 192.47
-9755448.58 5135665.26 181.47
-9755445.89 5135670.30 180.97
-9755440.05 5135667.26 190.30
-9755449.39 5135669.45 180.96
-9755448.21 5135670.66 180.95
-9755442.13 5135665.35 191.02
-9755440.29 5135670.24 186.50
-9755445.58 5135665.55 182.53
-9755445.55 5135671.79 180.94
-9755443.33 5135669.33 182.37
-9755440.58 5135669.41 190.59
-9755440.34 5135668.37 190.41
-9755443.74 5135670.05 180.97
-9755440.91 5135666.01 191.77
-9755440.68 5135665.70 190.74
-9755445.59 5135669.69 180.97
-9755446.75 5135666.80 181.46
-9755446.74 5135668.44 181.63
-9755443.54 5135667.02 181.40
-9755445.63 5135667.83 182.29
-9755445.58 5135668.30 181.15
-9755440.94 5135670.18 188.88
-9755440.07 5135666.45 190.72
-9755442.07 5135667.63 187.87
-9755446.49 5135671.20 180.95
-9755449.73 5135669.14 180.97
-9755441.29 5135665.64 190.77
-9755442.18 5135667.41 189.87
-9755450.51 5135670.35 180.95
-9755440.59 5135670.63 186.53
-9755440.08 5135667.42 192.21
-9755442.32 5135670.00 180.99
-9755446.16 5135670.33 180.97
-9755441.11 5135667.99 185.79
-9755442.10 5135665.56 191.02
-9755447.96 5135667.42 181.33
-9755441.47 5135667.27 189.74
-9755440.51 5135670.49 183.82
-9755440.53 5135665.96 190.33
-9755441.27 5135665.93 191.96
-9755446.81 5135668.46 181.05
-9755440.13 5135665.93 190.34
-9755440.69 5135667.43 191.54
-9755440.73 5135666.02 188.82
-9755443.82 5135668.40 182.38
-9755439.98 5135666.72 186.56
-9755440.70 5135665.16 187.54
-9755441.57 5135665.42 191.34
-9755448.25 5135666.17 181.45
-9755442.41 5135666.53 191.42
-9755441.30 5135666.24 192.42
-9755440.54 5135667.77 190.39
-9755440.46 5135665.94 189.98
-9755448.51 5135667.68 181.27
-9755441.14 5135665.83 192.13
-9755440.79 5135666.52 192.22
-9755445.24 5135668.59 181.08
-9755444.99 5135669.46 180.97
-9755441.29 5135667.08 191.54
-9755441.01 5135668.52 190.72
-9755440.71 5135665.37 190.80
-9755448.23 5135671.21 180.94
-9755446.17 5135665.87 181.46
-9755440.07 5135667.05 192.30
-9755440.90 5135669.88 188.93
-9755440.01 5135669.89 189.02
-9755441.63 5135666.46 192.42
-9755445.85 5135667.93 181.29
-9755441.42 5135670.93 180.99
-9755441.58 5135665.76 191.25
-9755440.95 5135670.90 186.67
-9755440.02 5135670.21 189.35
-9755440.13 5135666.96 192.98
-9755441.27 5135665.64 191.89
-9755441.51 5135668.02 191.01
-9755445.36 5135668.24 181.15
-9755439.87 5135667.16 190.05
-9755440.04 5135669.88 190.59
-9755449.71 5135669.73 180.96
-9755440.81 5135668.44 189.52
-9755441.84 5135665.64 190.91
-9755441.01 5135670.27 186.68
-9755444.86 5135665.50 182.33
-9755439.97 5135670.63 186.31
-9755441.24 5135667.05 190.77
-9755444.67 5135671.49 180.94
-9755441.13 5135665.15 190.92
-9755447.35 5135671.26 180.94
-9755449.36 5135671.81 180.94
-9755439.98 5135669.33 189.42
-9755442.93 5135670.34 180.98
-9755440.62 5135670.43 185.11
-9755441.37 5135665.18 191.42
-9755449.39 5135671.24 180.95
-9755441.46 5135672.04 180.96
-9755442.11 5135665.99 191.30
-9755441.72 5135665.88 191.07
-9755440.46 5135670.03 185.05
-9755440.57 5135669.54 185.51
-9755442.41 5135666.41 188.96
-9755440.09 5135666.13 192.99
-9755441.55 5135666.19 191.07
-9755441.15 5135666.18 192.27
-9755439.90 5135666.46 190.34
-9755440.80 5135665.59 188.06
-9755448.77 5135668.85 180.96
-9755440.93 5135668.64 190.59
-9755439.82 5135669.80 191.57
-9755439.78 5135667.59 192.31
-9755440.14 5135668.61 190.37
-9755439.50 5135667.64 192.23
-9755439.56 5135669.50 190.72
-9755439.44 5135669.80 189.83
-9755439.67 5135666.84 192.22
-9755439.33 5135669.51 190.10
-9755439.57 5135666.79 192.74
-9755439.73 5135670.90 184.43
-9755439.46 5135666.51 192.56
-9755439.70 5135668.03 190.57
-9755439.65 5135668.93 190.22
-9755439.35 5135671.78 180.98
-9755439.72 5135669.80 190.69
-9755439.80 5135668.56 191.57
-9755439.41 5135670.32 191.02
-9755439.74 5135667.55 188.26
-9755439.49 5135667.12 188.48
-9755439.35 5135669.38 189.26
-9755439.55 5135665.38 190.95
-9755439.68 5135665.63 186.82
-9755439.78 5135667.30 192.72
-9755439.49 5135667.05 192.60
-9755439.64 5135665.23 191.59
-9755439.76 5135670.37 190.06
-9755439.40 5135669.98 189.66
-9755439.47 5135668.88 190.13
-9755439.54 5135669.55 186.62
-9755439.39 5135668.26 189.42
-9755439.58 5135668.00 191.37
-9755439.73 5135665.16 191.17
-9755439.94 5135672.02 180.97
-9755439.46 5135669.53 186.18
-9755439.78 5135669.22 190.21
-9755439.50 5135670.16 189.86
-9755439.36 5135670.72 189.99
-9755439.78 5135668.30 190.33
-9755439.46 5135670.01 190.62
-9755439.71 5135670.01 189.88
-9755439.68 5135670.08 189.10
-9755439.72 5135670.36 191.08
-9755439.43 5135665.41 190.58
-9755439.78 5135668.07 189.39
-9755439.70 5135671.31 184.52
-9755439.52 5135665.40 190.62
-9755439.47 5135667.78 189.71
-9755439.67 5135672.03 180.98
-9755431.40 5135672.62 181.04
-9755431.98 5135672.61 181.04
-9755427.53 5135672.56 181.08
-9755424.91 5135672.56 181.11
-9755439.06 5135677.41 180.94
-9755428.11 5135679.07 181.03
-9755437.27 5135680.62 181.06
-9755427.53 5135674.42 181.00
-9755435.51 5135676.76 180.94
-9755436.05 5135678.54 181.02
-9755436.42 5135674.11 180.97
-9755429.56 5135680.86 181.07
-9755436.43 5135672.68 180.99
-9755433.44 5135676.53 180.94
-9755433.77 5135676.14 180.92
-9755433.74 5135673.47 181.01
-9755430.45 5135677.03 180.97
-9755437.56 5135677.40 180.96
-9755430.16 5135675.86 180.94
-9755429.30 5135674.94 180.87
-9755435.25 5135672.88 181.00
-9755432.50 5135677.33 180.97
-9755438.78 5135673.51 180.97
-9755431.34 5135677.66 181.00
-9755429.92 5135676.46 180.94
-9755429.31 5135678.22 180.99
-9755434.01 5135676.74 180.96
-9755429.26 5135676.70 180.96
-9755436.67 5135673.20 180.98
-9755433.19 5135678.21 181.00
-9755431.09 5135680.30 181.08
-9755436.05 5135677.62 180.98
-9755429.68 5135676.70 180.94
-9755435.82 5135675.02 180.86
-9755434.85 5135676.18 180.93
-9755434.03 5135679.14 181.03
-9755432.58 5135678.56 181.03
-9755426.57 5135680.24 181.05
-9755429.91 5135677.68 181.00
-9755433.44 5135674.96 180.89
-9755438.73 5135679.47 181.01
-9755435.82 5135676.72 180.94
-9755435.23 5135674.11 180.97
-9755436.65 5135679.75 181.05
-9755434.28 5135675.01 180.88
-9755435.75 5135680.60 181.08
-9755427.58 5135676.11 180.95
-9755429.05 5135673.45 181.05
-9755433.47 5135675.81 180.92
-9755437.57 5135677.64 180.97
-9755436.72 5135679.16 181.02
-9755434.26 5135680.90 181.07
-9755428.13 5135677.33 180.97
-9755430.17 5135680.87 181.07
-9755431.68 5135672.89 181.03
-9755434.28 5135679.17 181.04
-9755428.96 5135678.52 181.00
-9755432.53 5135679.72 181.04
-9755434.65 5135674.75 180.86
-9755435.84 5135673.24 180.99
-9755428.76 5135673.49 181.05
-9755427.57 5135672.89 181.07
-9755435.16 5135678.25 181.01
-9755431.90 5135678.22 181.00
-9755439.09 5135674.09 180.94
-9755427.47 5135680.31 181.05
-9755434.93 5135677.30 180.96
-9755429.95 5135677.26 180.99
-9755434.90 5135674.69 180.87
-9755428.37 5135675.54 180.92
-9755437.21 5135679.14 181.03
-9755438.18 5135674.11 180.93
-9755433.43 5135679.12 181.04
-9755429.25 5135676.43 180.93
-9755438.13 5135679.11 181.02
-9755428.12 5135677.87 180.99
-9755430.82 5135675.84 180.93
-9755436.69 5135674.10 180.97
-9755432.50 5135677.01 180.96
-9755434.93 5135679.42 181.03
-9755430.18 5135678.22 181.01
-9755434.56 5135680.02 181.05
-9755437.28 5135675.55 180.89
-9755431.06 5135678.29 181.01
-9755428.73 5135676.97 180.97
-9755432.28 5135674.05 181.01
-9755429.27 5135679.70 181.04
-9755429.84 5135680.36 181.06
-9755438.41 5135677.70 180.97
-9755431.11 5135675.01 180.89
-9755434.91 5135677.06 180.96
-9755430.22 5135674.07 181.04
-9755436.68 5135674.73 180.84
-9755429.25 5135677.89 180.99
-9755431.36 5135676.41 180.95
-9755435.48 5135680.35 181.05
-9755436.68 5135680.57 181.06
-9755435.55 5135677.31 180.97
-9755435.81 5135673.81 180.99
-9755427.24 5135675.88 180.93
-9755425.83 5135676.44 180.94
-9755426.62 5135680.57 181.05
-9755424.62 5135675.19 180.91
-9755424.58 5135680.17 181.07
-9755426.05 5135680.34 181.05
-9755426.36 5135677.01 180.96
-9755424.60 5135674.13 180.93
-9755424.58 5135674.63 180.93
-9755425.22 5135676.09 180.94
-9755426.11 5135675.86 180.94
-9755426.31 5135677.59 180.98
-9755425.46 5135680.88 181.05
-9755424.56 5135677.56 180.98
-9755424.90 5135674.05 181.08
-9755425.49 5135680.01 181.05
-9755425.77 5135674.06 181.08
-9755425.50 5135672.00 181.11
-9755424.59 5135672.55 181.10
-9755417.52 5135672.22 181.10
-9755418.14 5135672.49 181.11
-9755420.78 5135672.26 181.10
-9755424.00 5135672.59 181.10
-9755415.17 5135672.49 181.08
-9755421.69 5135672.24 181.11
-9755412.83 5135671.93 181.09
-9755423.44 5135677.90 180.99
-9755418.33 5135679.37 181.05
-9755417.49 5135680.80 181.06
-9755414.58 5135680.82 181.05
-9755423.40 5135675.73 180.94
-9755416.92 5135677.51 180.99
-9755416.62 5135677.58 180.99
-9755422.82 5135677.61 180.97
-9755418.93 5135680.86 181.05
-9755413.98 5135674.28 181.05
-9755418.39 5135674.33 181.07
-9755414.60 5135678.38 181.01
-9755414.33 5135672.78 181.09
-9755415.70 5135674.58 181.05
-9755414.23 5135680.53 181.06
-9755422.84 5135678.47 181.02
-9755421.68 5135676.41 180.95
-9755415.98 5135680.82 181.06
-9755424.05 5135672.87 181.10
-9755420.77 5135676.96 180.97
-9755414.22 5135678.41 181.02
-9755423.08 5135675.20 180.91
-9755421.66 5135674.88 180.91
-9755424.01 5135673.49 181.10
-9755416.03 5135674.27 181.06
-9755417.53 5135678.09 181.01
-9755417.78 5135679.03 181.01
-9755420.23 5135673.39 181.08
-9755415.73 5135677.83 180.99
-9755414.03 5135676.12 180.93
-9755417.52 5135676.02 180.91
-9755423.99 5135679.92 181.05
-9755413.68 5135677.84 180.98
-9755418.41 5135673.99 181.08
-9755419.28 5135677.24 180.96
-9755422.84 5135673.42 181.10
-9755419.59 5135678.45 181.02
-9755417.50 5135680.49 181.07
-9755414.01 5135673.06 181.08
-9755418.44 5135673.12 181.09
-9755423.47 5135674.97 180.91
-9755421.96 5135675.18 180.91
-9755421.94 5135674.61 181.02
-9755416.37 5135680.78 181.05
-9755421.29 5135678.42 181.00
-9755416.60 5135680.51 181.05
-9755422.48 5135679.96 181.06
-9755420.42 5135680.82 181.08
-9755419.24 5135678.43 181.01
-9755422.55 5135675.55 180.92
-9755416.03 5135675.83 180.91
-9755420.73 5135678.46 181.00
-9755416.92 5135674.29 181.07
-9755420.45 5135679.27 181.04
-9755417.79 5135680.84 181.07
-9755419.30 5135675.53 180.89
-9755415.52 5135673.40 181.07
-9755415.15 5135673.98 181.06
-9755418.68 5135679.38 181.04
-9755421.96 5135674.35 181.08
-9755417.82 5135676.71 180.95
-9755413.42 5135674.29 181.04
-9755419.29 5135678.14 181.00
-9755422.80 5135675.79 180.93
-9755420.78 5135673.16 181.09
-9755416.04 5135673.07 181.08
-9755415.47 5135676.97 180.98
-9755416.98 5135673.39 181.09
-9755422.27 5135679.98 181.06
-9755421.94 5135673.44 181.10
-9755421.38 5135674.31 181.08
-9755419.96 5135677.58 180.98
-9755422.55 5135678.13 181.00
-9755420.76 5135674.28 181.08
-9755422.50 5135675.76 180.92
-9755417.86 5135674.86 180.91
-9755416.94 5135674.88 180.91
-9755415.67 5135678.50 181.02
-9755412.53 5135672.18 181.09
-9755412.51 5135678.11 180.97
-9755413.42 5135678.99 181.03
-9755413.41 5135674.73 180.99
-9755410.97 5135679.31 181.04
-9755411.00 5135676.92 180.97
-9755411.57 5135678.75 181.01
-9755412.83 5135673.36 181.08
-9755410.77 5135672.48 181.09
-9755411.00 5135676.01 180.94
-9755413.43 5135673.71 181.05
-9755411.94 5135679.05 181.03
-9755412.83 5135677.53 180.97
-9755411.34 5135673.41 181.07
-9755439.67 5135669.38 181.04
-9755438.78 5135669.32 192.40
-9755438.34 5135669.26 192.04
-9755429.05 5135667.66 189.96
-9755427.30 5135672.00 181.08
-9755437.91 5135669.51 190.94
-9755437.96 5135667.73 189.67
-9755439.16 5135670.17 189.68
-9755434.41 5135666.96 187.48
-9755435.58 5135670.31 181.03
-9755437.35 5135668.40 191.82
-9755438.76 5135672.61 180.97
-9755431.13 5135672.57 181.04
-9755433.66 5135666.92 184.96
-9755438.03 5135668.03 191.86
-9755437.98 5135668.24 191.91
-9755434.77 5135665.46 187.36
-9755430.61 5135669.70 185.55
-9755436.56 5135669.48 185.91
-9755438.08 5135667.72 192.25
