-9755572.77 5135693.54 180.80
-9755580.42 5135695.64 185.86
-9755581.35 5135688.90 180.45
-9755573.71 5135687.92 180.62
-9755576.94 5135695.47 184.56
-9755578.64 5135693.63 180.73
-9755577.77 5135691.79 180.72
-9755576.05 5135689.41 180.72
-9755577.47 5135695.33 180.89
-9755579.35 5135689.21 180.65
-9755577.16 5135694.49 180.79
-9755572.78 5135694.44 180.81
-9755579.56 5135693.59 180.72
-9755582.83 5135694.53 180.69
-9755580.49 5135689.78 180.65
-9755577.79 5135689.76 180.70
-9755582.55 5135692.11 180.64
-9755580.50 5135690.09 180.64
-9755581.63 5135693.78 183.38
-9755572.77 5135695.00 180.89
-9755573.68 5135689.73 180.76
-9755579.40 5135694.71 185.70
-9755573.49 5135695.79 183.20
-9755578.75 5135694.14 183.14
-9755575.44 5135690.30 180.76
-9755572.80 5135695.35 180.92
-9755578.83 5135694.68 185.05
-9755576.00 5135693.60 180.77
-9755583.73 5135694.22 180.66
-9755577.25 5135692.12 180.73
-9755582.81 5135691.24 180.63
-9755572.86 5135689.75 180.78
-9755577.85 5135691.21 180.73
-9755575.15 5135689.43 180.74
-9755579.60 5135692.70 180.70
-9755573.90 5135695.37 180.92
-9755573.67 5135693.50 180.79
-9755578.71 5135695.96 180.90
-9755576.34 5135695.31 180.90
-9755576.94 5135688.88 180.54
-9755578.67 5135695.38 180.90
-9755577.96 5135693.10 183.93
-9755583.99 5135692.18 180.60
-9755581.39 5135694.18 183.33
-9755574.51 5135694.47 180.80
-9755577.60 5135694.61 184.33
-9755579.88 5135693.87 185.43
-9755573.15 5135695.72 183.62
-9755562.20 5135688.77 180.72
-9755563.12 5135690.54 180.84
-9755567.77 5135695.31 180.99
-9755568.07 5135691.15 180.80
-9755566.28 5135694.42 180.87
-9755569.57 5135688.81 180.64
-9755564.56 5135692.04 180.84
-9755568.97 5135687.91 180.68
-9755559.55 5135695.23 186.86
-9755571.01 5135693.59 180.81
-9755559.02 5135695.29 187.17
-9755568.09 5135693.53 180.84
-9755560.45 5135690.22 180.84
-9755560.68 5135695.48 183.80
-9755567.94 5135688.76 180.52
-9755564.86 5135694.39 180.87
-9755561.88 5135691.09 180.84
-9755567.25 5135687.97 180.69
-9755562.24 5135695.26 180.98
-9755571.03 5135691.17 180.78
-9755564.49 5135695.28 181.01
-9755562.79 5135689.67 180.81
-9755570.44 5135695.05 180.90
-9755564.83 5135689.64 180.79
-9755571.01 5135690.26 180.79
-9755565.71 5135692.95 180.84
-9755564.67 5135692.10 188.59
-9755559.78 5135694.37 180.91
-9755561.30 5135689.34 180.73
-9755569.35 5135687.93 180.68
-9755568.67 5135694.43 180.85
-9755563.07 5135692.63 180.84
-9755571.89 5135693.01 180.80
-9755567.81 5135691.73 180.82
-9755561.90 5135691.99 180.85
-9755562.73 5135687.88 180.77
-9755562.75 5135691.15 180.85
-9755571.97 5135688.56 180.61
-9755560.13 5135692.90 180.88
-9755568.97 5135690.29 180.80
-9755569.56 5135695.30 180.99
-9755567.22 5135688.79 180.67
-9755562.20 5135690.23 180.82
-9755559.78 5135695.28 181.01
-9755569.56 5135691.19 180.80
-9755566.88 5135690.53 180.81
-9755560.39 5135694.38 180.90
-9755563.68 5135689.33 180.74
-9755563.92 5135695.59 181.02
-9755571.97 5135690.01 180.78
-9755563.39 5135693.53 180.86
-9755560.39 5135694.69 185.88
-9755565.42 5135692.02 180.84
-9755559.59 5135695.64 186.19
-9755563.89 5135692.30 180.85
-9755571.59 5135689.71 180.78
-9755564.65 5135691.22 188.82
-9755570.48 5135687.94 180.67
-9755564.08 5135691.43 185.89
-9755570.43 5135691.17 180.79
-9755559.81 5135693.77 180.89
-9755560.93 5135694.22 183.93
-9755564.53 5135689.88 188.17
-9755558.93 5135694.36 186.25
-9755572.18 5135695.00 180.89
-9755569.56 5135690.56 180.80
-9755563.06 5135694.44 180.88
-9755571.56 5135695.64 180.95
-9755570.39 5135689.69 180.79
-9755569.22 5135695.46 183.54
-9755558.64 5135692.87 180.88
-9755566.59 5135695.30 180.99
-9755571.05 5135692.06 180.80
-9755566.38 5135688.75 180.67
-9755564.55 5135692.03 187.51
-9755558.61 5135691.06 180.85
-9755558.02 5135695.30 184.61
-9755558.98 5135692.00 180.86
-9755558.05 5135691.10 180.85
-9755558.01 5135695.04 186.87
-9755558.73 5135688.14 180.79
-9755558.08 5135691.98 180.86
-9755558.05 5135690.50 180.85
-9755558.05 5135693.47 180.88
-9755558.09 5135692.97 186.28
-9755557.81 5135694.61 184.49
-9755558.38 5135694.43 185.76
-9755557.89 5135694.58 186.94
-9755558.95 5135689.03 180.76
-9755557.78 5135685.80 180.89
-9755557.25 5135684.53 180.96
-9755556.94 5135685.51 180.92
-9755557.22 5135682.22 181.01
-9755557.46 5135691.11 180.86
-9755557.13 5135695.11 184.53
-9755557.31 5135694.21 186.89
-9755549.88 5135681.29 181.03
-9755555.79 5135686.02 180.91
-9755554.57 5135681.27 180.99
-9755549.87 5135683.63 181.01
-9755552.83 5135681.29 181.01
-9755550.73 5135684.57 180.98
-9755553.69 5135684.85 180.96
-9755548.96 5135683.04 181.00
-9755553.66 5135681.59 181.00
-9755551.32 5135681.26 181.00
-9755556.69 5135681.55 181.01
-9755548.35 5135683.05 181.01
-9755546.32 5135686.29 180.92
-9755550.79 5135681.27 181.00
-9755553.98 5135686.35 180.90
-9755554.82 5135683.96 180.99
-9755546.62 5135685.41 180.95
-9755548.94 5135682.14 181.01
-9755551.31 5135686.59 180.90
-9755548.97 5135686.31 180.89
-9755550.13 5135682.21 181.01
-9755553.08 5135686.40 180.90
-9755551.29 5135685.13 180.95
-9755551.28 5135683.12 181.01
-9755556.33 5135684.55 180.97
-9755548.98 5135683.94 181.01
-9755547.19 5135686.29 180.92
-9755556.62 5135686.34 180.91
-9755553.10 5135684.50 180.98
-9755546.33 5135684.45 180.99
-9755553.98 5135682.19 180.99
-9755548.36 5135687.22 180.87
-9755553.61 5135686.02 180.91
-9755546.36 5135681.88 181.00
-9755550.36 5135686.02 180.92
-9755551.37 5135682.45 181.01
-9755552.22 5135683.99 181.00
-9755555.42 5135684.90 180.96
-9755554.56 5135687.22 180.86
-9755546.35 5135681.60 181.01
-9755556.04 5135685.45 180.94
-9755550.75 5135686.34 180.90
-9755550.69 5135686.97 180.89
-9755545.44 5135683.93 181.01
-9755549.24 5135686.29 180.92
-9755536.61 5135682.10 181.02
-9755536.65 5135681.16 181.02
-9755538.93 5135682.36 181.01
-9755534.83 5135681.47 181.01
-9755535.69 5135686.22 180.91
-9755543.37 5135684.52 181.00
-9755544.55 5135686.31 180.92
-9755540.74 5135683.85 181.01
-9755535.66 5135684.77 180.99
-9755542.52 5135685.67 180.96
-9755533.35 5135681.79 181.00
-9755544.55 5135683.06 181.02
-9755538.34 5135684.47 181.01
-9755540.10 5135683.84 181.02
-9755540.70 5135681.51 181.02
-9755533.36 5135683.85 181.01
-9755542.17 5135686.26 180.93
-9755540.11 5135681.82 181.02
-9755532.48 5135684.75 180.97
-9755542.19 5135683.89 181.01
-9755541.23 5135685.40 180.95
-9755539.21 5135683.87 181.02
-9755534.83 5135682.08 181.01
-9755541.62 5135684.48 180.99
-9755539.81 5135684.46 181.00
-9755535.06 5135684.71 181.00
-9755537.49 5135686.30 180.91
-9755541.60 5135683.58 181.01
-9755536.51 5135686.22 180.92
-9755543.06 5135686.58 180.90
-9755538.96 5135681.20 181.01
-9755543.30 5135685.67 180.93
-9755534.80 5135687.11 180.86
-9755533.03 5135685.87 180.92
-9755540.73 5135684.75 181.00
-9755538.04 5135687.19 180.88
-9755535.98 5135682.38 181.01
-9755544.60 5135681.25 181.03
-9755540.95 5135686.23 180.90
-9755539.00 5135682.71 181.00
-9755532.46 5135683.89 181.00
-9755538.92 5135686.27 180.92
-9755535.99 5135686.56 180.89
-9755540.69 5135686.85 180.89
-9755538.33 5135683.90 181.01
-9755532.70 5135686.23 180.90
-9755532.72 5135685.32 180.95
-9755532.47 5135685.91 180.92
-9755531.59 5135685.31 180.95
-9755530.63 5135684.70 180.99
-9755531.59 5135686.25 180.91
-9755532.45 5135682.70 181.01
-9755531.59 5135681.46 181.02
-9755553.90 5135688.19 180.81
-9755548.96 5135687.22 180.87
-9755556.37 5135693.56 184.49
-9755548.96 5135695.18 185.63
-9755546.65 5135695.50 183.83
-9755556.57 5135689.66 180.83
-9755549.16 5135694.52 185.45
-9755547.06 5135695.42 186.17
-9755547.47 5135691.32 180.88
-9755548.89 5135694.63 180.95
-9755547.25 5135694.69 184.04
-9755547.15 5135693.80 185.78
-9755550.68 5135689.60 180.80
-9755556.59 5135691.99 180.86
-9755555.42 5135691.09 180.86
-9755547.39 5135693.80 184.69
-9755546.64 5135693.14 184.86
-9755547.14 5135693.19 186.00
-9755548.26 5135693.55 185.28
-9755548.16 5135695.28 185.80
-9755556.55 5135690.18 180.85
-9755554.52 5135691.11 180.84
-9755556.25 5135693.79 180.90
-9755556.51 5135695.22 181.00
-9755548.06 5135693.11 180.92
-9755546.62 5135693.84 185.71
-9755547.21 5135694.67 185.54
-9755555.37 5135692.82 180.89
-9755548.22 5135693.74 183.97
-9755547.28 5135695.13 185.32
-9755548.07 5135689.61 180.80
-9755546.62 5135693.32 184.02
-9755549.78 5135691.05 180.86
-9755548.07 5135695.26 185.00
-9755556.57 5135691.08 180.85
-9755556.61 5135694.50 184.83
-9755551.25 5135689.59 180.79
-9755553.92 5135692.88 180.89
-9755555.56 5135695.31 185.32
-9755545.67 5135694.60 184.69
-9755552.17 5135687.87 180.83
-9755553.10 5135688.72 180.81
-9755546.56 5135691.36 180.88
-9755547.16 5135694.63 180.96
-9755546.55 5135693.69 180.92
-9755554.50 5135691.95 180.86
-9755551.30 5135691.34 180.86
-9755548.32 5135692.27 180.91
-9755556.56 5135693.71 185.39
-9755555.41 5135689.62 180.82
-9755546.59 5135690.43 180.86
-9755546.47 5135695.19 186.21
-9755550.61 5135695.22 180.97
-9755552.16 5135689.56 180.80
-9755555.86 5135694.51 185.70
-9755548.84 5135692.69 184.06
-9755554.83 5135687.81 180.83
-9755545.61 5135693.49 184.11
-9755555.39 5135687.86 180.83
-9755546.25 5135694.25 184.13
-9755548.45 5135695.61 186.98
-9755545.66 5135693.74 180.92
-9755550.17 5135693.79 185.00
-9755556.56 5135688.78 180.76
-9755553.93 5135691.35 180.86
-9755552.13 5135693.76 180.91
-9755556.27 5135687.29 180.84
-9755550.69 5135691.96 180.87
-9755549.26 5135693.88 185.68
-9755546.25 5135695.13 180.98
-9755555.41 5135694.63 180.92
-9755546.23 5135692.51 180.90
-9755554.49 5135693.76 180.90
-9755546.54 5135694.27 180.94
-9755547.75 5135693.25 186.13
-9755548.63 5135693.36 183.75
-9755556.69 5135695.63 185.90
-9755550.24 5135695.73 186.05
-9755546.29 5135695.27 185.47
-9755548.31 5135694.63 186.68
-9755545.64 5135695.22 181.00
-9755556.29 5135687.88 180.84
-9755547.24 5135694.32 186.78
-9755549.83 5135693.83 185.05
-9755545.97 5135691.32 180.88
-9755539.32 5135695.41 183.81
-9755539.21 5135692.77 180.92
-9755539.77 5135693.68 180.93
-9755542.18 5135691.01 180.88
-9755535.94 5135687.12 180.87
-9755535.59 5135693.65 180.95
-9755539.80 5135690.37 180.85
-9755543.25 5135694.60 180.95
-9755536.92 5135695.72 186.16
-9755538.29 5135693.70 180.94
-9755544.17 5135695.47 181.05
-9755535.05 5135694.51 180.96
-9755535.07 5135690.42 180.87
-9755535.64 5135689.56 180.76
-9755533.85 5135690.35 180.88
-9755539.82 5135694.61 185.74
-9755539.20 5135688.68 180.80
-9755538.29 5135695.20 180.97
-9755536.54 5135694.24 180.94
-9755536.57 5135689.50 180.76
-9755538.89 5135690.42 180.85
-9755542.19 5135688.07 180.83
-9755536.55 5135687.12 180.87
-9755540.94 5135689.60 180.78
-9755538.17 5135694.01 185.29
-9755538.31 5135695.55 185.54
-9755533.31 5135692.74 180.92
-9755541.53 5135693.66 180.93
-9755540.66 5135687.76 180.84
-9755540.62 5135695.80 184.71
-9755535.67 5135688.05 180.82
-9755543.00 5135691.08 180.89
-9755544.76 5135691.35 180.88
-9755536.56 5135687.69 180.83
-9755538.04 5135691.27 180.87
-9755539.79 5135692.79 180.91
-9755541.54 5135695.15 180.98
-9755538.96 5135693.73 185.23
-9755543.91 5135694.54 180.94
-9755539.57 5135691.28 187.89
-9755536.53 5135688.61 180.80
-9755545.62 5135688.10 180.84
-9755535.08 5135691.90 180.89
-9755543.90 5135691.03 180.87
-9755543.29 5135687.77 180.85
-9755541.57 5135691.91 180.89
-9755534.81 5135688.00 180.83
-9755535.69 5135688.62 180.78
-9755543.29 5135690.68 180.88
-9755537.70 5135693.69 180.94
-9755545.33 5135692.81 180.90
-9755537.15 5135689.50 180.77
-9755533.87 5135687.14 180.86
-9755543.92 5135693.38 180.91
-9755539.65 5135690.37 189.38
-9755544.18 5135691.90 180.88
-9755537.69 5135691.91 180.90
-9755539.55 5135692.65 189.48
-9755543.05 5135689.56 180.77
-9755540.39 5135688.64 180.80
-9755539.32 5135691.98 187.85
-9755540.94 5135690.38 180.85
-9755536.56 5135691.90 180.89
-9755537.13 5135691.30 180.89
-9755542.99 5135693.67 180.92
-9755540.86 5135694.58 184.46
-9755537.46 5135694.67 185.35
-9755539.17 5135694.70 185.28
-9755539.32 5135692.49 186.03
-9755541.30 5135688.60 180.80
-9755539.49 5135691.95 189.45
-9755539.28 5135692.68 189.48
-9755541.56 5135687.15 180.87
-9755541.52 5135687.82 180.85
-9755545.77 5135693.23 184.59
-9755545.14 5135687.77 180.85
-9755538.04 5135687.77 180.86
-9755544.18 5135689.57 180.78
-9755543.28 5135692.76 180.90
-9755538.49 5135695.23 183.24
-9755538.37 5135694.81 183.49
-9755536.52 5135695.46 185.50
-9755536.50 5135693.61 180.94
-9755539.55 5135688.08 180.84
-9755539.50 5135692.22 186.01
-9755539.23 5135692.44 185.64
-9755537.64 5135695.58 183.78
-9755543.34 5135691.91 180.88
-9755539.77 5135692.00 183.74
-9755539.30 5135692.03 189.45
-9755537.91 5135694.47 186.18
-9755539.50 5135694.76 184.26
-9755545.16 5135693.57 184.78
-9755545.69 5135691.65 180.89
-9755539.22 5135694.87 184.27
-9755532.40 5135689.45 180.73
-9755532.39 5135692.74 180.93
-9755531.53 5135690.37 180.90
-9755532.37 5135693.61 180.93
-9755532.74 5135691.24 180.91
-9755532.39 5135691.28 180.90
-9755530.92 5135694.53 180.96
-9755532.44 5135690.35 180.90
-9755532.36 5135687.98 180.80
-9755531.22 5135688.53 180.78
-9755531.55 5135689.47 180.74
-9755530.70 5135691.22 180.91
-9755531.24 5135690.35 180.90
-9755532.38 5135691.84 180.90
-9755531.47 5135695.08 180.97
-9755530.05 5135685.33 180.97
-9755528.35 5135681.19 181.02
-9755530.06 5135692.73 180.93
-9755530.04 5135695.38 180.99
-9755529.16 5135694.48 180.97
-9755530.66 5135687.97 180.82
-9755528.93 5135687.08 180.89
-9755530.07 5135691.86 180.98
-9755528.30 5135687.07 180.88
-9755528.27 5135690.38 180.92
-9755530.04 5135694.76 180.97
-9755528.92 5135691.24 180.96
-9755529.16 5135692.98 180.94
-9755529.18 5135688.58 180.82
-9755529.17 5135687.95 180.84
-9755522.39 5135685.55 180.97
-9755524.78 5135682.92 181.02
-9755527.76 5135681.50 181.00
-9755525.98 5135682.29 181.01
-9755522.76 5135682.31 181.01
-9755520.38 5135684.64 181.00
-9755525.97 5135684.73 180.98
-9755520.95 5135684.67 181.00
-9755526.79 5135685.60 180.97
-9755522.41 5135681.41 181.02
-9755526.00 5135683.52 181.00
-9755525.12 5135681.42 181.01
-9755520.68 5135681.43 181.03
-9755521.58 5135684.71 180.99
-9755521.25 5135685.55 180.97
-9755524.49 5135684.68 181.00
-9755521.53 5135685.32 180.98
-9755521.29 5135683.80 181.01
-9755525.97 5135685.30 180.97
-9755520.70 5135682.92 181.04
-9755525.65 5135686.79 180.91
-9755521.86 5135681.41 181.03
-9755522.71 5135684.08 181.03
-9755525.09 5135686.18 180.94
-9755523.90 5135683.80 181.03
-9755526.85 5135686.20 180.92
-9755525.12 5135684.70 181.00
-9755520.06 5135686.16 180.94
-9755521.85 5135682.34 181.02
-9755519.22 5135683.74 181.02
-9755518.27 5135681.41 181.03
-9755517.74 5135683.77 181.04
-9755514.49 5135682.30 181.05
-9755515.05 5135682.29 181.03
-9755512.69 5135683.15 181.05
-9755517.12 5135683.16 181.03
-9755512.76 5135681.93 181.05
-9755517.73 5135682.29 181.03
-9755516.54 5135683.72 181.02
-9755516.87 5135685.28 181.00
-9755517.46 5135681.33 181.02
-9755509.19 5135683.68 181.06
-9755510.10 5135681.62 181.06
-9755510.29 5135682.79 181.05
-9755506.78 5135685.46 181.07
-9755511.80 5135684.09 181.06
-9755510.28 5135685.79 181.03
-9755510.93 5135685.52 181.03
-9755516.26 5135683.16 181.03
-9755510.97 5135683.49 181.05
-9755511.80 5135685.57 181.02
-9755512.69 5135684.64 181.04
-9755509.43 5135684.62 181.07
-9755514.47 5135681.07 181.03
-9755511.88 5135683.14 181.06
-9755509.47 5135681.36 181.05
-9755518.62 5135682.00 181.03
-9755506.81 5135681.04 181.08
-9755511.83 5135682.24 181.04
-9755509.48 5135686.29 181.02
-9755515.10 5135681.43 181.01
-9755514.48 5135683.68 181.04
-9755516.88 5135682.22 181.03
-9755515.90 5135685.53 180.99
-9755515.67 5135683.73 181.03
-9755506.20 5135684.00 181.08
-9755507.07 5135686.12 181.05
-9755513.56 5135685.47 181.00
-9755510.38 5135682.25 181.06
-9755512.70 5135686.44 180.98
-9755505.94 5135686.11 181.05
-9755513.21 5135686.68 180.98
-9755514.17 5135686.97 180.96
-9755511.16 5135686.70 180.99
-9755504.48 5135681.95 181.09
-9755505.36 5135685.45 181.07
-9755505.05 5135684.56 181.07
-9755504.44 5135685.48 181.06
-9755526.75 5135689.51 180.78
-9755522.65 5135688.50 180.84
-9755527.67 5135693.58 180.94
-9755523.26 5135690.29 180.89
-9755522.39 5135691.19 180.91
-9755525.90 5135692.72 180.93
-9755522.69 5135689.39 180.80
-9755525.03 5135688.85 180.81
-9755524.47 5135691.22 180.94
-9755520.29 5135695.36 181.01
-9755524.46 5135692.07 180.92
-9755522.38 5135692.94 180.94
-9755520.90 5135694.43 180.98
-9755521.81 5135691.20 180.91
-9755521.52 5135692.95 180.94
-9755525.33 5135693.55 180.94
-9755522.92 5135692.07 180.90
-9755526.21 5135688.62 180.81
-9755523.56 5135693.01 180.94
-9755527.43 5135689.48 180.78
-9755522.13 5135687.04 180.90
-9755519.14 5135687.95 180.86
-9755524.16 5135687.96 180.86
-9755524.23 5135688.55 180.84
-9755526.82 5135687.07 180.90
-9755519.52 5135688.83 180.81
-9755524.45 5135690.31 180.91
-9755525.95 5135692.09 180.94
-9755520.06 5135687.91 180.86
-9755525.91 5135687.11 180.88
-9755519.45 5135691.17 180.89
-9755521.49 5135690.95 180.89
-9755525.34 5135689.72 180.78
-9755519.14 5135693.53 180.94
-9755520.32 5135692.06 180.91
-9755526.86 5135690.07 180.85
-9755521.54 5135687.04 180.91
-9755518.55 5135692.63 180.93
-9755515.34 5135692.07 180.94
-9755507.09 5135694.66 180.91
-9755507.01 5135687.84 180.98
-9755515.34 5135688.77 180.83
-9755512.66 5135695.28 180.96
-9755510.27 5135695.56 180.95
-9755513.53 5135692.93 180.93
-9755517.63 5135687.89 180.89
-9755518.56 5135688.76 180.84
-9755511.73 5135694.41 180.93
-9755510.31 5135691.13 180.87
-9755515.37 5135694.66 183.54
-9755518.01 5135691.99 182.26
-9755507.90 5135693.48 180.90
-9755507.06 5135692.61 180.94
-9755507.05 5135690.22 180.93
-9755516.19 5135692.96 180.97
-9755514.41 5135694.39 180.95
-9755507.02 5135689.32 180.95
-9755510.29 5135694.39 180.91
-9755515.67 5135691.33 188.57
-9755508.57 5135687.00 181.01
-9755515.91 5135693.54 180.96
-9755507.63 5135695.56 180.91
-9755506.71 5135695.27 180.93
-9755514.12 5135691.18 180.89
-9755509.46 5135689.60 180.92
-9755517.41 5135687.06 180.91
-9755515.39 5135691.96 187.84
-9755516.17 5135687.95 180.88
-9755510.33 5135692.58 180.93
-9755514.43 5135690.25 180.86
-9755515.40 5135691.17 188.47
-9755515.92 5135690.28 180.89
-9755508.52 5135689.89 180.91
-9755511.19 5135691.44 180.88
-9755510.91 5135692.03 180.91
-9755512.65 5135694.37 180.95
-9755513.56 5135690.25 180.84
-9755517.68 5135688.78 180.84
-9755515.57 5135693.00 188.67
-9755515.58 5135694.49 184.23
-9755515.02 5135690.23 180.87
-9755511.75 5135691.14 180.86
-9755515.05 5135689.95 180.80
-9755512.69 5135687.88 180.92
-9755515.93 5135690.57 180.91
-9755512.05 5135692.03 180.91
-9755506.19 5135690.53 180.94
-9755515.63 5135692.38 189.51
-9755508.54 5135692.64 180.90
-9755515.56 5135692.73 188.17
-9755511.19 5135687.94 180.95
-9755506.23 5135687.85 181.02
-9755505.90 5135692.85 180.93
-9755511.78 5135687.00 180.98
-9755515.37 5135692.68 187.47
-9755510.32 5135691.67 180.89
-9755508.52 5135690.23 180.91
-9755516.52 5135691.80 182.53
-9755505.25 5135694.36 180.94
-9755505.30 5135689.34 180.98
-9755504.36 5135689.63 180.98
-9755504.40 5135686.91 181.04
-9755505.02 5135691.10 180.94
-9755505.31 5135687.79 181.01
-9755505.33 5135690.23 180.95
-9755505.31 5135692.87 180.94
-9755504.41 5135688.74 180.99
-9755505.26 5135692.04 180.94
-9755505.21 5135688.77 181.00
-9755505.23 5135693.45 180.94
-9755503.80 5135686.38 181.05
-9755503.52 5135683.64 181.09
-9755503.87 5135685.51 181.07
-9755503.54 5135683.10 181.08
-9755503.89 5135687.90 181.02
-9755503.79 5135694.36 180.93
-9755503.51 5135689.61 180.98
-9755503.49 5135693.49 180.95
-9755547.76 5135786.02 181.68
-9755546.00 5135785.76 181.65
-9755549.22 5135786.05 181.70
-9755546.91 5135785.73 181.66
-9755555.45 5135785.55 181.74
-9755549.54 5135786.06 181.71
-9755545.75 5135786.09 181.66
-9755545.44 5135785.14 181.64
-9755533.00 5135785.67 181.55
-9755536.31 5135785.45 181.59
-9755535.71 5135786.25 181.58
-9755538.06 5135786.31 181.60
-9755542.49 5135785.76 181.64
-9755536.58 5135785.43 181.59
-9755539.53 5135785.42 181.60
-9755543.95 5135785.72 181.64
-9755535.10 5135785.68 181.57
-9755544.55 5135785.47 181.64
-9755541.60 5135785.69 181.62
-9755531.25 5135786.17 181.55
-9755531.32 5135785.68 181.55
-9755531.83 5135785.62 181.55
-9755532.13 5135785.05 181.55
-9755530.37 5135786.25 181.56
-9755529.17 5135785.38 181.54
-9755529.82 5135785.69 181.55
-9755528.01 5135786.00 181.54
-9755528.03 5135785.66 181.53
-9755521.48 5135785.31 181.64
-9755519.80 5135785.58 181.64
-9755521.84 5135785.35 181.54
-9755522.77 5135785.63 181.51
-9755523.62 5135785.32 181.53
-9755519.46 5135785.33 181.61
-9755522.46 5135786.16 181.53
-9755506.78 5135786.15 180.77
-9755507.37 5135785.88 180.76
-9755512.37 5135784.70 180.95
-9755513.26 5135785.30 180.99
-9755510.01 5135786.20 180.92
-9755508.55 5135785.61 180.77
-9755513.89 5135784.75 181.07
-9755518.00 5135785.91 181.50
-9755517.10 5135785.31 181.41
-9755515.63 5135784.98 181.27
-9755514.74 5135785.62 181.15
-9755516.53 5135785.87 181.35
-9755510.02 5135785.57 180.92
-9755516.52 5135785.61 181.35
-9755510.36 5135784.70 180.91
-9755515.98 5135784.74 181.30
-9755506.76 5135785.25 180.76
-9755515.56 5135786.20 183.65
-9755505.00 5135785.85 180.80
-9755504.73 5135785.29 180.79
-9755504.44 5135785.28 180.79
-9755551.32 5135779.85 181.68
-9755547.52 5135779.89 181.62
-9755530.08 5135785.36 181.55
-9755535.40 5135785.05 181.56
-9755544.28 5135779.79 181.58
-9755551.07 5135780.18 181.68
-9755553.66 5135785.23 181.73
-9755555.20 5135779.93 181.71
-9755546.06 5135784.87 181.64
-9755550.49 5135784.91 181.70
-9755551.95 5135783.17 181.69
-9755548.98 5135780.42 181.65
-9755554.02 5135783.13 181.72
-9755549.22 5135784.87 181.69
-9755551.59 5135783.96 181.71
-9755555.47 5135783.18 181.72
-9755554.00 5135783.73 181.72
-9755552.25 5135783.15 181.71
-9755552.74 5135785.45 181.73
-9755546.02 5135781.05 181.61
-9755553.65 5135784.90 181.73
-9755545.14 5135784.83 181.63
-9755553.68 5135781.63 181.72
-9755552.81 5135783.72 181.73
-9755549.48 5135783.69 181.70
-9755550.44 5135780.75 181.67
-9755550.73 5135783.95 181.70
-9755545.43 5135783.40 181.63
-9755548.65 5135783.40 181.66
-9755550.46 5135784.01 181.70
-9755547.46 5135781.95 181.65
-9755551.63 5135782.23 181.69
-9755552.79 5135781.06 181.69
-9755549.54 5135783.47 181.68
-9755547.81 5135780.42 181.62
-9755545.72 5135782.78 181.62
-9755551.35 5135780.49 181.67
-9755553.42 5135783.40 181.73
-9755553.67 5135784.63 181.73
-9755545.73 5135780.43 181.62
-9755548.08 5135780.45 181.62
-9755555.18 5135781.04 181.70
-9755549.86 5135781.40 181.67
-9755546.25 5135781.32 181.63
-9755555.15 5135783.14 181.72
-9755547.21 5135783.70 181.66
-9755548.33 5135782.77 181.66
-9755539.26 5135785.08 181.59
-9755542.48 5135779.83 181.55
-9755531.32 5135779.77 181.51
-9755537.75 5135785.08 181.60
-9755545.13 5135781.30 181.62
-9755534.54 5135780.36 181.54
-9755532.46 5135780.60 181.54
-9755541.94 5135781.03 181.58
-9755542.79 5135780.14 181.55
-9755537.79 5135783.31 181.58
-9755540.49 5135779.82 181.54
-9755536.28 5135780.98 181.55
-9755535.37 5135782.76 181.56
-9755536.56 5135783.97 181.58
-9755537.76 5135780.14 181.53
-9755539.54 5135780.97 181.54
-9755539.51 5135784.52 181.59
-9755536.33 5135784.18 181.58
-9755541.01 5135785.10 181.61
-9755541.34 5135780.68 181.55
-9755538.68 5135783.02 181.59
-9755543.63 5135784.60 181.61
-9755544.57 5135783.37 181.62
-9755538.04 5135783.64 181.59
-9755540.43 5135784.48 181.60
-9755537.73 5135782.45 181.56
-9755538.69 5135781.01 181.54
-9755535.40 5135783.33 181.57
-9755544.19 5135785.15 181.62
-9755544.30 5135780.37 181.58
-9755543.36 5135783.37 181.60
-9755538.36 5135784.83 181.60
-9755543.39 5135783.65 181.61
-9755535.37 5135784.78 181.56
-9755537.21 5135784.51 181.58
-9755533.34 5135783.93 181.57
-9755540.18 5135783.04 181.58
-9755533.64 5135784.22 181.57
-9755533.05 5135781.28 181.57
-9755542.47 5135784.86 181.63
-9755532.18 5135781.52 181.55
-9755532.77 5135784.48 181.57
-9755537.44 5135783.64 181.57
-9755541.36 5135781.58 181.57
-9755543.95 5135782.19 181.61
-9755540.45 5135783.37 181.59
-9755536.83 5135783.30 181.59
-9755532.17 5135781.88 181.55
-9755532.15 5135782.99 181.55
-9755543.68 5135784.31 181.62
-9755544.85 5135784.85 181.62
-9755544.90 5135780.71 181.59
-9755532.18 5135783.27 181.55
-9755536.61 5135782.17 181.56
-9755535.71 5135781.26 181.56
-9755532.97 5135782.76 181.57
-9755535.40 5135781.89 181.57
-9755533.94 5135781.53 181.56
-9755539.24 5135784.52 181.59
-9755533.02 5135784.81 181.56
-9755531.29 5135782.46 181.55
-9755530.72 5135780.67 181.54
-9755530.42 5135783.29 181.55
-9755530.38 5135784.80 181.53
-9755531.81 5135781.55 181.55
-9755529.84 5135780.06 181.53
-9755528.05 5135779.76 181.51
-9755528.66 5135779.78 181.52
-9755529.79 5135784.78 181.55
-9755529.53 5135780.62 181.52
-9755527.99 5135784.16 181.54
-9755527.76 5135780.62 181.52
-9755529.54 5135783.96 181.55
-9755529.79 5135783.05 181.55
-9755528.35 5135781.25 181.55
-9755528.31 5135783.60 181.55
-9755529.80 5135781.78 181.55
-9755527.72 5135782.75 181.52
-9755528.93 5135781.87 181.54
-9755527.44 5135784.46 181.53
-9755547.05 5135758.78 181.52
-9755550.87 5135756.73 181.52
-9755549.39 5135758.22 181.53
-9755546.16 5135761.19 181.52
-9755555.30 5135756.50 181.55
-9755554.40 5135759.45 181.57
-9755554.40 5135760.02 181.57
-9755555.91 5135759.20 181.59
-9755546.74 5135761.77 181.52
-9755546.20 5135763.87 181.52
-9755549.37 5135760.63 181.53
-9755555.91 5135760.02 181.59
-9755555.58 5135760.13 181.58
-9755548.78 5135759.74 181.54
-9755546.48 5135760.87 181.49
-9755545.85 5135762.12 181.51
-9755555.90 5135758.31 181.57
-9755554.39 5135764.12 181.60
-9755554.39 5135757.99 181.57
-9755548.26 5135761.52 181.54
-9755551.15 5135757.32 181.53
-9755546.13 5135760.83 181.49
-9755547.73 5135757.32 181.52
-9755545.58 5135761.81 181.50
-9755549.37 5135759.08 181.53
-9755546.09 5135765.03 181.53
-9755553.59 5135756.48 181.55
-9755546.99 5135765.04 181.54
-9755551.14 5135761.25 181.55
-9755555.88 5135757.40 181.56
-9755552.65 5135761.57 181.58
-9755547.33 5135765.01 181.54
-9755549.43 5135757.99 181.53
-9755555.05 5135761.85 181.59
-9755553.57 5135755.58 181.55
-9755547.03 5135761.21 181.52
-9755546.42 5135755.24 181.49
-9755555.27 5135763.00 181.60
-9755546.71 5135760.28 181.52
-9755553.17 5135766.54 181.60
-9755554.09 5135757.70 181.56
-9755549.99 5135761.46 181.55
-9755545.54 5135760.00 181.50
-9755546.75 5135762.96 181.53
-9755549.39 5135764.43 181.55
-9755554.38 5135766.61 181.59
-9755552.04 5135765.01 181.58
-9755552.64 5135755.86 181.53
-9755545.29 5135766.24 181.53
-9755547.28 5135764.17 181.52
-9755550.87 5135765.85 181.58
-9755555.62 5135756.79 181.55
-9755553.25 5135757.98 181.57
-9755547.39 5135756.43 181.51
-9755554.44 5135762.70 181.58
-9755551.11 5135764.14 181.57
-9755550.01 5135760.35 181.55
-9755550.27 5135758.26 181.53
-9755549.74 5135760.91 181.54
-9755547.67 5135755.85 181.51
-9755546.49 5135757.34 181.50
-9755554.43 5135760.35 181.57
-9755549.14 5135759.15 181.53
-9755545.29 5135764.45 181.51
-9755547.58 5135759.98 181.51
-9755545.29 5135757.93 181.51
-9755553.51 5135764.52 181.60
-9755550.29 5135755.27 181.51
-9755548.79 5135758.54 181.53
-9755554.10 5135759.18 181.56
-9755549.40 5135763.87 181.56
-9755554.70 5135760.66 181.58
-9755548.89 5135755.27 181.51
-9755553.53 5135766.24 181.60
-9755547.56 5135765.38 181.55
-9755547.39 5135761.50 181.53
-9755547.04 5135757.02 181.50
-9755554.69 5135765.98 181.60
-9755551.80 5135755.59 181.55
-9755546.39 5135762.68 181.51
-9755553.50 5135763.60 181.59
-9755551.14 5135761.01 181.55
-9755552.06 5135760.33 181.56
-9755555.25 5135763.64 181.60
-9755555.25 5135766.53 181.61
-9755549.07 5135756.44 181.52
-9755545.88 5135755.58 181.49
-9755550.60 5135755.30 181.51
-9755550.62 5135757.66 181.54
-9755554.44 5135763.60 181.58
-9755549.36 5135762.08 181.55
-9755552.34 5135759.14 181.55
-9755546.14 5135759.95 181.49
-9755555.92 5135758.00 181.56
-9755555.91 5135761.21 181.60
-9755547.95 5135755.56 181.49
-9755555.58 5135762.71 181.60
-9755549.39 5135761.53 181.55
-9755553.51 5135761.83 181.58
-9755552.06 5135759.44 181.55
-9755552.31 5135765.07 181.58
-9755548.18 5135765.02 181.55
-9755552.93 5135761.80 181.57
-9755537.90 5135760.27 181.41
-9755544.37 5135760.29 181.50
-9755535.33 5135755.27 181.38
-9755541.20 5135757.32 181.43
-9755535.23 5135760.26 181.40
-9755538.47 5135758.24 181.41
-9755535.48 5135766.48 181.39
-9755534.66 5135762.95 181.39
-9755538.49 5135762.65 181.43
-9755545.32 5135755.53 181.48
-9755537.88 5135763.54 181.42
-9755544.66 5135761.44 181.50
-9755534.64 5135763.84 181.40
-9755534.05 5135761.40 181.42
-9755544.65 5135760.87 181.48
-9755542.91 5135761.46 181.47
-9755533.49 5135764.72 181.38
-9755536.12 5135763.48 181.42
-9755537.57 5135764.08 181.43
-9755533.75 5135763.80 181.39
-9755533.74 5135763.52 181.40
-9755544.06 5135758.51 181.47
-9755542.65 5135755.82 181.45
-9755535.87 5135763.20 181.42
-9755537.92 5135755.81 181.39
-9755542.86 5135766.22 181.52
-9755543.25 5135755.78 181.45
-9755544.07 5135764.16 181.51
-9755535.57 5135765.52 181.41
-9755536.99 5135763.22 181.42
-9755540.86 5135756.41 181.40
-9755535.19 5135766.42 181.41
-9755537.92 5135762.30 181.42
-9755542.53 5135764.73 181.49
-9755539.40 5135758.22 181.41
-9755532.94 5135758.49 181.40
-9755537.03 5135758.76 181.41
-9755532.56 5135763.20 181.39
-9755539.36 5135766.53 181.45
-9755539.38 5135763.85 181.45
-9755544.42 5135757.61 181.48
-9755538.15 5135760.54 181.42
-9755532.66 5135756.06 181.37
-9755533.50 5135759.90 181.40
-9755543.50 5135759.96 181.47
-9755542.63 5135762.68 181.48
-9755541.12 5135761.17 181.45
-9755537.91 5135759.39 181.42
-9755534.32 5135756.62 181.37
-9755544.17 5135755.25 181.44
-9755543.20 5135764.14 181.50
-9755533.81 5135756.65 181.39
-9755542.85 5135761.75 181.47
-9755536.43 5135757.28 181.41
-9755533.72 5135762.90 181.41
-9755541.55 5135758.48 181.45
-9755536.47 5135755.21 181.38
-9755540.32 5135756.17 181.41
-9755544.96 5135758.54 181.51
-9755537.03 5135759.64 181.43
-9755539.03 5135762.60 181.43
-9755532.89 5135766.16 181.37
-9755536.43 5135760.87 181.43
-9755543.51 5135761.44 181.49
-9755537.89 5135758.79 181.42
-9755537.32 5135764.99 181.43
-9755532.92 5135761.39 181.41
-9755543.79 5135756.72 181.46
-9755538.46 5135763.52 181.43
-9755539.33 5135761.15 181.43
-9755532.37 5135760.83 181.41
-9755543.78 5135762.61 181.50
-9755535.25 5135761.17 181.40
-9755534.69 5135756.14 181.37
-9755542.09 5135762.06 181.49
-9755543.76 5135760.34 181.47
-9755544.05 5135757.69 181.48
-9755542.01 5135758.20 181.46
-9755532.28 5135762.24 181.40
-9755532.84 5135762.57 181.40
-9755532.28 5135765.81 181.37
-9755537.01 5135765.91 181.44
-9755537.00 5135765.00 181.42
-9755532.35 5135757.26 181.39
-9755541.68 5135759.15 181.45
-9755542.67 5135758.50 181.47
-9755542.27 5135765.89 181.50
-9755543.26 5135758.20 181.46
-9755539.35 5135762.38 181.44
-9755540.89 5135757.63 181.43
-9755541.68 5135763.53 181.47
-9755533.48 5135759.31 181.42
-9755541.10 5135763.86 181.48
-9755535.53 5135757.25 181.37
-9755533.79 5135758.76 181.39
-9755536.14 5135756.71 181.38
-9755545.24 5135762.66 181.51
-9755537.33 5135759.93 181.42
-9755538.41 5135764.99 181.43
-9755543.47 5135765.60 181.51
-9755534.71 5135756.71 181.37
-9755542.62 5135760.59 181.47
-9755533.76 5135760.27 181.40
-9755532.55 5135765.87 181.37
-9755540.55 5135763.51 181.46
-9755539.64 5135765.86 181.45
-9755541.47 5135755.88 181.42
-9755537.85 5135765.85 181.42
-9755533.22 5135760.86 181.41
-9755539.05 5135764.10 181.44
-9755538.80 5135759.63 181.41
-9755540.54 5135758.14 181.41
-9755540.21 5135765.03 181.47
-9755541.68 5135765.84 181.49
-9755544.70 5135757.89 181.48
-9755539.02 5135760.82 181.43
-9755542.32 5135757.33 181.45
-9755536.09 5135765.94 181.43
-9755538.77 5135761.72 181.44
-9755541.74 5135761.43 181.48
-9755543.77 5135764.63 181.52
-9755537.61 5135761.69 181.44
-9755540.28 5135762.92 181.45
-9755536.99 5135763.45 181.41
-9755534.11 5135759.93 181.41
-9755540.88 5135758.45 181.43
-9755537.90 5135764.44 181.43
-9755532.87 5135758.80 181.39
-9755532.31 5135758.44 181.40
-9755540.23 5135765.91 181.47
-9755542.61 5135766.18 181.51
-9755538.74 5135764.70 181.44
-9755542.64 5135757.04 181.46
-9755544.41 5135762.66 181.49
-9755543.48 5135755.28 181.45
-9755531.98 5135758.74 181.40
-9755531.97 5135759.94 181.41
-9755532.01 5135763.44 181.39
-9755531.46 5135762.65 181.39
-9755530.53 5135755.13 181.37
-9755532.01 5135761.43 181.41
-9755530.52 5135765.58 181.37
-9755530.50 5135764.91 181.39
-9755531.40 5135758.48 181.40
-9755531.42 5135760.19 181.41
-9755531.15 5135765.24 181.37
-9755530.52 5135756.69 181.39
-9755531.13 5135755.52 181.37
-9755530.74 5135764.07 181.38
-9755531.04 5135765.77 181.36
-9755532.04 5135755.48 181.35
-9755530.53 5135758.73 181.40
-9755546.09 5135766.86 181.55
-9755554.36 5135766.84 181.60
-9755551.12 5135766.85 181.56
-9755551.16 5135776.86 181.64
-9755548.18 5135770.71 181.58
-9755552.83 5135775.68 181.66
-9755550.24 5135766.84 181.57
-9755554.34 5135769.53 181.62
-9755552.57 5135772.52 181.60
-9755549.57 5135778.65 181.66
-9755550.18 5135776.30 181.61
-9755547.82 5135772.11 181.56
-9755546.08 5135775.36 181.57
-9755551.10 5135777.17 181.65
-9755549.60 5135778.32 181.62
-9755546.08 5135771.52 181.56
-9755553.39 5135776.09 181.66
-9755554.33 5135773.08 181.64
-9755549.56 5135777.19 181.63
-9755548.96 5135774.83 181.60
-9755548.45 5135769.56 181.58
-9755555.49 5135779.63 181.71
-9755545.78 5135772.13 181.55
-9755551.94 5135769.86 181.59
-9755552.31 5135773.97 181.63
-9755551.68 5135776.63 181.64
-9755555.18 5135776.35 181.68
-9755553.22 5135771.53 181.62
-9755551.08 5135775.95 181.62
-9755549.62 5135767.43 181.57
-9755550.27 5135767.74 181.57
-9755551.98 5135768.36 181.60
-9755546.33 5135776.84 181.59
-9755552.62 5135768.28 181.58
-9755547.26 5135771.62 181.57
-9755552.06 5135768.00 181.58
-9755552.51 5135776.32 181.66
-9755545.18 5135776.26 181.57
-9755546.11 5135767.12 181.55
-9755555.52 5135767.50 181.62
-9755548.74 5135773.27 181.58
-9755547.56 5135773.01 181.57
-9755548.71 5135777.79 181.63
-9755549.61 5135774.84 181.59
-9755546.05 5135778.03 181.59
-9755549.90 5135770.38 181.58
-9755555.84 5135768.92 181.63
-9755550.80 5135775.42 181.61
-9755554.08 5135767.39 181.60
-9755554.60 5135771.59 181.63
-9755553.38 5135777.81 181.68
-9755546.69 5135770.08 181.56
-9755547.30 5135767.33 181.57
-9755553.43 5135769.54 181.60
-9755554.34 5135767.45 181.58
-9755547.29 5135772.45 181.59
-9755545.46 5135778.67 181.59
-9755554.41 5135776.93 181.69
-9755549.28 5135777.14 181.63
-9755551.97 5135774.55 181.63
-9755552.86 5135773.04 181.62
-9755547.56 5135769.18 181.58
-9755551.72 5135773.65 181.62
-9755545.18 5135769.77 181.54
-9755552.82 5135774.50 181.63
-9755554.91 5135768.38 181.62
-9755554.61 5135779.59 181.69
-9755551.05 5135779.29 181.67
-9755555.84 5135769.24 181.63
-9755547.00 5135769.50 181.57
-9755546.32 5135772.47 181.56
-9755551.96 5135776.33 181.65
-9755551.72 5135769.82 181.59
-9755551.92 5135770.38 181.60
-9755550.56 5135768.29 181.57
-9755548.46 5135779.54 181.64
-9755550.22 5135769.79 181.58
-9755551.32 5135778.68 181.66
-9755547.58 5135775.93 181.60
-9755548.11 5135775.43 181.60
-9755553.21 5135767.69 181.59
-9755555.86 5135767.14 181.62
-9755547.19 5135777.16 181.60
-9755546.35 5135775.72 181.60
-9755553.44 5135772.19 181.62
-9755545.76 5135770.65 181.56
-9755554.31 5135773.93 181.65
-9755555.27 5135773.68 181.66
-9755547.79 5135773.30 181.58
-9755552.83 5135767.38 181.59
-9755553.77 5135769.85 181.61
-9755553.69 5135779.61 181.70
-9755547.30 5135770.66 181.57
-9755548.79 5135768.28 181.57
-9755554.59 5135778.69 181.69
-9755551.14 5135769.23 181.57
-9755553.67 5135775.43 181.65
-9755551.13 5135767.45 181.59
-9755551.41 5135773.98 181.62
-9755547.25 5135778.05 181.62
-9755551.70 5135772.99 181.60
-9755547.26 5135769.76 181.58
-9755548.09 5135777.22 181.61
-9755545.76 5135772.43 181.56
-9755540.77 5135773.90 181.52
-9755542.01 5135769.78 181.51
-9755543.63 5135776.28 181.53
-9755538.76 5135768.51 181.45
-9755542.83 5135775.65 181.53
-9755537.86 5135775.28 181.48
-9755532.76 5135777.96 181.50
-9755544.86 5135779.57 181.59
-9755537.78 5135772.94 181.45
-9755539.34 5135773.04 181.48
-9755540.16 5135774.82 181.48
-9755534.53 5135778.55 181.49
-9755541.71 5135767.12 181.51
-9755534.58 5135775.90 181.45
-9755545.15 5135777.72 181.57
-9755542.57 5135772.14 181.53
-9755534.60 5135770.34 181.40
-9755542.24 5135773.28 181.53
-9755541.09 5135767.12 181.48
-9755542.88 5135770.95 181.52
-9755544.28 5135775.95 181.55
-9755540.87 5135768.27 181.49
-9755545.18 5135771.57 181.55
-9755535.43 5135776.26 181.46
-9755539.84 5135775.65 181.49
-9755540.14 5135776.55 181.49
-9755544.07 5135770.68 181.54
-9755544.54 5135777.71 181.55
-9755541.63 5135778.89 181.53
-9755532.22 5135769.39 181.35
-9755532.53 5135771.47 181.39
-9755537.76 5135778.56 181.52
-9755545.21 5135769.42 181.55
-9755536.73 5135770.91 181.42
-9755541.62 5135777.99 181.54
-9755544.62 5135773.02 181.54
-9755540.22 5135771.48 181.50
-9755532.81 5135770.53 181.38
-9755532.27 5135770.88 181.38
-9755539.58 5135775.33 181.49
-9755541.96 5135778.33 181.53
-9755533.10 5135778.90 181.51
-9755541.12 5135769.69 181.51
-9755535.11 5135777.40 181.47
-9755542.85 5135779.24 181.54
-9755535.72 5135775.06 181.44
-9755540.16 5135772.99 181.50
-9755535.77 5135775.70 181.46
-9755539.58 5135771.51 181.48
-9755539.29 5135776.26 181.49
-9755543.46 5135768.59 181.52
-9755544.62 5135769.21 181.55
-9755544.00 5135768.28 181.54
-9755536.95 5135772.99 181.45
-9755541.06 5135772.71 181.51
-9755537.82 5135773.83 181.46
-9755536.92 5135771.85 181.44
-9755534.57 5135777.66 181.48
-9755540.20 5135767.04 181.46
-9755544.54 5135775.11 181.57
-9755540.21 5135776.22 181.49
-9755532.25 5135777.03 181.46
-9755533.71 5135769.39 181.37
-9755544.06 5135771.55 181.54
-9755536.94 5135769.71 181.44
-9755532.25 5135772.67 181.41
-9755535.46 5135767.96 181.41
-9755540.75 5135778.31 181.51
-9755536.07 5135768.27 181.42
-9755533.37 5135769.08 181.34
-9755541.99 5135775.37 181.52
-9755533.41 5135776.28 181.48
-9755536.96 5135776.22 181.47
-9755536.03 5135778.27 181.51
-9755541.64 5135770.91 181.51
-9755535.47 5135771.55 181.41
-9755535.98 5135773.90 181.42
-9755534.83 5135778.26 181.49
-9755536.94 5135771.48 181.42
-9755532.82 5135774.13 181.44
-9755533.70 5135772.97 181.41
-9755541.65 5135772.39 181.52
-9755539.90 5135769.12 181.47
-9755542.21 5135778.92 181.54
-9755544.05 5135769.76 181.53
-9755542.77 5135776.27 181.52
-9755534.38 5135767.59 181.38
-9755536.70 5135767.32 181.42
-9755544.29 5135775.42 181.55
-9755532.18 5135771.41 181.38
-9755537.52 5135772.42 181.44
-9755544.30 5135769.45 181.54
-9755540.50 5135771.48 181.49
-9755532.82 5135773.24 181.42
-9755537.80 5135777.69 181.51
-9755541.98 5135772.98 181.52
-9755541.66 5135775.09 181.51
-9755539.30 5135777.10 181.49
-9755541.67 5135775.66 181.51
-9755538.41 5135776.53 181.48
-9755541.09 5135767.66 181.49
-9755535.43 5135778.61 181.51
-9755539.29 5135778.94 181.52
-9755541.93 5135776.58 181.52
-9755538.44 5135772.40 181.46
-9755537.84 5135769.68 181.45
-9755537.31 5135770.59 181.44
-9755532.24 5135774.68 181.46
-9755531.39 5135766.75 181.36
-9755534.30 5135769.14 181.38
-9755532.23 5135771.77 181.39
-9755536.94 5135775.32 181.47
-9755536.34 5135775.31 181.45
-9755533.43 5135775.38 181.47
-9755543.39 5135778.03 181.55
-9755536.02 5135769.75 181.41
-9755537.25 5135766.85 181.42
-9755539.28 5135775.35 181.49
-9755536.36 5135768.24 181.43
-9755544.31 5135773.62 181.54
-9755533.75 5135768.82 181.36
-9755532.19 5135778.50 181.49
-9755534.64 5135770.92 181.38
-9755543.48 5135768.29 181.52
-9755542.19 5135778.67 181.53
-9755536.03 5135778.97 181.52
-9755537.49 5135777.14 181.48
-9755536.92 5135774.76 181.46
-9755536.89 5135779.48 181.53
-9755531.39 5135768.76 181.34
-9755531.36 5135772.35 181.40
-9755531.38 5135767.95 181.35
-9755530.75 5135770.56 181.38
-9755530.42 5135768.20 181.37
-9755530.64 5135779.74 181.51
-9755531.27 5135769.99 181.34
-9755531.86 5135778.89 181.52
-9755530.49 5135772.95 181.41
-9755530.48 5135771.50 181.39
-9755531.32 5135778.57 181.50
-9755530.14 5135777.95 181.50
-9755530.77 5135771.46 181.40
-9755530.76 5135779.21 181.50
-9755531.62 5135777.94 181.50
-9755531.02 5135776.26 181.46
-9755530.50 5135774.43 181.44
-9755530.45 5135769.69 181.35
-9755530.29 5135760.18 181.41
-9755529.94 5135762.28 181.41
-9755528.16 5135763.18 181.42
-9755529.36 5135761.10 181.41
-9755529.40 5135758.46 181.40
-9755530.24 5135761.06 181.41
-9755529.12 5135757.50 181.40
-9755530.21 5135763.15 181.40
-9755529.03 5135764.33 181.40
-9755529.05 5135763.19 181.41
-9755529.36 5135757.30 181.40
-9755529.09 5135755.78 181.39
-9755529.62 5135757.89 181.41
-9755530.26 5135758.15 181.40
-9755528.68 5135765.20 181.38
-9755528.20 5135760.19 181.42
-9755529.97 5135760.19 181.41
-9755529.96 5135761.44 181.41
-9755529.70 5135755.16 181.38
-9755529.68 5135758.70 181.41
-9755528.46 5135762.56 181.43
-9755528.47 5135758.99 181.41
-9755529.98 5135757.53 181.39
-9755529.60 5135761.41 181.41
-9755527.85 5135764.59 181.39
-9755528.23 5135756.03 181.40
-9755527.87 5135759.63 181.41
-9755528.17 5135766.43 181.39
-9755529.63 5135765.49 181.38
-9755529.05 5135760.22 181.43
-9755528.68 5135764.62 181.40
-9755528.49 5135767.32 181.38
-9755527.81 5135769.96 181.40
-9755529.58 5135769.42 181.38
-9755529.01 5135772.67 181.42
-9755529.06 5135771.48 181.40
-9755529.52 5135775.25 181.44
-9755529.55 5135773.24 181.43
-9755528.66 5135778.24 181.49
-9755528.13 5135767.92 181.40
-9755529.88 5135770.83 181.39
-9755527.46 5135777.98 181.48
-9755529.29 5135769.07 181.38
-9755529.02 5135768.18 181.39
-9755528.75 5135768.51 181.37
-9755527.76 5135773.18 181.43
-9755528.09 5135769.05 181.39
-9755529.85 5135775.90 181.48
-9755529.58 5135777.97 181.49
-9755528.06 5135773.82 181.44
-9755529.27 5135770.86 181.40
-9755529.57 5135771.44 181.41
-9755527.87 5135769.66 181.39
-9755528.06 5135779.44 181.48
-9755528.93 5135779.42 181.50
-9755529.26 5135769.94 181.38
-9755529.59 5135771.13 181.39
-9755529.53 5135774.10 181.43
-9755515.68 5135779.74 185.47
-9755514.89 5135779.56 184.39
-9755516.68 5135779.74 185.63
-9755515.43 5135779.55 185.15
-9755514.21 5135779.76 184.82
-9755514.05 5135779.78 183.52
-9755514.74 5135780.05 184.44
-9755515.72 5135779.77 186.14
-9755514.77 5135779.54 183.94
-9755516.02 5135779.47 185.24
-9755514.17 5135779.77 183.55
-9755513.40 5135779.99 181.64
-9755515.76 5135780.03 186.31
-9755514.54 5135780.01 184.42
-9755516.53 5135779.78 186.33
-9755515.70 5135780.02 186.19
-9755516.91 5135779.79 185.57
-9755514.19 5135779.52 183.54
-9755527.45 5135783.02 181.52
-9755521.26 5135785.01 181.69
-9755525.96 5135780.00 181.50
-9755526.56 5135782.09 181.52
-9755520.37 5135783.50 181.69
-9755521.80 5135781.49 181.51
-9755522.74 5135781.50 181.49
-9755526.53 5135784.77 181.52
-9755525.68 5135783.20 181.52
-9755521.29 5135784.15 181.67
-9755523.88 5135784.43 181.52
-9755520.64 5135784.45 181.70
-9755523.91 5135783.32 181.51
-9755520.34 5135783.25 181.69
-9755520.41 5135781.49 181.69
-9755522.75 5135784.41 181.51
-9755525.10 5135783.32 181.53
-9755526.83 5135784.11 181.54
-9755524.51 5135784.13 181.52
-9755525.13 5135784.69 181.53
-9755518.62 5135782.28 183.50
-9755523.90 5135781.25 181.50
-9755522.72 5135783.25 181.52
-9755523.28 5135784.41 181.52
-9755519.76 5135780.88 181.65
-9755521.83 5135780.60 181.49
-9755519.46 5135784.71 181.62
-9755525.97 5135781.48 181.51
-9755518.63 5135782.57 182.58
-9755524.18 5135779.97 181.50
-9755505.60 5135784.66 180.77
-9755518.04 5135780.37 185.41
-9755513.81 5135779.80 184.45
-9755514.45 5135780.37 184.38
-9755512.41 5135779.99 180.97
-9755515.15 5135779.83 185.48
-9755512.37 5135781.47 180.95
-9755506.51 5135780.50 180.76
-9755515.38 5135780.05 185.52
-9755505.96 5135779.94 180.78
-9755511.49 5135782.66 180.94
-9755517.14 5135783.00 186.31
-9755510.10 5135780.54 180.92
-9755516.27 5135783.13 184.89
-9755517.68 5135780.05 185.28
-9755515.69 5135781.38 188.03
-9755514.86 5135783.80 185.19
-9755513.93 5135779.98 182.33
-9755516.59 5135783.89 184.95
-9755513.64 5135781.40 182.98
-9755515.42 5135781.10 187.52
-9755511.56 5135782.29 180.95
-9755515.32 5135783.04 185.93
-9755515.11 5135781.32 186.93
-9755515.62 5135782.61 186.96
-9755514.82 5135781.43 187.32
-9755513.65 5135779.86 182.88
-9755513.61 5135780.67 184.56
-9755515.70 5135783.68 184.83
-9755515.45 5135783.68 185.16
-9755514.77 5135782.21 185.37
-9755514.47 5135783.61 182.77
-9755517.17 5135782.05 186.87
-9755518.07 5135781.86 184.87
-9755514.13 5135782.25 185.36
-9755516.54 5135784.25 184.04
-9755514.80 5135783.08 185.53
-9755514.72 5135780.88 185.55
-9755516.01 5135779.82 185.56
-9755515.10 5135784.01 184.49
-9755508.85 5135784.39 180.87
-9755515.73 5135782.93 187.32
-9755513.29 5135781.11 181.73
-9755515.41 5135783.83 185.15
-9755513.62 5135783.10 183.62
-9755516.58 5135780.81 187.32
-9755517.94 5135783.81 183.82
-9755517.20 5135781.41 186.95
-9755518.05 5135784.14 181.53
-9755515.68 5135784.55 183.61
-9755513.68 5135780.54 183.06
-9755518.08 5135779.83 184.56
-9755515.12 5135780.57 186.23
-9755514.56 5135781.45 186.96
-9755513.37 5135781.97 182.62
-9755516.30 5135783.86 185.43
-9755516.58 5135781.70 188.18
-9755513.71 5135782.16 185.45
-9755514.27 5135782.10 185.54
-9755516.53 5135783.66 185.53
-9755517.53 5135781.56 186.04
-9755517.67 5135781.27 186.03
-9755516.52 5135784.38 182.39
-9755509.73 5135782.35 180.91
-9755513.49 5135783.27 183.55
-9755513.94 5135780.39 183.00
-9755511.83 5135782.96 180.95
-9755513.92 5135780.96 184.44
-9755515.01 5135781.51 186.78
-9755512.11 5135781.42 180.94
-9755515.72 5135782.30 188.17
-9755517.23 5135780.88 186.81
-9755513.02 5135780.28 181.00
-9755514.90 5135781.23 186.23
-9755517.49 5135782.75 185.27
-9755515.05 5135784.12 182.59
-9755514.02 5135782.70 185.20
-9755513.05 5135781.35 181.70
-9755517.50 5135782.68 186.52
-9755517.47 5135783.97 184.12
-9755509.60 5135781.28 190.04
-9755516.55 5135782.89 187.28
-9755515.06 5135780.94 185.86
-9755510.66 5135781.15 180.92
-9755514.26 5135782.80 184.36
-9755514.19 5135780.40 184.70
-9755517.42 5135784.44 181.46
-9755513.99 5135781.76 185.13
-9755512.42 5135783.53 180.95
-9755514.87 5135780.59 186.91
-9755510.05 5135779.96 180.92
-9755517.16 5135782.40 186.73
-9755515.50 5135781.49 188.82
-9755516.65 5135783.78 185.66
-9755516.59 5135782.97 186.21
-9755516.36 5135781.39 188.52
-9755513.93 5135781.80 185.60
-9755515.06 5135782.41 186.61
-9755516.40 5135782.60 187.73
-9755514.23 5135780.29 185.51
-9755515.38 5135783.26 185.60
-9755515.79 5135781.94 188.53
-9755515.13 5135782.66 186.76
-9755514.20 5135780.16 184.50
-9755515.68 5135783.98 183.66
-9755514.84 5135782.00 187.28
-9755513.81 5135783.35 183.54
-9755515.51 5135782.03 188.12
-9755515.35 5135782.32 186.74
-9755513.32 5135781.85 183.24
-9755512.37 5135782.62 180.95
-9755516.25 5135782.30 188.42
-9755508.85 5135781.42 180.87
-9755515.11 5135783.00 185.92
-9755515.39 5135782.94 186.85
-9755517.11 5135782.87 186.45
-9755514.77 5135783.02 185.19
-9755513.50 5135780.80 181.77
-9755514.83 5135782.37 186.62
-9755513.17 5135781.80 183.00
-9755513.90 5135781.56 183.93
-9755514.71 5135780.64 185.57
-9755512.43 5135782.90 180.95
-9755513.43 5135780.79 183.84
-9755516.01 5135782.03 189.08
-9755509.76 5135781.18 180.91
-9755513.96 5135783.33 183.58
-9755516.20 5135784.31 182.60
-9755516.05 5135780.84 187.89
-9755515.51 5135780.26 186.18
-9755513.57 5135780.29 182.86
-9755514.78 5135780.66 185.63
-9755513.53 5135782.14 184.79
-9755516.23 5135780.24 185.64
-9755508.06 5135780.18 190.31
-9755516.73 5135784.45 183.99
-9755515.73 5135780.59 186.96
-9755517.46 5135780.87 185.99
-9755514.70 5135783.34 185.54
-9755516.57 5135784.13 181.99
-9755516.71 5135783.45 185.05
-9755513.95 5135782.46 183.84
-9755514.70 5135781.81 186.11
-9755517.19 5135784.34 182.85
-9755510.04 5135782.34 180.92
-9755515.39 5135781.39 187.85
-9755513.27 5135781.22 180.98
-9755516.04 5135780.56 187.88
-9755516.62 5135780.31 186.59
-9755513.79 5135780.81 182.15
-9755514.24 5135782.99 185.18
-9755513.42 5135781.65 183.09
-9755514.79 5135782.81 185.28
-9755516.26 5135783.98 184.47
-9755514.34 5135782.01 186.53
-9755510.07 5135781.44 180.91
-9755517.62 5135783.94 184.13
