-9755594.37 5135436.95 181.22
-9755597.46 5135440.88 181.07
-9755594.93 5135438.41 181.23
-9755595.20 5135443.43 181.27
-9755595.88 5135447.56 183.74
-9755596.61 5135446.72 181.20
-9755591.93 5135435.89 183.79
-9755590.96 5135435.65 183.94
-9755596.94 5135447.03 181.17
-9755594.42 5135435.89 184.82
-9755598.15 5135439.94 181.05
-9755596.67 5135437.30 181.04
-9755595.21 5135444.35 181.27
-9755594.16 5135447.40 184.15
-9755599.11 5135436.70 181.05
-9755590.00 5135436.61 186.75
-9755597.36 5135435.24 181.07
-9755596.16 5135448.21 184.64
-9755596.07 5135443.16 181.24
-9755595.30 5135447.36 185.56
-9755598.47 5135435.47 185.29
-9755599.46 5135436.08 181.06
-9755598.57 5135436.94 181.07
-9755589.40 5135437.61 186.07
-9755589.83 5135444.87 181.06
-9755590.30 5135435.79 186.31
-9755590.84 5135445.86 181.08
-9755593.48 5135435.44 185.80
-9755598.39 5135446.48 180.95
-9755593.27 5135435.14 181.24
-9755593.77 5135439.90 181.27
-9755596.97 5135445.85 181.12
-9755592.37 5135435.94 184.31
-9755591.73 5135444.33 181.07
-9755592.03 5135447.35 185.90
-9755599.00 5135440.80 181.04
-9755594.33 5135440.47 181.29
-9755598.49 5135434.78 183.53
-9755599.37 5135443.21 181.04
-9755589.56 5135445.81 181.05
-9755595.80 5135444.36 181.25
-9755589.30 5135438.10 181.05
-9755593.24 5135447.41 185.27
-9755592.59 5135438.43 181.26
-9755594.99 5135436.96 181.20
-9755596.04 5135447.59 181.24
-9755589.36 5135442.19 181.06
-9755597.57 5135439.42 181.04
-9755590.76 5135434.80 181.24
-9755590.45 5135446.75 181.06
-9755589.24 5135435.52 186.70
-9755595.62 5135446.95 184.02
-9755599.32 5135444.40 181.07
-9755591.64 5135445.23 181.08
-9755595.81 5135448.32 183.72
-9755597.26 5135448.27 186.17
-9755590.07 5135435.79 185.09
-9755594.57 5135446.97 184.24
-9755590.07 5135447.52 181.06
-9755594.45 5135436.56 185.52
-9755591.70 5135443.44 181.09
-9755595.31 5135437.34 185.65
-9755592.53 5135443.73 181.26
-9755589.03 5135447.61 181.04
-9755595.83 5135435.11 181.09
-9755595.24 5135438.99 181.22
-9755599.04 5135442.55 181.06
-9755597.10 5135434.84 184.88
-9755596.69 5135446.83 185.16
-9755607.50 5135458.07 181.01
-9755604.26 5135457.96 181.00
-9755605.77 5135453.02 180.97
-9755605.20 5135449.67 180.95
-9755607.84 5135448.24 180.99
-9755607.54 5135452.97 181.00
-9755606.73 5135454.21 180.96
-9755608.17 5135454.87 181.02
-9755601.65 5135448.00 181.03
-9755608.20 5135455.45 181.01
-9755607.52 5135456.32 181.01
-9755602.53 5135447.94 181.02
-9755606.64 5135450.61 180.96
-9755606.47 5135452.17 181.00
-9755600.99 5135451.51 181.03
-9755608.12 5135451.53 181.00
-9755603.41 5135456.55 181.03
-9755604.06 5135449.47 180.98
-9755605.19 5135450.68 180.95
-9755601.60 5135458.11 181.05
-9755601.09 5135452.33 181.05
-9755606.68 5135449.71 180.95
-9755606.65 5135448.83 181.00
-9755604.83 5135457.20 181.01
-9755604.28 5135453.23 181.01
-9755603.34 5135454.74 181.03
-9755601.42 5135450.67 181.03
-9755607.55 5135457.21 180.99
-9755601.62 5135449.22 181.02
-9755605.73 5135448.90 180.93
-9755602.54 5135449.82 181.03
-9755602.89 5135451.48 181.03
-9755600.88 5135450.35 181.03
-9755604.06 5135448.92 180.97
-9755606.69 5135454.57 180.98
-9755600.71 5135455.60 181.02
-9755602.26 5135449.16 181.03
-9755604.33 5135451.54 181.01
-9755605.13 5135454.23 181.01
-9755608.12 5135456.49 181.01
-9755602.22 5135450.56 181.01
-9755608.47 5135449.74 181.02
-9755603.35 5135452.40 181.01
-9755601.57 5135458.03 184.29
-9755608.21 5135453.83 180.97
-9755602.47 5135454.83 181.04
-9755605.77 5135453.62 180.97
-9755605.80 5135450.95 180.95
-9755607.28 5135455.67 181.01
-9755607.57 5135454.89 181.00
-9755608.41 5135452.47 181.01
-9755603.41 5135450.33 181.01
-9755595.26 5135446.77 186.67
-9755595.18 5135448.09 185.43
-9755598.32 5135449.92 184.53
-9755589.27 5135448.18 181.03
-9755598.42 5135456.57 185.64
-9755597.85 5135449.17 183.93
-9755596.85 5135450.66 186.50
-9755590.99 5135457.99 181.04
-9755597.36 5135450.88 187.89
-9755597.42 5135450.75 187.25
-9755590.13 5135448.90 185.30
-9755593.34 5135448.00 185.43
-9755591.62 5135448.87 185.38
-9755594.84 5135451.29 186.16
-9755595.20 5135452.98 186.11
-9755593.46 5135449.70 187.36
-9755597.58 5135457.16 184.54
-9755595.88 5135449.88 187.06
-9755596.71 5135451.36 187.86
-9755594.39 5135451.65 186.22
-9755594.10 5135450.58 186.78
-9755591.71 5135452.42 185.31
-9755596.63 5135453.94 185.49
-9755592.90 5135451.57 181.10
-9755596.88 5135449.08 187.16
-9755591.09 5135448.93 185.14
-9755599.04 5135449.95 181.04
-9755592.51 5135449.15 185.56
-9755591.72 5135451.51 185.14
-9755594.04 5135449.15 186.26
-9755592.42 5135452.39 181.06
-9755597.79 5135449.82 184.61
-9755592.56 5135452.45 185.26
-9755591.61 5135448.18 181.06
-9755595.81 5135448.28 186.17
-9755595.11 5135448.83 185.36
-9755597.81 5135457.30 184.05
-9755597.46 5135456.49 181.23
-9755598.39 5135452.17 184.89
-9755596.02 5135457.19 184.58
-9755595.70 5135457.03 181.25
-9755595.24 5135452.30 188.08
-9755597.62 5135451.57 186.20
-9755594.94 5135448.29 186.19
-9755597.30 5135453.27 184.29
-9755599.96 5135453.02 181.05
-9755592.57 5135452.36 186.78
-9755593.41 5135451.46 186.44
-9755596.64 5135448.25 185.58
-9755592.50 5135449.11 186.15
-9755595.04 5135451.49 187.03
-9755591.04 5135451.54 185.04
-9755595.57 5135452.26 185.42
-9755591.81 5135451.52 184.64
-9755592.51 5135448.24 185.44
-9755598.51 5135449.08 183.88
-9755590.85 5135448.16 181.07
-9755591.94 5135450.37 185.28
-9755595.16 5135455.60 181.24
-9755597.74 5135452.12 184.04
-9755597.37 5135450.65 183.77
-9755592.81 5135453.28 186.87
-9755597.80 5135453.01 183.99
-9755591.95 5135457.16 181.05
-9755592.61 5135449.08 187.02
-9755596.37 5135451.53 181.30
-9755592.56 5135449.98 186.25
-9755594.06 5135451.48 186.98
-9755595.23 5135457.48 185.73
-9755593.35 5135448.90 185.35
-9755596.67 5135456.61 183.55
-9755591.65 5135455.58 181.05
-9755594.43 5135450.63 181.26
-9755591.01 5135453.22 181.06
-9755591.07 5135454.14 181.05
-9755599.22 5135451.55 180.99
-9755590.78 5135456.49 181.04
-9755592.58 5135449.97 187.10
-9755596.09 5135452.27 187.97
-9755594.37 5135448.20 186.77
-9755590.11 5135455.52 181.04
-9755598.11 5135452.14 181.08
-9755591.83 5135452.97 181.10
-9755598.15 5135449.05 186.91
-9755597.46 5135453.88 181.23
-9755596.37 5135448.92 184.04
-9755595.70 5135456.77 181.26
-9755595.83 5135451.62 185.07
-9755595.20 5135453.86 186.22
-9755593.89 5135448.99 184.45
-9755592.60 5135449.86 185.61
-9755589.29 5135454.97 181.02
-9755596.90 5135448.94 185.36
-9755595.18 5135450.81 181.28
-9755595.09 5135453.28 185.66
-9755594.39 5135448.00 185.29
-9755594.18 5135457.42 184.62
-9755596.68 5135449.99 181.27
-9755592.42 5135457.37 181.05
-9755593.42 5135453.11 185.71
-9755590.15 5135454.61 181.06
-9755590.11 5135448.42 181.06
-9755597.60 5135453.84 184.50
-9755590.37 5135449.96 181.07
-9755597.25 5135452.01 187.34
-9755598.36 5135451.80 181.04
-9755593.49 5135452.17 185.58
-9755600.05 5135449.86 181.05
-9755598.39 5135452.20 184.11
-9755593.81 5135449.85 184.43
-9755593.98 5135449.04 187.23
-9755595.16 5135453.94 185.53
-9755593.43 5135449.74 181.23
-9755596.39 5135452.42 185.06
-9755595.84 5135449.18 185.47
-9755591.16 5135452.42 185.39
-9755595.15 5135449.75 186.46
-9755594.28 5135449.79 186.41
-9755595.13 5135447.87 181.24
-9755595.09 5135452.41 181.27
-9755598.11 5135450.77 183.94
-9755597.51 5135448.33 184.66
-9755593.47 5135456.54 181.07
-9755598.14 5135451.43 186.09
-9755595.73 5135454.04 184.86
-9755594.39 5135448.83 183.72
-9755599.41 5135450.57 181.03
-9755594.95 5135449.69 181.26
-9755600.17 5135452.37 181.03
-9755598.23 5135450.70 184.50
-9755598.17 5135453.08 185.18
-9755600.21 5135450.84 181.03
-9755593.51 5135452.29 181.21
-9755591.88 5135454.74 181.06
-9755592.62 5135449.66 185.01
-9755594.45 5135451.74 185.70
-9755597.49 5135455.61 181.22
-9755595.31 5135452.33 186.36
-9755596.65 5135452.24 186.38
-9755600.14 5135451.48 181.03
-9755597.97 5135448.55 186.62
-9755596.69 5135453.19 181.26
-9755595.82 5135453.27 186.28
-9755593.65 5135452.55 184.99
-9755592.80 5135455.58 181.06
-9755598.47 5135449.17 186.60
-9755596.00 5135451.16 186.95
-9755589.33 5135448.79 181.04
-9755592.04 5135453.36 184.72
-9755599.29 5135456.50 183.60
-9755593.40 5135453.06 184.86
-9755598.90 5135457.09 183.29
-9755594.02 5135448.19 181.28
-9755594.30 5135455.57 181.22
-9755592.57 5135450.87 186.17
-9755598.41 5135454.11 181.09
-9755596.66 5135453.40 185.70
-9755591.11 5135448.04 185.22
-9755594.10 5135449.57 184.75
-9755599.03 5135447.95 181.03
-9755596.11 5135447.89 181.24
-9755594.28 5135451.44 181.26
-9755591.94 5135449.84 181.08
-9755594.22 5135452.97 185.58
-9755589.32 5135451.78 181.03
-9755597.76 5135450.88 181.12
-9755596.07 5135449.06 181.28
-9755599.05 5135452.42 181.03
-9755594.50 5135450.74 183.82
-9755598.40 5135449.67 181.04
-9755591.15 5135450.99 184.51
-9755597.78 5135447.96 181.03
-9755591.91 5135451.37 186.16
-9755596.04 5135457.96 181.22
-9755595.20 5135453.61 186.91
-9755595.83 5135449.98 187.89
-9755596.76 5135451.19 184.74
-9755598.13 5135448.83 181.03
-9755599.28 5135456.22 181.02
-9755597.47 5135455.98 184.41
-9755595.29 5135456.79 183.95
-9755594.82 5135449.05 181.26
-9755598.45 5135449.78 186.65
-9755589.29 5135454.13 181.05
-9755592.70 5135449.84 181.13
-9755593.56 5135457.94 181.08
-9755599.85 5135456.77 181.03
-9755596.08 5135448.53 186.73
-9755596.58 5135456.50 181.26
-9755589.54 5135456.53 181.02
-9755599.33 5135454.79 181.03
-9755597.80 5135453.25 181.22
-9755591.47 5135456.69 181.08
-9755598.43 5135450.56 181.01
-9755597.53 5135451.38 184.18
-9755596.10 5135452.49 184.85
-9755593.38 5135449.00 181.23
-9755593.09 5135448.57 187.16
-9755597.50 5135457.10 181.25
-9755599.03 5135448.38 184.73
-9755592.73 5135456.74 181.07
-9755593.35 5135450.63 181.22
-9755597.48 5135450.12 184.15
-9755596.97 5135453.61 184.30
-9755596.67 5135453.45 184.19
-9755596.08 5135449.77 181.30
-9755596.59 5135458.00 181.23
-9755596.98 5135452.33 181.25
-9755597.63 5135449.80 186.49
-9755589.28 5135453.26 181.05
-9755597.05 5135450.63 188.37
-9755593.80 5135447.34 183.98
-9755599.86 5135454.84 181.02
-9755594.90 5135449.26 183.58
-9755600.13 5135457.20 181.05
-9755593.79 5135449.19 184.45
-9755596.32 5135451.62 184.24
-9755599.08 5135453.32 181.05
-9755597.85 5135452.29 181.16
-9755592.78 5135452.23 184.90
-9755598.94 5135450.53 183.88
-9755603.22 5135433.45 181.06
-9755605.03 5135432.62 181.08
-9755605.91 5135431.66 181.12
-9755605.83 5135432.65 181.10
-9755607.67 5135432.51 181.09
-9755606.80 5135429.31 181.15
-9755606.50 5135428.49 181.12
-9755604.38 5135429.33 181.09
-9755603.51 5135431.74 181.11
-9755607.37 5135431.13 181.12
-9755602.66 5135431.69 181.07
-9755606.76 5135432.55 181.11
-9755600.62 5135429.89 181.08
-9755607.42 5135431.63 181.11
-9755604.77 5135429.93 181.09
-9755608.29 5135431.71 181.12
-9755606.93 5135431.48 181.10
-9755605.10 5135430.88 181.09
-9755600.93 5135429.28 181.06
-9755607.98 5135430.08 181.13
-9755600.85 5135431.41 181.08
-9755595.27 5135432.47 181.04
-9755590.91 5135431.09 185.23
-9755591.91 5135432.63 186.12
-9755595.29 5135430.22 185.49
-9755594.09 5135430.01 184.41
-9755595.02 5135430.82 186.32
-9755599.06 5135432.61 181.06
-9755595.94 5135432.34 184.33
-9755592.54 5135429.37 184.82
-9755592.71 5135431.84 186.88
-9755594.37 5135430.73 185.37
-9755594.13 5135430.18 186.16
-9755595.21 5135429.27 184.53
-9755595.93 5135431.01 186.30
-9755590.88 5135429.32 185.64
-9755595.32 5135429.30 185.97
-9755592.74 5135429.90 185.27
-9755591.71 5135430.88 185.16
-9755594.25 5135432.80 186.31
-9755593.49 5135431.10 186.21
-9755597.34 5135430.12 181.09
-9755592.08 5135430.12 186.30
-9755590.26 5135432.49 187.09
-9755592.73 5135428.42 185.62
-9755596.81 5135432.69 184.32
-9755595.82 5135429.29 184.39
-9755591.93 5135432.43 184.84
-9755590.31 5135429.27 185.63
-9755590.04 5135432.58 186.11
-9755590.12 5135430.87 183.83
-9755594.41 5135428.37 185.22
-9755590.93 5135432.70 186.54
-9755594.27 5135430.21 185.46
-9755591.80 5135428.63 185.29
-9755595.29 5135430.81 185.50
-9755599.94 5135432.57 181.05
-9755592.67 5135431.74 185.82
-9755593.31 5135429.15 181.26
-9755592.66 5135428.64 184.71
-9755591.20 5135428.95 183.60
-9755595.85 5135431.64 181.06
-9755591.97 5135429.24 181.26
-9755592.36 5135430.16 181.29
-9755595.77 5135430.05 184.71
-9755594.18 5135431.05 186.18
-9755596.71 5135429.27 181.08
-9755593.55 5135430.16 186.25
-9755591.60 5135431.68 185.12
-9755594.44 5135428.43 183.89
-9755591.78 5135431.61 186.35
-9755597.39 5135429.22 181.08
-9755595.05 5135428.43 185.62
-9755591.82 5135428.49 186.22
-9755590.87 5135428.40 185.60
-9755590.34 5135430.43 186.32
-9755592.62 5135428.98 184.15
-9755596.43 5135429.14 185.82
-9755590.98 5135430.19 181.27
-9755590.87 5135430.85 183.83
-9755595.29 5135428.48 186.07
-9755596.99 5135430.97 181.08
-9755593.21 5135430.12 181.26
-9755595.37 5135428.47 184.83
-9755595.66 5135429.11 185.37
-9755590.09 5135428.17 184.39
-9755594.41 5135432.49 181.20
-9755589.44 5135428.60 183.68
-9755589.39 5135431.38 185.45
-9755599.40 5135430.75 181.07
-9755593.19 5135432.47 181.26
-9755599.21 5135431.65 181.07
-9755593.83 5135429.33 185.92
-9755591.15 5135428.21 184.79
-9755591.84 5135430.64 181.29
-9755596.79 5135428.31 181.04
-9755596.24 5135431.80 184.30
-9755596.69 5135432.52 180.97
-9755593.79 5135432.27 183.26
-9755590.92 5135429.93 185.57
-9755594.82 5135429.18 184.18
-9755595.74 5135428.66 184.15
-9755592.73 5135432.84 184.20
-9755593.54 5135431.84 184.82
-9755590.00 5135429.61 183.81
-9755590.67 5135431.33 184.05
-9755589.43 5135428.43 185.90
-9755596.73 5135431.71 181.08
-9755600.92 5135428.13 181.08
-9755594.13 5135431.92 181.23
-9755598.19 5135432.75 181.08
-9755592.06 5135431.42 184.04
-9755595.06 5135429.94 181.07
-9755594.16 5135429.34 185.89
-9755592.88 5135432.89 183.95
-9755597.62 5135432.46 181.05
-9755589.19 5135430.01 183.81
-9755589.15 5135428.41 185.57
-9755593.48 5135431.26 183.37
-9755589.72 5135432.58 186.82
-9755592.01 5135431.93 181.27
-9755594.76 5135428.76 183.99
-9755591.81 5135429.37 184.92
-9755594.12 5135431.73 183.78
-9755596.14 5135432.94 185.24
-9755588.51 5135434.33 181.05
-9755587.61 5135433.97 185.84
-9755588.54 5135433.42 185.45
-9755586.70 5135433.35 181.06
-9755588.46 5135440.54 181.06
-9755588.54 5135438.23 185.32
-9755588.73 5135441.63 181.05
-9755588.44 5135436.46 184.84
-9755587.73 5135437.31 185.38
-9755588.49 5135439.79 181.06
-9755588.56 5135436.61 185.33
-9755587.86 5135440.71 181.05
-9755587.66 5135434.90 186.10
-9755588.41 5135446.44 181.01
-9755587.66 5135438.05 181.05
-9755588.41 5135435.81 181.03
-9755587.68 5135438.13 184.81
-9755587.52 5135443.26 181.00
-9755588.40 5135442.31 181.06
-9755589.38 5135435.69 181.06
-9755587.59 5135444.96 181.00
-9755587.59 5135439.04 181.03
-9755587.54 5135447.32 181.01
-9755587.53 5135445.79 181.01
-9755585.81 5135441.69 181.01
-9755586.02 5135444.90 181.00
-9755586.88 5135436.60 181.02
-9755586.97 5135440.99 181.02
-9755587.85 5135442.22 181.05
-9755586.19 5135438.38 181.00
-9755586.95 5135443.21 181.00
-9755586.62 5135445.76 180.99
-9755586.96 5135442.27 181.01
-9755586.06 5135442.46 181.01
-9755586.94 5135444.25 181.02
-9755586.08 5135437.22 181.04
-9755586.04 5135445.50 181.00
-9755586.31 5135443.11 181.01
-9755586.33 5135447.34 181.00
-9755585.98 5135444.02 181.02
-9755587.55 5135457.03 181.05
-9755587.57 5135448.21 181.01
-9755588.63 5135458.02 181.01
-9755587.76 5135454.07 181.01
-9755587.76 5135456.41 180.99
-9755588.59 5135453.28 181.05
-9755588.73 5135454.67 181.03
-9755587.50 5135450.80 181.03
-9755587.83 5135452.36 181.02
-9755588.44 5135449.07 181.05
-9755587.86 5135453.25 181.01
-9755587.52 5135449.04 181.02
-9755586.01 5135447.92 181.00
-9755585.97 5135455.00 181.02
-9755586.85 5135455.57 181.00
-9755585.81 5135450.79 181.03
-9755586.04 5135449.91 181.01
-9755586.67 5135451.32 181.03
-9755586.98 5135452.29 181.01
-9755586.93 5135457.32 181.01
-9755586.89 5135450.82 181.02
-9755586.91 5135448.47 181.01
-9755586.03 5135451.37 181.04
-9755585.96 5135453.18 181.00
-9755587.19 5135449.05 180.99
-9755581.78 5135434.22 180.95
-9755582.94 5135433.31 180.99
-9755581.21 5135434.16 180.98
-9755580.55 5135433.24 181.00
-9755585.03 5135434.01 181.01
-9755583.43 5135433.35 181.01
-9755581.83 5135433.35 180.99
-9755585.29 5135433.63 181.03
-9755577.60 5135433.27 180.95
-9755584.30 5135433.41 181.01
-9755567.90 5135433.28 181.01
-9755573.68 5135433.90 180.97
-9755570.54 5135434.20 180.99
-9755569.61 5135433.24 181.01
-9755562.29 5135434.12 181.05
-9755562.26 5135433.23 181.06
-9755565.50 5135434.40 181.04
-9755566.43 5135433.61 181.03
-9755565.45 5135433.59 181.02
-9755563.71 5135434.41 181.02
-9755562.17 5135432.22 181.11
-9755561.14 5135434.14 181.08
-9755585.15 5135445.77 181.00
-9755578.47 5135435.64 180.94
-9755580.56 5135434.14 180.95
-9755584.52 5135443.09 181.01
-9755580.41 5135446.34 181.03
-9755584.34 5135440.74 181.01
-9755585.14 5135441.63 181.02
-9755580.39 5135443.92 181.00
-9755585.20 5135440.74 181.02
-9755577.96 5135437.59 180.94
-9755574.55 5135434.39 180.94
-9755582.00 5135440.68 181.00
-9755578.38 5135445.90 181.02
-9755581.97 5135436.56 180.96
-9755577.81 5135441.33 180.96
-9755577.70 5135445.72 181.02
-9755580.53 5135436.62 180.95
-9755577.82 5135436.00 180.96
-9755578.41 5135437.77 180.96
-9755581.15 5135436.86 180.98
-9755581.14 5135435.13 180.96
-9755576.73 5135434.77 180.91
-9755577.19 5135441.89 180.98
-9755584.02 5135441.34 181.02
-9755583.70 5135441.09 181.01
-9755581.07 5135439.25 181.00
-9755579.51 5135443.96 181.02
-9755585.00 5135436.01 181.03
-9755578.48 5135438.98 180.96
-9755575.20 5135439.22 180.94
-9755580.44 5135439.26 180.95
-9755575.24 5135440.09 180.96
-9755581.99 5135437.54 181.01
-9755580.49 5135443.38 181.01
-9755583.47 5135437.23 181.00
-9755577.81 5135442.50 180.96
-9755583.80 5135445.18 181.01
-9755574.59 5135445.16 181.04
-9755577.80 5135435.14 180.94
-9755582.00 5135444.85 181.01
-9755580.22 5135444.82 181.01
-9755581.10 5135439.80 180.97
-9755575.06 5135443.30 181.01
-9755581.98 5135444.25 181.00
-9755581.91 5135441.55 180.98
-9755581.30 5135447.23 181.01
-9755582.86 5135440.74 181.00
-9755580.15 5135434.82 180.96
-9755580.79 5135444.87 181.01
-9755575.53 5135436.00 180.95
-9755577.53 5135436.53 180.97
-9755584.34 5135444.91 181.02
-9755576.08 5135442.19 180.96
-9755584.96 5135443.07 181.01
-9755574.33 5135443.32 180.97
-9755583.37 5135438.36 181.01
-9755581.93 5135438.41 180.97
-9755575.14 5135440.69 180.98
-9755574.29 5135437.45 180.94
-9755579.66 5135437.22 180.94
-9755574.24 5135440.74 180.97
-9755585.14 5135445.19 181.00
-9755574.60 5135435.73 180.95
-9755583.79 5135439.86 181.00
-9755582.00 5135435.92 180.98
-9755583.62 5135441.90 181.01
-9755584.58 5135447.31 181.02
-9755576.98 5135438.88 180.96
-9755580.89 5135441.68 180.96
-9755579.63 5135438.41 180.94
-9755575.28 5135444.88 181.02
-9755576.85 5135447.49 181.04
-9755583.46 5135436.55 181.02
-9755567.24 5135434.16 180.99
-9755569.62 5135444.83 181.02
-9755571.39 5135435.08 180.96
-9755568.75 5135435.59 181.00
-9755568.05 5135446.31 181.04
-9755564.00 5135443.94 181.05
-9755561.92 5135446.53 181.08
-9755569.02 5135439.18 180.99
-9755571.29 5135443.96 181.04
-9755566.10 5135436.50 181.01
-9755570.48 5135445.65 181.05
-9755569.60 5135445.99 181.06
-9755569.54 5135441.81 181.02
-9755568.73 5135442.40 181.01
-9755565.38 5135442.37 181.05
-9755563.75 5135439.11 181.06
-9755569.56 5135446.76 181.03
-9755563.10 5135442.41 181.06
-9755571.10 5135436.80 180.96
-9755571.09 5135440.05 180.99
-9755562.17 5135443.93 181.09
-9755568.65 5135446.38 181.04
-9755568.07 5135440.71 181.03
-9755567.83 5135438.54 181.02
-9755566.39 5135435.09 181.01
-9755567.78 5135442.41 181.03
-9755567.86 5135435.64 181.01
-9755566.34 5135446.80 181.05
-9755566.14 5135437.41 181.02
-9755570.22 5135435.69 180.99
-9755573.08 5135441.55 181.00
-9755568.70 5135438.05 181.01
-9755562.78 5135441.76 181.06
-9755567.78 5135439.18 181.01
-9755573.75 5135440.96 180.98
-9755563.91 5135447.49 181.06
-9755564.38 5135440.62 181.06
-9755573.09 5135444.24 180.98
-9755567.25 5135436.78 181.00
-9755570.10 5135445.10 181.04
-9755563.16 5135437.70 181.08
-9755566.96 5135442.72 181.05
-9755568.69 5135440.11 181.03
-9755561.95 5135438.55 181.07
-9755564.64 5135438.87 181.03
-9755563.09 5135443.33 181.06
-9755571.97 5135445.73 181.03
-9755564.55 5135446.78 181.06
-9755569.59 5135439.73 181.01
-9755569.58 5135436.14 180.99
-9755571.43 5135438.83 181.01
-9755568.69 5135437.51 181.01
-9755562.25 5135434.96 181.06
-9755572.54 5135439.16 180.96
-9755571.99 5135435.36 180.95
-9755565.26 5135435.93 181.03
-9755572.80 5135442.19 181.01
-9755571.31 5135440.93 181.01
-9755563.05 5135440.93 181.08
-9755572.19 5135441.61 181.01
-9755566.95 5135435.58 181.00
-9755564.46 5135441.80 181.04
-9755567.90 5135436.84 181.00
-9755562.00 5135447.36 181.07
-9755572.17 5135444.85 181.01
-9755569.58 5135442.69 181.02
-9755571.87 5135446.58 180.99
-9755565.35 5135447.16 181.07
-9755568.09 5135447.19 181.06
-9755564.56 5135445.94 181.05
-9755571.95 5135440.95 181.01
-9755571.32 5135445.78 181.05
-9755561.43 5135439.36 181.06
-9755561.09 5135440.66 181.08
-9755561.28 5135441.48 181.06
-9755567.25 5135439.06 181.03
-9755562.84 5135447.41 181.09
-9755570.12 5135442.19 181.03
-9755566.40 5135444.19 181.06
-9755565.50 5135440.94 181.04
-9755570.15 5135437.44 181.01
-9755560.53 5135435.95 181.08
-9755560.45 5135444.15 181.09
-9755560.74 5135443.01 181.09
-9755560.19 5135435.05 181.09
-9755560.42 5135439.11 181.08
-9755559.56 5135440.05 181.09
-9755560.67 5135447.44 181.11
-9755559.88 5135444.17 181.09
-9755560.79 5135445.01 181.07
-9755559.75 5135442.68 181.08
-9755559.55 5135435.62 181.08
-9755580.95 5135457.32 181.05
-9755583.67 5135449.91 181.03
-9755584.48 5135457.01 181.05
-9755574.49 5135457.31 181.04
-9755583.34 5135457.33 181.03
-9755585.09 5135452.35 181.00
-9755580.52 5135449.92 181.07
-9755578.30 5135453.06 181.05
-9755583.69 5135448.10 181.02
-9755578.86 5135449.89 181.06
-9755580.32 5135453.13 181.06
-9755576.93 5135452.27 181.06
-9755579.49 5135448.79 181.06
-9755576.96 5135449.67 181.06
-9755575.47 5135451.37 181.05
-9755584.45 5135451.70 181.04
-9755578.69 5135454.61 181.08
-9755582.74 5135452.32 181.03
-9755582.72 5135457.60 181.05
-9755574.30 5135450.74 181.05
-9755581.05 5135450.80 181.09
-9755581.30 5135456.35 181.03
-9755584.52 5135448.99 181.02
-9755576.01 5135448.96 181.06
-9755582.61 5135451.39 181.02
-9755579.47 5135454.06 181.07
-9755579.58 5135455.20 181.05
-9755575.38 5135449.79 181.06
-9755578.02 5135451.54 181.04
-9755577.55 5135448.11 181.04
-9755574.50 5135453.08 181.05
-9755581.93 5135450.93 181.04
-9755580.40 5135449.11 181.07
-9755579.27 5135448.06 181.06
-9755580.97 5135452.91 181.05
-9755574.47 5135456.42 181.06
-9755582.14 5135455.81 181.02
-9755578.56 5135457.47 181.07
-9755584.25 5135455.61 181.01
-9755576.31 5135453.14 181.05
-9755577.86 5135450.76 181.03
-9755576.93 5135454.60 181.05
-9755585.23 5135454.96 181.00
-9755579.24 5135457.31 181.05
-9755574.24 5135455.77 181.03
-9755581.29 5135452.06 181.07
-9755580.05 5135454.79 181.07
-9755581.79 5135453.20 181.06
-9755583.60 5135454.97 181.01
-9755575.05 5135456.33 181.06
-9755574.55 5135448.97 181.05
-9755576.93 5135452.90 181.06
-9755579.63 5135452.28 181.05
-9755580.33 5135457.37 181.04
-9755584.54 5135456.46 181.04
-9755566.19 5135458.14 181.06
-9755571.95 5135450.67 181.08
-9755568.65 5135453.08 181.06
-9755570.70 5135457.32 181.06
-9755568.02 5135449.84 181.05
-9755569.46 5135453.08 181.07
-9755565.41 5135448.31 181.06
-9755573.92 5135448.16 181.05
-9755572.80 5135448.97 181.05
-9755572.73 5135450.15 181.05
-9755563.99 5135449.82 181.08
-9755562.19 5135452.46 181.09
-9755561.27 5135453.32 181.10
-9755570.45 5135454.51 181.07
-9755568.60 5135457.18 181.05
-9755573.65 5135455.66 181.05
-9755562.02 5135454.01 181.09
-9755566.15 5135453.95 181.05
-9755565.41 5135457.25 181.10
-9755569.43 5135457.28 181.05
-9755569.51 5135452.15 181.06
-9755570.99 5135454.80 181.09
-9755568.62 5135449.82 181.05
-9755562.76 5135455.74 181.08
-9755567.14 5135453.94 181.05
-9755562.10 5135451.74 181.10
-9755561.27 5135455.67 181.08
-9755567.25 5135448.94 181.06
-9755572.81 5135448.60 181.05
-9755563.01 5135450.69 181.07
-9755573.72 5135449.58 181.05
-9755564.45 5135453.94 181.10
-9755571.86 5135456.42 181.08
-9755564.53 5135455.41 181.09
-9755567.73 5135454.81 181.05
-9755565.40 5135454.92 181.09
-9755568.65 5135456.33 181.06
-9755563.91 5135454.85 181.08
-9755571.27 5135453.11 181.04
-9755561.29 5135450.70 181.08
-9755572.74 5135452.48 181.04
-9755566.32 5135452.16 181.08
-9755566.34 5135453.05 181.06
-9755573.07 5135450.92 181.08
-9755572.14 5135453.15 181.06
-9755570.36 5135454.01 181.05
-9755567.99 5135455.68 181.05
-9755569.78 5135449.24 181.06
-9755564.94 5135448.37 181.06
-9755571.85 5135454.09 181.09
-9755564.58 5135452.46 181.06
-9755566.26 5135449.19 181.08
-9755565.40 5135449.23 181.03
-9755573.92 5135456.63 181.04
-9755564.62 5135451.24 181.05
-9755568.04 5135450.73 181.06
-9755569.28 5135448.04 181.06
-9755564.58 5135448.87 181.08
-9755570.41 5135449.29 181.06
-9755572.99 5135454.27 181.07
-9755567.70 5135452.50 181.04
-9755564.47 5135454.83 181.07
-9755571.17 5135457.27 181.05
-9755566.47 5135457.25 181.05
-9755567.29 5135449.89 181.06
-9755570.33 5135455.29 181.06
-9755568.63 5135454.90 181.07
-9755559.86 5135449.77 181.12
-9755559.82 5135451.62 181.10
-9755560.63 5135450.74 181.10
-9755560.31 5135455.66 181.10
-9755559.82 5135450.70 181.08
-9755560.40 5135453.30 181.08
-9755560.74 5135449.21 181.08
-9755559.76 5135454.90 181.11
-9755559.77 5135457.23 181.11
-9755559.71 5135455.75 181.10
-9755559.76 5135456.55 181.11
-9755559.82 5135448.90 181.08
-9755588.52 5135432.48 181.05
-9755587.75 5135428.47 184.75
-9755588.69 5135429.17 185.37
-9755588.36 5135431.66 181.08
-9755588.85 5135430.22 185.16
-9755587.69 5135429.43 183.22
-9755588.55 5135428.15 185.12
-9755586.09 5135430.11 181.04
-9755586.07 5135429.21 181.07
-9755586.82 5135432.42 181.05
-9755587.07 5135429.10 184.42
-9755586.18 5135428.35 181.03
-9755586.76 5135430.73 181.06
-9755587.06 5135429.37 183.69
-9755580.48 5135431.35 180.99
-9755574.59 5135430.90 180.98
-9755579.40 5135430.97 180.98
-9755584.37 5135429.20 181.02
-9755582.03 5135428.32 181.00
-9755582.86 5135430.07 181.01
-9755578.83 5135430.87 180.98
-9755582.00 5135431.80 181.01
-9755577.68 5135430.06 180.98
-9755580.52 5135432.46 180.98
-9755579.95 5135429.17 180.98
-9755583.51 5135432.42 180.98
-9755576.13 5135428.29 181.01
-9755581.15 5135429.18 180.98
-9755578.56 5135430.12 180.98
-9755585.31 5135430.95 181.03
-9755582.93 5135430.98 180.99
-9755583.73 5135430.10 181.01
-9755574.42 5135432.69 180.94
-9755578.54 5135432.71 180.97
-9755577.89 5135430.98 180.98
-9755575.50 5135429.44 181.01
-9755582.59 5135431.82 181.00
-9755585.28 5135431.65 181.04
-9755577.87 5135429.50 180.98
-9755581.10 5135432.44 180.99
-9755581.20 5135428.26 180.99
-9755575.25 5135431.21 180.97
-9755581.73 5135430.95 180.98
-9755578.81 5135429.21 180.98
-9755582.08 5135430.09 180.98
-9755567.87 5135429.97 181.04
-9755571.13 5135432.36 181.00
-9755566.41 5135430.87 181.06
-9755572.95 5135428.54 181.01
-9755571.38 5135428.44 181.02
-9755566.08 5135431.69 181.05
-9755563.09 5135429.36 181.09
-9755562.87 5135432.71 181.09
-9755572.28 5135429.40 181.00
-9755564.36 5135431.71 181.05
-9755564.00 5135429.18 181.10
-9755568.73 5135431.46 181.02
-9755570.21 5135433.30 181.00
-9755563.42 5135429.99 181.10
-9755562.04 5135429.33 181.09
-9755565.18 5135431.75 181.06
-9755567.87 5135431.80 181.05
-9755572.84 5135429.95 180.98
-9755572.91 5135431.80 180.98
-9755571.43 5135431.82 181.00
-9755567.89 5135430.98 181.02
-9755563.43 5135432.31 181.09
-9755564.66 5135429.90 181.08
-9755568.82 5135429.75 181.07
-9755560.53 5135432.61 181.09
-9755561.30 5135429.89 181.10
-9755564.41 5135429.02 181.08
-9755569.62 5135428.75 181.04
-9755571.13 5135429.40 181.02
-9755573.39 5135428.88 181.00
-9755570.17 5135432.61 181.00
-9755566.99 5135428.30 181.06
-9755562.84 5135430.85 181.07
-9755567.92 5135429.36 181.07
-9755570.27 5135428.51 181.02
-9755571.97 5135432.61 180.99
-9755568.75 5135429.47 181.08
-9755567.96 5135428.17 181.05
-9755566.32 5135429.98 181.06
-9755561.39 5135431.75 181.09
-9755561.46 5135429.40 181.09
-9755560.72 5135431.71 181.09
-9755560.56 5135429.35 181.09
-9755558.66 5135447.41 181.11
-9755559.49 5135452.69 181.11
-9755552.53 5135433.41 181.04
-9755555.74 5135433.48 181.09
-9755553.09 5135432.49 181.06
-9755557.86 5135432.54 181.11
-9755554.86 5135433.41 181.08
-9755555.79 5135434.02 181.10
-9755548.08 5135433.39 181.02
-9755550.43 5135433.38 181.05
-9755556.35 5135432.33 181.10
-9755550.17 5135434.28 181.04
-9755556.36 5135434.06 181.09
-9755530.31 5135457.27 181.16
-9755543.39 5135433.45 181.01
-9755540.48 5135433.40 181.01
-9755542.24 5135433.15 181.02
-9755544.80 5135433.36 181.03
-9755544.01 5135432.82 181.02
-9755548.18 5135434.08 181.05
-9755536.00 5135433.32 180.96
-9755538.38 5135433.38 180.98
-9755547.14 5135433.42 181.03
-9755534.78 5135433.67 180.96
-9755535.74 5135432.45 180.95
-9755534.77 5135434.23 180.94
-9755533.32 5135433.38 180.97
-9755550.74 5135434.03 181.07
-9755548.70 5135434.06 181.05
-9755556.29 5135442.42 181.11
-9755557.19 5135442.37 181.12
-9755558.97 5135445.93 181.08
-9755557.29 5135435.85 181.11
-9755553.36 5135437.32 181.11
-9755557.23 5135437.37 181.09
-9755555.69 5135440.86 181.11
-9755552.86 5135434.33 181.04
-9755548.92 5135441.37 181.10
-9755555.39 5135437.64 181.11
-9755551.48 5135446.77 181.08
-9755549.67 5135434.96 181.06
-9755556.31 5135441.48 181.11
-9755549.86 5135440.55 181.07
-9755548.92 5135445.62 181.08
-9755557.44 5135444.08 181.11
-9755554.45 5135440.80 181.09
-9755556.25 5135444.15 181.09
-9755549.83 5135441.43 181.08
-9755550.74 5135444.10 181.09
-9755555.77 5135435.85 181.09
-9755554.89 5135437.32 181.12
-9755556.33 5135444.83 181.11
-9755556.59 5135443.23 181.09
-9755554.83 5135439.42 181.07
-9755553.92 5135437.37 181.10
-9755552.19 5135441.41 181.09
-9755553.06 5135443.19 181.07
-9755554.63 5135435.83 181.10
-9755552.15 5135439.40 181.07
-9755551.55 5135434.95 181.03
-9755548.95 5135436.92 181.03
-9755549.00 5135445.05 181.07
-9755548.98 5135437.30 181.09
-9755557.50 5135438.46 181.10
-9755549.58 5135435.73 181.07
-9755549.21 5135438.43 181.06
-9755551.32 5135440.77 181.08
-9755548.07 5135446.55 181.08
-9755553.94 5135439.07 181.09
-9755554.82 5135444.12 181.10
-9755548.02 5135445.00 181.08
-9755556.31 5135445.91 181.10
-9755549.20 5135440.81 181.06
-9755552.48 5135445.04 181.08
-9755552.11 5135437.62 181.09
-9755553.01 5135445.92 181.07
-9755550.59 5135445.07 181.06
-9755555.43 5135447.32 181.09
-9755559.01 5135437.39 181.09
-9755548.09 5135443.43 181.07
-9755548.98 5135443.83 181.06
-9755550.41 5135438.51 181.09
-9755553.83 5135446.54 181.09
-9755548.06 5135440.22 181.07
-9755548.16 5135445.66 181.07
-9755548.15 5135439.17 181.07
-9755536.58 5135434.23 180.95
-9755546.05 5135434.31 181.05
-9755535.94 5135438.39 180.94
-9755546.62 5135436.90 181.05
-9755541.59 5135441.41 181.01
-9755536.78 5135445.55 181.01
-9755540.98 5135436.61 180.98
-9755543.23 5135438.46 181.01
-9755541.75 5135445.64 181.03
-9755540.13 5135444.94 180.99
-9755539.77 5135443.18 181.00
-9755541.87 5135444.13 181.01
-9755536.61 5135434.88 180.95
-9755540.12 5135435.77 180.99
-9755541.58 5135440.79 181.00
-9755547.22 5135437.56 181.06
-9755542.44 5135445.56 181.02
-9755542.52 5135434.91 181.03
-9755544.21 5135445.79 181.05
-9755537.09 5135441.69 180.99
-9755545.58 5135445.59 181.06
-9755540.11 5135439.89 180.96
-9755538.31 5135440.86 180.97
-9755536.01 5135444.29 180.99
-9755543.37 5135439.03 181.03
-9755534.76 5135444.07 180.98
-9755546.64 5135444.98 181.06
-9755544.86 5135437.26 181.02
-9755535.64 5135444.65 181.00
-9755542.45 5135435.73 181.01
-9755539.21 5135435.76 180.96
-9755547.16 5135440.85 181.05
-9755543.99 5135438.45 181.03
-9755539.19 5135440.82 180.96
-9755546.80 5135445.84 181.07
-9755537.50 5135434.83 180.95
-9755539.84 5135438.35 180.99
-9755539.21 5135439.94 180.95
-9755541.30 5135438.17 181.01
-9755546.56 5135443.85 181.05
-9755540.68 5135439.98 180.99
-9755540.41 5135445.73 181.03
-9755546.96 5135433.97 181.03
-9755544.73 5135444.92 181.06
-9755543.91 5135441.65 181.05
-9755544.56 5135439.41 181.06
-9755538.07 5135435.20 180.94
-9755536.32 5135442.56 180.97
-9755546.63 5135439.41 181.06
-9755542.48 5135446.66 181.05
-9755539.18 5135438.05 180.98
-9755546.54 5135434.93 181.05
-9755539.86 5135441.33 180.98
-9755545.66 5135446.69 181.06
-9755540.99 5135434.91 181.02
-9755535.17 5135435.14 180.96
-9755546.25 5135446.77 181.06
-9755546.20 5135447.32 181.07
-9755538.34 5135445.78 181.00
-9755545.63 5135440.56 181.06
-9755543.36 5135437.50 181.01
-9755535.08 5135442.21 180.96
-9755547.46 5135446.75 181.08
-9755537.64 5135446.65 181.03
-9755542.43 5135444.01 181.01
-9755546.58 5135442.29 181.09
-9755536.81 5135440.17 180.97
-9755543.09 5135442.31 181.01
-9755538.90 5135441.36 180.97
-9755547.52 5135447.30 181.06
-9755540.03 5135447.29 181.04
-9755534.21 5135444.64 181.00
-9755533.26 5135440.81 180.95
-9755534.19 5135434.81 180.95
-9755533.05 5135439.93 180.95
-9755533.32 5135435.98 180.92
-9755532.73 5135437.78 180.94
-9755532.74 5135439.88 180.96
-9755534.10 5135447.52 181.04
-9755558.89 5135452.46 181.10
-9755548.29 5135447.31 181.09
-9755553.05 5135451.49 181.09
-9755551.51 5135447.40 181.09
-9755552.46 5135449.77 181.09
-9755558.35 5135453.96 181.09
-9755558.25 5135456.35 181.11
-9755553.86 5135452.16 181.08
-9755551.22 5135457.08 181.13
-9755549.98 5135457.11 181.13
-9755549.71 5135454.15 181.08
-9755551.49 5135455.70 181.13
-9755553.62 5135450.60 181.11
-9755553.92 5135453.92 181.07
-9755548.31 5135454.81 181.12
-9755554.50 5135448.23 181.08
-9755548.95 5135449.15 181.09
-9755559.18 5135456.24 181.11
-9755554.71 5135452.37 181.09
-9755548.86 5135454.85 181.12
-9755557.32 5135451.60 181.11
-9755549.49 5135448.89 181.10
-9755552.98 5135453.84 181.09
-9755553.63 5135451.48 181.07
-9755556.52 5135452.97 181.09
-9755548.28 5135453.23 181.10
-9755554.70 5135457.20 181.10
-9755549.80 5135449.72 181.07
-9755550.34 5135450.03 181.09
-9755559.20 5135453.02 181.10
-9755553.91 5135450.04 181.08
-9755557.95 5135450.68 181.09
-9755556.28 5135449.07 181.06
-9755549.99 5135455.92 181.12
-9755555.74 5135456.58 181.14
-9755557.70 5135448.29 181.09
-9755558.28 5135454.72 181.12
-9755550.69 5135455.87 181.13
-9755555.43 5135449.06 181.09
-9755548.89 5135456.43 181.15
-9755551.30 5135449.93 181.10
-9755553.01 5135456.61 181.10
-9755553.02 5135448.80 181.09
-9755552.96 5135448.32 181.09
-9755551.45 5135454.82 181.09
-9755547.99 5135449.18 181.08
-9755555.42 5135453.96 181.09
-9755550.59 5135453.87 181.10
-9755551.27 5135451.61 181.09
-9755548.98 5135449.81 181.10
-9755553.00 5135455.93 181.10
-9755557.41 5135450.59 181.10
-9755550.58 5135452.99 181.10
-9755552.40 5135452.32 181.09
-9755556.53 5135448.33 181.09
-9755554.71 5135450.10 181.09
-9755550.71 5135454.73 181.09
-9755557.06 5135449.16 181.09
-9755550.65 5135457.08 181.13
-9755557.54 5135449.80 181.09
-9755555.36 5135451.48 181.09
-9755544.82 5135447.34 181.05
-9755535.86 5135457.02 181.18
-9755543.27 5135454.74 181.14
-9755540.00 5135449.07 181.06
-9755546.49 5135449.07 181.06
-9755539.75 5135449.97 181.06
-9755545.66 5135450.53 181.09
-9755539.10 5135457.01 181.19
-9755544.75 5135450.56 181.10
-9755545.61 5135448.98 181.09
-9755540.65 5135456.46 181.16
-9755547.32 5135454.10 181.57
-9755547.42 5135452.98 181.07
-9755543.24 5135457.05 181.17
-9755544.20 5135455.69 181.15
-9755534.72 5135456.42 181.17
-9755546.78 5135453.22 181.11
-9755534.97 5135453.12 181.12
-9755544.76 5135454.77 181.16
-9755546.53 5135453.88 181.14
-9755544.14 5135452.37 181.08
-9755542.29 5135454.72 181.13
-9755535.64 5135451.43 181.11
-9755547.69 5135451.49 181.12
-9755535.89 5135454.07 181.15
-9755540.57 5135452.36 181.09
-9755546.29 5135454.78 192.63
-9755541.50 5135453.18 181.11
-9755537.41 5135450.88 181.09
-9755541.49 5135450.82 181.09
-9755543.87 5135448.13 181.05
-9755546.50 5135454.34 181.91
-9755544.73 5135449.90 181.08
-9755541.61 5135449.95 181.08
-9755535.85 5135456.16 181.17
-9755540.62 5135450.53 181.07
-9755537.93 5135456.38 181.17
-9755546.23 5135448.21 181.06
-9755535.91 5135449.92 181.09
-9755539.98 5135456.49 181.16
-9755534.72 5135450.81 181.09
-9755541.77 5135453.85 181.13
-9755538.24 5135451.39 181.09
-9755547.18 5135454.76 192.66
-9755541.44 5135451.42 181.09
-9755535.95 5135448.49 181.04
-9755542.99 5135456.52 181.16
-9755542.10 5135451.38 181.09
-9755537.37 5135447.89 181.03
-9755546.54 5135450.68 181.08
-9755535.90 5135452.29 181.12
-9755535.14 5135449.91 181.08
-9755534.50 5135456.44 181.17
-9755539.76 5135450.54 181.08
-9755534.75 5135451.48 181.10
-9755541.43 5135449.20 181.05
-9755534.69 5135455.54 181.16
-9755540.60 5135455.59 181.14
-9755533.92 5135448.43 181.05
-9755547.27 5135452.63 181.09
-9755533.92 5135453.19 181.16
-9755533.25 5135453.23 181.12
-9755532.33 5135456.45 181.17
-9755533.17 5135454.67 181.11
-9755532.60 5135455.82 181.16
-9755533.42 5135432.73 180.96
-9755530.70 5135433.57 180.95
-9755531.90 5135433.41 180.94
-9755532.48 5135434.77 180.94
-9755532.44 5135444.28 180.99
-9755532.46 5135434.20 180.94
-9755532.39 5135445.75 181.03
-9755530.65 5135444.87 181.01
-9755531.59 5135437.18 180.94
-9755530.32 5135446.63 181.05
-9755530.08 5135444.31 181.00
-9755530.32 5135436.89 180.97
-9755531.61 5135435.71 180.94
-9755531.50 5135446.68 181.02
-9755530.86 5135439.21 180.97
-9755531.63 5135435.07 180.93
-9755531.00 5135435.98 180.94
-9755530.63 5135440.73 180.98
-9755531.60 5135438.95 180.95
-9755531.52 5135443.45 181.00
-9755530.70 5135435.09 180.93
-9755531.78 5135447.56 181.06
-9755529.82 5135437.51 180.95
-9755529.83 5135445.75 181.06
-9755531.48 5135451.35 181.08
-9755529.75 5135447.43 181.05
-9755531.13 5135454.02 181.13
-9755530.07 5135454.06 181.13
-9755531.54 5135449.01 181.08
-9755531.49 5135448.10 181.06
-9755532.63 5135449.84 181.08
-9755530.59 5135448.16 181.05
-9755531.71 5135453.77 181.14
-9755530.03 5135450.77 181.08
-9755531.51 5135452.23 181.11
-9755530.07 5135449.65 181.06
-9755530.26 5135448.76 181.04
-9755531.74 5135454.64 181.14
-9755529.96 5135451.11 181.08
-9755551.37 5135431.64 181.04
-9755549.85 5135429.89 181.03
-9755554.65 5135430.76 181.07
-9755547.22 5135432.45 181.06
-9755548.99 5135432.57 181.04
-9755557.30 5135429.90 181.11
-9755552.51 5135429.28 181.04
-9755552.54 5135431.69 181.05
-9755553.10 5135430.72 181.05
-9755552.88 5135429.99 181.05
-9755555.46 5135431.96 181.11
-9755551.61 5135430.86 181.04
-9755558.12 5135430.90 181.14
-9755558.78 5135430.86 181.10
-9755549.86 5135431.06 181.06
-9755553.14 5135428.45 181.05
-9755548.98 5135428.43 181.04
-9755556.18 5135429.96 181.11
-9755554.87 5135431.70 181.10
-9755549.00 5135431.61 181.05
-9755549.60 5135432.48 181.05
-9755553.69 5135430.75 181.08
-9755559.11 5135429.91 181.12
-9755552.54 5135428.42 181.05
-9755558.78 5135431.73 181.11
-9755548.13 5135429.25 181.05
-9755541.59 5135430.66 181.01
-9755538.94 5135430.99 181.00
-9755547.29 5135430.17 181.05
-9755538.09 5135432.45 180.96
-9755546.34 5135431.99 181.07
-9755546.67 5135429.25 181.01
-9755544.87 5135428.41 181.01
-9755540.77 5135428.41 181.02
-9755540.12 5135430.18 181.03
-9755538.38 5135431.88 180.98
-9755544.90 5135429.31 181.01
-9755540.21 5135428.40 181.00
-9755535.98 5135430.11 180.98
-9755546.60 5135432.50 181.07
-9755543.41 5135431.66 181.03
-9755536.60 5135431.52 180.97
-9755540.72 5135431.60 180.98
-9755542.83 5135431.12 181.01
-9755541.66 5135428.36 181.02
-9755537.22 5135429.84 180.97
-9755535.96 5135429.17 181.01
-9755546.61 5135430.22 181.04
-9755537.21 5135432.44 180.96
-9755538.35 5135429.32 181.00
-9755538.35 5135430.08 181.00
-9755535.74 5135428.55 181.00
-9755533.39 5135431.69 180.94
-9755534.00 5135430.11 180.97
-9755533.95 5135428.33 180.98
-9755533.16 5135428.31 180.98
-9755532.69 5135431.86 180.96
-9755532.76 5135430.10 180.95
-9755532.51 5135429.52 180.96
-9755531.61 5135428.34 180.94
-9755529.91 5135429.15 180.97
-9755530.72 5135431.60 180.96
-9755530.71 5135429.18 180.96
-9755529.21 5135434.28 180.95
-9755522.82 5135433.22 180.98
-9755525.69 5135433.31 180.95
-9755526.65 5135432.70 180.94
-9755521.84 5135432.79 180.98
-9755519.17 5135433.57 181.01
-9755516.00 5135433.53 181.08
-9755510.35 5135432.65 181.16
-9755510.99 5135433.50 181.17
-9755509.16 5135433.51 181.19
-9755508.56 5135432.30 181.19
-9755508.60 5135433.46 181.20
-9755510.04 5135433.47 181.19
-9755520.12 5135432.69 181.00
-9755507.10 5135432.31 181.19
-9755507.71 5135432.59 181.20
-9755525.05 5135434.23 180.93
-9755529.47 5135442.24 181.00
-9755529.12 5135445.14 181.02
-9755521.85 5135434.08 180.98
-9755523.96 5135436.67 181.35
-9755525.97 5135444.21 181.03
-9755523.35 5135435.93 181.32
-9755522.69 5135440.69 181.02
-9755527.68 5135435.75 180.94
-9755523.29 5135436.40 181.31
-9755528.34 5135437.43 180.96
-9755521.79 5135443.92 181.09
-9755529.15 5135446.71 181.02
-9755529.20 5135436.83 180.94
-9755522.46 5135440.03 181.05
-9755527.43 5135434.83 180.93
-9755525.91 5135445.69 181.05
-9755526.83 5135440.74 180.98
-9755523.57 5135440.80 181.03
-9755529.26 5135438.89 180.96
-9755525.94 5135441.69 181.02
-9755521.74 5135445.13 181.09
-9755529.28 5135435.62 180.94
-9755525.06 5135437.47 180.98
-9755524.18 5135434.49 180.98
-9755523.91 5135437.67 182.08
-9755523.86 5135437.44 181.30
-9755527.43 5135438.07 180.97
-9755528.36 5135435.93 180.97
-9755523.54 5135440.07 181.03
-9755522.68 5135443.40 181.07
-9755526.86 5135434.79 180.92
-9755526.17 5135443.32 181.03
-9755523.36 5135436.69 182.08
-9755524.99 5135443.09 181.04
-9755524.21 5135443.12 181.04
-9755523.33 5135435.81 182.07
-9755528.55 5135444.84 181.00
-9755528.32 5135441.89 181.01
-9755522.74 5135439.21 181.02
-9755524.27 5135436.01 180.98
-9755523.30 5135441.60 181.04
-9755521.86 5135437.09 181.00
-9755527.22 5135437.28 180.97
-9755523.51 5135437.45 181.15
-9755528.30 5135442.45 181.01
-9755521.73 5135436.73 181.01
-9755527.19 5135439.18 180.98
-9755520.87 5135443.11 181.10
-9755527.44 5135439.83 180.99
-9755526.53 5135443.93 181.02
-9755523.18 5135435.20 181.94
-9755520.31 5135434.38 180.99
-9755520.90 5135440.88 181.07
-9755511.90 5135434.10 181.13
-9755514.05 5135441.57 181.17
-9755517.75 5135434.18 181.07
-9755513.54 5135442.19 181.19
-9755518.31 5135437.46 181.06
-9755509.43 5135442.13 183.87
-9755520.97 5135438.89 181.05
-9755509.43 5135444.02 184.71
-9755513.65 5135443.61 181.21
-9755515.03 5135438.64 181.14
-9755518.55 5135443.09 181.13
-9755509.14 5135437.34 181.20
-9755508.85 5135434.11 181.21
-9755518.50 5135446.53 181.18
-9755520.94 5135435.83 181.01
-9755510.03 5135443.00 181.23
-9755513.54 5135440.54 181.19
-9755510.01 5135444.17 181.25
-9755514.35 5135445.68 181.21
-9755508.78 5135442.33 183.86
-9755510.02 5135445.89 181.26
-9755517.10 5135443.30 181.15
-9755517.10 5135442.44 181.15
-9755519.40 5135445.41 181.12
-9755515.90 5135434.09 181.09
-9755515.08 5135437.66 181.13
-9755510.92 5135441.52 181.22
-9755515.00 5135444.20 181.19
-9755516.06 5135436.79 181.12
-9755513.33 5135438.20 181.15
-9755516.21 5135445.64 181.19
-9755514.16 5135436.82 181.12
-9755517.67 5135444.27 181.15
-9755509.42 5135435.89 181.20
-9755519.20 5135439.23 181.07
-9755518.49 5135443.91 181.13
-9755520.34 5135435.04 181.01
-9755520.02 5135445.78 181.14
-9755512.08 5135442.37 181.20
-9755510.92 5135435.28 181.18
-9755516.80 5135438.57 181.13
-9755508.59 5135436.49 181.22
-9755520.91 5135445.72 181.13
-9755507.61 5135443.06 185.25
-9755509.42 5135443.86 181.24
-9755510.36 5135437.62 181.20
-9755508.85 5135441.75 183.85
-9755508.59 5135443.86 181.30
-9755513.82 5135444.80 181.21
-9755511.25 5135437.34 181.20
-9755517.68 5135443.35 181.15
-9755520.91 5135444.21 181.10
-9755514.46 5135444.11 181.18
-9755520.95 5135445.07 181.10
-9755515.08 5135435.91 181.12
-9755519.44 5135444.17 181.12
-9755517.41 5135440.62 181.12
-9755510.33 5135439.71 181.22
-9755514.22 5135435.36 181.14
-9755511.84 5135438.52 181.19
-9755517.72 5135435.10 181.06
-9755520.06 5135444.22 181.12
-9755513.25 5135439.17 181.17
-9755507.87 5135443.27 181.33
-9755510.02 5135441.83 181.23
-9755516.28 5135440.02 181.15
-9755520.30 5135435.95 181.03
-9755516.18 5135444.80 181.18
-9755514.12 5135434.20 181.12
-9755515.11 5135434.98 181.10
-9755513.22 5135445.72 181.20
-9755517.65 5135442.46 181.12
-9755507.71 5135443.12 184.68
-9755508.78 5135443.74 184.00
-9755519.21 5135434.39 181.02
-9755516.15 5135441.58 181.14
-9755507.68 5135437.32 181.22
-9755509.40 5135446.80 181.33
-9755509.05 5135444.92 182.41
-9755518.54 5135444.78 181.12
-9755507.92 5135440.89 181.24
-9755507.02 5135443.42 184.65
-9755506.79 5135442.33 185.38
-9755506.74 5135443.84 181.36
-9755506.75 5135441.57 183.85
-9755507.45 5135440.26 184.53
-9755507.70 5135439.71 181.23
-9755506.80 5135440.63 184.60
-9755506.17 5135441.63 184.67
-9755506.78 5135439.71 181.28
-9755506.83 5135439.94 184.56
-9755507.12 5135440.22 183.74
-9755507.71 5135435.00 181.22
-9755507.71 5135436.75 181.22
-9755506.17 5135442.53 184.60
-9755506.80 5135437.60 181.21
-9755506.25 5135441.60 185.47
-9755507.71 5135444.13 181.34
-9755506.20 5135440.68 184.42
-9755507.08 5135439.12 181.23
-9755507.67 5135445.36 181.36
-9755506.83 5135443.32 183.97
-9755506.73 5135446.51 181.40
-9755507.62 5135442.62 181.33
-9755506.76 5135442.41 181.34
-9755506.22 5135434.67 181.20
-9755506.82 5135440.58 181.32
-9755508.07 5135443.11 181.93
-9755505.94 5135440.80 183.65
-9755506.16 5135438.19 181.26
-9755528.22 5135447.51 181.03
-9755526.48 5135448.98 181.09
-9755525.87 5135452.28 181.13
-9755526.72 5135455.46 181.16
-9755524.11 5135454.86 181.19
-9755526.74 5135454.02 181.15
-9755522.73 5135454.06 181.20
-9755521.76 5135449.81 181.14
-9755525.24 5135457.33 181.18
-9755524.46 5135450.72 181.14
-9755525.04 5135451.56 181.12
-9755529.10 5135453.13 181.12
-9755521.74 5135457.20 181.22
-9755527.60 5135456.44 181.16
-9755528.35 5135450.82 181.06
-9755526.49 5135454.61 181.16
-9755524.15 5135451.39 181.15
-9755526.71 5135451.70 181.10
-9755529.43 5135449.87 181.05
-9755527.41 5135452.48 181.09
-9755524.20 5135449.86 181.13
-9755521.18 5135451.66 181.16
-9755525.83 5135449.87 181.09
-9755528.37 5135448.10 181.03
-9755523.57 5135450.77 181.14
-9755526.75 5135456.37 181.15
-9755523.52 5135457.34 181.19
-9755521.69 5135451.31 181.16
-9755528.44 5135454.04 181.13
-9755521.79 5135454.64 181.19
-9755526.99 5135450.70 181.08
-9755521.79 5135450.46 181.15
-9755524.37 5135456.38 181.19
-9755527.07 5135455.08 182.18
-9755522.71 5135450.68 181.16
-9755525.91 5135448.14 181.05
-9755528.30 5135449.05 181.07
-9755528.18 5135457.06 181.15
-9755520.88 5135454.03 181.19
-9755517.08 5135447.48 181.19
-9755521.13 5135454.90 181.21
-9755514.34 5135456.20 184.56
-9755521.10 5135455.42 181.22
-9755514.36 5135453.08 181.26
-9755512.65 5135455.51 183.94
-9755516.13 5135456.40 181.25
-9755516.07 5135454.66 181.22
-9755518.56 5135448.28 181.19
-9755512.57 5135448.31 181.25
-9755516.18 5135455.73 181.24
-9755515.00 5135449.81 181.24
-9755510.00 5135450.66 181.35
-9755510.26 5135451.52 181.37
-9755512.88 5135454.24 181.35
-9755518.60 5135448.88 181.16
-9755511.76 5135456.45 183.82
-9755512.88 5135456.35 181.36
-9755515.37 5135451.49 181.24
-9755520.02 5135448.08 181.15
-9755519.41 5135456.34 181.23
-9755515.00 5135453.12 181.24
-9755512.71 5135456.74 185.95
-9755512.33 5135456.47 183.72
-9755508.49 5135449.74 181.39
-9755511.75 5135455.75 181.37
-9755514.97 5135456.49 184.60
-9755512.86 5135454.55 181.36
-9755514.34 5135447.98 181.22
-9755515.26 5135456.69 181.27
-9755515.87 5135452.18 181.23
-9755512.65 5135453.82 181.99
-9755507.89 5135451.55 181.40
-9755516.16 5135448.34 181.26
-9755511.18 5135447.38 181.24
-9755508.78 5135456.57 181.44
-9755514.47 5135455.36 183.91
-9755508.50 5135454.81 181.42
-9755516.16 5135449.20 181.21
-9755514.35 5135456.64 185.88
-9755513.41 5135454.57 181.30
-9755509.68 5135450.66 181.36
-9755520.22 5135454.28 181.23
-9755517.68 5135456.32 181.23
-9755513.26 5135455.08 184.33
-9755508.52 5135449.17 181.38
-9755509.98 5135447.42 181.32
