-9755553.95 5135888.84 182.17
-9755553.09 5135887.10 182.19
-9755547.48 5135887.90 182.18
-9755550.42 5135888.84 182.17
-9755548.90 5135890.29 182.15
-9755545.09 5135889.06 182.14
-9755543.93 5135887.90 182.14
-9755543.91 5135891.43 182.07
-9755548.05 5135891.47 182.12
-9755538.89 5135886.41 182.06
-9755535.69 5135888.12 182.00
-9755541.54 5135890.57 182.01
-9755536.50 5135891.07 181.95
-9755536.50 5135890.84 181.95
-9755540.03 5135890.85 181.98
-9755535.07 5135889.57 181.97
-9755541.54 5135889.03 182.08
-9755533.93 5135889.01 181.98
-9755531.57 5135891.37 181.97
-9755540.69 5135891.46 181.99
-9755535.92 5135890.82 181.96
-9755535.65 5135889.01 182.00
-9755537.49 5135889.02 182.01
-9755530.95 5135890.74 181.98
-9755533.90 5135887.22 182.02
-9755541.25 5135887.28 182.11
-9755542.47 5135890.79 182.04
-9755539.84 5135887.57 182.07
-9755540.61 5135889.03 182.05
-9755534.20 5135889.92 181.96
-9755542.16 5135888.18 182.10
-9755540.67 5135890.55 182.01
-9755536.55 5135887.51 182.02
-9755540.66 5135889.67 182.02
-9755542.42 5135889.93 182.06
-9755541.51 5135888.12 182.09
-9755539.77 5135889.60 182.04
-9755539.83 5135887.92 182.06
-9755539.15 5135891.45 181.98
-9755531.51 5135888.96 181.98
-9755531.80 5135887.22 182.00
-9755538.37 5135888.15 182.04
-9755543.05 5135888.18 182.13
-9755541.57 5135891.12 182.01
-9755535.67 5135889.93 181.97
-9755543.96 5135888.74 182.13
-9755535.08 5135889.05 181.99
-9755530.07 5135887.51 181.98
-9755529.21 5135887.50 181.98
-9755528.01 5135891.66 181.98
-9755528.55 5135887.55 181.99
-9755526.88 5135891.05 181.99
-9755526.82 5135890.48 181.98
-9755527.40 5135887.44 181.98
-9755528.59 5135888.68 181.99
-9755527.36 5135891.63 181.98
-9755528.33 5135886.32 181.98
-9755526.57 5135886.58 182.00
-9755555.77 5135882.27 182.22
-9755555.50 5135876.46 182.21
-9755555.47 5135880.52 182.21
-9755549.87 5135886.42 182.19
-9755555.48 5135874.89 182.21
-9755553.15 5135878.41 182.20
-9755547.52 5135878.37 182.20
-9755549.05 5135876.66 182.21
-9755552.55 5135879.59 182.20
-9755552.89 5135876.65 182.20
-9755545.75 5135877.53 182.20
-9755544.85 5135878.10 182.20
-9755546.31 5135884.87 182.21
-9755548.10 5135881.68 182.23
-9755545.76 5135875.73 182.20
-9755545.76 5135878.93 182.21
-9755545.71 5135881.97 182.23
-9755552.18 5135882.93 182.21
-9755545.76 5135884.93 182.21
-9755544.88 5135878.98 182.21
-9755551.33 5135882.32 182.21
-9755553.06 5135884.07 182.20
-9755551.92 5135875.78 182.19
-9755552.19 5135882.30 182.22
-9755548.93 5135884.06 182.21
-9755548.13 5135875.82 182.23
-9755552.20 5135884.08 182.19
-9755546.33 5135879.28 182.22
-9755553.94 5135882.61 182.19
-9755549.87 5135879.31 182.22
-9755549.81 5135878.40 182.22
-9755548.11 5135879.62 182.21
-9755548.40 5135878.09 182.22
-9755546.26 5135879.96 182.21
-9755548.10 5135878.71 182.22
-9755553.70 5135881.70 182.20
-9755549.60 5135880.47 182.22
-9755549.88 5135874.81 182.20
-9755553.69 5135882.90 182.20
-9755547.51 5135883.73 182.23
-9755546.36 5135876.33 182.19
-9755552.26 5135878.19 182.21
-9755551.28 5135885.85 182.19
-9755544.89 5135876.95 182.20
-9755545.48 5135876.61 182.20
-9755548.14 5135880.53 182.23
-9755554.88 5135884.11 182.21
-9755552.49 5135885.84 182.19
-9755544.56 5135879.60 182.21
-9755548.15 5135877.22 182.22
-9755554.84 5135885.85 182.20
-9755547.11 5135884.87 182.20
-9755547.49 5135880.78 182.21
-9755549.87 5135884.63 182.21
-9755553.05 5135882.91 182.20
-9755549.93 5135875.45 182.20
-9755549.51 5135884.06 182.20
-9755548.68 5135879.65 182.23
-9755547.51 5135882.54 182.23
-9755550.42 5135884.68 182.20
-9755547.55 5135877.21 182.19
-9755551.66 5135881.43 182.19
-9755550.72 5135883.21 182.21
-9755545.43 5135881.63 182.23
-9755543.98 5135884.63 182.21
-9755543.91 5135886.65 182.17
-9755555.48 5135874.02 182.22
-9755544.27 5135878.09 182.21
-9755532.45 5135881.26 182.02
-9755533.34 5135885.76 182.04
-9755530.96 5135885.75 182.02
-9755539.27 5135875.74 182.07
-9755531.62 5135881.60 182.02
-9755533.66 5135883.06 182.06
-9755532.51 5135876.21 181.98
-9755540.76 5135875.91 182.12
-9755542.48 5135879.07 182.18
-9755533.33 5135879.82 182.04
-9755542.21 5135883.78 182.19
-9755539.57 5135880.48 182.15
-9755532.54 5135877.15 181.99
-9755532.75 5135882.21 182.03
-9755543.09 5135884.93 182.20
-9755541.58 5135884.95 182.17
-9755535.98 5135885.47 182.06
-9755537.50 5135878.09 182.08
-9755533.06 5135883.96 182.04
-9755542.27 5135874.85 187.46
-9755540.73 5135880.77 182.18
-9755542.41 5135874.81 182.21
-9755536.02 5135880.77 182.08
-9755531.62 5135875.10 182.00
-9755534.85 5135878.94 182.05
-9755542.51 5135874.80 183.10
-9755539.87 5135881.59 182.16
-9755543.71 5135877.22 182.19
-9755542.26 5135874.22 182.15
-9755538.30 5135882.19 182.12
-9755538.35 5135883.69 182.11
-9755542.48 5135880.49 182.21
-9755540.75 5135881.31 182.19
-9755539.02 5135874.85 182.06
-9755544.03 5135880.41 182.23
-9755534.27 5135875.69 181.98
-9755533.31 5135884.87 182.04
-9755535.69 5135883.38 182.08
-9755543.08 5135877.24 182.19
-9755542.56 5135875.45 187.47
-9755531.53 5135880.11 182.00
-9755539.01 5135877.16 182.10
-9755533.35 5135874.81 181.98
-9755530.99 5135876.27 182.01
-9755535.99 5135879.87 182.05
-9755538.34 5135877.20 182.08
-9755533.11 5135874.19 181.97
-9755538.34 5135881.34 182.12
-9755539.21 5135882.50 182.15
-9755536.59 5135875.70 182.02
-9755535.74 5135879.23 182.06
-9755538.38 5135878.08 182.09
-9755531.02 5135877.16 182.01
-9755539.58 5135874.21 182.07
-9755530.11 5135885.42 181.99
-9755530.11 5135880.68 181.99
-9755530.13 5135883.96 181.99
-9755529.24 5135878.02 182.00
-9755529.21 5135877.12 182.00
-9755528.93 5135875.64 182.00
-9755529.84 5135874.77 182.01
-9755528.11 5135883.06 181.99
-9755528.38 5135878.98 181.99
-9755526.60 5135878.93 182.01
-9755528.36 5135878.03 181.99
-9755527.45 5135883.91 182.01
-9755528.68 5135874.76 182.01
-9755526.91 5135885.67 182.00
-9755527.75 5135879.17 182.01
-9755527.74 5135883.06 181.98
-9755527.77 5135874.14 182.01
-9755522.72 5135886.59 182.16
-9755524.78 5135886.32 182.00
-9755520.39 5135886.44 184.52
-9755516.82 5135886.32 181.22
-9755510.04 5135886.55 180.72
-9755519.18 5135888.08 181.64
-9755518.66 5135889.59 185.24
-9755518.36 5135891.37 187.67
-9755518.61 5135891.28 188.72
-9755519.25 5135889.67 184.58
-9755518.67 5135891.38 186.33
-9755518.15 5135889.73 183.80
-9755525.89 5135889.83 181.97
-9755517.72 5135887.80 181.37
-9755518.56 5135888.08 181.51
-9755519.20 5135890.55 185.61
-9755517.60 5135888.88 183.62
-9755521.79 5135891.57 182.03
-9755517.76 5135890.48 187.10
-9755521.83 5135888.35 182.06
-9755518.61 5135891.60 181.55
-9755525.03 5135889.85 181.97
-9755524.16 5135888.68 181.99
-9755519.95 5135891.23 183.70
-9755520.02 5135888.99 181.79
-9755518.58 5135891.17 187.23
-9755525.64 5135888.94 181.98
-9755519.40 5135891.33 181.66
-9755517.82 5135887.98 183.71
-9755520.36 5135888.33 181.86
-9755525.28 5135890.73 181.98
-9755522.67 5135888.36 182.17
-9755519.15 5135890.65 181.62
-9755518.63 5135890.29 185.00
-9755518.57 5135887.17 181.53
-9755518.36 5135890.36 185.50
-9755518.58 5135888.84 183.91
-9755518.00 5135889.93 183.80
-9755524.22 5135886.57 182.00
-9755517.69 5135887.16 181.36
-9755517.72 5135891.51 189.73
-9755517.69 5135889.49 184.91
-9755519.13 5135891.12 185.79
-9755521.83 5135890.70 182.04
-9755517.63 5135888.68 181.33
-9755517.67 5135890.75 181.37
-9755517.34 5135891.44 186.01
-9755518.45 5135891.02 184.06
-9755524.18 5135888.09 181.99
-9755517.74 5135890.47 183.59
-9755517.68 5135889.52 181.35
-9755519.69 5135890.99 183.62
-9755520.29 5135890.70 183.29
-9755518.48 5135889.79 183.37
-9755518.59 5135890.78 181.52
-9755512.66 5135886.56 180.85
-9755515.34 5135886.60 180.97
-9755516.52 5135891.42 186.25
-9755509.44 5135888.03 180.73
-9755515.36 5135888.99 184.46
-9755515.21 5135890.62 185.50
-9755506.11 5135891.25 180.75
-9755516.96 5135890.54 185.27
-9755514.44 5135890.57 185.06
-9755511.21 5135886.57 180.82
-9755515.95 5135891.10 187.00
-9755516.94 5135890.51 186.37
-9755508.52 5135891.59 180.74
-9755514.53 5135889.98 185.57
-9755515.97 5135889.09 185.39
-9755515.19 5135889.47 183.64
-9755513.54 5135887.45 180.88
-9755514.16 5135890.08 186.85
-9755509.41 5135888.94 180.73
-9755509.99 5135890.73 180.73
-9755514.98 5135888.85 183.73
-9755505.88 5135889.79 180.76
-9755516.91 5135888.28 184.58
-9755515.89 5135888.13 184.51
-9755510.89 5135888.96 180.80
-9755515.95 5135890.72 186.98
-9755506.78 5135888.05 180.74
-9755508.51 5135889.55 180.74
-9755514.75 5135891.59 180.91
-9755507.65 5135888.03 180.73
-9755515.95 5135887.99 183.60
-9755507.03 5135887.46 180.74
-9755505.54 5135891.54 180.75
-9755511.80 5135890.40 180.83
-9755515.07 5135889.64 185.01
-9755514.13 5135891.21 185.47
-9755507.06 5135889.77 180.74
-9755504.40 5135891.56 180.76
-9755507.61 5135891.24 180.75
-9755506.13 5135887.75 180.74
-9755509.42 5135891.30 180.74
-9755505.57 5135889.76 180.75
-9755510.29 5135891.03 180.73
-9755514.42 5135888.08 180.89
-9755516.87 5135890.54 186.98
-9755504.39 5135889.81 180.76
-9755507.68 5135888.61 180.73
-9755507.64 5135890.71 180.75
-9755516.95 5135888.76 184.61
-9755512.97 5135888.08 180.87
-9755516.22 5135887.46 181.12
-9755516.72 5135888.60 183.30
-9755514.45 5135890.43 184.14
-9755512.06 5135888.64 180.84
-9755508.85 5135890.40 180.74
-9755514.17 5135890.46 180.88
-9755505.85 5135888.65 180.76
-9755514.49 5135889.84 180.90
-9755513.52 5135888.66 180.87
-9755517.18 5135889.82 181.32
-9755505.29 5135890.43 180.77
-9755516.76 5135889.73 183.45
-9755515.33 5135888.68 180.96
-9755511.36 5135890.65 190.36
-9755512.07 5135887.45 180.85
-9755514.12 5135890.49 184.88
-9755512.95 5135887.17 180.86
-9755512.70 5135891.64 180.84
-9755512.08 5135891.62 180.84
-9755516.23 5135891.37 181.15
-9755516.17 5135888.08 181.12
-9755510.03 5135888.33 180.73
-9755516.14 5135887.50 183.10
-9755509.81 5135891.65 190.47
-9755509.65 5135887.32 190.36
-9755509.41 5135886.23 180.74
-9755511.56 5135891.57 190.35
-9755511.41 5135887.35 190.25
-9755516.63 5135891.07 185.82
-9755514.72 5135890.76 180.91
-9755503.80 5135891.53 180.76
-9755526.90 5135873.89 182.01
-9755520.98 5135885.56 184.38
-9755518.67 5135875.43 186.17
-9755523.32 5135886.28 182.08
-9755521.87 5135884.74 183.51
-9755518.39 5135876.55 186.59
-9755522.69 5135885.70 182.17
-9755520.85 5135882.44 183.78
-9755525.72 5135884.78 182.01
-9755520.08 5135881.50 181.83
-9755520.13 5135883.20 186.31
-9755520.07 5135883.13 185.52
-9755519.24 5135875.63 182.36
-9755519.23 5135878.89 181.72
-9755519.35 5135883.63 185.75
-9755521.86 5135883.99 184.83
-9755521.14 5135885.76 183.60
-9755525.13 5135874.76 182.01
-9755520.99 5135883.14 183.81
-9755518.30 5135883.18 184.63
-9755525.15 5135875.65 182.01
-9755519.92 5135885.66 181.79
-9755520.04 5135883.95 186.52
-9755518.61 5135883.16 185.46
-9755525.09 5135880.38 182.01
-9755520.02 5135881.66 182.90
-9755519.27 5135882.19 185.53
-9755520.35 5135882.05 182.90
-9755520.16 5135882.57 184.42
-9755520.11 5135878.00 181.87
-9755517.87 5135883.40 186.19
-9755520.96 5135883.16 185.63
-9755524.23 5135881.26 181.99
-9755519.02 5135877.28 182.99
-9755520.90 5135881.61 182.95
-9755522.46 5135880.66 182.15
-9755521.21 5135883.05 182.06
-9755519.26 5135877.55 186.39
-9755518.41 5135876.52 187.78
-9755520.11 5135882.22 185.41
-9755519.23 5135875.75 185.37
-9755521.21 5135882.35 182.03
-9755518.34 5135880.70 181.55
-9755523.31 5135884.79 182.10
-9755525.36 5135884.79 182.01
-9755519.88 5135875.72 185.29
-9755518.15 5135875.41 186.68
-9755523.38 5135882.16 182.04
-9755525.15 5135874.17 182.01
-9755518.37 5135874.06 181.62
-9755521.00 5135876.53 182.00
-9755525.97 5135879.78 182.01
-9755524.17 5135884.52 182.01
-9755519.21 5135880.99 183.07
-9755519.55 5135875.01 183.86
-9755524.24 5135875.04 182.01
-9755518.39 5135883.13 186.14
-9755519.58 5135882.41 183.59
-9755525.12 5135881.28 181.99
-9755520.96 5135884.74 186.45
-9755518.37 5135879.23 183.44
-9755518.63 5135878.66 185.31
-9755522.43 5135879.75 182.14
-9755517.58 5135878.02 185.31
-9755517.49 5135875.63 187.72
-9755520.77 5135885.41 185.45
-9755521.78 5135884.74 182.91
-9755521.04 5135878.27 182.01
-9755521.88 5135883.86 182.84
-9755518.68 5135883.97 186.82
-9755525.96 5135877.98 182.01
-9755524.20 5135883.28 182.01
-9755518.39 5135874.75 186.84
-9755519.79 5135882.32 181.55
-9755523.37 5135875.02 182.02
-9755521.17 5135885.55 182.91
-9755517.76 5135874.06 183.04
-9755517.80 5135877.37 187.97
-9755520.11 5135883.59 186.89
-9755519.54 5135874.84 186.08
-9755517.76 5135874.00 184.09
-9755518.00 5135882.32 183.63
-9755521.03 5135884.74 183.42
-9755521.90 5135877.40 182.10
-9755525.79 5135874.15 182.02
-9755518.73 5135874.80 183.13
-9755518.48 5135882.31 182.84
-9755518.40 5135877.46 186.50
-9755522.40 5135881.56 182.15
-9755524.22 5135874.14 182.02
-9755519.19 5135878.22 183.89
-9755520.95 5135882.65 186.07
-9755525.33 5135883.90 182.01
-9755520.14 5135876.54 181.87
-9755517.81 5135878.94 185.49
-9755518.67 5135874.28 184.12
-9755519.23 5135878.28 181.71
-9755518.35 5135882.55 185.50
-9755519.29 5135875.47 183.78
-9755521.86 5135885.39 182.08
-9755517.58 5135876.44 188.08
-9755519.80 5135875.51 186.11
-9755518.31 5135880.03 181.54
-9755522.46 5135878.85 182.16
-9755521.06 5135881.80 184.66
-9755518.64 5135874.86 185.41
-9755517.75 5135883.24 183.93
-9755520.99 5135877.42 182.00
-9755517.50 5135876.50 188.71
-9755518.70 5135874.04 185.45
-9755520.94 5135886.25 181.96
-9755518.45 5135874.01 186.18
-9755523.62 5135885.67 182.01
-9755517.84 5135881.80 182.09
-9755519.16 5135877.34 181.70
-9755519.20 5135881.74 185.47
-9755524.46 5135883.91 181.99
-9755521.62 5135883.72 185.43
-9755522.46 5135883.01 182.15
-9755518.69 5135882.61 185.87
-9755521.55 5135883.48 185.29
-9755522.48 5135874.14 182.18
-9755522.46 5135884.18 182.13
-9755519.87 5135876.60 185.24
-9755519.49 5135879.14 181.76
-9755521.23 5135884.05 183.71
-9755518.88 5135875.57 181.71
-9755518.96 5135875.27 187.64
-9755515.81 5135877.35 188.07
-9755507.08 5135886.26 180.74
-9755510.94 5135885.68 180.83
-9755515.12 5135875.83 188.63
-9755514.27 5135876.36 187.70
-9755514.31 5135873.88 186.65
-9755509.16 5135879.73 180.76
-9755509.45 5135877.34 180.73
-9755509.44 5135884.80 180.74
-9755516.94 5135875.01 187.98
-9755517.01 5135877.33 188.09
-9755514.60 5135877.32 187.54
-9755510.94 5135878.81 180.82
-9755508.59 5135879.15 180.75
-9755515.99 5135878.49 188.57
-9755510.35 5135885.11 180.73
-9755515.82 5135875.02 187.33
-9755508.56 5135878.26 180.75
-9755512.08 5135880.91 180.84
-9755516.92 5135878.88 187.56
-9755508.57 5135884.75 180.75
-9755516.94 5135882.99 182.90
-9755516.68 5135876.51 188.02
-9755506.18 5135883.85 180.75
-9755509.51 5135876.47 180.75
-9755507.06 5135885.35 180.75
-9755512.96 5135884.80 180.87
-9755513.44 5135875.03 187.60
-9755514.46 5135884.77 180.91
-9755515.13 5135877.64 187.99
-9755508.56 5135877.40 180.74
-9755506.24 5135876.20 180.77
-9755515.78 5135876.64 189.61
-9755509.44 5135883.87 180.74
-9755512.14 5135877.37 180.84
-9755514.44 5135885.42 180.91
-9755518.06 5135878.58 181.54
-9755510.93 5135884.78 180.82
-9755508.85 5135883.90 180.75
-9755507.12 5135881.49 180.75
-9755508.63 5135874.70 180.74
-9755504.47 5135875.60 180.78
-9755514.57 5135875.58 188.68
-9755516.91 5135875.57 188.16
-9755505.30 5135883.90 180.76
-9755508.55 5135885.33 180.75
-9755506.22 5135877.35 180.76
-9755514.30 5135874.15 187.71
-9755506.82 5135878.85 180.75
-9755511.81 5135875.90 180.84
-9755515.29 5135884.79 180.98
-9755505.03 5135879.71 180.76
-9755507.13 5135876.21 180.76
-9755505.33 5135882.41 180.75
-9755515.49 5135878.75 188.36
-9755513.55 5135875.76 188.29
-9755505.00 5135884.77 180.76
-9755515.31 5135885.70 180.97
-9755505.05 5135880.62 180.76
-9755514.18 5135883.92 180.89
-9755512.07 5135885.37 180.86
-9755513.68 5135876.58 187.57
-9755517.14 5135882.41 182.78
-9755506.85 5135874.10 180.76
-9755511.29 5135884.10 190.15
-9755515.05 5135879.17 180.94
-9755517.47 5135879.88 185.46
-9755513.39 5135875.83 188.41
-9755517.07 5135879.84 185.71
-9755509.98 5135886.69 190.36
-9755506.82 5135879.74 180.74
-9755505.04 5135879.14 180.75
-9755515.51 5135876.62 189.72
-9755509.59 5135882.34 190.31
-9755517.40 5135878.99 184.43
-9755512.10 5135883.00 180.84
-9755512.10 5135876.49 180.84
-9755511.56 5135874.95 190.26
-9755516.23 5135883.02 181.13
-9755515.99 5135878.82 188.61
-9755509.64 5135883.22 190.36
-9755511.24 5135884.98 190.19
-9755505.30 5135881.50 180.75
-9755514.13 5135876.49 186.40
-9755513.71 5135874.25 187.85
-9755505.29 5135885.68 180.75
-9755504.47 5135874.97 180.78
-9755507.11 5135880.64 180.75
-9755514.41 5135875.30 188.72
-9755506.22 5135875.60 180.76
-9755515.81 5135875.79 189.26
-9755511.37 5135877.52 190.16
-9755514.55 5135877.01 189.23
-9755514.75 5135882.14 180.93
-9755509.86 5135878.34 190.35
-9755506.22 5135881.18 180.74
-9755514.91 5135877.69 186.62
-9755515.58 5135875.55 187.29
-9755510.93 5135882.13 180.83
-9755504.72 5135885.36 180.75
-9755510.96 5135883.27 180.83
-9755509.56 5135884.88 190.35
-9755517.14 5135879.23 185.49
-9755509.55 5135876.59 190.38
-9755510.35 5135882.38 180.74
-9755511.30 5135878.34 190.20
-9755509.55 5135884.08 190.34
-9755514.90 5135877.94 186.63
-9755503.53 5135885.65 180.75
-9755503.63 5135874.09 180.79
-9755503.61 5135877.36 180.74
-9755503.84 5135882.99 180.75
-9755503.82 5135881.50 180.75
-9755606.59 5135861.00 182.27
-9755605.75 5135860.66 182.26
-9755602.43 5135859.79 182.23
-9755598.37 5135860.04 182.20
-9755597.49 5135860.31 182.19
-9755597.76 5135860.93 182.22
-9755604.85 5135860.98 182.26
-9755601.74 5135873.38 182.25
-9755606.83 5135866.63 182.27
-9755599.17 5135870.68 182.24
-9755608.33 5135865.08 182.28
-9755600.91 5135868.97 182.25
-9755600.08 5135871.64 182.23
-9755606.82 5135865.09 182.28
-9755602.41 5135870.75 182.25
-9755600.97 5135871.59 182.24
-9755597.66 5135872.48 182.21
-9755598.64 5135860.64 182.23
-9755601.59 5135862.69 182.26
-9755605.93 5135867.25 182.28
-9755600.67 5135869.84 182.24
-9755603.28 5135868.10 182.24
-9755600.03 5135863.29 182.25
-9755600.03 5135869.24 182.24
-9755599.19 5135863.96 182.24
-9755601.86 5135864.24 182.26
-9755603.32 5135869.22 182.26
-9755599.14 5135869.30 182.24
-9755599.11 5135871.61 182.23
-9755608.04 5135862.52 182.28
-9755604.78 5135865.18 182.27
-9755600.65 5135866.58 182.26
-9755600.94 5135868.36 182.26
-9755599.24 5135865.73 182.23
-9755601.01 5135865.40 182.25
-9755608.01 5135867.25 182.29
-9755607.73 5135865.98 182.29
-9755597.38 5135870.70 182.21
-9755605.04 5135872.28 182.25
-9755600.01 5135872.49 182.24
-9755605.60 5135869.82 182.26
-9755605.73 5135866.89 182.28
-9755597.70 5135864.77 182.24
-9755597.74 5135867.40 182.23
-9755604.19 5135871.34 182.25
-9755598.84 5135874.26 182.23
-9755601.83 5135869.01 182.26
-9755600.90 5135867.70 182.25
-9755607.98 5135868.10 182.29
-9755605.64 5135865.76 182.27
-9755604.18 5135874.06 182.24
-9755590.71 5135860.93 182.21
-9755590.08 5135864.10 182.20
-9755591.20 5135872.44 182.15
-9755591.78 5135873.35 182.15
-9755591.57 5135860.91 182.21
-9755587.71 5135864.72 182.18
-9755594.15 5135866.52 182.22
-9755592.71 5135871.00 182.14
-9755589.43 5135871.55 182.15
-9755592.68 5135869.78 182.14
-9755590.65 5135868.32 182.19
-9755589.46 5135865.92 182.18
-9755596.53 5135869.31 182.21
-9755596.54 5135867.76 182.22
-9755588.57 5135869.17 182.15
-9755590.09 5135864.79 182.19
-9755589.16 5135863.24 182.20
-9755589.12 5135872.48 182.15
-9755595.96 5135870.70 182.19
-9755593.55 5135872.46 182.14
-9755595.90 5135868.94 182.20
-9755594.12 5135873.38 182.16
-9755595.94 5135873.68 182.19
-9755595.67 5135865.08 182.23
-9755586.84 5135861.80 182.18
-9755588.57 5135871.57 182.15
-9755585.89 5135871.54 182.14
-9755588.27 5135870.92 182.15
-9755592.73 5135864.20 182.22
-9755595.00 5135865.12 182.22
-9755594.51 5135863.58 182.23
-9755588.60 5135866.85 182.17
-9755595.28 5135872.48 182.19
-9755590.87 5135867.16 182.19
-9755592.97 5135862.36 182.21
-9755595.64 5135871.58 182.19
-9755585.91 5135864.38 182.16
-9755591.83 5135861.54 182.22
-9755590.65 5135862.67 182.20
-9755586.83 5135870.63 182.15
-9755591.54 5135862.39 182.21
-9755594.51 5135869.84 182.17
-9755591.21 5135873.37 182.15
-9755587.48 5135860.26 182.17
-9755596.82 5135873.39 182.20
-9755586.18 5135866.80 182.14
-9755590.86 5135873.91 182.15
-9755589.40 5135874.26 182.15
-9755606.69 5135846.18 182.13
-9755600.21 5135845.02 182.08
-9755597.56 5135845.86 182.05
-9755599.30 5135845.25 182.06
-9755598.16 5135846.15 182.06
-9755543.79 5135874.90 193.80
-9755588.40 5135845.85 182.03
-9755587.52 5135845.77 182.04
-9755588.41 5135846.97 182.04
-9755590.40 5135846.06 182.04
-9755595.76 5135846.74 182.05
-9755589.57 5135845.24 182.05
-9755590.83 5135846.14 182.05
-9755593.98 5135847.02 182.05
-9755587.49 5135845.47 182.04
-9755587.53 5135846.96 182.05
-9755602.49 5135856.85 182.20
-9755607.55 5135847.63 182.15
-9755598.91 5135856.78 182.20
-9755607.23 5135851.85 182.19
-9755605.78 5135847.97 182.14
-9755604.86 5135855.97 182.21
-9755601.01 5135859.19 182.21
-9755600.15 5135850.85 182.13
-9755605.78 5135855.09 182.20
-9755603.40 5135857.47 182.22
-9755605.75 5135855.91 182.22
-9755603.38 5135856.80 182.22
-9755599.33 5135850.29 182.12
-9755608.39 5135855.09 182.21
-9755600.07 5135858.27 182.22
-9755608.41 5135853.61 182.22
-9755598.38 5135855.03 182.18
-9755603.44 5135853.60 182.18
-9755603.46 5135851.17 182.15
-9755605.16 5135851.25 182.16
-9755598.44 5135847.92 182.08
-9755604.87 5135849.48 182.14
-9755603.62 5135858.29 182.24
-9755603.35 5135855.92 182.20
-9755608.41 5135848.58 182.18
-9755600.77 5135853.55 182.16
-9755599.85 5135857.70 182.19
-9755605.79 5135850.32 182.16
-9755599.30 5135855.89 182.18
-9755601.67 5135851.81 182.15
-9755604.31 5135852.65 182.17
-9755601.05 5135852.68 182.14
-9755607.23 5135853.58 182.21
-9755605.76 5135854.18 182.20
-9755598.39 5135853.53 182.14
-9755600.17 5135854.46 182.17
-9755600.09 5135859.18 182.22
-9755603.95 5135855.36 182.20
-9755599.27 5135854.98 182.18
-9755597.51 5135854.17 182.15
-9755603.39 5135849.17 182.14
-9755604.92 5135848.85 182.14
-9755597.75 5135855.05 182.17
-9755607.22 5135851.24 182.18
-9755601.03 5135850.55 182.12
-9755595.70 5135854.99 182.15
-9755596.01 5135857.42 182.18
-9755589.57 5135848.47 182.06
-9755594.20 5135859.38 182.21
-9755595.99 5135856.76 182.18
-9755594.15 5135860.06 182.19
-9755586.89 5135847.86 182.05
-9755595.11 5135848.50 182.07
-9755592.52 5135851.12 182.07
-9755595.17 5135850.27 182.08
-9755587.47 5135851.72 182.10
-9755593.34 5135860.33 182.20
-9755594.58 5135852.65 182.11
-9755595.43 5135851.14 182.09
-9755586.86 5135858.24 182.17
-9755587.45 5135852.56 182.09
-9755591.03 5135847.89 182.06
-9755593.38 5135849.35 182.08
-9755591.62 5135850.26 182.08
-9755597.21 5135851.13 182.10
-9755594.85 5135854.43 182.13
-9755593.32 5135859.43 182.19
-9755597.19 5135850.00 182.09
-9755592.81 5135852.65 182.10
-9755589.53 5135854.06 182.12
-9755591.55 5135854.97 182.13
-9755589.56 5135847.91 182.05
-9755586.93 5135849.66 182.06
-9755596.05 5135848.49 182.07
-9755586.57 5135852.62 182.08
-9755591.26 5135860.25 182.20
-9755593.37 5135848.21 182.05
-9755587.50 5135854.35 182.11
-9755594.18 5135854.38 182.13
-9755594.30 5135850.88 182.09
-9755586.27 5135856.75 182.13
-9755595.75 5135849.38 182.08
-9755590.75 5135851.09 182.08
-9755593.65 5135858.30 182.18
-9755591.88 5135851.46 182.09
-9755586.87 5135859.38 182.16
-9755596.93 5135856.76 182.17
-9755586.57 5135860.02 182.15
-9755592.51 5135858.31 182.18
-9755591.01 5135859.14 182.18
-9755590.09 5135850.21 182.08
-9755586.87 5135854.92 182.12
-9755593.68 5135852.63 182.11
-9755586.02 5135848.46 182.04
-9755585.98 5135854.42 182.10
-9755583.57 5135860.26 182.16
-9755584.48 5135864.41 182.17
-9755585.01 5135871.81 182.15
-9755584.99 5135868.27 182.16
-9755584.45 5135868.28 182.15
-9755585.07 5135867.11 182.16
-9755584.17 5135861.51 182.19
-9755582.61 5135870.67 182.15
-9755583.59 5135869.43 182.15
-9755583.55 5135866.77 182.18
-9755582.72 5135861.43 182.19
-9755583.57 5135868.53 182.16
-9755582.71 5135861.21 182.18
-9755583.53 5135871.51 182.14
-9755582.68 5135871.82 182.15
-9755583.60 5135863.17 182.18
-9755582.67 5135874.16 182.16
-9755573.57 5135860.20 182.17
-9755562.93 5135860.16 182.19
-9755566.48 5135860.17 182.19
-9755567.12 5135860.15 182.19
-9755557.09 5135860.12 182.21
-9755580.96 5135861.76 182.19
-9755572.67 5135867.63 182.18
-9755575.33 5135870.91 182.17
-9755576.19 5135866.73 182.19
-9755570.93 5135861.67 182.18
-9755577.03 5135869.43 182.17
-9755573.79 5135871.46 182.16
-9755574.43 5135866.43 182.18
-9755578.56 5135864.11 182.18
-9755570.90 5135868.19 182.18
-9755575.89 5135864.07 182.17
-9755577.98 5135862.33 182.20
-9755580.33 5135868.56 182.17
-9755580.26 5135873.25 182.16
-9755576.18 5135873.24 182.17
-9755571.45 5135871.76 182.17
-9755574.99 5135862.58 182.16
-9755579.36 5135871.78 182.16
-9755580.24 5135871.50 182.16
-9755579.47 5135864.10 182.19
-9755574.70 5135872.08 182.16
-9755572.87 5135871.76 182.16
-9755578.79 5135871.50 182.17
-9755573.87 5135865.23 182.18
-9755575.29 5135872.66 182.17
-9755580.28 5135872.38 182.16
-9755572.93 5135869.42 182.16
-9755571.18 5135869.98 182.17
-9755581.20 5135863.50 182.20
-9755579.42 5135869.71 182.18
-9755571.44 5135865.82 182.18
-9755579.36 5135868.56 182.18
-9755571.80 5135862.60 182.17
-9755574.73 5135869.11 182.16
-9755573.80 5135868.23 182.19
-9755581.76 5135866.43 182.17
-9755574.67 5135870.80 182.17
-9755582.11 5135864.12 182.20
-9755571.18 5135864.05 182.18
-9755581.26 5135860.79 182.19
-9755581.81 5135868.86 182.16
-9755571.17 5135862.34 182.17
-9755571.82 5135863.10 182.19
-9755575.23 5135865.60 182.18
-9755573.59 5135861.96 182.18
-9755577.98 5135867.32 182.17
-9755578.77 5135869.97 182.17
-9755572.36 5135864.08 182.19
-9755581.84 5135861.71 182.19
-9755578.03 5135864.37 182.17
-9755571.48 5135866.71 182.19
-9755575.36 5135861.39 182.17
-9755581.79 5135862.39 182.18
-9755564.44 5135861.02 182.20
-9755568.00 5135861.71 182.18
-9755570.53 5135871.71 182.18
-9755568.53 5135870.83 182.17
-9755565.27 5135872.57 182.22
-9755566.45 5135867.56 182.20
-9755568.51 5135869.90 182.18
-9755564.74 5135861.63 182.21
-9755565.58 5135862.54 182.19
-9755566.16 5135869.91 182.21
-9755560.56 5135868.47 182.21
-9755558.19 5135867.54 182.19
-9755562.95 5135861.93 182.19
-9755561.45 5135863.13 182.22
-9755566.40 5135873.17 182.20
-9755565.28 5135870.20 182.20
-9755557.89 5135873.19 182.20
-9755562.06 5135866.12 182.20
-9755560.65 5135867.26 182.21
-9755561.49 5135861.64 182.23
-9755568.83 5135872.33 182.19
-9755569.71 5135866.38 182.19
-9755566.14 5135864.89 182.18
-9755567.68 5135867.57 182.19
-9755564.36 5135869.37 182.18
-9755557.86 5135872.52 182.20
-9755563.15 5135866.06 182.19
-9755568.84 5135867.32 182.20
-9755560.54 5135872.57 182.23
-9755559.63 5135872.54 182.21
-9755565.28 5135873.25 182.21
-9755562.06 5135863.43 182.21
-9755557.89 5135868.41 182.21
-9755564.43 5135867.24 182.19
-9755561.48 5135865.17 182.21
-9755561.52 5135862.55 182.22
-9755560.55 5135873.46 182.23
-9755563.84 5135863.13 182.21
-9755562.89 5135870.54 182.21
-9755569.71 5135869.93 182.18
-9755570.30 5135861.97 182.19
-9755569.45 5135863.15 182.18
-9755565.25 5135869.08 182.18
-9755570.27 5135869.36 182.18
-9755561.10 5135868.47 182.21
-9755567.39 5135866.70 182.20
-9755570.58 5135864.39 182.19
-9755557.92 5135865.18 182.20
-9755566.15 5135866.38 182.19
-9755565.32 5135868.44 182.19
-9755564.37 5135865.22 182.21
-9755557.93 5135866.65 182.21
-9755558.82 5135860.67 182.21
-9755567.35 5135868.19 182.20
-9755558.84 5135866.01 182.21
-9755563.80 5135864.90 182.21
-9755563.78 5135869.90 182.21
-9755568.25 5135860.75 182.18
-9755561.38 5135873.15 182.22
-9755567.37 5135861.04 182.19
-9755563.84 5135861.64 182.21
-9755567.85 5135872.94 182.20
-9755565.37 5135861.94 182.20
-9755562.88 5135867.56 182.19
-9755560.62 5135866.94 182.20
-9755562.05 5135865.22 182.21
-9755561.46 5135864.27 182.21
-9755566.14 5135872.07 182.21
-9755562.94 5135871.72 182.22
-9755563.84 5135861.02 182.19
-9755564.68 5135868.35 182.20
-9755557.29 5135869.33 182.22
-9755556.49 5135865.80 182.21
-9755557.38 5135865.75 182.21
-9755556.43 5135869.02 182.20
-9755580.28 5135874.15 182.16
-9755567.00 5135874.11 182.20
-9755560.55 5135874.08 182.21
-9755559.02 5135874.02 182.22
-9755584.22 5135845.50 182.03
-9755583.34 5135846.92 182.03
-9755585.17 5135848.38 182.04
-9755585.08 5135854.95 182.10
-9755585.29 5135857.67 182.14
-9755585.14 5135847.81 182.04
-9755586.00 5135855.86 182.12
-9755585.12 5135856.75 182.14
-9755584.47 5135856.78 182.13
-9755585.18 5135850.22 182.07
-9755584.51 5135857.31 182.13
-9755584.49 5135853.46 182.08
-9755582.74 5135857.63 182.15
-9755583.65 5135859.08 182.15
-9755583.37 5135848.74 182.07
-9755583.42 5135850.17 182.05
-9755583.64 5135854.40 182.10
-9755582.75 5135851.13 182.07
-9755583.66 5135851.98 182.07
-9755582.74 5135849.31 182.05
-9755583.62 5135853.26 182.09
-9755580.45 5135846.06 182.01
-9755577.53 5135846.04 182.04
-9755571.33 5135846.03 182.06
-9755574.23 5135846.58 182.04
-9755573.34 5135846.86 182.05
-9755581.96 5135845.21 182.01
-9755576.33 5135846.97 182.05
-9755576.93 5135846.61 182.04
-9755577.75 5135845.10 182.01
-9755581.33 5135846.93 182.02
-9755581.87 5135846.63 182.03
-9755575.46 5135845.15 182.03
-9755580.44 5135846.66 182.00
-9755571.01 5135846.83 182.07
-9755562.16 5135845.95 182.04
-9755562.16 5135847.13 182.06
-9755563.04 5135846.84 182.05
-9755570.43 5135845.92 182.06
-9755560.41 5135845.34 182.05
-9755558.86 5135845.93 182.03
-9755566.23 5135846.86 182.05
-9755568.62 5135846.24 182.06
-9755567.48 5135845.39 182.04
-9755569.54 5135845.04 182.05
-9755569.54 5135845.97 182.07
-9755569.22 5135844.19 182.04
-9755563.67 5135847.08 182.05
-9755563.09 5135845.40 182.04
-9755557.15 5135846.19 182.04
-9755557.12 5135845.06 182.02
-9755556.27 5135846.22 182.03
-9755579.52 5135850.15 182.05
-9755574.75 5135854.27 182.11
-9755574.79 5135855.19 182.10
-9755580.30 5135859.07 182.15
-9755578.67 5135847.78 182.04
-9755577.97 5135858.13 182.15
-9755573.07 5135854.33 182.10
-9755573.01 5135851.85 182.09
-9755575.40 5135850.14 182.08
-9755578.00 5135854.91 182.12
-9755573.61 5135852.53 182.09
-9755575.96 5135856.68 182.12
-9755580.14 5135847.85 182.03
-9755574.54 5135849.81 182.06
-9755581.82 5135857.62 182.13
-9755575.14 5135851.08 182.07
-9755574.58 5135847.52 182.06
-9755573.64 5135854.34 182.10
-9755581.61 5135852.02 182.08
-9755579.55 5135851.06 182.06
-9755576.88 5135848.69 182.06
-9755571.25 5135855.17 182.13
-9755572.12 5135851.69 182.09
-9755571.26 5135853.35 182.10
-9755581.87 5135850.18 182.06
-9755574.79 5135851.05 182.08
-9755576.00 5135850.12 182.07
-9755578.55 5135856.71 182.11
-9755577.19 5135853.43 182.10
-9755575.96 5135854.39 182.09
-9755571.83 5135853.34 182.11
-9755576.33 5135851.06 182.07
-9755579.50 5135857.58 182.14
-9755581.01 5135852.59 182.08
-9755577.74 5135853.43 182.11
-9755580.94 5135848.75 182.05
-9755573.01 5135855.50 182.12
-9755581.90 5135852.53 182.07
-9755571.01 5135850.15 182.08
-9755581.25 5135853.40 182.08
-9755572.11 5135855.80 182.13
-9755573.05 5135853.43 182.10
-9755576.02 5135848.40 182.05
-9755580.10 5135850.15 182.06
-9755573.00 5135852.57 182.09
-9755578.63 5135857.63 182.13
-9755571.87 5135850.10 182.08
-9755571.29 5135848.61 182.08
-9755579.47 5135856.69 182.13
-9755573.95 5135848.68 182.06
-9755577.74 5135854.26 182.11
-9755578.00 5135859.93 182.17
-9755581.87 5135851.10 182.07
-9755572.13 5135856.70 182.15
-9755572.18 5135849.01 182.07
-9755564.53 5135851.90 182.10
-9755562.96 5135856.64 182.15
-9755561.55 5135847.79 182.05
-9755560.58 5135858.34 182.19
-9755569.82 5135847.74 182.06
-9755563.92 5135855.14 182.13
-9755568.04 5135850.11 182.08
-9755565.37 5135852.83 182.12
-9755567.73 5135856.05 182.14
-9755557.96 5135854.17 182.12
-9755568.63 5135850.17 182.08
-9755562.08 5135855.08 182.14
-9755557.97 5135849.44 182.07
-9755564.42 5135858.97 182.18
-9755560.65 5135848.56 182.05
-9755568.92 5135850.99 182.09
-9755569.77 5135859.31 182.19
-9755558.88 5135857.50 182.17
-9755568.86 5135857.55 182.17
-9755566.18 5135856.61 182.14
-9755559.16 5135850.07 182.09
-9755560.31 5135852.70 182.11
-9755561.54 5135850.35 182.09
-9755568.57 5135858.99 182.18
-9755562.10 5135856.89 182.15
-9755560.63 5135859.16 182.18
-9755563.98 5135849.29 182.08
-9755564.52 5135850.07 182.08
-9755565.37 5135850.99 182.10
-9755566.91 5135848.35 182.06
-9755568.56 5135856.64 182.15
-9755562.97 5135852.49 182.11
-9755564.76 5135855.12 182.14
-9755558.57 5135855.06 182.13
-9755569.50 5135857.53 182.17
-9755569.50 5135856.61 182.15
-9755567.73 5135858.72 182.20
-9755566.86 5135854.29 182.15
-9755566.29 5135851.88 182.10
-9755566.22 5135857.50 182.15
-9755566.58 5135852.75 182.11
-9755559.75 5135852.08 182.11
-9755568.91 5135849.23 182.09
-9755559.84 5135849.46 182.08
-9755557.99 5135850.10 182.08
-9755566.22 5135859.30 182.19
-9755558.92 5135848.62 182.07
-9755558.02 5135853.29 182.11
-9755570.40 5135847.75 182.07
-9755566.89 5135847.70 182.06
-9755565.38 5135850.13 182.09
-9755564.51 5135851.00 182.09
-9755561.22 5135855.11 182.14
-9755569.77 5135849.83 182.08
-9755570.47 5135849.50 182.09
-9755557.12 5135849.44 182.07
-9755557.11 5135852.68 182.12
-9755556.51 5135857.43 182.17
-9755557.39 5135854.23 182.13
-9755557.40 5135853.30 182.12
-9755556.53 5135852.72 182.11
-9755555.56 5135871.70 182.21
-9755555.44 5135873.13 182.21
-9755555.57 5135862.77 182.20
-9755555.56 5135870.79 182.19
-9755555.53 5135860.69 182.19
-9755548.15 5135860.04 182.15
-9755554.65 5135859.81 182.19
-9755550.56 5135860.08 182.18
-9755539.09 5135859.96 182.08
-9755543.23 5135860.09 182.14
-9755534.11 5135860.00 182.01
-9755535.52 5135859.97 182.01
-9755531.74 5135859.98 181.99
-9755555.56 5135869.28 182.19
-9755549.03 5135873.97 182.21
-9755544.69 5135860.02 182.12
-9755548.13 5135868.34 182.20
-9755552.21 5135871.70 182.20
-9755549.67 5135864.21 182.20
-9755547.31 5135868.93 182.18
-9755545.54 5135863.32 182.18
-9755544.99 5135868.33 182.18
-9755548.75 5135867.18 182.19
-9755554.72 5135862.74 182.20
-9755549.96 5135867.16 182.20
-9755545.76 5135871.65 182.19
-9755548.19 5135867.49 182.20
-9755549.10 5135861.54 182.19
-9755554.08 5135864.21 182.20
-9755554.09 5135865.12 182.20
-9755552.01 5135863.34 182.20
-9755551.98 5135867.49 182.19
-9755546.40 5135868.30 182.17
-9755549.00 5135873.08 182.21
-9755548.12 5135873.35 182.20
-9755553.15 5135864.87 182.20
-9755547.27 5135869.81 182.19
-9755550.51 5135871.64 182.20
-9755549.13 5135860.65 182.18
-9755553.17 5135870.99 182.20
-9755546.45 5135864.18 182.18
-9755553.83 5135862.43 182.19
-9755552.93 5135863.38 182.20
-9755547.04 5135860.97 182.17
-9755547.35 5135864.80 182.18
-9755552.22 5135869.03 182.21
-9755553.13 5135872.54 182.22
-9755545.86 5135866.51 182.18
-9755546.46 5135861.00 182.16
-9755550.55 5135860.93 182.19
-9755546.42 5135870.99 182.17
-9755544.65 5135862.69 182.17
-9755554.04 5135865.73 182.21
-9755548.15 5135865.70 182.20
-9755548.17 5135870.15 182.19
-9755553.19 5135871.67 182.19
-9755550.85 5135870.20 182.21
-9755547.36 5135865.72 182.19
-9755546.38 5135869.82 182.18
-9755551.64 5135872.48 182.19
-9755547.21 5135873.39 182.19
-9755553.80 5135869.60 182.20
-9755552.38 5135861.54 182.20
-9755548.15 5135869.25 182.19
-9755554.06 5135871.65 182.20
-9755548.75 5135864.78 182.20
-9755552.34 5135868.36 182.20
-9755543.82 5135863.31 182.19
-9755543.12 5135872.49 182.15
-9755536.69 5135865.02 182.04
-9755540.74 5135874.28 182.10
-9755538.98 5135865.63 182.09
-9755543.19 5135863.30 182.17
-9755535.79 5135866.81 182.01
-9755539.02 5135866.79 182.07
-9755542.31 5135867.43 182.15
-9755535.13 5135871.53 181.96
-9755534.02 5135867.37 182.01
-9755534.90 5135860.97 182.03
-9755541.71 5135865.91 182.15
-9755542.33 5135864.48 182.16
-9755536.37 5135868.31 181.99
-9755532.25 5135860.82 182.01
-9755536.37 5135867.38 182.01
-9755531.92 5135871.57 181.98
-9755534.86 5135872.45 181.95
-9755538.15 5135870.66 182.00
-9755535.57 5135860.92 182.03
-9755542.27 5135861.53 182.16
-9755532.28 5135867.42 182.01
-9755539.09 5135860.87 182.09
-9755540.77 5135867.75 182.12
-9755537.54 5135872.49 181.98
-9755535.24 5135865.67 182.03
-9755531.68 5135867.69 182.02
-9755531.64 5135864.73 182.02
-9755541.43 5135867.19 182.13
-9755542.23 5135873.35 182.13
-9755531.05 5135868.85 182.02
-9755536.38 5135872.42 181.93
-9755534.06 5135865.05 182.04
-9755541.46 5135868.61 182.13
-9755532.56 5135866.53 182.02
-9755539.04 5135871.55 182.05
-9755540.79 5135868.59 182.11
-9755533.13 5135867.66 182.01
-9755539.30 5135869.22 182.06
-9755535.19 5135864.10 182.04
-9755538.08 5135867.42 182.04
-9755537.59 5135865.94 182.05
-9755543.14 5135863.91 182.17
-9755535.15 5135874.22 181.96
-9755539.92 5135869.16 182.07
-9755535.51 5135868.33 181.99
-9755544.07 5135864.19 182.17
-9755538.42 5135873.36 182.01
-9755536.69 5135861.46 182.05
-9755533.13 5135866.74 182.01
-9755538.40 5135871.54 182.02
-9755531.63 5135873.32 182.00
-9755531.07 5135871.55 182.01
-9755530.79 5135870.92 182.02
-9755540.84 5135870.68 182.11
-9755529.90 5135870.06 182.03
-9755531.10 5135864.78 182.02
-9755530.21 5135862.62 182.02
-9755530.79 5135865.91 182.02
-9755530.54 5135861.72 182.00
-9755529.32 5135873.24 182.02
-9755530.20 5135873.20 182.02
-9755530.25 5135861.71 182.00
-9755529.34 5135866.49 182.03
-9755529.27 5135870.06 182.04
-9755529.30 5135870.96 182.04
-9755538.71 5135873.97 182.04
-9755533.99 5135873.90 181.98
-9755529.39 5135859.98 181.98
-9755529.35 5135861.71 181.99
-9755528.41 5135859.95 181.98
-9755528.15 5135872.34 182.01
-9755528.12 5135868.56 182.05
-9755528.14 5135865.89 182.05
-9755527.49 5135872.36 182.01
-9755527.57 5135862.33 182.03
-9755526.62 5135870.69 182.02
-9755528.17 5135863.20 182.03
-9755527.27 5135863.49 182.05
-9755526.69 5135863.25 182.05
-9755528.19 5135861.12 182.00
-9755528.36 5135870.87 182.02
-9755550.43 5135845.27 182.00
-9755547.11 5135845.25 181.98
-9755545.60 5135846.12 181.98
-9755555.68 5135846.18 182.03
-9755546.26 5135846.18 181.99
-9755550.65 5135846.19 182.00
-9755547.14 5135846.14 181.99
-9755545.04 5135845.21 181.97
-9755553.91 5135844.65 182.02
-9755548.85 5135844.70 181.97
-9755548.01 5135846.80 182.01
-9755538.02 5135844.65 181.89
-9755538.28 5135845.19 181.89
-9755538.93 5135846.09 181.91
-9755542.42 5135844.64 181.94
-9755540.63 5135845.26 181.95
-9755534.78 5135845.22 181.87
-9755536.86 5135845.23 181.89
-9755541.52 5135845.20 181.94
-9755533.29 5135845.82 181.87
-9755539.12 5135844.35 181.90
-9755535.02 5135844.58 181.87
-9755532.33 5135846.93 181.85
-9755531.82 5135846.98 181.84
-9755530.03 5135844.56 181.85
-9755529.74 5135846.04 181.85
-9755553.04 5135847.01 182.05
-9755555.30 5135854.11 182.14
-9755555.58 5135858.62 182.16
-9755544.74 5135855.88 182.10
-9755551.22 5135857.73 182.17
-9755555.33 5135857.50 182.17
-9755555.07 5135850.31 182.10
-9755550.05 5135850.32 182.07
-9755547.11 5135848.25 182.03
-9755547.41 5135852.62 182.07
-9755552.99 5135854.47 182.14
-9755549.78 5135851.76 182.10
-9755552.96 5135855.66 182.15
-9755546.24 5135848.52 182.01
-9755554.44 5135855.06 182.14
-9755546.22 5135852.69 182.08
-9755547.94 5135859.18 182.15
-9755553.60 5135850.35 182.08
-9755550.31 5135855.97 182.13
-9755552.96 5135858.35 182.18
-9755549.73 5135855.37 182.14
-9755552.09 5135851.77 182.09
-9755548.92 5135849.95 182.07
-9755553.24 5135856.51 182.15
-9755552.99 5135851.80 182.10
-9755553.19 5135860.09 182.18
-9755554.22 5135847.09 182.05
-9755553.91 5135847.66 182.06
-9755553.90 5135852.40 182.11
-9755550.58 5135859.21 182.18
-9755545.65 5135849.41 182.03
-9755552.35 5135858.34 182.16
-9755547.99 5135850.27 182.06
-9755544.72 5135850.89 182.05
-9755550.64 5135851.74 182.09
-9755545.05 5135847.66 182.00
-9755544.97 5135855.05 182.10
-9755554.75 5135854.15 182.13
-9755551.56 5135847.97 182.03
-9755548.83 5135858.60 182.16
-9755554.81 5135849.44 182.07
-9755553.02 5135847.71 182.04
-9755552.16 5135847.06 182.04
-9755547.13 5135853.53 182.09
-9755547.91 5135854.15 182.12
-9755545.59 5135854.48 182.08
-9755555.38 5135851.83 182.10
-9755549.16 5135853.53 182.12
-9755533.21 5135846.70 181.86
-9755543.22 5135859.18 182.11
-9755539.08 5135858.58 182.05
-9755536.48 5135854.97 181.91
-9755540.94 5135846.97 181.96
-9755543.28 5135849.38 182.01
-9755538.88 5135851.10 181.94
-9755532.36 5135858.21 181.98
-9755539.15 5135847.59 181.93
-9755537.59 5135858.25 182.02
-9755539.11 5135857.03 182.03
-9755542.41 5135848.50 182.00
-9755543.84 5135854.10 182.07
-9755536.49 5135855.85 181.94
-9755539.03 5135859.13 182.06
-9755533.56 5135847.61 181.84
-9755533.54 5135849.31 181.84
-9755541.42 5135855.92 182.05
-9755534.37 5135859.43 182.01
-9755535.01 5135853.49 181.84
-9755535.61 5135857.65 181.97
-9755541.76 5135852.01 182.03
-9755534.98 5135852.60 181.83
-9755536.80 5135851.76 181.87
-9755534.35 5135858.23 181.99
-9755533.45 5135858.55 181.98
-9755540.02 5135848.45 181.95
-9755536.80 5135849.39 181.88
-9755533.51 5135852.63 181.78
-9755539.99 5135856.75 182.03
-9755543.24 5135854.07 182.07
-9755535.06 5135846.99 181.87
-9755540.03 5135849.37 181.98
-9755537.96 5135850.26 181.91
-9755542.34 5135857.68 182.09
-9755532.67 5135850.80 181.82
-9755540.64 5135854.39 182.01
-9755540.61 5135853.51 182.01
-9755541.55 5135850.84 182.01
-9755542.36 5135854.12 182.05
-9755537.43 5135850.60 181.91
-9755534.41 5135855.26 181.90
-9755540.82 5135859.13 182.08
-9755540.05 5135852.05 181.99
-9755538.00 5135851.76 181.92
-9755542.38 5135847.60 181.99
-9755538.24 5135853.81 181.95
-9755539.15 5135848.45 181.94
-9755543.30 5135851.75 182.06
-9755538.28 5135847.60 181.93
-9755534.98 5135858.56 182.00
-9755540.06 5135850.90 181.97
-9755543.24 5135857.67 182.09
-9755535.87 5135855.82 181.92
-9755535.02 5135849.33 181.84
-9755531.76 5135850.17 181.82
-9755543.21 5135852.94 182.07
-9755534.10 5135852.88 181.80
-9755543.27 5135854.97 182.07
-9755543.84 5135851.17 182.05
-9755535.57 5135854.06 181.86
-9755539.18 5135849.36 181.94
-9755537.38 5135848.80 181.90
-9755537.98 5135847.00 181.91
-9755541.48 5135857.08 182.06
-9755535.23 5135856.75 181.95
-9755540.10 5135847.58 181.95
-9755534.43 5135853.51 181.84
-9755536.82 5135852.60 181.89
-9755540.91 5135850.24 181.98
-9755531.71 5135859.07 181.99
-9755534.44 5135847.88 181.86
-9755533.52 5135851.70 181.79
-9755531.11 5135857.61 181.96
-9755536.45 5135857.66 181.99
-9755539.14 5135853.81 181.97
-9755530.58 5135852.56 181.86
-9755529.93 5135855.84 181.93
-9755531.11 5135854.98 181.90
-9755530.02 5135854.34 181.90
-9755530.60 5135850.23 181.85
-9755530.19 5135856.72 181.95
-9755530.02 5135850.21 181.85
-9755529.99 5135847.48 181.84
-9755530.88 5135853.50 181.87
-9755530.24 5135851.67 181.86
-9755529.40 5135852.59 181.88
-9755530.02 5135849.33 181.86
-9755530.89 5135847.55 181.84
-9755528.30 5135844.27 181.85
-9755526.54 5135846.35 181.86
-9755527.41 5135844.56 181.86
-9755527.42 5135846.07 181.85
-9755528.11 5135858.19 181.96
-9755527.65 5135847.00 181.84
-9755527.26 5135859.13 181.99
-9755528.19 5135853.42 181.90
-9755527.55 5135856.13 181.93
-9755526.73 5135856.70 181.95
-9755527.35 5135857.61 181.97
-9755527.24 5135858.46 181.98
-9755526.40 5135855.18 181.93
-9755526.70 5135858.50 181.98
-9755526.99 5135851.02 181.87
-9755526.48 5135848.41 181.84
-9755526.49 5135846.66 181.85
-9755526.73 5135854.38 181.91
-9755521.11 5135859.93 182.06
-9755521.68 5135859.02 182.12
-9755525.21 5135859.05 182.01
-9755511.16 5135859.96 183.70
-9755511.33 5135859.53 184.13
-9755509.60 5135859.02 180.72
-9755511.66 5135859.80 185.07
-9755511.93 5135859.93 180.85
-9755515.45 5135859.93 181.06
-9755507.83 5135859.59 180.75
-9755506.67 5135859.32 180.77
-9755514.61 5135859.06 180.91
-9755517.54 5135859.34 181.41
-9755503.40 5135859.00 180.79
-9755520.19 5135865.77 181.94
-9755519.27 5135865.79 183.80
-9755526.05 5135863.49 182.06
-9755518.42 5135866.57 186.09
-9755518.13 5135864.66 182.23
-9755519.02 5135869.35 182.12
-9755524.85 5135871.48 182.03
-9755519.59 5135865.81 182.67
-9755519.64 5135860.84 181.80
-9755518.45 5135865.92 185.22
-9755517.54 5135866.80 187.12
-9755521.09 5135865.24 182.08
-9755524.17 5135871.77 182.04
-9755518.46 5135867.26 186.24
-9755525.78 5135860.86 182.04
-9755521.64 5135864.93 182.15
-9755518.44 5135865.06 185.29
-9755524.02 5135862.31 182.10
-9755521.65 5135868.54 182.14
-9755525.74 5135872.39 182.02
-9755517.84 5135861.08 181.46
-9755520.20 5135866.77 181.93
-9755517.50 5135873.32 182.87
-9755519.28 5135867.75 183.16
-9755519.61 5135866.58 184.90
-9755521.05 5135870.86 182.06
-9755523.44 5135865.22 182.10
-9755519.32 5135861.70 181.73
-9755518.43 5135864.13 181.62
-9755518.20 5135867.32 187.12
-9755525.28 5135860.84 182.05
-9755522.79 5135869.11 182.21
-9755517.58 5135865.92 186.37
-9755520.15 5135870.89 181.91
-9755522.59 5135863.46 182.27
-9755518.45 5135865.58 186.43
-9755522.86 5135861.72 182.19
-9755518.51 5135869.05 183.08
-9755520.22 5135864.36 181.90
-9755525.19 5135863.53 182.08
-9755520.71 5135867.53 183.12
-9755524.28 5135865.89 182.10
-9755522.18 5135870.53 182.20
-9755525.20 5135870.03 182.05
-9755520.21 5135867.68 182.32
-9755518.21 5135866.20 186.74
-9755521.39 5135863.14 182.13
-9755524.95 5135864.07 182.10
-9755518.95 5135870.87 181.70
-9755523.41 5135864.39 182.12
-9755518.64 5135865.89 181.78
-9755522.55 5135868.22 182.23
-9755519.32 5135865.20 182.59
-9755523.39 5135863.50 182.12
-9755520.13 5135866.64 183.59
-9755520.19 5135861.70 181.90
-9755523.42 5135869.12 182.05
-9755517.60 5135868.98 184.00
-9755517.85 5135862.60 181.50
-9755525.17 5135866.72 182.08
-9755525.12 5135865.83 182.09
-9755524.03 5135865.24 182.10
-9755518.98 5135863.19 181.69
-9755524.02 5135861.10 182.09
-9755519.38 5135868.73 184.08
-9755520.46 5135862.26 183.98
-9755522.49 5135873.24 182.17
-9755518.42 5135864.62 184.19
-9755518.26 5135863.72 184.19
-9755517.79 5135870.87 181.46
-9755519.94 5135866.34 184.87
-9755521.64 5135868.80 182.13
-9755516.89 5135872.58 183.34
-9755517.79 5135865.03 185.36
-9755517.55 5135867.54 187.18
-9755515.25 5135865.07 184.86
-9755509.53 5135866.11 180.71
-9755516.13 5135865.07 186.47
-9755516.96 5135863.44 181.34
-9755506.04 5135861.09 180.76
-9755516.07 5135866.58 188.83
-9755516.98 5135869.22 185.38
-9755506.92 5135867.33 180.77
-9755516.94 5135864.08 181.37
-9755509.38 5135860.89 190.94
-9755508.65 5135871.77 180.74
-9755515.99 5135873.27 181.92
-9755510.28 5135860.91 190.94
-9755516.72 5135866.71 189.67
-9755517.00 5135865.65 186.97
-9755505.95 5135871.71 180.77
-9755516.70 5135869.23 184.91
-9755506.28 5135869.97 180.77
-9755506.01 5135872.37 180.75
-9755515.12 5135873.20 183.16
-9755505.15 5135869.36 180.79
-9755511.32 5135866.46 180.81
-9755511.31 5135862.56 180.81
-9755508.72 5135861.38 180.73
-9755510.80 5135860.36 190.41
-9755511.16 5135860.85 190.99
-9755511.86 5135870.27 180.82
-9755515.98 5135873.16 183.13
-9755510.40 5135862.57 180.78
-9755507.19 5135870.82 180.77
-9755516.14 5135864.04 186.16
-9755515.47 5135860.84 181.06
-9755511.88 5135868.85 180.83
-9755517.52 5135872.83 185.26
-9755507.48 5135869.36 180.78
-9755506.87 5135863.46 180.76
-9755517.65 5135866.69 187.65
-9755512.50 5135867.63 180.84
-9755505.17 5135861.61 180.80
-9755508.71 5135860.77 180.73
-9755504.76 5135867.51 180.78
-9755510.13 5135871.48 180.73
-9755511.58 5135867.58 180.82
-9755517.48 5135867.61 188.01
-9755505.45 5135859.91 180.78
-9755516.30 5135866.02 187.00
-9755515.48 5135872.65 182.96
-9755514.56 5135861.70 180.92
-9755515.27 5135866.07 188.09
-9755511.60 5135866.82 190.63
-9755512.22 5135864.94 180.82
-9755516.03 5135864.94 181.18
-9755516.28 5135873.22 181.20
-9755516.08 5135862.29 181.19
-9755509.57 5135864.19 190.83
-9755515.12 5135873.38 185.36
-9755515.44 5135864.94 181.05
-9755513.72 5135864.96 180.87
-9755516.04 5135864.47 185.60
-9755516.94 5135861.09 181.32
-9755516.74 5135865.02 186.96
-9755508.03 5135868.50 180.76
-9755510.87 5135860.11 188.07
-9755515.23 5135873.08 186.91
-9755506.64 5135865.83 180.77
-9755508.36 5135864.33 180.72
-9755511.18 5135862.37 191.02
-9755511.19 5135868.57 190.56
-9755515.15 5135872.65 183.45
-9755505.06 5135873.18 180.77
-9755505.08 5135870.86 180.78
-9755509.25 5135864.97 180.71
-9755513.69 5135861.67 180.87
-9755507.51 5135862.61 180.76
