-9755012.24 5135410.63 178.86
-9755017.54 5135410.88 179.80
-9755015.49 5135410.91 178.88
-9755015.17 5135407.33 178.91
-9755017.99 5135412.07 179.46
-9755017.58 5135405.60 178.93
-9755017.31 5135410.90 179.79
-9755017.26 5135406.13 178.92
-9755018.76 5135410.59 179.74
-9755018.20 5135410.63 179.83
-9755013.75 5135405.25 178.92
-9755015.50 5135407.11 178.93
-9755011.08 5135410.02 178.85
-9755017.60 5135410.00 179.67
-9755017.06 5135412.21 179.93
-9755017.53 5135412.14 178.84
-9755011.32 5135410.24 178.84
-9755014.33 5135409.14 178.89
-9755018.50 5135412.28 179.63
-9755017.02 5135405.03 178.93
-9755017.45 5135409.80 179.65
-9755017.34 5135411.33 179.83
-9755016.99 5135410.07 179.64
-9755017.33 5135411.11 179.82
-9755018.37 5135409.97 179.70
-9755017.47 5135410.48 179.69
-9755017.27 5135411.78 178.86
-9755018.44 5135411.05 179.83
-9755018.12 5135411.05 179.84
-9755016.98 5135408.30 178.89
-9755018.42 5135410.62 179.80
-9755011.97 5135409.98 178.85
-9755016.89 5135411.35 179.88
-9755012.00 5135406.44 178.90
-9755012.88 5135405.85 178.92
-9755013.78 5135406.15 178.92
-9755016.39 5135406.17 178.92
-9755018.24 5135409.75 179.66
-9755016.37 5135410.64 178.88
-9755015.58 5135406.16 178.93
-9755014.27 5135407.65 178.90
-9755015.50 5135407.62 178.92
-9755016.93 5135411.78 179.94
-9755017.62 5135409.60 179.41
-9755014.03 5135406.78 178.91
-9755018.49 5135409.95 179.66
-9755022.30 5135397.91 178.93
-9755019.09 5135397.60 178.99
-9755019.68 5135399.31 178.96
-9755021.14 5135399.05 178.94
-9755020.89 5135396.71 178.98
-9755019.71 5135396.41 178.99
-9755021.23 5135394.06 179.00
-9755021.73 5135400.02 178.92
-9755020.90 5135399.95 178.94
-9755021.15 5135400.82 178.92
-9755020.60 5135394.33 179.00
-9755019.73 5135393.72 179.02
-9755022.07 5135396.74 178.95
-9755019.75 5135394.38 179.02
-9755020.57 5135398.81 178.96
-9755021.49 5135395.25 178.98
-9755019.98 5135394.36 179.02
-9755022.07 5135393.50 178.99
-9755020.58 5135400.00 178.95
-9755019.95 5135400.85 178.94
-9755021.76 5135403.26 178.89
-9755019.41 5135402.37 178.95
-9755020.54 5135403.20 178.91
-9755020.51 5135401.46 178.91
-9755020.55 5135402.97 178.92
-9755021.74 5135402.37 178.91
-9755020.23 5135404.17 178.90
-9755019.93 5135405.32 178.90
-9755022.01 5135404.71 178.87
-9755019.10 5135401.72 178.95
-9755021.10 5135403.24 178.91
-9755013.81 5135399.92 178.99
-9755012.03 5135397.62 178.98
-9755013.77 5135400.76 178.97
-9755015.25 5135395.80 179.04
-9755014.68 5135400.84 178.99
-9755014.09 5135398.43 179.00
-9755014.96 5135399.08 179.01
-9755012.29 5135399.89 178.97
-9755018.53 5135395.81 179.01
-9755014.39 5135396.66 179.02
-9755017.92 5135399.11 178.99
-9755015.00 5135399.33 179.01
-9755017.36 5135396.95 179.01
-9755016.45 5135396.11 179.03
-9755012.95 5135395.48 179.02
-9755011.77 5135399.02 178.96
-9755016.46 5135399.67 178.99
-9755013.21 5135394.28 179.04
-9755012.95 5135394.32 179.04
-9755017.65 5135394.29 179.04
-9755013.84 5135394.27 179.04
-9755014.99 5135398.15 179.02
-9755017.37 5135394.32 179.03
-9755012.36 5135396.11 179.01
-9755015.30 5135397.57 179.04
-9755016.80 5135394.31 179.04
-9755014.42 5135395.77 179.03
-9755014.65 5135395.53 179.05
-9755016.73 5135398.21 178.99
-9755012.88 5135398.41 179.01
-9755014.70 5135397.53 179.02
-9755013.77 5135400.55 178.99
-9755011.74 5135399.89 178.97
-9755015.57 5135399.33 179.01
-9755012.94 5135397.56 179.00
-9755017.65 5135393.46 179.06
-9755012.36 5135397.23 179.01
-9755015.26 5135399.91 179.02
-9755016.46 5135400.85 178.98
-9755015.83 5135401.98 178.98
-9755016.08 5135402.36 178.97
-9755017.02 5135404.71 178.94
-9755012.86 5135404.34 178.92
-9755015.22 5135404.36 178.95
-9755016.41 5135402.88 178.96
-9755018.22 5135402.65 178.94
-9755015.88 5135404.11 178.95
-9755012.91 5135401.42 178.96
-9755018.73 5135402.05 178.95
-9755016.16 5135402.57 178.97
-9755017.95 5135402.91 178.95
-9755018.77 5135403.83 178.91
-9755017.86 5135402.03 178.97
-9755013.49 5135403.47 178.94
-9755016.11 5135404.13 178.94
-9755012.93 5135402.31 178.95
-9755014.38 5135403.21 178.95
-9755014.66 5135402.84 178.97
-9755011.66 5135405.26 178.90
-9755013.15 5135402.57 178.95
-9755016.99 5135403.82 178.95
-9755025.08 5135391.08 178.97
-9755027.08 5135392.88 178.88
-9755026.20 5135391.13 178.93
-9755028.00 5135392.00 178.87
-9755027.36 5135391.10 178.90
-9755028.00 5135390.54 178.88
-9755025.64 5135392.05 178.95
-9755026.80 5135392.64 178.90
-9755024.46 5135391.15 178.97
-9755027.12 5135392.03 178.90
-9755023.90 5135390.82 178.98
-9755022.94 5135392.34 178.99
-9755023.24 5135391.08 178.99
-9755023.83 5135392.29 178.98
-9755024.16 5135390.23 178.99
-9755022.67 5135390.80 179.01
-9755023.23 5135392.87 178.98
-9755019.73 5135391.36 179.05
-9755018.54 5135393.41 179.04
-9755020.02 5135392.53 179.03
-9755020.56 5135393.21 179.02
-9755021.45 5135393.18 179.01
-9755022.08 5135391.10 179.02
-9755022.35 5135391.12 179.01
-9755018.24 5135393.78 179.04
-9755012.92 5135392.50 179.06
-9755017.35 5135393.43 179.06
-9755013.79 5135391.34 179.08
-9755018.87 5135391.97 179.05
-9755016.20 5135391.94 179.08
-9755012.36 5135391.03 179.07
-9755016.78 5135393.42 179.06
-9755016.21 5135392.83 179.07
-9755012.96 5135391.02 179.08
-9755011.72 5135392.80 179.04
-9755011.77 5135391.94 179.05
-9755014.40 5135391.05 179.09
-9755014.13 5135390.72 179.09
-9755011.53 5135391.03 179.05
-9755014.42 5135391.94 179.08
-9755016.17 5135391.05 179.09
-9755010.72 5135414.46 178.80
-9755011.09 5135412.40 178.82
-9755010.48 5135414.17 178.80
-9755011.03 5135413.22 178.81
-9755005.75 5135413.55 178.73
-9755005.76 5135414.69 178.71
-9755004.86 5135414.12 178.70
-9755010.48 5135412.95 178.81
-9755008.99 5135412.67 178.79
-9755006.32 5135414.16 178.73
-9755008.41 5135412.99 178.77
-9755008.66 5135413.24 178.77
-9755008.69 5135413.82 178.77
-9755006.62 5135413.53 178.72
-9755004.52 5135413.24 178.70
-9755008.06 5135412.59 178.77
-9755004.55 5135414.16 178.68
-9755009.87 5135412.94 178.79
-9755003.96 5135414.09 178.66
-9755005.17 5135414.09 178.70
-9755010.43 5135417.12 178.76
-9755010.14 5135414.68 178.77
-9755010.44 5135416.49 178.77
-9755006.60 5135415.60 178.71
-9755008.08 5135417.06 178.70
-9755008.97 5135416.77 178.74
-9755006.38 5135416.20 178.69
-9755003.40 5135415.29 178.62
-9755005.10 5135415.00 178.68
-9755005.39 5135417.12 178.65
-9755006.61 5135416.18 178.69
-9755008.04 5135415.28 178.73
-9755008.98 5135416.47 178.74
-9755004.57 5135415.57 178.66
-9755003.40 5135414.99 178.63
-9755003.36 5135417.08 178.59
-9755008.12 5135415.04 178.73
-9754998.95 5135412.92 178.80
-9755002.39 5135412.87 179.01
-9755002.23 5135414.01 178.88
-9755001.05 5135413.21 178.78
-9755002.51 5135413.58 178.67
-9754999.28 5135413.74 178.80
-9755001.05 5135414.05 178.78
-9755002.41 5135412.87 179.67
-9755002.48 5135413.03 179.34
-9755002.25 5135412.51 179.16
-9755001.04 5135412.63 178.80
-9755001.77 5135413.47 179.69
-9755002.44 5135413.46 179.67
-9755002.19 5135413.52 178.88
-9755002.20 5135413.10 179.16
-9755001.73 5135412.81 179.64
-9754999.84 5135412.87 178.81
-9755001.63 5135413.23 179.69
-9755002.51 5135414.66 178.66
-9755001.90 5135413.48 179.68
-9754996.91 5135414.07 178.77
-9755002.53 5135414.08 178.65
-9754992.47 5135413.42 178.84
-9754993.89 5135413.69 179.14
-9754991.64 5135412.54 178.83
-9754995.81 5135412.87 178.79
-9754996.03 5135414.10 178.80
-9754991.35 5135413.49 178.81
-9754995.19 5135412.59 178.79
-9754994.03 5135413.74 178.81
-9754993.66 5135413.11 178.82
-9754993.02 5135414.02 178.82
-9754995.44 5135413.23 178.80
-9754995.74 5135413.71 178.80
-9754991.86 5135412.76 178.82
-9754992.78 5135414.03 178.82
-9754990.41 5135413.97 178.80
-9754996.63 5135413.44 178.80
-9754993.33 5135412.28 178.83
-9754993.67 5135413.99 178.82
-9754999.81 5135417.27 178.76
-9754997.49 5135414.68 178.77
-9754999.25 5135416.43 178.76
-9755002.46 5135416.40 178.69
-9755001.61 5135416.07 178.74
-9755001.24 5135416.49 178.76
-9755001.05 5135416.11 178.75
-9755001.64 5135416.33 179.66
-9754996.31 5135416.69 178.77
-9755002.48 5135416.67 178.64
-9755002.22 5135417.02 179.64
-9755002.49 5135415.58 178.67
-9754999.22 5135414.91 178.77
-9755000.14 5135415.52 178.77
-9754998.07 5135415.57 178.77
-9755001.88 5135415.58 178.76
-9755000.96 5135414.97 178.78
-9754998.60 5135416.71 178.76
-9755002.42 5135416.47 178.76
-9755002.55 5135416.42 179.35
-9754997.77 5135414.95 178.77
-9754999.54 5135415.89 178.77
-9754993.85 5135417.28 178.75
-9754990.67 5135414.61 178.81
-9754991.62 5135414.61 178.79
-9754995.66 5135415.73 178.77
-9754993.92 5135414.87 178.81
-9754995.41 5135414.89 178.78
-9754994.88 5135417.04 178.76
-9754995.44 5135415.76 178.77
-9754989.79 5135415.78 178.79
-9754989.78 5135414.88 178.81
-9754990.08 5135415.81 178.78
-9754993.32 5135415.17 178.79
-9754993.65 5135415.77 179.08
-9754991.87 5135415.49 178.81
-9754995.68 5135416.16 178.75
-9754995.71 5135415.22 178.77
-9754993.03 5135414.90 178.81
-9754987.08 5135417.24 178.82
-9754987.18 5135412.43 179.72
-9754987.04 5135412.62 178.53
-9754987.23 5135413.90 179.21
-9754986.89 5135413.37 179.71
-9754984.81 5135413.13 178.72
-9754987.34 5135412.75 179.28
-9754988.90 5135414.00 178.84
-9754984.25 5135413.39 178.73
-9754987.16 5135414.26 179.69
-9754988.95 5135413.12 178.85
-9754985.99 5135412.20 178.69
-9754987.79 5135414.29 178.83
-9754989.25 5135414.89 178.82
-9754987.40 5135415.20 179.29
-9754985.06 5135416.96 178.66
-9754987.14 5135415.72 179.66
-9754986.71 5135415.61 179.34
-9754986.90 5135415.51 179.68
-9754985.40 5135415.73 178.65
-9754987.14 5135416.30 178.82
-9754988.89 5135415.53 178.82
-9754988.66 5135414.66 178.84
-9754985.07 5135415.76 178.66
-9754985.13 5135416.08 178.66
-9755011.39 5135409.36 178.86
-9755010.50 5135409.09 178.85
-9755010.78 5135411.17 178.83
-9755011.07 5135409.15 178.85
-9755010.54 5135406.72 178.88
-9755011.39 5135408.82 178.85
-9755010.20 5135411.47 178.82
-9755010.50 5135409.69 178.84
-9755007.53 5135407.58 178.82
-9755005.84 5135406.43 178.81
-9755008.12 5135410.56 178.79
-9755004.87 5135408.74 178.76
-9755005.78 5135410.86 178.75
-9755004.05 5135407.55 178.74
-9755008.73 5135404.97 178.87
-9755009.02 5135410.28 178.82
-9755007.61 5135405.00 178.85
-9755010.20 5135406.71 178.88
-9755008.11 5135407.91 178.83
-9755008.12 5135409.36 178.81
-9755004.92 5135410.83 178.73
-9755004.88 5135410.23 178.75
-9755004.27 5135411.76 178.70
-9755007.83 5135406.71 178.84
-9755009.59 5135409.97 178.83
-9755006.62 5135411.18 178.77
-9755005.48 5135411.73 178.74
-9755003.73 5135409.07 178.72
-9755007.23 5135408.48 178.80
-9755008.96 5135411.79 178.79
-9755003.71 5135408.15 178.73
-9755006.06 5135406.71 178.81
-9755005.76 5135412.32 178.74
-9755008.07 5135411.72 178.79
-9755004.59 5135407.54 178.76
-9755009.63 5135405.84 178.88
-9755006.96 5135406.71 178.82
-9755005.14 5135411.78 178.73
-9755009.04 5135408.81 178.83
-9755005.76 5135408.47 178.79
-9755007.25 5135411.50 178.76
-9755005.50 5135406.70 178.81
-9755006.35 5135405.56 178.82
-9755007.23 5135410.83 178.77
-9755004.30 5135410.55 178.72
-9755008.44 5135408.82 178.81
-9755009.90 5135407.63 178.87
-9755010.88 5135397.52 178.99
-9755012.05 5135393.44 179.04
-9755011.47 5135396.37 179.00
-9755011.46 5135395.47 179.02
-9755010.85 5135396.63 178.99
-9755010.84 5135399.94 178.96
-9755010.55 5135400.81 178.95
-9755010.57 5135393.97 179.02
-9755006.80 5135395.04 180.00
-9755009.70 5135397.49 178.96
-9755009.11 5135396.93 178.96
-9755010.00 5135394.31 179.00
-9755007.34 5135394.47 179.76
-9755010.55 5135395.44 178.99
-9755004.40 5135397.54 178.88
-9755005.55 5135395.18 178.92
-9755007.49 5135397.12 179.99
-9755010.27 5135398.42 178.97
-9755007.39 5135394.89 179.86
-9755004.09 5135396.61 178.88
-9755005.23 5135400.79 178.86
-9755005.79 5135399.62 178.88
-9755009.66 5135395.80 178.99
-9755006.81 5135397.52 180.27
-9755006.80 5135394.82 180.03
-9755007.35 5135395.06 180.38
-9755008.75 5135400.78 178.92
-9755007.93 5135395.33 179.87
-9755003.52 5135399.31 178.81
-9755008.83 5135393.36 178.99
-9755004.72 5135396.31 178.90
-9755007.37 5135396.17 180.30
-9755007.95 5135395.77 179.89
-9755006.87 5135394.43 180.33
-9755009.07 5135394.28 178.99
-9755007.98 5135393.33 179.77
-9755006.42 5135394.53 179.69
-9755005.55 5135398.64 178.89
-9755007.72 5135396.88 179.95
-9755005.32 5135394.26 178.93
-9755007.31 5135394.40 180.35
-9755006.10 5135397.35 180.21
-9755008.17 5135399.00 178.91
-9755009.62 5135399.63 178.95
-9755006.76 5135394.52 179.78
-9755007.10 5135394.49 179.70
-9755007.31 5135397.21 178.93
-9755006.49 5135394.95 179.87
-9755008.74 5135395.83 178.97
-9755007.89 5135394.55 179.94
-9755009.04 5135399.92 178.93
-9755008.79 5135396.74 178.96
-9755008.15 5135395.76 179.86
-9755008.20 5135393.96 178.97
-9755004.95 5135400.83 178.84
-9755007.25 5135395.38 179.88
-9755006.76 5135395.35 179.93
-9755007.95 5135396.86 179.94
-9755007.13 5135395.74 180.31
-9755007.36 5135397.16 180.01
-9755007.43 5135393.82 180.31
-9755008.19 5135396.95 178.94
-9755007.46 5135396.82 180.30
-9755007.74 5135393.39 179.73
-9755003.80 5135395.15 178.88
-9755005.81 5135400.51 178.88
-9755006.76 5135394.74 179.78
-9755007.29 5135397.70 180.37
-9755007.29 5135398.15 180.31
-9755010.57 5135394.88 179.01
-9755007.08 5135397.58 179.99
-9755006.77 5135397.77 180.28
-9755008.22 5135396.79 180.07
-9755006.55 5135395.07 179.98
-9755007.02 5135398.40 178.90
-9755007.04 5135395.15 179.91
-9755006.36 5135397.54 180.21
-9755004.67 5135399.31 178.86
-9755007.12 5135395.07 180.38
-9755005.87 5135397.26 178.90
-9755006.16 5135394.50 179.69
-9755008.25 5135395.74 178.96
-9755007.89 5135396.70 178.93
-9755007.33 5135395.52 180.33
-9755008.24 5135393.37 180.02
-9755006.62 5135395.35 180.33
-9755007.25 5135394.57 180.11
-9755007.93 5135393.85 180.15
-9755006.13 5135398.45 178.90
-9755006.45 5135394.74 179.73
-9755007.07 5135396.00 180.30
-9755008.50 5135394.32 178.97
-9755005.98 5135394.82 179.65
-9755006.61 5135397.16 179.98
-9755011.40 5135403.49 178.94
-9755010.84 5135403.46 178.93
-9755007.28 5135401.41 178.88
-9755007.01 5135404.95 178.84
-9755010.53 5135404.65 178.91
-9755006.42 5135402.57 178.85
-9755009.04 5135403.43 178.89
-9755003.48 5135402.57 178.79
-9755003.40 5135404.33 178.76
-9755005.53 5135403.11 178.85
-9755003.75 5135404.85 178.76
-9755008.18 5135401.97 178.89
-9755007.31 5135403.13 178.86
-9755008.43 5135402.29 178.91
-9755008.77 5135403.20 178.89
-9755004.92 5135402.25 178.82
-9755009.02 5135404.07 178.89
-9755003.45 5135401.69 178.78
-9755006.43 5135404.03 178.83
-9755008.47 5135404.35 178.87
-9755008.20 5135402.30 178.88
-9755002.31 5135412.29 178.81
-9755002.19 5135412.32 178.86
-9755002.33 5135407.26 179.56
-9755001.71 5135411.34 179.70
-9755001.69 5135406.87 178.65
-9755002.51 5135405.20 178.74
-9755001.92 5135405.74 179.78
-9755000.81 5135406.95 178.86
-9755001.93 5135406.09 179.76
-9755001.10 5135410.54 178.81
-9755001.62 5135407.89 178.85
-9755002.79 5135412.33 178.66
-9755001.05 5135408.15 178.84
-9755002.22 5135410.93 178.52
-9755002.27 5135406.39 178.79
-9755001.65 5135408.45 179.76
-9755003.07 5135410.57 178.68
-9754999.32 5135405.22 178.90
-9755002.48 5135410.78 179.68
-9755001.40 5135407.84 178.84
-9755002.55 5135406.38 178.71
-9755002.24 5135405.42 179.31
-9755002.31 5135409.98 178.84
-9754998.47 5135406.93 178.88
-9755001.76 5135412.15 179.68
-9754998.35 5135410.81 178.83
-9755001.02 5135410.22 178.81
-9754999.60 5135407.55 178.86
-9754998.99 5135410.23 178.81
-9755002.42 5135409.92 179.45
-9755001.34 5135410.74 178.81
-9755000.23 5135406.35 178.86
-9755002.42 5135409.06 179.15
-9754999.56 5135410.83 178.83
-9754998.96 5135410.83 178.81
-9755002.53 5135409.35 178.70
-9754999.85 5135408.51 178.85
-9754996.35 5135407.24 178.85
-9755001.90 5135410.75 179.71
-9755002.57 5135407.87 178.72
-9755002.21 5135409.09 178.86
-9755002.21 5135409.35 179.19
-9755002.26 5135410.79 179.69
-9755002.18 5135407.31 178.85
-9754997.80 5135411.42 178.81
-9755002.20 5135409.83 179.17
-9754997.50 5135407.84 178.85
-9755002.51 5135408.74 178.71
-9754997.30 5135405.17 178.88
-9755002.87 5135405.79 178.73
-9755002.15 5135410.41 179.21
-9755002.36 5135406.64 178.76
-9755002.03 5135407.95 179.11
-9755001.88 5135409.89 178.86
-9755001.95 5135407.24 179.76
-9754997.83 5135408.40 178.83
-9755002.47 5135410.24 178.73
-9755002.51 5135408.46 178.72
-9754997.77 5135406.03 178.88
-9755002.34 5135406.99 178.75
-9755000.78 5135409.92 178.81
-9755001.39 5135407.31 178.85
-9755001.61 5135406.67 179.78
-9755000.75 5135408.76 178.84
-9754997.58 5135406.97 178.85
-9755001.61 5135407.57 179.73
-9754998.98 5135411.93 178.80
-9755002.29 5135410.23 178.88
-9755001.05 5135411.69 178.80
-9754997.19 5135409.32 178.84
-9755000.16 5135407.87 178.85
-9755000.23 5135410.80 178.83
-9754991.32 5135407.48 178.88
-9754994.86 5135410.70 178.84
-9754992.77 5135411.68 178.84
-9754992.51 5135412.27 178.84
-9754993.99 5135411.57 178.83
-9754989.83 5135410.16 178.86
-9754990.11 5135412.23 178.83
-9754994.22 5135411.12 178.84
-9754989.85 5135411.05 178.85
-9754995.80 5135407.52 178.87
-9754994.24 5135410.18 178.85
-9754989.87 5135408.07 178.88
-9754990.74 5135410.78 178.87
-9754995.43 5135410.52 178.83
-9754992.52 5135410.56 178.84
-9754990.75 5135406.31 178.89
-9754992.85 5135405.77 178.90
-9754994.30 5135406.35 178.88
-9754993.63 5135412.21 178.83
-9754994.59 5135407.55 178.89
-9754995.75 5135411.04 178.79
-9754989.57 5135409.06 178.86
-9754993.99 5135406.67 178.90
-9754995.76 5135406.58 178.86
-9754995.77 5135409.93 178.83
-9754990.12 5135409.28 178.88
-9754990.48 5135409.91 178.87
-9754995.13 5135407.28 178.88
-9754992.53 5135406.94 178.89
-9754995.77 5135411.70 178.80
-9754989.91 5135405.11 178.90
-9754993.73 5135405.06 178.91
-9754991.91 5135409.24 178.85
-9754992.26 5135405.18 178.91
-9754992.53 5135411.02 178.84
-9754990.17 5135409.56 178.87
-9754990.85 5135406.61 178.90
-9754993.08 5135405.99 178.90
-9754994.00 5135407.50 178.89
-9754996.02 5135406.94 178.88
-9754990.14 5135408.67 178.87
-9754992.51 5135410.13 178.86
-9754991.34 5135408.38 178.88
-9754988.36 5135410.71 178.85
-9754989.27 5135405.40 178.90
-9754986.02 5135408.08 178.72
-9754986.56 5135406.80 178.74
-9754987.79 5135411.63 178.85
-9754986.86 5135406.84 179.77
-9754988.75 5135408.08 178.89
-9754986.00 5135407.80 178.73
-9754984.57 5135410.76 178.73
-9754989.30 5135406.85 178.89
-9754987.52 5135410.80 178.88
-9754985.74 5135405.72 178.75
-9754987.45 5135410.09 178.87
-9754986.04 5135409.59 178.69
-9754985.14 5135408.68 178.73
-9754986.67 5135410.45 179.74
-9754985.10 5135412.25 178.71
-9754986.89 5135408.02 179.77
-9754987.13 5135405.48 178.63
-9754986.69 5135411.56 179.70
-9754989.20 5135411.61 178.84
-9754988.95 5135405.72 178.90
-9754986.94 5135406.54 179.77
-9754987.03 5135405.41 178.93
-9754987.49 5135406.28 178.90
-9754986.90 5135411.33 179.71
-9754986.66 5135405.91 179.20
-9754984.31 5135405.41 178.81
-9754989.24 5135409.60 178.88
-9754985.99 5135407.20 178.72
-9754987.03 5135405.70 178.93
-9754987.46 5135405.41 178.91
-9754985.40 5135408.95 178.73
-9754987.22 5135410.59 180.38
-9754988.38 5135405.45 178.91
-9754986.01 5135406.57 178.72
-9754988.39 5135406.30 178.90
-9754986.91 5135405.36 179.34
-9754987.76 5135408.34 178.87
-9754987.00 5135404.82 178.95
-9754988.42 5135407.80 178.89
-9754986.96 5135407.17 178.95
-9755002.27 5135400.04 179.31
-9755001.77 5135394.85 178.59
-9755002.57 5135397.49 178.81
-9755002.05 5135397.76 179.27
-9755001.47 5135400.08 179.84
-9755002.21 5135397.74 179.85
-9755001.70 5135400.39 179.83
-9755001.97 5135398.39 178.94
-9755002.62 5135395.12 178.83
-9755001.49 5135393.61 179.88
-9755002.43 5135399.91 179.68
-9755001.99 5135396.81 179.53
-9755002.30 5135400.74 178.79
-9755001.71 5135393.30 179.88
-9754996.67 5135399.25 178.95
-9755002.06 5135394.18 179.33
-9754996.96 5135397.44 178.97
-9754999.65 5135394.24 179.02
-9755001.64 5135398.03 179.86
-9755000.02 5135395.43 178.99
-9755002.29 5135400.89 179.82
-9755001.95 5135395.96 179.87
-9755002.92 5135396.64 178.83
-9755001.53 5135393.93 179.87
-9755001.82 5135393.60 179.04
-9754999.95 5135398.05 178.95
-9755001.69 5135398.33 179.84
-9755001.75 5135397.15 179.84
-9755002.92 5135397.50 178.82
-9755001.73 5135394.19 179.87
-9754998.46 5135395.74 178.99
-9754997.35 5135396.25 178.98
-9754997.88 5135399.89 178.94
-9755001.73 5135394.49 179.88
-9754997.61 5135397.47 178.95
-9755001.91 5135398.31 179.55
-9755000.80 5135399.84 178.93
-9754998.78 5135400.75 178.94
-9755001.14 5135400.14 178.93
-9754996.70 5135395.67 178.99
-9754999.11 5135394.82 179.02
-9754998.20 5135394.20 179.02
-9755001.39 5135395.04 180.35
-9755002.32 5135394.11 179.83
-9755001.78 5135394.50 179.38
-9754997.64 5135394.77 179.00
-9755001.51 5135393.25 179.88
-9754999.05 5135401.04 178.95
-9754997.31 5135397.22 178.96
-9755002.32 5135395.44 178.84
-9755001.43 5135396.56 179.89
-9754997.60 5135393.60 179.00
-9755001.24 5135394.23 179.91
-9755002.53 5135400.79 178.76
-9755000.83 5135397.55 178.95
-9755000.24 5135397.50 178.96
-9755002.03 5135400.47 178.93
-9755001.73 5135395.98 179.87
-9755001.68 5135396.60 179.87
-9755002.31 5135397.84 178.83
-9755001.98 5135400.65 179.83
-9755002.91 5135400.73 178.77
-9755001.35 5135395.78 179.60
-9755001.74 5135393.90 179.86
-9755002.34 5135393.36 178.88
-9755000.22 5135399.91 178.94
-9755002.03 5135394.78 179.00
-9754999.93 5135397.48 178.96
-9754996.72 5135397.51 178.97
-9755000.88 5135394.51 179.00
-9754996.09 5135398.65 178.97
-9754994.92 5135395.98 178.98
-9754990.77 5135400.71 178.99
-9754989.58 5135398.33 178.99
-9754993.20 5135395.90 179.00
-9754994.05 5135399.90 178.96
-9754995.28 5135399.20 179.27
-9754994.32 5135400.07 178.97
-9754990.85 5135395.38 179.02
-9754994.94 5135396.87 178.99
-9754989.64 5135397.71 178.99
-9754993.50 5135394.22 179.02
-9754995.51 5135397.54 178.97
-9754992.59 5135393.60 179.05
-9754995.18 5135399.81 178.94
-9754994.96 5135398.94 178.96
-9754995.85 5135399.79 178.95
-9754994.33 5135396.50 178.99
-9754992.57 5135397.49 178.98
-9754995.54 5135396.58 179.02
-9754993.64 5135400.11 178.96
-9754994.93 5135398.05 178.98
-9754992.31 5135395.95 179.01
-9754995.52 5135398.43 178.96
-9754995.40 5135400.46 179.22
-9754992.27 5135400.71 178.95
-9754991.42 5135395.09 179.00
-9754990.25 5135395.09 179.02
-9754994.65 5135394.23 179.02
-9754995.81 5135397.45 178.97
-9754991.69 5135397.08 178.99
-9754990.80 5135398.02 179.00
-9754993.16 5135394.57 179.00
-9754991.10 5135396.25 179.01
-9754990.84 5135393.53 179.06
-9754992.33 5135395.04 179.02
-9754993.50 5135399.49 178.98
-9754990.85 5135393.30 179.05
-9754996.14 5135395.06 178.99
-9754991.67 5135393.89 179.03
-9754994.00 5135400.74 178.96
-9754989.91 5135396.27 179.00
-9754994.67 5135395.12 178.99
-9754994.30 5135394.85 179.01
-9754991.94 5135397.71 179.00
-9755000.78 5135401.02 178.94
-9754996.68 5135401.32 178.92
-9755001.46 5135404.27 179.82
-9755002.09 5135402.49 179.40
-9755001.66 5135403.66 179.81
-9754997.29 5135403.71 178.89
-9755001.98 5135404.61 179.31
-9755002.60 5135404.02 178.74
-9754999.29 5135403.99 178.91
-9754997.28 5135404.00 178.89
-9755002.26 5135403.43 178.79
-9755002.28 5135404.63 178.76
-9755002.54 5135401.62 178.76
-9755002.04 5135403.03 179.20
-9755000.24 5135402.26 178.92
-9755001.11 5135404.90 178.87
-9755002.29 5135403.14 178.76
-9755001.66 5135402.80 179.80
-9755002.56 5135402.28 178.75
-9754999.27 5135402.50 178.92
-9755002.85 5135404.89 178.74
-9754997.57 5135402.85 178.91
-9754999.34 5135401.64 178.94
-9754997.80 5135403.06 178.90
-9755001.65 5135403.38 179.81
-9754999.33 5135401.41 178.95
-9754997.56 5135401.61 178.92
-9755000.22 5135401.37 178.92
-9755000.20 5135404.28 178.90
-9754994.27 5135404.57 178.90
-9754990.44 5135404.27 178.92
-9754994.93 5135404.54 178.90
-9754989.88 5135402.76 178.95
-9754992.24 5135402.45 178.94
-9754989.58 5135403.92 178.91
-9754994.61 5135404.86 178.90
-9754991.72 5135404.00 178.91
-9754989.56 5135403.04 178.94
-9754991.61 5135400.96 178.96
-9754994.91 5135402.75 178.93
-9754989.84 5135402.17 178.95
-9754995.57 5135402.50 178.93
-9754990.44 5135401.59 178.94
-9754992.21 5135403.36 178.92
-9754993.71 5135403.46 178.94
-9754990.21 5135403.68 178.93
-9754990.76 5135403.02 178.95
-9754994.64 5135401.89 178.93
-9754990.18 5135404.51 178.92
-9754996.18 5135403.09 178.91
-9754993.13 5135403.97 178.91
-9754987.19 5135394.99 179.39
-9754986.46 5135400.09 179.84
-9754986.94 5135395.97 179.35
-9754986.69 5135394.71 179.91
-9754987.28 5135400.01 179.84
-9754987.51 5135396.44 178.99
-9754986.72 5135395.00 179.92
-9754985.80 5135397.43 178.83
-9754987.10 5135396.17 179.02
-9754987.60 5135394.18 179.01
-9754987.31 5135395.05 179.00
-9754989.05 5135397.42 179.03
-9754986.99 5135395.63 179.91
-9754986.71 5135398.22 179.86
-9754985.50 5135398.35 178.82
-9754988.45 5135395.65 179.01
-9754986.99 5135397.13 179.88
-9754986.69 5135395.60 179.91
-9754986.96 5135400.35 179.84
-9754986.72 5135393.21 179.93
-9754986.08 5135394.99 178.86
-9754989.02 5135399.51 178.99
-9754986.46 5135396.89 179.87
-9754986.43 5135393.84 179.93
-9754987.56 5135399.80 178.98
-9754989.05 5135395.03 179.02
-9754985.52 5135395.00 178.87
-9754984.88 5135395.92 178.88
-9754987.86 5135395.03 179.01
-9754987.14 5135397.39 179.88
-9754987.57 5135400.39 178.95
-9754987.58 5135400.67 178.96
-9754989.07 5135398.31 179.01
-9754986.79 5135393.91 179.07
-9754986.10 5135398.28 178.81
-9754985.75 5135399.45 178.82
-9754987.58 5135395.09 179.00
-9754985.20 5135399.83 178.82
-9754984.93 5135397.68 178.86
-9754984.90 5135396.80 178.87
-9754988.73 5135397.40 179.01
-9754987.38 5135398.50 179.60
-9754988.51 5135395.92 179.02
-9754989.31 5135395.90 179.03
-9754989.36 5135394.77 179.02
-9754986.99 5135396.54 179.87
-9754986.38 5135399.82 178.80
-9754987.68 5135397.73 178.97
-9754987.30 5135398.25 178.99
-9754986.00 5135394.79 179.35
-9754985.18 5135399.17 178.84
-9754984.33 5135395.62 178.91
-9754987.88 5135398.34 179.00
-9754984.90 5135395.00 178.89
-9754986.94 5135398.27 179.86
-9754987.28 5135399.72 179.45
-9754986.80 5135393.30 179.05
-9754987.10 5135395.12 180.41
-9754988.20 5135396.85 179.01
-9754986.99 5135400.67 179.04
-9754988.44 5135399.52 178.98
-9754988.12 5135403.30 178.90
-9754986.74 5135401.25 179.84
-9754989.29 5135401.27 178.97
-9754986.62 5135402.40 179.82
-9754986.96 5135401.84 179.84
-9754985.16 5135403.03 178.79
-9754985.23 5135400.94 178.82
-9754986.99 5135401.22 179.84
-9754986.88 5135402.71 179.01
-9754987.11 5135402.19 179.19
-9754987.08 5135402.18 179.32
-9754987.20 5135401.56 178.99
-9754988.43 5135403.10 178.91
-9754987.26 5135404.78 179.79
-9754989.04 5135401.90 178.95
-9754988.42 5135401.26 178.97
-9754987.07 5135403.40 178.94
-9754985.81 5135403.01 178.77
-9754986.95 5135402.00 179.37
-9754987.24 5135404.85 178.90
-9754987.20 5135401.52 179.59
-9754985.18 5135404.53 178.77
-9754987.50 5135403.32 178.90
-9754987.04 5135402.46 178.95
-9754985.16 5135403.93 178.78
-9754987.51 5135401.58 178.96
-9754986.91 5135403.31 179.21
-9754986.33 5135403.04 178.75
-9754986.63 5135403.23 179.81
-9755010.87 5135393.38 179.02
-9755011.49 5135390.41 179.06
-9755010.63 5135392.81 179.02
-9755011.21 5135390.16 179.07
-9755002.36 5135393.10 178.88
-9755007.33 5135392.72 179.91
-9755010.36 5135391.05 179.05
-9755004.72 5135392.80 178.94
-9755007.91 5135392.45 179.84
-9755007.39 5135393.31 180.39
-9755006.29 5135392.10 180.34
-9755010.33 5135390.17 179.06
-9755007.52 5135393.40 180.38
-9755004.10 5135390.99 178.95
-9755007.38 5135392.87 180.39
-9755007.44 5135392.91 180.39
-9755009.69 5135391.00 179.04
-9755009.71 5135391.90 179.02
-9755008.50 5135391.02 179.01
-9755007.12 5135390.24 179.96
-9755007.70 5135391.02 179.00
-9755009.73 5135393.08 179.01
-9755007.22 5135391.88 179.64
-9755008.82 5135390.73 179.01
-9755009.71 5135390.73 179.05
-9755008.89 5135390.14 179.03
-9755006.79 5135391.89 179.78
-9755007.93 5135390.74 179.98
-9755007.71 5135392.67 179.91
-9755008.13 5135392.43 179.83
-9755007.17 5135390.07 179.94
-9755007.38 5135390.66 180.00
-9755006.51 5135391.88 179.69
-9755007.98 5135392.70 179.90
-9755006.77 5135391.92 178.98
-9755008.81 5135392.47 179.00
-9755006.69 5135392.46 180.34
-9755008.20 5135392.77 178.99
-9755004.13 5135391.88 178.93
-9754996.48 5135392.74 179.02
-9755003.53 5135391.00 178.92
-9755003.22 5135392.16 178.90
-9754999.99 5135393.06 179.02
-9755001.74 5135393.01 179.89
-9755001.56 5135391.09 179.39
-9755002.33 5135392.47 178.89
-9755001.93 5135391.86 179.23
-9755002.65 5135390.43 178.89
-9755002.29 5135391.37 178.88
-9755001.43 5135392.41 179.04
-9754998.81 5135390.37 179.07
-9755002.64 5135393.37 178.87
-9755002.06 5135391.28 178.99
-9754998.51 5135390.42 179.05
-9755001.75 5135391.21 179.91
-9755001.76 5135391.31 179.34
-9755001.73 5135391.61 179.30
-9755001.75 5135390.62 179.90
-9755001.47 5135391.24 179.92
-9754998.57 5135392.41 179.03
-9755001.77 5135390.71 179.15
-9755000.58 5135391.86 179.06
-9755001.40 5135391.17 180.49
-9754997.34 5135392.06 179.02
-9755001.98 5135393.11 179.13
-9754997.34 5135390.66 179.05
-9755001.84 5135392.48 179.04
-9754997.84 5135393.33 179.03
-9755001.47 5135391.48 179.91
-9755002.04 5135390.72 179.86
-9754999.37 5135390.99 179.07
-9755001.49 5135392.14 179.92
-9755001.76 5135391.82 179.40
-9755002.31 5135392.75 178.89
-9754994.34 5135393.31 179.02
-9754993.22 5135390.90 179.06
-9754990.19 5135392.43 179.05
-9754991.13 5135391.77 179.05
-9754993.82 5135391.84 179.06
-9754992.03 5135391.81 179.03
-9754995.19 5135393.33 179.01
-9754993.49 5135392.96 179.02
-9754996.18 5135391.83 179.02
-9754992.60 5135390.08 179.08
-9754991.38 5135390.35 179.06
-9754989.96 5135390.60 179.06
-9754994.65 5135390.36 179.05
-9754996.46 5135390.93 179.05
-9754986.35 5135393.02 179.26
-9754987.30 5135393.26 179.03
-9754988.76 5135392.70 179.07
-9754987.05 5135392.61 179.07
-9754985.83 5135392.68 178.88
-9754986.79 5135390.53 179.54
-9754987.87 5135392.74 179.05
-9754987.59 5135392.34 179.05
-9754986.09 5135391.79 178.90
-9754986.72 5135391.12 179.95
-9754986.76 5135390.78 179.24
-9754989.11 5135390.03 179.06
-9754987.58 5135391.45 179.07
-9754986.48 5135390.25 179.95
-9754985.21 5135392.06 178.91
-9754984.92 5135391.80 178.92
-9754986.69 5135392.32 179.95
-9754986.09 5135392.69 178.88
-9754985.25 5135390.87 178.92
-9754986.72 5135392.03 179.94
-9754984.23 5135413.11 178.73
-9754982.72 5135414.58 178.74
-9754980.11 5135412.48 178.79
-9754976.63 5135412.46 178.84
-9754978.65 5135412.51 178.82
-9754978.01 5135412.44 178.83
-9754976.82 5135413.38 178.83
-9754981.58 5135412.48 178.77
-9754978.02 5135413.94 178.82
-9754983.01 5135417.23 178.70
-9754982.75 5135415.69 178.73
-9754977.40 5135414.24 178.81
-9754979.49 5135414.88 178.78
-9754981.28 5135416.62 178.73
-9754976.51 5135416.62 178.79
-9754976.27 5135415.74 178.80
-9754980.65 5135416.64 178.74
-9754976.86 5135415.15 178.81
-9754976.26 5135415.14 178.81
-9754980.06 5135416.00 178.74
-9754976.57 5135415.75 178.80
-9754979.19 5135414.83 178.78
-9754978.04 5135414.84 178.80
-9754980.08 5135414.56 178.76
-9754983.89 5135412.21 178.76
-9754984.28 5135408.34 178.77
-9754984.29 5135404.80 178.81
-9754984.23 5135411.01 178.75
-9754982.83 5135405.13 178.84
-9754983.41 5135405.70 178.83
-9754983.94 5135408.94 178.78
-9754983.66 5135406.27 178.81
-9754983.37 5135408.98 178.80
-9754982.82 5135408.61 178.80
-9754983.67 5135407.18 178.81
-9754982.81 5135408.32 178.80
-9754984.24 5135407.79 178.78
-9754983.35 5135411.28 178.77
-9754976.26 5135411.39 179.64
-9754981.06 5135410.12 178.80
-9754979.55 5135411.59 178.80
-9754978.04 5135408.30 178.88
-9754981.91 5135408.95 178.80
-9754980.15 5135408.91 178.83
-9754981.93 5135408.60 178.81
-9754981.31 5135406.83 178.84
-9754978.65 5135410.99 178.84
-9754976.88 5135407.18 178.91
-9754980.71 5135409.79 178.80
-9754977.11 5135412.17 178.84
-9754982.18 5135405.67 178.83
-9754980.75 5135406.22 178.85
-9754981.00 5135407.09 178.84
-9754977.14 5135409.20 178.88
-9754978.33 5135407.45 178.88
-9754978.09 5135406.57 178.90
-9754976.29 5135405.99 178.92
-9754976.88 5135411.83 178.84
-9754978.06 5135405.67 178.91
-9754977.43 5135410.68 178.86
-9754978.04 5135408.87 178.85
-9754977.76 5135407.39 178.90
-9754979.84 5135405.09 178.87
-9754977.45 5135411.57 178.85
-9754982.16 5135409.82 178.79
-9754976.09 5135405.04 178.93
-9754976.61 5135405.64 178.92
-9754981.02 5135407.74 178.84
-9754979.26 5135409.19 178.84
-9754980.73 5135410.68 178.81
-9754980.45 5135406.86 178.84
-9754977.49 5135409.49 178.87
-9754977.20 5135407.42 178.90
-9754981.30 5135410.98 178.79
-9754981.58 5135408.37 178.82
-9754984.30 5135397.94 178.89
-9754983.12 5135400.68 178.89
-9754983.98 5135398.29 178.89
-9754982.84 5135397.08 178.94
-9754983.18 5135393.23 178.97
-9754983.40 5135395.61 178.94
-9754983.73 5135399.78 178.88
-9754983.46 5135393.26 178.96
-9754979.02 5135395.88 178.99
-9754976.36 5135395.85 179.02
-9754982.58 5135395.92 178.94
-9754979.92 5135396.50 178.97
-9754977.86 5135394.67 179.02
-9754982.56 5135393.52 178.98
-9754982.54 5135394.15 178.97
-9754978.67 5135397.35 178.98
-9754979.30 5135396.80 178.98
-9754976.07 5135393.78 179.05
-9754978.13 5135395.92 179.01
-9754980.55 5135394.98 178.99
-9754980.48 5135396.79 178.97
-9754977.55 5135396.73 179.02
-9754981.72 5135395.57 178.95
-9754976.13 5135396.76 179.02
-9754979.96 5135395.28 178.98
-9754976.68 5135394.69 179.03
-9754976.07 5135396.17 179.03
-9754981.98 5135397.32 178.92
-9754982.03 5135394.42 178.97
-9754979.62 5135395.87 178.99
-9754979.29 5135400.60 178.95
-9754982.01 5135393.24 178.98
-9754976.30 5135400.05 178.99
-9754978.73 5135393.51 179.03
-9754977.53 5135400.30 178.98
-9754976.10 5135394.08 179.04
-9754980.49 5135398.29 178.95
-9754977.27 5135400.03 178.98
-9754978.09 5135399.12 178.98
-9754979.27 5135400.02 178.95
-9754978.41 5135397.07 179.00
-9754981.38 5135395.05 178.97
-9754976.68 5135397.34 179.00
-9754980.17 5135398.84 178.94
-9754978.44 5135399.69 178.96
-9754978.70 5135397.94 178.99
-9754976.65 5135396.49 179.01
-9754981.06 5135397.39 178.95
-9754982.79 5135401.84 178.88
-9754982.82 5135404.75 178.84
-9754982.82 5135404.46 178.84
-9754983.69 5135401.52 178.87
-9754982.80 5135403.64 178.87
-9754983.69 5135403.60 178.84
-9754982.84 5135401.56 178.89
-9754979.60 5135404.21 178.90
-9754981.61 5135402.76 178.88
-9754982.50 5135404.23 178.85
-9754981.92 5135401.84 178.89
-9754976.91 5135402.10 178.96
-9754980.45 5135402.74 178.89
-9754976.33 5135404.14 178.94
-9754978.65 5135401.27 178.95
-9754978.94 5135404.15 178.91
-9754981.01 5135403.87 178.87
-9754981.97 5135400.92 178.89
-9754977.79 5135402.92 178.94
-9754979.60 5135402.64 178.91
-9754981.06 5135402.09 178.89
-9754981.63 5135404.77 178.86
-9754976.36 5135401.79 178.98
-9754977.80 5135401.84 178.95
-9754978.12 5135401.52 178.95
-9754983.45 5135390.90 178.99
-9754982.92 5135392.58 178.99
-9754983.49 5135391.16 178.98
-9754976.95 5135389.68 179.09
-9754980.21 5135392.66 179.01
-9754980.83 5135391.75 179.01
-9754977.04 5135391.12 179.08
-9754980.24 5135392.95 179.00
-9754978.71 5135392.63 179.04
-9754976.97 5135390.57 179.07
-9754981.04 5135390.86 179.02
-9754982.00 5135390.84 179.01
-9754981.69 5135390.59 179.02
-9754982.58 5135390.55 179.01
-9754978.45 5135392.36 179.05
-9754979.66 5135391.16 179.04
-9754980.54 5135390.90 179.02
-9754980.22 5135392.05 179.02
-9754978.17 5135391.73 179.06
-9754981.99 5135392.63 178.98
-9754976.11 5135391.71 179.08
-9755024.79 5135384.29 179.04
-9755027.77 5135379.30 179.01
-9755025.71 5135383.68 179.02
-9755027.20 5135377.48 179.04
-9755023.97 5135378.38 179.10
-9755026.30 5135382.25 179.03
-9755026.84 5135384.31 178.99
-9755027.77 5135381.08 178.98
-9755026.86 5135382.54 178.99
-9755023.97 5135380.73 179.09
-9755027.44 5135383.73 178.97
-9755028.04 5135381.34 178.97
-9755025.64 5135387.27 178.99
-9755027.13 5135386.38 178.96
-9755026.32 5135377.48 179.06
-9755026.90 5135376.92 179.06
-9755025.96 5135384.57 179.02
-9755028.66 5135380.75 178.96
-9755027.15 5135385.54 178.96
-9755027.21 5135376.89 179.05
-9755027.79 5135380.47 178.98
-9755027.14 5135386.95 178.95
-9755027.78 5135376.89 179.02
-9755023.88 5135383.67 179.07
-9755028.32 5135387.59 178.90
-9755025.66 5135377.50 179.09
-9755023.93 5135383.98 179.06
-9755024.80 5135382.50 179.07
-9755023.88 5135385.17 179.05
-9755028.04 5135387.32 178.92
-9755025.38 5135383.10 179.05
-9755026.29 5135382.55 179.02
-9755025.42 5135376.30 179.11
-9755028.66 5135379.03 178.98
-9755026.32 5135379.83 179.05
-9755025.39 5135381.67 179.05
-9755027.15 5135381.37 179.00
-9755026.23 5135381.37 179.04
-9755025.41 5135382.58 179.05
-9755023.62 5135382.20 179.08
-9755023.04 5135385.49 179.04
-9755023.63 5135379.53 179.09
-9755022.44 5135386.09 179.05
-9755023.64 5135376.85 179.13
-9755022.68 5135386.74 179.04
-9755023.01 5135378.07 179.13
-9755022.78 5135377.77 179.14
-9755022.69 5135382.80 179.08
-9755024.80 5135389.09 178.99
-9755027.10 5135389.69 178.93
-9755027.72 5135389.94 178.90
-9755024.16 5135387.84 179.01
-9755027.42 5135389.32 178.91
-9755024.70 5135389.62 178.98
-9755022.40 5135389.28 179.02
-9755022.73 5135388.44 179.02
-9755025.43 5135376.02 179.11
-9755028.06 5135376.05 179.02
-9755028.72 5135375.47 179.00
-9755026.92 5135375.16 179.08
-9755026.88 5135376.04 179.07
-9755024.87 5135375.69 179.13
-9755027.17 5135374.83 179.08
-9755028.41 5135375.08 179.02
-9755024.00 5135375.14 179.15
-9755023.09 5135376.01 179.14
-9755023.37 5135375.41 179.15
-9755021.24 5135387.55 179.06
-9755023.01 5135379.84 179.11
-9755020.78 5135378.94 179.16
-9755019.53 5135379.27 179.17
-9755021.00 5135381.00 179.13
-9755020.71 5135384.01 179.10
-9755020.04 5135383.37 179.13
-9755020.67 5135382.23 179.12
-9755020.68 5135377.47 179.16
-9755020.11 5135378.68 179.16
-9755020.99 5135379.28 179.16
-9755021.89 5135378.37 179.14
-9755022.11 5135382.52 179.09
-9755020.06 5135384.27 179.12
-9755020.14 5135385.42 179.10
-9755020.73 5135376.88 179.17
-9755019.48 5135384.00 179.13
-9755020.03 5135387.54 179.08
-9755019.18 5135382.88 179.15
-9755019.23 5135379.21 179.17
-9755021.60 5135378.30 179.16
-9755021.23 5135384.54 179.09
-9755022.40 5135384.95 179.06
-9755020.75 5135376.27 179.18
-9755020.67 5135384.87 179.10
-9755019.81 5135376.54 179.19
-9755020.70 5135383.34 179.13
-9755019.24 5135380.09 179.16
-9755020.33 5135390.19 179.06
-9755021.81 5135387.62 179.04
-9755021.84 5135388.72 179.03
-9755019.44 5135388.41 179.08
-9755022.10 5135388.12 179.04
-9755020.32 5135388.14 179.06
-9755021.51 5135389.32 179.04
-9755018.96 5135377.45 179.20
-9755012.36 5135390.19 179.07
-9755014.18 5135381.28 179.20
-9755018.88 5135385.19 179.12
-9755014.22 5135381.87 179.18
-9755013.93 5135376.87 179.23
-9755013.32 5135376.26 179.23
-9755014.74 5135387.49 179.13
-9755016.52 5135387.21 179.13
-9755014.46 5135387.50 179.13
-9755015.65 5135384.55 179.16
-9755015.65 5135387.21 179.14
-9755017.17 5135376.84 179.23
-9755013.02 5135384.26 179.14
-9755011.81 5135380.37 179.18
-9755015.33 5135386.90 179.15
-9755011.87 5135381.00 179.16
-9755017.98 5135381.30 179.16
-9755017.08 5135385.69 179.14
-9755014.45 5135381.85 179.18
-9755013.30 5135386.02 179.13
-9755015.65 5135379.78 179.22
-9755012.98 5135385.71 179.13
-9755018.25 5135386.33 179.11
-9755012.41 5135386.29 179.12
-9755013.89 5135386.32 179.14
-9755013.33 5135383.64 179.15
-9755017.72 5135384.56 179.14
-9755016.24 5135378.36 179.22
-9755018.03 5135387.54 179.10
-9755014.98 5135384.80 179.16
-9755015.94 5135386.59 179.14
-9755013.31 5135380.97 179.18
-9755018.00 5135387.18 179.11
-9755013.93 5135380.94 179.20
-9755017.15 5135383.97 179.16
-9755013.58 5135384.51 179.16
-9755018.57 5135383.37 179.15
-9755017.11 5135387.19 179.12
-9755017.44 5135378.03 179.21
-9755013.03 5135380.70 179.18
-9755015.36 5135382.48 179.20
-9755013.02 5135381.31 179.18
-9755018.28 5135383.97 179.15
-9755016.90 5135376.83 179.23
-9755013.03 5135381.54 179.17
-9755018.32 5135382.50 179.15
-9755012.44 5135382.19 179.16
-9755017.79 5135378.06 179.20
-9755014.19 5135380.43 179.20
-9755013.35 5135379.19 179.20
-9755012.14 5135383.31 179.13
-9755011.53 5135381.57 179.15
-9755012.10 5135381.30 179.16
-9755014.15 5135386.91 179.13
-9755014.14 5135384.52 179.16
-9755015.68 5135386.00 179.15
-9755012.07 5135385.41 179.12
-9755011.52 5135387.23 179.10
-9755013.37 5135377.71 179.21
-9755012.16 5135376.81 179.20
-9755011.59 5135378.03 179.18
-9755013.29 5135382.18 179.17
-9755017.43 5135378.60 179.20
-9755018.06 5135381.63 179.15
-9755011.52 5135387.78 179.09
-9755011.80 5135389.21 179.08
-9755012.98 5135387.52 179.11
-9755015.38 5135388.67 179.12
-9755014.77 5135388.14 179.12
-9755013.83 5135389.87 179.09
-9755013.84 5135387.80 179.12
-9755015.00 5135388.35 179.12
-9755014.42 5135389.28 179.11
-9755015.61 5135389.55 179.11
-9755016.25 5135388.12 179.13
-9755018.87 5135388.15 179.09
-9755017.07 5135387.80 179.11
-9755013.29 5135388.67 179.11
-9755014.70 5135388.70 179.13
-9755019.82 5135376.04 179.20
-9755019.52 5135374.47 179.22
-9755019.29 5135374.48 179.22
-9755022.19 5135375.39 179.17
-9755016.86 5135375.96 179.22
-9755017.47 5135375.35 179.23
-9755016.63 5135375.07 179.24
-9755012.18 5135375.94 179.21
-9755013.96 5135375.34 179.25
-9755015.11 5135375.40 179.25
-9755015.42 5135374.73 179.26
-9755012.18 5135375.38 179.22
-9755013.05 5135374.78 179.25
-9755025.50 5135365.34 179.21
-9755024.00 5135367.40 179.20
-9755024.61 5135368.05 179.21
-9755024.61 5135365.97 179.22
-9755024.93 5135368.58 179.20
-9755026.38 5135367.96 179.16
-9755024.58 5135364.77 179.25
-9755026.32 5135370.69 179.14
-9755027.82 5135368.06 179.12
-9755024.27 5135371.23 179.18
-9755024.61 5135365.03 179.24
-9755028.40 5135372.77 179.04
-9755024.62 5135366.54 179.22
-9755026.91 5135371.26 179.11
-9755027.22 5135370.38 179.11
-9755028.69 5135371.62 179.05
-9755025.77 5135367.11 179.19
-9755025.48 5135372.78 179.14
-9755026.37 5135364.76 179.18
-9755026.37 5135372.74 179.13
-9755024.89 5135367.40 179.20
-9755023.98 5135373.66 179.14
-9755024.88 5135369.80 179.20
-9755028.70 5135369.23 179.09
-9755027.51 5135366.25 179.13
-9755026.37 5135365.08 179.17
-9755028.74 5135370.41 179.07
-9755028.15 5135364.76 179.12
-9755024.85 5135372.73 179.16
-9755027.27 5135365.67 179.15
-9755024.07 5135365.94 179.22
-9755027.22 5135370.72 179.11
-9755024.93 5135364.79 179.24
-9755026.33 5135373.35 179.10
-9755026.93 5135369.53 179.13
-9755025.77 5135370.36 179.16
-9755023.40 5135365.61 179.23
-9755023.12 5135367.67 179.24
-9755023.39 5135372.76 179.15
-9755023.70 5135368.02 179.21
-9755023.13 5135367.98 179.23
-9755023.11 5135370.94 179.19
-9755023.08 5135370.05 179.20
-9755022.50 5135369.47 179.22
-9755022.25 5135364.71 179.26
-9755019.90 5135367.92 179.28
-9755022.29 5135365.88 179.25
-9755022.20 5135370.31 179.23
-9755022.24 5135368.89 179.23
-9755020.78 5135364.74 179.29
-9755019.03 5135365.61 179.31
-9755019.83 5135372.72 179.24
-9755022.51 5135365.65 179.24
-9755021.93 5135365.30 179.27
-9755019.61 5135370.05 179.26
-9755021.67 5135364.70 179.28
-9755018.99 5135367.38 179.29
-9755019.87 5135370.64 179.25
-9755019.26 5135372.67 179.24
-9755020.23 5135368.61 179.27
-9755019.89 5135367.70 179.28
-9755018.99 5135371.52 179.25
-9755020.77 5135373.63 179.20
-9755019.58 5135369.20 179.27
-9755020.49 5135365.31 179.29
-9755021.97 5135366.48 179.25
-9755020.48 5135369.14 179.26
-9755021.33 5135370.65 179.22
-9755022.21 5135368.01 179.24
-9755019.26 5135366.24 179.30
-9755016.06 5135366.20 179.32
-9755016.86 5135374.45 179.24
-9755018.43 5135371.18 179.26
-9755015.41 5135371.48 179.29
-9755017.22 5135365.59 179.33
-9755012.46 5135373.57 179.23
-9755015.71 5135373.30 179.28
-9755013.13 5135365.85 179.34
-9755016.92 5135370.34 179.29
-9755018.40 5135367.99 179.29
-9755012.24 5135366.12 179.34
-9755012.21 5135370.28 179.28
-9755016.08 5135367.08 179.32
-9755014.55 5135373.58 179.26
-9755013.39 5135371.14 179.29
-9755012.21 5135369.44 179.30
-9755017.58 5135364.72 179.33
-9755011.94 5135367.90 179.31
-9755018.13 5135368.31 179.29
-9755012.22 5135365.60 179.33
-9755013.95 5135368.81 179.32
-9755016.37 5135365.89 179.33
-9755012.48 5135371.20 179.27
-9755014.56 5135372.71 179.27
-9755013.39 5135367.62 179.31
-9755014.24 5135370.27 179.31
-9755012.18 5135368.81 179.28
-9755015.43 5135372.36 179.29
-9755015.71 5135372.70 179.28
-9755016.65 5135371.50 179.28
-9755014.29 5135364.71 179.37
-9755011.62 5135372.97 179.24
-9755016.04 5135372.69 179.28
-9755016.61 5135366.47 179.33
-9755015.48 5135367.02 179.34
-9755013.68 5135366.18 179.34
-9755013.34 5135370.90 179.30
-9755014.87 5135369.12 179.32
-9755018.09 5135366.76 179.31
-9755013.64 5135367.66 179.32
-9755016.64 5135368.58 179.30
-9755018.70 5135369.44 179.28
-9755015.16 5135366.18 179.36
-9755017.81 5135365.30 179.33
-9755014.02 5135365.58 179.35
-9755016.29 5135371.21 179.27
-9755013.71 5135367.07 179.34
-9755016.94 5135371.22 179.27
-9755015.47 5135373.57 179.27
-9755015.46 5135365.57 179.35
-9755015.46 5135368.83 179.32
-9755016.03 5135371.20 179.28
-9755012.23 5135372.08 179.27
-9755018.16 5135365.86 179.32
-9755011.53 5135383.00 179.14
-9755011.48 5135386.01 179.11
-9755011.21 5135384.46 179.12
-9755010.63 5135381.85 179.14
-9755010.63 5135383.89 179.13
-9755010.68 5135377.67 179.20
-9755005.94 5135383.30 179.06
-9755010.35 5135376.24 179.20
-9755007.42 5135380.34 179.12
-9755005.89 5135382.43 179.07
-9755004.71 5135387.44 178.98
-9755005.62 5135385.67 179.03
-9755010.65 5135384.55 179.12
-9755006.51 5135385.98 179.04
-9755007.42 5135384.79 179.08
-9755008.62 5135382.12 179.12
-9755010.06 5135384.23 179.11
-9755004.10 5135387.42 178.96
-9755004.53 5135376.17 179.11
-9755008.86 5135387.45 179.06
-9755006.55 5135386.26 179.04
-9755004.68 5135386.84 178.98
-9755004.17 5135378.84 179.08
-9755006.52 5135380.62 179.10
-9755008.57 5135380.94 179.12
-9755003.90 5135384.47 179.00
-9755006.55 5135377.35 179.14
-9755010.07 5135385.96 179.11
-9755009.78 5135378.00 179.19
-9755006.52 5135380.92 179.09
-9755009.75 5135377.66 179.19
-9755004.14 5135383.61 179.00
-9755003.57 5135380.94 179.03
-9755004.19 5135385.40 178.99
-9755007.66 5135385.99 179.06
-9755007.47 5135377.95 179.13
-9755005.04 5135384.48 179.02
-9755005.98 5135378.82 179.11
-9755007.45 5135378.56 179.14
-9755009.76 5135382.73 179.12
-9755007.13 5135380.92 179.10
-9755004.77 5135381.51 179.06
-9755005.06 5135378.26 179.10
-9755009.17 5135381.25 179.14
-9755010.05 5135379.76 179.17
-9755005.68 5135376.18 179.13
-9755007.13 5135378.59 179.13
-9755007.69 5135385.10 179.07
-9755004.13 5135377.37 179.09
-9755007.37 5135386.25 179.05
-9755006.83 5135384.22 179.07
-9755009.76 5135384.82 179.11
-9755009.78 5135383.90 179.11
-9755005.67 5135377.07 179.13
-9755008.93 5135379.76 179.15
-9755007.43 5135381.52 179.10
-9755008.62 5135384.22 179.09
-9755009.24 5135378.02 179.17
-9755007.08 5135383.31 179.07
-9755005.64 5135382.15 179.08
-9755003.90 5135382.38 179.02
-9755005.90 5135386.88 179.02
-9755005.00 5135387.15 178.99
-9755007.72 5135376.79 179.16
-9755009.24 5135376.20 179.20
-9755010.63 5135390.15 179.06
-9755010.64 5135387.50 179.08
-9755007.09 5135387.75 179.03
-9755008.04 5135390.04 179.88
-9755008.28 5135388.95 179.04
-9755004.40 5135389.50 178.96
-9755007.70 5135389.36 179.76
-9755009.15 5135388.95 179.06
-9755003.51 5135388.35 178.93
-9755008.19 5135389.51 179.03
-9755004.19 5135388.08 178.96
-9755007.70 5135388.36 179.03
-9755005.03 5135389.84 178.96
-9755004.43 5135389.21 178.96
-9755009.75 5135389.57 179.05
-9755010.99 5135375.33 179.22
-9755011.29 5135375.93 179.22
-9755008.99 5135375.87 179.19
-9755006.01 5135375.33 179.15
-9755007.41 5135375.29 179.16
-9755008.95 5135375.60 179.20
-9755004.47 5135375.30 179.12
-9755004.22 5135374.42 179.13
-9755005.12 5135374.37 179.15
-9755004.49 5135374.40 179.13
-9755002.64 5135386.82 178.91
-9755001.78 5135385.59 179.00
-9755003.53 5135385.06 178.98
-9755001.83 5135382.35 179.02
-9755001.53 5135378.48 180.03
-9754998.50 5135385.93 179.11
-9755000.96 5135382.39 179.13
-9754997.64 5135386.82 179.09
-9755002.70 5135382.10 178.99
-9755000.65 5135380.57 179.15
-9755001.86 5135376.17 179.05
-9754999.23 5135378.51 179.18
-9754999.77 5135380.92 179.14
-9754997.40 5135377.05 179.21
-9755001.49 5135382.65 179.99
-9754999.22 5135376.79 179.20
-9755001.59 5135376.82 179.63
-9754999.13 5135380.63 179.15
-9755001.51 5135383.85 179.98
