-9755004.25 5135852.81 178.99
-9755002.21 5135853.36 182.46
-9755004.81 5135852.77 182.17
-9755001.67 5135852.76 178.99
-9755003.70 5135853.06 182.46
-9755003.16 5135852.76 182.49
-9755003.12 5135853.34 182.46
-9755004.33 5135853.97 182.58
-9754999.59 5135853.86 182.38
-9754999.87 5135854.09 178.97
-9755002.24 5135853.10 182.45
-9755004.55 5135854.06 178.99
-9754999.85 5135852.86 179.00
-9755004.27 5135853.46 179.00
-9755004.58 5135853.06 182.42
-9755002.52 5135853.85 179.07
-9755001.35 5135853.31 182.45
-9754996.01 5135853.21 177.71
-9754995.76 5135853.86 177.71
-9754996.59 5135853.51 177.70
-9754996.28 5135853.04 177.74
-9754999.32 5135853.32 182.34
-9754999.39 5135853.86 182.39
-9754999.87 5135852.66 178.99
-9754997.44 5135854.46 177.73
-9754995.56 5135853.29 177.98
-9754993.62 5135854.08 178.62
-9754993.67 5135854.13 177.40
-9754998.14 5135853.87 182.36
-9754999.03 5135852.81 182.34
-9754996.04 5135854.47 177.72
-9754997.76 5135854.09 177.71
-9754993.90 5135853.80 177.70
-9754998.96 5135853.00 177.70
-9754998.36 5135853.90 182.37
-9754996.95 5135853.90 182.19
-9754997.80 5135852.96 177.70
-9754996.88 5135852.87 177.69
-9754994.83 5135852.99 177.72
-9754991.87 5135853.83 177.36
-9754987.18 5135852.89 177.41
-9754988.33 5135852.92 177.38
-9754988.06 5135852.93 177.39
-9754991.26 5135853.82 177.36
-9754989.53 5135852.89 177.38
-9754990.40 5135853.80 177.36
-9754992.47 5135854.42 177.35
-9754989.54 5135853.80 177.38
-9754981.02 5135853.16 177.47
-9754982.10 5135852.87 177.47
-9754984.80 5135853.15 177.44
-9754983.08 5135852.87 177.45
-9754982.42 5135853.78 177.48
-9754979.98 5135878.60 177.57
-9754979.65 5135877.69 177.56
-9754979.37 5135874.17 177.55
-9754978.77 5135880.08 177.57
-9754978.46 5135875.35 177.54
-9754976.12 5135878.27 177.51
-9754979.06 5135878.63 177.55
-9754976.72 5135873.81 177.52
-9754976.99 5135876.83 177.52
-9754976.68 5135879.19 177.53
-9754977.61 5135874.78 177.54
-9754977.01 5135877.12 177.53
-9754980.85 5135873.30 177.56
-9754979.94 5135872.73 177.54
-9754978.50 5135873.29 177.53
-9754977.03 5135872.11 177.51
-9754976.15 5135872.39 177.50
-9754980.34 5135857.01 177.48
-9754980.66 5135857.89 177.49
-9754980.88 5135860.86 177.51
-9754979.50 5135854.57 177.46
-9754979.99 5135862.05 177.50
-9754979.45 5135858.45 177.48
-9754980.04 5135858.81 177.49
-9754979.47 5135858.77 177.49
-9754980.08 5135854.92 177.46
-9754979.21 5135856.99 177.48
-9754978.28 5135860.21 177.48
-9754976.21 5135858.76 177.44
-9754977.12 5135858.74 177.46
-9754976.78 5135864.06 177.49
-9754979.21 5135854.59 177.45
-9754978.58 5135855.49 177.45
-9754976.83 5135856.98 177.45
-9754979.13 5135864.08 177.50
-9754977.66 5135862.64 177.48
-9754976.21 5135864.67 177.46
-9754978.54 5135864.97 177.49
-9754976.82 5135862.60 177.47
-9754979.12 5135863.19 177.49
-9754978.54 5135858.73 177.46
-9754978.52 5135864.08 177.50
-9754977.70 5135854.93 177.45
-9754978.86 5135859.66 177.47
-9754976.52 5135862.89 177.47
-9754978.61 5135854.90 177.45
-9754976.22 5135858.13 177.44
-9754977.72 5135858.74 177.45
-9754977.38 5135861.14 177.47
-9754977.98 5135864.42 177.49
-9754980.29 5135868.83 177.53
-9754980.02 5135869.42 177.53
-9754979.43 5135867.65 177.51
-9754980.00 5135868.87 177.52
-9754979.70 5135869.71 177.52
-9754979.11 5135869.45 177.52
-9754978.51 5135867.35 177.50
-9754976.16 5135866.40 177.48
-9754978.21 5135870.28 177.51
-9754977.31 5135870.57 177.51
-9754976.73 5135868.84 177.49
-9754976.19 5135866.16 177.47
-9754976.16 5135867.31 177.49
-9754980.06 5135853.77 177.48
-9754979.18 5135852.54 177.44
-9754978.62 5135853.72 177.44
-9755023.77 5135845.09 177.43
-9755026.38 5135847.53 177.41
-9755027.31 5135846.64 177.40
-9755025.80 5135848.08 177.42
-9755022.01 5135846.57 177.42
-9755026.70 5135848.99 177.42
-9755024.07 5135845.69 177.44
-9755027.28 5135844.84 177.39
-9755024.36 5135845.69 177.43
-9755022.30 5135844.80 177.41
-9755024.06 5135846.57 177.43
-9755022.56 5135852.19 177.45
-9755024.65 5135846.02 177.43
-9755024.38 5135844.26 177.42
-9755024.64 5135845.39 177.42
-9755023.78 5135843.32 177.42
-9755022.84 5135851.60 177.46
-9755020.77 5135848.35 177.42
-9755024.04 5135852.23 177.47
-9755021.36 5135849.26 177.42
-9755021.42 5135845.72 177.40
-9755027.01 5135851.33 177.43
-9755025.21 5135850.47 177.44
-9755026.71 5135849.90 177.43
-9755020.56 5135845.38 177.41
-9755027.58 5135849.89 177.41
-9755020.51 5135848.38 177.41
-9755028.77 5135846.92 177.38
-9755027.26 5135847.55 177.41
-9755020.54 5135845.13 177.40
-9755028.77 5135843.38 177.38
-9755022.84 5135852.20 177.45
-9755020.79 5135850.71 177.42
-9755027.30 5135849.29 177.42
-9755020.48 5135847.75 177.42
-9755019.05 5135844.82 177.38
-9755019.33 5135843.91 177.38
-9755019.02 5135849.85 177.41
-9755019.34 5135848.33 177.40
-9755019.64 5135848.33 177.40
-9755019.93 5135851.34 177.41
-9755019.06 5135845.95 177.38
-9755019.91 5135849.58 177.42
-9755024.58 5135852.80 177.46
-9755021.08 5135853.06 177.44
-9755025.17 5135852.25 177.46
-9755022.84 5135852.79 177.45
-9755019.61 5135852.52 177.42
-9755026.73 5135843.11 177.39
-9755027.06 5135839.82 177.36
-9755024.98 5135842.15 177.40
-9755027.61 5135842.47 177.37
-9755023.50 5135842.48 177.41
-9755027.06 5135839.16 177.36
-9755026.70 5135842.49 177.38
-9755019.64 5135840.63 177.36
-9755019.35 5135839.79 177.35
-9755019.61 5135842.72 177.38
-9755018.73 5135845.07 177.39
-9755018.17 5135849.24 177.39
-9755016.95 5135849.81 177.37
-9755017.30 5135844.49 177.34
-9755018.14 5135845.99 177.37
-9755017.61 5135843.31 177.35
-9755015.80 5135845.05 177.32
-9755016.42 5135849.23 177.35
-9755009.85 5135850.27 177.96
-9755010.48 5135850.37 177.69
-9755010.19 5135848.27 177.70
-9755009.06 5135849.15 177.68
-9755014.90 5135848.90 177.33
-9755012.26 5135850.62 177.30
-9755010.87 5135849.66 178.57
-9755011.41 5135846.77 178.59
-9755014.87 5135850.68 177.33
-9755008.48 5135849.84 182.18
-9755012.82 5135850.74 177.29
-9755012.20 5135844.65 178.57
-9755011.07 5135846.47 178.57
-9755011.66 5135850.63 177.74
-9755011.10 5135851.51 178.62
-9755012.18 5135848.23 178.62
-9755011.09 5135847.11 178.59
-9755007.65 5135845.38 182.23
-9755010.18 5135851.41 178.06
-9755011.64 5135848.86 178.61
-9755011.34 5135850.91 178.62
-9755008.76 5135846.48 177.66
-9755014.92 5135846.86 177.31
-9755013.40 5135852.15 177.31
-9755012.24 5135850.41 177.30
-9755011.65 5135842.92 178.57
-9755012.57 5135845.36 177.26
-9755012.83 5135847.10 177.28
-9755011.08 5135848.23 178.59
-9755007.81 5135851.98 182.32
-9755011.40 5135845.27 178.58
-9755010.78 5135844.12 177.67
-9755008.24 5135844.53 182.17
-9755011.35 5135850.59 178.63
-9755007.92 5135850.49 182.30
-9755011.36 5135851.80 178.62
-9755010.80 5135847.61 178.50
-9755007.89 5135844.15 182.22
-9755011.14 5135844.12 177.66
-9755008.79 5135851.64 182.19
-9755014.04 5135846.86 177.31
-9755009.88 5135845.93 178.00
-9755013.46 5135846.55 177.29
-9755007.82 5135849.86 182.26
-9755008.46 5135846.61 182.16
-9755010.82 5135848.66 178.55
-9755008.47 5135849.53 182.16
-9755011.10 5135846.52 177.68
-9755008.97 5135845.52 182.16
-9755008.50 5135845.64 182.16
-9755010.49 5135846.85 177.68
-9755011.71 5135845.58 178.59
-9755011.72 5135847.07 177.27
-9755011.39 5135852.40 178.62
-9755007.55 5135852.49 182.39
-9755011.93 5135852.96 178.64
-9755018.16 5135840.95 177.35
-9755015.81 5135840.62 177.30
-9755018.79 5135839.47 177.34
-9755017.61 5135840.65 177.33
-9755018.46 5135841.55 177.35
-9755016.44 5135842.70 177.32
-9755015.56 5135842.40 177.31
-9755015.83 5135840.33 177.30
-9755014.93 5135842.37 177.29
-9755012.92 5135839.13 177.22
-9755008.98 5135842.62 182.13
-9755012.92 5135839.39 177.23
-9755008.49 5135839.73 182.14
-9755011.13 5135842.38 177.67
-9755011.45 5135839.07 178.53
-9755008.26 5135839.16 182.12
-9755010.23 5135842.36 177.66
-9755011.95 5135842.40 177.28
-9755010.32 5135839.08 177.65
-9755013.43 5135840.93 177.26
-9755014.64 5135842.42 177.28
-9755011.12 5135842.36 178.54
-9755008.80 5135839.48 182.13
-9755012.58 5135841.76 177.23
-9755011.06 5135840.91 177.66
-9755010.48 5135841.46 177.65
-9755013.78 5135841.19 177.26
-9755010.87 5135840.59 178.51
-9755013.80 5135839.43 177.25
-9755010.20 5135841.51 177.66
-9755010.55 5135840.26 177.64
-9755012.30 5135840.00 177.22
-9755011.43 5135839.38 178.54
-9755011.11 5135841.49 177.66
-9755012.23 5135841.49 178.58
-9755011.74 5135839.97 178.54
-9755010.57 5135841.17 177.64
-9755011.10 5135841.71 178.56
-9755012.89 5135841.23 177.24
-9755011.57 5135839.61 177.83
-9755006.96 5135851.32 182.34
-9755006.74 5135852.18 182.40
-9755006.70 5135848.93 182.35
-9755007.11 5135850.98 182.35
-9755006.98 5135845.64 182.31
-9755006.97 5135849.23 177.66
-9755006.94 5135852.14 182.40
-9755006.35 5135850.58 178.97
-9755006.39 5135847.38 182.35
-9755007.02 5135844.75 182.33
-9755006.72 5135846.86 182.32
-9755006.75 5135844.16 182.31
-9755007.47 5135845.50 177.67
-9755006.67 5135843.34 178.94
-9755006.37 5135844.76 182.37
-9755006.08 5135851.28 182.39
-9755006.39 5135844.47 182.34
-9755001.44 5135850.96 182.54
-9755000.74 5135849.30 178.99
-9755006.33 5135849.42 182.43
-9755000.56 5135849.67 178.96
-9755001.05 5135847.82 179.00
-9755002.13 5135848.19 178.99
-9755005.51 5135849.82 182.40
-9755000.57 5135845.90 182.41
-9755001.15 5135846.54 182.49
-9755000.39 5135849.48 182.46
-9755004.11 5135843.32 182.51
-9755005.54 5135850.73 182.40
-9755004.38 5135844.19 182.41
-9755005.80 5135847.64 178.97
-9755005.78 5135845.93 182.48
-9755001.36 5135847.58 178.99
-9755005.55 5135848.56 178.95
-9755001.36 5135844.79 182.44
-9755006.35 5135851.80 178.99
-9755006.04 5135848.05 182.41
-9755002.56 5135845.08 182.42
-9755006.30 5135844.96 178.94
-9755000.47 5135848.00 182.51
-9755004.83 5135844.27 178.96
-9755005.12 5135850.78 182.33
-9755002.82 5135848.88 182.45
-9754999.92 5135850.56 178.97
-9755003.96 5135849.52 182.51
-9755002.62 5135843.26 182.46
-9755002.58 5135845.34 182.44
-9755005.80 5135848.23 178.96
-9755000.52 5135845.51 178.95
-9755005.50 5135851.43 178.99
-9755003.16 5135850.20 181.72
-9755003.12 5135845.15 178.96
-9755004.86 5135848.81 178.97
-9755004.84 5135847.12 182.31
-9754999.62 5135847.38 182.36
-9755001.44 5135843.30 182.46
-9755004.70 5135845.82 178.97
-9755000.51 5135848.26 182.48
-9755001.91 5135848.33 178.99
-9755002.58 5135848.89 182.44
-9755000.22 5135846.66 178.97
-9755005.80 5135850.71 182.38
-9755006.08 5135845.00 178.94
-9755004.84 5135843.73 178.95
-9755004.16 5135847.12 182.55
-9754999.61 5135848.02 182.37
-9755004.29 5135850.08 178.94
-9755004.65 5135851.87 182.45
-9755002.48 5135846.52 181.75
-9755001.60 5135844.42 178.97
-9755005.84 5135848.56 178.97
-9755004.64 5135844.39 178.96
-9755005.81 5135843.29 182.36
-9755003.22 5135845.01 182.50
-9755000.46 5135844.87 178.99
-9755000.15 5135848.80 178.98
-9755001.45 5135846.10 178.93
-9755003.17 5135848.28 182.47
-9755001.96 5135847.93 179.00
-9755002.61 5135846.52 182.54
-9755004.42 5135843.23 182.51
-9755001.42 5135849.15 182.47
-9755004.29 5135842.82 178.96
-9755000.49 5135843.56 182.42
-9755004.58 5135848.80 178.97
-9755000.82 5135849.71 182.51
-9754999.85 5135850.06 182.39
-9755003.45 5135848.03 182.55
-9755004.69 5135843.87 182.39
-9755004.85 5135852.06 179.00
-9755005.79 5135843.14 178.96
-9755002.62 5135843.89 182.44
-9755002.93 5135843.85 182.43
-9755003.17 5135847.98 182.53
-9755003.17 5135850.40 181.72
-9755001.21 5135846.26 178.93
-9754999.91 5135845.02 182.39
-9755003.68 5135851.52 182.47
-9755005.79 5135850.40 182.39
-9755002.90 5135850.65 182.45
-9755001.95 5135845.10 182.50
-9755002.21 5135851.30 182.47
-9755004.61 5135851.23 182.40
-9755005.22 5135848.33 182.40
-9755005.23 5135845.36 182.49
-9755000.69 5135851.30 182.47
-9755000.10 5135847.91 178.97
-9755004.30 5135845.88 178.98
-9755002.48 5135848.40 181.73
-9755004.02 5135848.38 182.46
-9755006.10 5135852.00 178.99
-9755001.43 5135848.88 182.44
-9755001.92 5135850.64 179.00
-9755000.47 5135851.25 182.49
-9755001.30 5135849.50 182.52
-9755005.78 5135848.76 178.96
-9755001.02 5135848.79 179.00
-9754999.93 5135846.10 178.96
-9755004.60 5135844.65 179.00
-9755004.92 5135846.27 182.28
-9755000.55 5135845.27 182.46
-9755000.17 5135849.70 178.99
-9754999.59 5135847.27 178.95
-9755001.98 5135843.14 178.98
-9754999.57 5135844.82 178.95
-9755003.78 5135842.93 182.43
-9755005.82 5135849.79 182.40
-9755000.47 5135850.35 182.43
-9755004.32 5135849.86 182.42
-9755001.70 5135848.90 182.45
-9755006.15 5135848.90 182.36
-9755003.14 5135848.09 181.73
-9755001.01 5135849.83 182.41
-9754999.88 5135851.86 182.38
-9755004.67 5135848.37 182.40
-9755002.59 5135848.08 178.99
-9754999.56 5135851.21 178.98
-9755000.99 5135845.05 182.50
-9755005.80 5135845.07 182.38
-9754999.54 5135844.85 178.95
-9755005.27 5135845.49 178.97
-9755005.81 5135851.30 182.38
-9755005.81 5135847.80 178.97
-9755006.40 5135850.15 182.34
-9755000.79 5135845.96 182.41
-9755004.75 5135851.20 178.99
-9755003.18 5135845.36 182.50
-9755001.40 5135852.02 179.01
-9755004.09 5135844.43 182.43
-9755005.82 5135844.19 182.36
-9755004.96 5135850.71 182.32
-9754999.64 5135844.13 182.35
-9755005.48 5135844.50 178.96
-9754999.57 5135848.10 178.97
-9755006.42 5135852.55 182.39
-9755004.38 5135852.27 182.52
-9754999.91 5135852.43 182.39
-9755003.07 5135852.66 179.04
-9754999.30 5135853.13 177.66
-9755004.56 5135852.29 178.99
-9755005.19 5135852.93 179.01
-9755004.61 5135852.78 179.02
-9755000.50 5135852.37 182.48
-9755003.35 5135852.44 178.97
-9755002.17 5135852.27 178.98
-9755002.55 5135852.37 178.97
-9755002.23 5135852.20 182.48
-9755001.08 5135852.37 182.53
-9755001.97 5135852.22 182.49
-9755007.37 5135842.64 182.27
-9755006.72 5135840.85 177.67
-9755006.44 5135842.66 182.32
-9755007.38 5135840.34 182.31
-9755006.96 5135840.92 177.67
-9755003.21 5135842.71 182.44
-9755002.61 5135842.37 182.42
-9755005.59 5135839.44 182.36
-9755005.85 5135839.17 182.35
-9755002.30 5135842.80 178.98
-9755001.14 5135841.69 178.96
-9755003.77 5135841.82 182.55
-9755000.58 5135842.35 182.38
-9754999.91 5135841.34 178.93
-9755005.51 5135841.51 182.36
-9755004.74 5135842.08 182.39
-9755002.63 5135841.12 178.98
-9755001.69 5135839.40 182.41
-9755000.84 5135842.26 178.94
-9755004.34 5135839.98 178.95
-9754999.98 5135839.09 182.35
-9755002.27 5135840.06 178.93
-9755003.52 5135842.19 182.38
-9755003.49 5135842.14 182.54
-9755000.17 5135842.21 178.96
-9755004.19 5135842.49 178.96
-9755000.93 5135841.64 178.97
-9755003.84 5135839.24 178.97
-9755004.35 5135839.81 182.41
-9755002.29 5135842.74 182.43
-9755003.17 5135840.58 182.48
-9754999.95 5135840.91 182.36
-9755005.00 5135839.76 182.38
-9754999.62 5135841.65 178.95
-9755002.59 5135842.09 182.43
-9755002.62 5135839.43 182.41
-9755001.80 5135841.68 182.52
-9755000.29 5135839.69 182.37
-9755002.22 5135842.21 178.98
-9755000.26 5135840.60 182.48
-9755001.45 5135840.58 182.41
-9755005.00 5135842.67 182.40
-9755002.18 5135840.41 178.95
-9755001.20 5135840.57 182.40
-9755003.34 5135842.28 178.98
-9755001.73 5135840.17 178.99
-9755004.67 5135842.22 182.31
-9755005.80 5135840.37 178.94
-9755001.41 5135841.52 178.98
-9755001.04 5135842.33 178.94
-9755003.29 5135840.31 182.54
-9755004.42 5135840.43 178.94
-9755000.79 5135841.16 182.37
-9755001.95 5135840.45 178.99
-9755000.19 5135842.04 182.36
-9755003.78 5135839.17 182.42
-9755001.14 5135841.54 182.40
-9755004.68 5135841.16 182.40
-9755005.02 5135840.85 178.89
-9755006.48 5135842.17 182.32
-9755004.12 5135841.71 178.97
-9755005.44 5135840.25 178.92
-9754997.26 5135845.00 182.18
-9754995.80 5135843.78 177.65
-9754999.66 5135845.23 178.97
-9754995.83 5135848.47 178.03
-9754999.40 5135847.98 178.97
-9754999.27 5135848.03 182.25
-9754997.32 5135844.96 177.66
-9754993.99 5135843.12 178.56
-9754997.45 5135849.68 177.70
-9754997.56 5135846.33 177.69
-9754993.40 5135847.31 178.04
-9754998.44 5135845.58 182.28
-9754993.55 5135845.71 178.09
-9754993.35 5135847.31 177.29
-9754998.67 5135850.40 182.30
-9754997.81 5135844.98 177.67
-9754994.63 5135844.04 177.67
-9754996.66 5135844.06 177.65
-9754996.61 5135845.86 177.66
-9754994.86 5135845.82 177.67
-9754993.67 5135846.43 178.58
-9754997.54 5135846.51 182.29
-9754999.25 5135846.89 178.95
-9754997.61 5135845.32 182.30
-9754997.55 5135847.63 177.67
-9754993.62 5135849.97 177.39
-9754993.54 5135843.40 178.08
-9754999.15 5135843.61 182.32
-9754994.85 5135850.62 177.69
-9754996.05 5135847.31 177.65
-9754997.00 5135843.84 182.15
-9754993.13 5135843.44 177.26
-9754993.39 5135846.72 177.31
-9754993.40 5135843.67 178.58
-9754996.00 5135845.80 177.67
-9754995.81 5135842.90 177.66
-9754993.73 5135847.91 177.90
-9754994.11 5135845.59 178.16
-9754999.39 5135845.35 182.36
-9754998.12 5135844.13 182.26
-9754999.03 5135848.85 182.33
-9754993.64 5135850.25 177.47
-9754993.42 5135845.88 178.57
-9754993.70 5135844.70 177.92
-9754994.28 5135849.04 178.61
-9754997.57 5135851.27 182.26
-9754993.93 5135850.59 178.06
-9754998.66 5135844.70 182.31
-9754997.54 5135843.14 177.67
-9754997.24 5135848.22 177.67
-9754996.70 5135849.05 177.68
-9754996.63 5135851.15 177.70
-9754995.74 5135843.68 178.00
-9754993.96 5135850.84 178.63
-9754994.54 5135845.73 178.16
-9754999.32 5135850.39 182.35
-9754997.24 5135847.07 182.15
-9754996.71 5135850.04 182.13
-9754997.25 5135848.60 182.17
-9754999.12 5135844.72 182.34
-9754992.80 5135847.91 177.30
-9754998.12 5135848.92 182.26
-9754998.75 5135845.18 182.42
-9754998.98 5135847.43 177.68
-9754998.37 5135843.23 182.14
-9754996.56 5135848.74 177.70
-9754997.29 5135845.90 182.19
-9754993.99 5135844.29 178.57
-9754997.52 5135846.74 177.70
-9754998.20 5135851.23 182.32
-9754998.73 5135843.18 182.37
-9754998.40 5135846.83 182.30
-9754998.73 5135847.08 182.29
-9754995.17 5135849.90 177.68
-9754996.37 5135847.57 177.67
-9754998.41 5135850.60 177.70
-9754996.66 5135850.52 177.69
-9754993.46 5135845.10 178.55
-9754999.00 5135850.91 182.37
-9754993.64 5135849.11 177.98
-9754994.30 5135849.94 178.61
-9754998.37 5135849.54 182.39
-9754998.85 5135848.26 177.65
-9754994.30 5135845.79 178.57
-9754996.73 5135843.51 182.14
-9754993.89 5135843.65 177.89
-9754997.82 5135851.49 177.73
-9754999.05 5135850.53 177.68
-9754995.17 5135845.25 177.68
-9754998.94 5135849.76 182.35
-9754993.64 5135849.71 177.39
-9754997.81 5135851.53 182.25
-9754996.94 5135847.11 182.15
-9754996.44 5135845.76 182.10
-9754993.61 5135843.69 177.95
-9754998.21 5135843.58 182.23
-9754992.78 5135849.99 177.31
-9754993.85 5135849.35 178.21
-9754998.51 5135845.02 182.39
-9754996.65 5135844.43 182.13
-9754999.35 5135844.44 182.34
-9754996.64 5135846.12 177.67
-9754999.12 5135845.65 182.33
-9754993.77 5135844.03 178.40
-9754995.80 5135849.14 177.67
-9754997.24 5135848.90 182.17
-9754993.65 5135845.79 178.24
-9754989.83 5135848.83 177.35
-9754991.59 5135849.08 177.33
-9754991.09 5135846.41 177.32
-9754991.94 5135846.42 177.31
-9754986.88 5135851.11 177.41
-9754989.28 5135845.83 177.33
-9754991.00 5135849.63 177.34
-9754986.35 5135845.51 177.39
-9754986.58 5135852.02 177.42
-9754989.22 5135850.56 177.35
-9754988.04 5135850.56 177.38
-9754988.97 5135851.42 177.37
-9754991.03 5135848.51 177.33
-9754989.27 5135844.59 177.32
-9754989.28 5135846.39 177.34
-9754991.92 5135844.04 177.29
-9754989.25 5135849.94 177.37
-9754992.25 5135847.34 177.31
-9754992.49 5135846.98 177.30
-9754991.00 5135846.71 177.32
-9754988.69 5135844.01 177.33
-9754987.79 5135844.63 177.35
-9754986.05 5135844.01 177.38
-9754988.34 5135850.52 177.38
-9754986.00 5135847.56 177.40
-9754988.09 5135844.65 177.35
-9754989.02 5135844.62 177.32
-9754986.87 5135844.29 177.38
-9754990.44 5135849.05 177.35
-9754990.42 5135851.41 177.36
-9754990.73 5135847.01 177.32
-9754994.29 5135852.86 178.65
-9754995.73 5135852.27 177.73
-9754997.26 5135852.48 182.18
-9754991.61 5135852.32 177.35
-9754982.75 5135850.23 177.45
-9754983.97 5135851.41 177.43
-9754982.49 5135850.15 177.45
-9754986.62 5135842.82 177.37
-9754984.55 5135844.59 177.39
-9754984.84 5135848.73 177.42
-9754983.05 5135844.89 177.42
-9754984.52 5135849.04 177.42
-9754981.62 5135842.77 177.43
-9754985.13 5135845.78 177.40
-9754982.73 5135849.04 177.44
-9754983.36 5135845.20 177.42
-9754983.65 5135848.71 177.44
-9754983.95 5135847.58 177.43
-9754982.78 5135851.65 177.46
-9754985.72 5135849.05 177.40
-9754984.90 5135843.09 177.38
-9754982.48 5135845.15 177.43
-9754981.04 5135843.67 177.43
-9754981.61 5135845.13 177.44
-9754981.01 5135846.65 177.45
-9754981.00 5135846.30 177.44
-9754981.57 5135847.27 177.45
-9754984.81 5135849.98 177.42
-9754982.44 5135848.14 177.45
-9754984.87 5135847.22 177.40
-9754983.08 5135847.25 177.43
-9754982.74 5135847.60 177.43
-9754980.38 5135852.25 177.46
-9754997.28 5135843.16 177.67
-9754994.03 5135841.64 178.55
-9754997.00 5135842.39 182.16
-9754996.64 5135842.88 177.67
-9754999.31 5135842.07 182.30
-9754993.43 5135841.09 178.54
-9754998.79 5135842.26 182.30
-9754999.40 5135840.74 178.91
-9754993.61 5135839.60 178.35
-9754993.52 5135839.57 177.39
-9754998.65 5135842.39 177.65
-9754995.74 5135839.29 177.65
-9754994.31 5135842.18 178.54
-9754999.06 5135839.11 182.34
-9754999.37 5135840.49 178.92
-9754997.32 5135841.73 182.23
-9754998.11 5135840.84 177.64
-9754996.66 5135840.53 177.63
-9754997.04 5135840.02 182.15
-9754994.30 5135839.86 178.52
-9754997.22 5135840.79 177.64
-9754998.49 5135840.60 182.31
-9754997.24 5135841.63 177.66
-9754997.30 5135842.96 182.19
-9754994.29 5135839.63 178.52
-9754993.51 5135841.29 177.39
-9754993.42 5135841.07 177.33
-9754993.73 5135839.80 178.54
-9754997.86 5135841.40 182.25
-9754993.49 5135840.41 178.54
-9754994.31 5135840.49 178.52
-9754998.22 5135840.60 182.26
-9754997.92 5135840.01 182.26
-9754996.64 5135840.24 177.63
-9754998.47 5135839.74 182.29
-9754995.46 5135839.32 177.65
-9754999.06 5135841.16 182.31
-9754996.98 5135841.49 182.15
-9754997.67 5135842.32 182.23
-9754997.59 5135840.18 177.64
-9754993.41 5135839.91 177.30
-9754994.05 5135839.87 178.53
-9754999.34 5135841.86 182.36
-9754998.36 5135840.80 177.63
-9754993.52 5135841.98 177.63
-9754997.03 5135839.12 182.12
-9754994.66 5135841.68 177.65
-9754999.37 5135839.71 182.33
-9754993.30 5135839.38 178.20
-9754996.06 5135840.17 177.64
-9754994.37 5135840.15 178.52
-9754992.54 5135841.07 177.25
-9754989.82 5135842.58 177.30
-9754992.79 5135842.54 177.25
-9754989.31 5135840.18 177.30
-9754989.30 5135839.29 177.30
-9754988.74 5135842.20 177.32
-9754986.30 5135842.54 177.38
-9754987.82 5135841.95 177.33
-9754992.00 5135839.93 177.25
-9754989.62 5135839.28 177.29
-9754990.49 5135840.51 177.29
-9754990.74 5135842.55 177.30
-9754986.94 5135839.27 177.34
-9754987.19 5135841.37 177.34
-9754989.85 5135840.15 177.28
-9754984.55 5135842.23 177.37
-9754982.25 5135840.75 177.41
-9754984.87 5135842.19 177.38
-9754984.91 5135841.64 177.38
-9754981.06 5135842.20 177.42
-9754983.74 5135839.26 177.38
-9754981.04 5135841.91 177.42
-9754984.01 5135840.13 177.39
-9754985.78 5135842.54 177.38
-9754980.71 5135848.98 177.44
-9754980.71 5135844.85 177.42
-9754979.47 5135850.77 177.45
-9754980.35 5135851.36 177.46
-9754979.54 5135845.76 177.41
-9754979.24 5135847.23 177.43
-9754979.30 5135843.43 177.39
-9754979.26 5135848.13 177.42
-9754978.71 5135843.97 177.40
-9754979.25 5135846.67 177.42
-9754977.77 5135848.70 177.41
-9754979.26 5135844.54 177.42
-9754978.66 5135848.98 177.42
-9754976.87 5135849.28 177.41
-9754978.40 5135845.74 177.42
-9754977.74 5135849.01 177.42
-9754977.78 5135846.02 177.39
-9754978.62 5135850.77 177.44
-9754976.62 5135848.98 177.40
-9754977.74 5135847.49 177.40
-9754978.33 5135850.20 177.43
-9754978.64 5135852.25 177.44
-9754977.72 5135852.27 177.43
-9754979.86 5135842.23 177.40
-9754979.29 5135841.54 177.40
-9754979.30 5135841.01 177.40
-9754976.32 5135840.13 177.35
-9754977.79 5135839.21 177.36
-9754977.49 5135842.20 177.38
-9754976.07 5135839.50 177.35
-9754976.93 5135839.51 177.36
-9755077.89 5135890.63 181.94
-9755077.87 5135888.88 184.65
-9755081.35 5135884.02 181.47
-9755076.92 5135888.84 183.78
-9755077.84 5135881.62 182.32
-9755077.92 5135882.26 180.55
-9755076.93 5135882.91 180.32
-9755077.84 5135891.49 184.61
-9755076.65 5135888.84 185.11
-9755079.21 5135889.90 184.59
-9755079.55 5135884.62 181.22
-9755079.39 5135888.82 184.68
-9755077.87 5135891.31 183.90
-9755078.63 5135882.96 183.68
-9755081.13 5135885.50 182.33
-9755076.95 5135890.41 184.61
-9755078.74 5135888.87 184.81
-9755081.31 5135886.43 181.46
-9755078.94 5135891.43 181.05
-9755077.83 5135884.07 180.68
-9755076.21 5135890.49 182.73
-9755077.02 5135880.53 182.82
-9755079.59 5135887.33 181.25
-9755078.69 5135881.65 182.08
-9755080.80 5135883.16 181.39
-9755078.70 5135882.25 180.74
-9755078.63 5135881.46 183.68
-9755078.18 5135882.83 183.70
-9755076.92 5135880.65 183.93
-9755076.47 5135883.14 180.42
-9755077.44 5135891.51 180.58
-9755076.35 5135890.32 180.30
-9755077.35 5135891.06 184.57
-9755077.76 5135888.67 183.97
-9755076.72 5135881.51 181.55
-9755078.66 5135891.11 183.56
-9755078.38 5135890.55 183.08
-9755078.75 5135881.61 183.18
-9755081.33 5135884.58 182.01
-9755075.92 5135890.46 182.10
-9755077.99 5135881.48 185.11
-9755076.27 5135891.36 182.95
-9755075.99 5135881.33 180.16
-9755077.84 5135891.25 185.24
-9755080.71 5135881.18 184.62
-9755077.79 5135888.28 185.41
-9755078.47 5135889.89 183.64
-9755076.87 5135887.21 184.20
-9755081.30 5135888.10 182.33
-9755077.60 5135880.73 183.57
-9755076.93 5135891.36 183.85
-9755076.06 5135880.69 182.55
-9755078.80 5135891.60 182.76
-9755076.12 5135887.28 184.27
-9755081.30 5135887.84 181.46
-9755077.33 5135888.40 185.39
-9755076.28 5135889.68 180.20
-9755076.08 5135880.51 180.36
-9755076.87 5135890.91 182.30
-9755079.30 5135883.79 180.94
-9755076.00 5135887.56 183.98
-9755078.36 5135888.54 185.15
-9755076.07 5135880.47 182.22
-9755078.36 5135890.31 185.33
-9755077.90 5135882.19 182.75
-9755079.30 5135880.48 182.06
-9755079.90 5135882.74 183.36
-9755074.50 5135885.46 183.06
-9755075.45 5135889.55 183.83
-9755074.25 5135884.81 183.07
-9755075.49 5135889.64 183.01
-9755074.60 5135887.07 180.19
-9755075.45 5135889.47 185.04
-9755075.48 5135888.98 183.05
-9755075.21 5135886.40 180.08
-9755075.20 5135889.69 184.50
-9755075.12 5135888.92 183.79
-9755075.47 5135883.42 182.24
-9755075.50 5135888.07 182.98
-9755074.36 5135884.57 181.24
-9755075.55 5135887.55 183.84
-9755074.60 5135883.02 182.95
-9755075.23 5135889.05 182.31
-9755075.19 5135883.38 182.68
-9755074.56 5135885.47 180.56
-9755075.10 5135888.23 180.00
-9755075.45 5135887.97 183.83
-9755075.20 5135881.99 180.26
-9755075.53 5135890.45 182.73
-9755075.46 5135890.18 183.59
-9755074.32 5135886.79 180.09
-9755074.26 5135887.97 179.78
-9755075.20 5135889.20 185.06
-9755075.09 5135884.97 179.99
-9755075.51 5135880.54 180.46
-9755075.44 5135885.51 180.43
-9755074.61 5135880.77 180.26
-9755075.69 5135891.24 182.94
-9755075.61 5135888.38 184.20
-9755075.20 5135882.90 180.00
-9755075.46 5135890.91 180.12
-9755075.43 5135890.01 180.11
-9755073.68 5135884.75 184.02
-9755072.84 5135884.62 182.93
-9755072.84 5135884.77 183.79
-9755073.70 5135883.90 182.93
-9755072.91 5135884.18 183.12
-9755072.85 5135883.91 183.90
-9755073.71 5135880.82 180.20
-9755073.68 5135889.74 179.63
-9755073.75 5135885.64 184.03
-9755073.52 5135882.26 182.07
-9755073.67 5135885.41 182.83
-9755072.79 5135881.36 179.70
-9755072.83 5135889.73 179.72
-9755072.78 5135887.39 179.58
-9755072.78 5135887.94 179.76
-9755072.63 5135883.07 183.02
-9755072.14 5135889.12 179.60
-9755070.37 5135891.57 178.93
-9755072.20 5135881.36 179.78
-9755068.17 5135887.07 178.74
-9755069.53 5135887.37 178.80
-9755072.17 5135883.23 183.08
-9755062.12 5135887.10 177.19
-9755072.25 5135884.72 182.81
-9755071.36 5135886.17 179.12
-9755065.42 5135882.35 177.89
-9755069.52 5135882.32 179.04
-9755069.51 5135889.73 178.88
-9755071.04 5135888.87 179.22
-9755069.52 5135891.46 178.97
-9755069.55 5135886.42 178.87
-9755071.97 5135883.39 181.16
-9755066.88 5135881.46 177.89
-9755063.06 5135882.08 177.15
-9755067.78 5135883.22 178.11
-9755071.61 5135883.93 181.36
-9755071.31 5135890.56 179.51
-9755069.57 5135883.22 178.86
-9755071.89 5135890.46 179.69
-9755068.03 5135887.96 178.75
-9755065.69 5135880.64 177.11
-9755068.61 5135888.85 178.77
-9755066.32 5135881.45 177.86
-9755071.02 5135883.83 179.07
-9755068.96 5135885.71 178.92
-9755068.89 5135884.68 178.82
-9755071.24 5135889.62 179.48
-9755070.36 5135889.70 179.28
-9755068.11 5135888.84 178.57
-9755062.13 5135884.13 177.18
-9755065.41 5135885.06 177.11
-9755068.13 5135886.63 178.66
-9755072.16 5135884.76 181.43
-9755067.14 5135886.54 177.98
-9755068.87 5135888.57 178.31
-9755071.95 5135891.40 179.83
-9755070.41 5135880.54 179.05
-9755071.04 5135884.72 179.05
-9755068.70 5135883.82 178.70
-9755062.14 5135888.91 177.20
-9755063.60 5135885.62 177.15
-9755064.44 5135890.63 177.13
-9755071.94 5135883.38 183.41
-9755063.02 5135888.35 177.17
-9755072.33 5135886.30 182.18
-9755065.67 5135886.45 177.90
-9755068.60 5135881.36 178.74
-9755068.63 5135885.58 178.34
-9755071.32 5135887.29 179.35
-9755071.91 5135884.13 179.23
-9755066.21 5135882.36 178.29
-9755069.61 5135889.59 178.35
-9755071.39 5135884.49 180.86
-9755068.13 5135884.93 178.67
-9755071.84 5135890.63 179.22
-9755071.35 5135881.39 179.46
-9755071.92 5135884.68 179.20
-9755070.39 5135884.11 179.35
-9755066.01 5135880.64 177.22
-9755071.43 5135883.83 183.06
-9755070.37 5135884.41 179.26
-9755072.46 5135882.57 180.82
-9755061.58 5135881.50 177.16
-9755058.58 5135888.26 177.25
-9755058.03 5135887.39 177.26
-9755058.62 5135885.62 177.23
-9755059.77 5135887.11 177.22
-9755055.63 5135890.58 177.30
-9755049.79 5135884.96 177.27
-9755052.96 5135891.75 177.31
-9755053.32 5135886.39 177.29
-9755052.18 5135880.54 177.28
-9755053.33 5135881.46 177.28
-9755077.78 5135878.04 182.93
-9755079.30 5135878.24 184.80
-9755078.46 5135879.14 184.66
-9755077.78 5135877.99 183.92
-9755080.24 5135878.83 183.76
-9755076.99 5135876.65 180.37
-9755079.31 5135878.96 184.08
-9755080.87 5135879.97 181.33
-9755080.15 5135879.69 183.49
-9755076.95 5135877.22 180.45
-9755079.06 5135876.67 180.84
-9755077.80 5135874.94 180.72
-9755077.86 5135879.68 184.68
-9755076.90 5135877.25 182.86
-9755077.29 5135878.23 184.70
-9755077.90 5135878.49 185.08
-9755080.23 5135877.53 182.87
-9755078.40 5135875.79 181.01
-9755078.65 5135878.07 182.01
-9755076.05 5135877.29 180.42
-9755080.84 5135879.78 183.79
-9755079.66 5135876.32 181.15
-9755081.46 5135876.67 181.96
-9755079.33 5135877.35 184.22
-9755078.78 5135879.98 181.44
-9755076.10 5135879.84 183.60
-9755078.56 5135875.14 181.02
-9755076.12 5135875.76 180.51
-9755081.15 5135875.70 182.19
-9755076.93 5135878.86 183.69
-9755077.26 5135879.95 185.38
-9755078.50 5135877.30 184.36
-9755080.60 5135879.12 182.20
-9755080.30 5135878.50 184.45
-9755078.57 5135879.07 180.80
-9755080.25 5135878.87 184.44
-9755077.58 5135874.78 180.98
-9755078.98 5135878.45 181.72
-9755076.13 5135874.30 180.58
-9755077.79 5135877.76 184.59
-9755077.93 5135879.84 181.44
-9755076.38 5135880.39 184.46
-9755075.43 5135878.00 180.31
-9755074.30 5135879.92 180.24
-9755075.22 5135879.62 180.15
-9755075.47 5135879.86 182.06
-9755074.62 5135878.44 180.12
-9755075.49 5135878.97 180.27
-9755074.29 5135878.78 180.09
-9755074.67 5135874.01 179.86
-9755075.72 5135878.35 183.63
-9755072.87 5135878.99 179.79
-9755073.66 5135879.89 179.85
-9755073.69 5135875.79 179.71
-9755068.75 5135878.21 178.87
-9755065.38 5135878.21 177.86
-9755071.33 5135877.26 179.38
-9755068.71 5135874.90 178.78
-9755065.64 5135876.55 177.17
-9755069.54 5135878.23 178.82
-9755068.73 5135874.04 178.69
-9755062.80 5135876.49 177.13
-9755069.63 5135874.02 178.80
-9755070.24 5135877.24 179.26
-9755068.76 5135875.71 178.64
-9755071.88 5135879.92 179.16
-9755066.29 5135874.97 177.84
-9755064.84 5135874.97 177.65
-9755065.44 5135875.59 177.07
-9755066.29 5135878.24 177.85
-9755071.07 5135876.69 179.16
-9755072.24 5135874.89 179.45
-9755065.52 5135874.02 177.82
-9755065.19 5135878.78 177.89
-9755066.93 5135878.25 177.86
-9755068.15 5135874.02 178.66
-9755064.53 5135876.74 177.07
-9755068.72 5135876.41 178.82
-9755069.89 5135879.59 179.26
-9755066.29 5135879.09 177.88
-9755072.86 5135874.28 179.66
-9755072.02 5135877.29 179.62
-9755068.08 5135875.56 178.61
-9755066.11 5135879.69 177.29
-9755066.30 5135876.71 177.84
-9755070.46 5135879.90 178.92
-9755070.78 5135875.18 179.29
-9755061.32 5135877.35 177.16
-9755077.53 5135872.62 182.12
-9755076.98 5135873.16 182.46
-9755076.72 5135873.14 180.46
-9755076.21 5135872.22 180.29
-9755077.67 5135856.83 180.43
-9755079.47 5135858.31 181.19
-9755081.13 5135864.14 182.18
-9755080.31 5135863.58 181.98
-9755077.08 5135863.39 180.39
-9755078.87 5135860.73 181.06
-9755080.31 5135866.48 182.28
-9755080.27 5135863.95 182.11
-9755077.72 5135855.98 180.55
-9755080.89 5135860.10 181.01
-9755080.00 5135861.72 181.24
-9755079.42 5135861.02 181.19
-9755078.56 5135856.77 180.67
-9755081.18 5135859.18 181.05
-9755077.09 5135857.70 180.42
-9755081.02 5135859.16 182.13
-9755078.50 5135860.13 180.51
-9755080.94 5135860.90 181.38
-9755080.01 5135858.59 181.13
-9755078.90 5135864.20 181.00
-9755079.48 5135863.63 181.00
-9755080.09 5135860.95 181.29
-9755076.20 5135862.74 180.23
-9755076.24 5135856.88 180.20
-9755076.87 5135861.67 180.32
-9755080.02 5135862.55 181.10
-9755080.35 5135857.09 181.01
-9755079.48 5135859.80 181.20
-9755079.69 5135866.85 182.04
-9755079.56 5135863.88 181.74
-9755080.93 5135866.81 182.65
-9755076.20 5135859.22 180.15
-9755077.91 5135865.95 180.91
-9755078.84 5135861.55 180.92
-9755079.48 5135857.68 181.04
-9755080.05 5135856.79 180.77
-9755076.18 5135861.60 180.18
-9755079.99 5135861.56 180.90
-9755080.14 5135859.27 181.04
-9755080.84 5135861.07 183.04
-9755081.16 5135871.60 182.03
-9755079.99 5135871.49 183.09
-9755081.13 5135871.87 183.26
-9755077.94 5135869.39 182.93
-9755079.40 5135870.95 182.12
-9755077.89 5135870.87 183.23
-9755081.10 5135870.01 183.83
-9755081.13 5135868.40 181.53
-9755081.43 5135872.35 182.62
-9755077.82 5135869.84 181.41
-9755079.45 5135871.53 183.11
-9755076.14 5135870.78 180.23
-9755080.87 5135872.45 181.88
-9755080.32 5135871.63 181.98
-9755077.67 5135871.57 182.82
-9755080.36 5135869.99 183.58
-9755078.59 5135867.63 183.11
-9755080.55 5135871.64 181.19
-9755078.04 5135867.45 182.94
-9755080.66 5135867.35 182.55
-9755080.02 5135868.40 181.42
-9755080.61 5135866.78 182.60
-9755078.65 5135868.30 183.75
-9755077.59 5135869.13 183.54
-9755077.89 5135869.90 183.51
-9755079.64 5135871.61 180.90
-9755076.37 5135871.91 182.39
-9755078.48 5135870.64 183.10
-9755077.90 5135869.87 180.49
-9755077.83 5135870.64 181.70
-9755079.44 5135871.31 182.20
-9755077.07 5135868.55 183.47
-9755077.61 5135871.68 180.48
-9755078.56 5135867.70 184.01
-9755076.43 5135870.52 182.47
-9755075.25 5135873.13 179.99
-9755075.51 5135872.55 180.16
-9755062.21 5135874.34 177.13
-9755070.51 5135872.49 178.85
-9755072.00 5135873.17 179.50
-9755068.12 5135872.45 178.61
-9755067.87 5135873.24 178.61
-9755063.11 5135872.29 177.11
-9755063.12 5135873.20 177.10
-9755067.24 5135873.16 178.10
-9755072.00 5135872.26 179.44
-9755069.62 5135872.58 178.85
-9755065.53 5135872.37 177.10
-9755076.17 5135859.24 180.05
-9755075.28 5135861.84 179.89
-9755075.28 5135864.22 180.09
-9755075.17 5135857.82 179.80
-9755074.48 5135857.68 179.84
-9755075.93 5135863.64 179.99
-9755073.58 5135855.95 179.79
-9755073.80 5135863.34 179.60
-9755072.85 5135861.84 179.51
-9755073.72 5135865.81 179.59
-9755073.58 5135856.82 179.73
-9755072.85 5135860.11 179.48
-9755072.87 5135856.90 179.66
-9755072.98 5135858.30 179.59
-9755072.62 5135863.39 179.43
-9755072.93 5135856.02 179.59
-9755074.62 5135871.64 179.87
-9755075.19 5135871.67 179.97
-9755072.91 5135866.57 179.66
-9755072.92 5135871.57 179.65
-9755070.31 5135865.12 178.97
-9755071.85 5135857.47 179.45
-9755072.12 5135860.74 179.36
-9755067.92 5135856.90 177.85
-9755070.27 5135864.22 179.03
-9755064.66 5135864.33 177.00
-9755071.14 5135857.78 178.74
-9755068.21 5135861.63 177.97
-9755069.95 5135866.62 178.97
-9755071.45 5135862.74 179.40
-9755071.79 5135863.39 179.41
-9755070.55 5135863.36 178.82
-9755062.30 5135859.01 177.05
-9755063.79 5135854.88 176.97
-9755072.03 5135856.88 179.48
-9755072.67 5135857.45 179.16
-9755069.37 5135858.66 178.28
-9755069.42 5135864.24 178.79
-9755064.64 5135861.63 176.99
-9755067.91 5135856.01 177.87
-9755071.79 5135855.93 179.48
-9755065.56 5135860.15 177.76
-9755072.04 5135861.57 178.99
-9755062.91 5135855.99 177.01
-9755071.76 5135858.69 178.92
-9755062.89 5135862.50 177.06
-9755064.91 5135865.78 177.01
-9755063.81 5135858.69 176.99
-9755065.52 5135858.35 177.74
-9755071.44 5135864.19 179.30
-9755071.48 5135856.57 179.33
-9755069.70 5135860.13 178.34
-9755069.44 5135855.34 178.55
-9755070.50 5135860.75 178.87
-9755065.45 5135866.72 177.18
-9755068.72 5135871.08 178.67
-9755072.02 5135871.71 179.46
-9755070.26 5135869.88 178.92
-9755068.72 5135870.22 178.12
-9755065.50 5135871.67 177.05
-9755065.49 5135871.73 177.83
-9755068.71 5135869.89 178.65
-9755071.14 5135867.53 178.90
-9755067.28 5135866.69 177.77
-9755072.29 5135869.88 179.57
-9755061.93 5135869.91 177.11
-9755067.85 5135870.79 177.93
-9755072.29 5135867.51 179.42
-9755072.29 5135868.36 179.41
-9755071.43 5135870.45 179.30
-9755066.14 5135866.65 177.75
-9755068.79 5135867.23 178.68
-9755061.97 5135872.28 177.12
-9755069.29 5135872.25 178.16
-9755066.05 5135872.07 177.48
-9755069.66 5135867.26 178.43
-9755068.17 5135871.10 178.64
-9755078.60 5135853.68 181.01
-9755072.68 5135853.55 179.44
-9755072.13 5135854.25 179.42
-9755070.28 5135853.93 178.39
-9755060.37 5135877.31 177.17
-9755058.66 5135876.39 177.20
-9755058.67 5135875.82 177.19
-9755058.96 5135874.34 177.18
-9755057.18 5135877.28 177.23
-9755058.10 5135875.81 177.21
-9755052.82 5135874.01 177.25
-9755050.67 5135878.76 177.25
-9755059.06 5135859.22 177.11
-9755057.88 5135863.10 177.14
-9755058.22 5135855.42 177.09
-9755061.33 5135867.55 177.11
-9755058.10 5135867.52 177.16
-9755058.12 5135868.98 177.17
-9755047.00 5135860.97 177.13
-9755048.12 5135860.66 177.16
-9755051.41 5135859.82 177.18
-9755054.62 5135860.74 177.16
-9755049.94 5135860.96 177.17
-9755053.81 5135857.44 178.07
-9755054.04 5135858.33 178.11
-9755052.85 5135859.46 177.18
-9755049.64 5135856.82 177.15
-9755053.23 5135855.02 178.08
-9755054.00 5135855.63 178.09
-9755048.21 5135855.08 177.12
-9755055.77 5135871.40 177.20
-9755052.20 5135871.63 177.24
-9755051.43 5135853.31 177.14
-9755054.71 5135854.29 181.02
-9755056.17 5135853.34 177.11
-9755053.29 5135853.48 180.02
-9755053.82 5135853.15 180.03
-9755077.64 5135852.70 180.34
-9755077.71 5135851.76 180.54
-9755077.10 5135849.42 180.36
-9755078.67 5135846.16 180.50
-9755078.29 5135851.75 180.57
-9755080.38 5135851.19 180.80
-9755077.80 5135847.85 180.42
-9755078.04 5135844.34 180.55
-9755080.99 5135850.88 182.02
-9755079.81 5135851.17 181.12
-9755080.96 5135852.64 182.15
-9755078.61 5135845.27 180.63
-9755075.93 5135851.81 179.91
-9755077.97 5135849.43 180.44
-9755079.51 5135847.63 181.02
-9755076.28 5135852.68 180.16
-9755078.65 5135848.23 180.53
-9755080.11 5135846.77 180.70
-9755081.32 5135845.80 182.25
-9755080.38 5135847.62 181.19
-9755081.29 5135847.90 180.98
-9755077.50 5135844.38 180.06
-9755081.31 5135848.53 181.33
-9755080.12 5135847.66 180.71
-9755081.31 5135845.85 181.58
-9755077.15 5135852.66 180.31
-9755080.12 5135850.30 180.72
-9755080.19 5135848.47 181.18
-9755077.18 5135847.71 180.30
-9755078.73 5135843.61 180.62
-9755076.54 5135847.05 180.15
-9755079.62 5135846.09 181.08
-9755080.37 5135847.10 181.17
-9755080.07 5135851.01 181.08
-9755081.25 5135844.43 180.91
-9755079.56 5135837.85 181.49
-9755078.42 5135837.02 180.15
-9755080.42 5135836.12 180.65
-9755080.24 5135837.50 181.86
-9755076.58 5135838.81 179.76
-9755081.04 5135842.02 180.87
-9755081.06 5135839.37 181.80
-9755078.35 5135840.29 180.19
-9755080.99 5135843.22 180.80
-9755076.38 5135841.75 180.24
-9755081.31 5135843.16 182.24
-9755076.91 5135840.25 179.83
-9755075.38 5135847.65 179.79
-9755075.07 5135852.72 179.79
-9755074.48 5135848.56 179.69
-9755074.44 5135849.16 179.75
-9755074.47 5135850.96 179.80
-9755075.12 5135843.56 179.47
-9755074.53 5135843.76 179.68
-9755073.65 5135848.57 179.59
-9755073.69 5135847.05 179.70
-9755073.62 5135845.31 179.19
-9755072.66 5135851.74 179.50
-9755072.64 5135849.45 179.07
-9755065.49 5135852.51 177.14
-9755072.98 5135848.82 179.55
-9755068.84 5135850.11 178.01
-9755066.19 5135846.87 177.58
-9755070.60 5135852.42 178.53
-9755065.37 5135844.44 177.65
-9755066.16 5135851.28 177.60
-9755065.36 5135850.41 177.16
-9755071.21 5135850.34 178.69
-9755065.37 5135845.35 177.67
-9755064.65 5135848.39 177.45
-9755065.32 5135846.24 176.99
-9755064.99 5135850.37 177.70
-9755067.95 5135851.28 177.82
-9755070.64 5135847.69 178.57
-9755064.78 5135847.40 177.66
-9755065.33 5135845.12 177.10
-9755071.24 5135848.31 178.68
-9755071.20 5135851.84 178.70
-9755067.12 5135843.57 177.74
-9755071.27 5135847.97 178.70
-9755065.02 5135848.59 177.70
-9755071.23 5135852.76 178.70
-9755075.44 5135837.00 179.78
-9755075.44 5135837.59 180.13
-9755075.37 5135836.88 180.11
-9755074.52 5135836.13 179.78
-9755073.70 5135838.53 179.54
-9755073.57 5135837.01 179.59
-9755073.39 5135837.60 179.84
-9755073.62 5135836.07 179.69
-9755073.68 5135836.16 179.19
-9755074.61 5135842.89 179.93
-9755076.30 5135841.16 179.71
-9755074.50 5135841.14 179.72
-9755075.43 5135842.92 179.73
-9755074.21 5135840.88 179.25
-9755073.13 5135837.63 179.85
-9755066.27 5135837.96 177.54
-9755064.78 5135836.98 177.02
-9755070.44 5135836.19 178.46
-9755062.15 5135836.77 176.89
-9755068.62 5135837.69 178.04
-9755068.64 5135838.84 178.06
-9755066.92 5135837.95 177.64
-9755065.08 5135836.14 177.62
-9755064.79 5135836.21 176.87
-9755066.24 5135842.68 177.57
-9755066.54 5135842.44 177.62
-9755069.51 5135841.21 178.27
-9755070.35 5135840.30 178.45
-9755068.02 5135840.32 177.90
-9755066.58 5135841.19 177.61
-9755072.20 5135840.30 178.87
-9755064.73 5135840.32 176.88
-9755072.18 5135839.40 178.87
-9755069.49 5135840.31 178.26
-9755073.14 5135839.70 179.64
-9755079.64 5135831.37 186.13
-9755079.61 5135832.90 184.57
-9755077.66 5135828.08 184.93
-9755076.98 5135827.92 184.64
-9755078.60 5135834.46 182.91
-9755078.58 5135832.76 186.26
-9755079.39 5135832.81 186.55
-9755078.74 5135833.00 184.48
-9755076.90 5135826.28 186.29
-9755080.74 5135834.21 183.74
-9755080.28 5135832.93 186.49
-9755076.98 5135834.31 183.27
-9755080.54 5135831.25 185.53
-9755077.71 5135830.27 184.62
-9755076.97 5135833.61 183.03
-9755079.32 5135835.06 182.24
-9755080.22 5135830.36 183.16
-9755076.99 5135826.23 183.58
-9755078.75 5135831.21 184.49
-9755077.84 5135832.94 183.72
-9755077.66 5135827.28 186.05
-9755080.23 5135835.21 184.71
-9755078.50 5135827.05 184.01
-9755081.07 5135830.52 180.66
-9755079.29 5135827.28 184.62
-9755077.92 5135833.59 185.48
-9755076.42 5135831.59 183.19
-9755077.00 5135829.83 180.27
-9755077.93 5135827.91 185.37
-9755076.95 5135830.23 180.16
-9755078.18 5135834.44 184.70
-9755078.77 5135828.81 183.95
-9755076.13 5135826.27 183.00
-9755076.97 5135830.21 179.78
-9755079.44 5135827.93 184.29
-9755077.64 5135835.34 182.95
-9755077.00 5135828.76 180.13
-9755077.84 5135832.91 185.45
-9755076.87 5135832.95 183.66
-9755078.46 5135830.70 184.22
-9755078.67 5135831.30 181.99
-9755079.06 5135829.52 183.07
-9755078.56 5135826.98 185.51
-9755078.98 5135828.54 184.22
-9755079.42 5135828.43 184.49
-9755076.97 5135828.75 179.75
-9755080.75 5135831.42 186.18
-9755076.04 5135829.57 179.88
-9755075.99 5135827.11 182.30
-9755081.10 5135829.62 180.64
-9755078.70 5135829.65 180.11
-9755078.83 5135831.46 186.11
-9755077.13 5135831.35 185.88
-9755078.72 5135834.00 180.16
-9755078.52 5135829.14 182.92
-9755077.58 5135829.37 182.83
-9755076.39 5135827.31 185.33
-9755077.60 5135831.37 185.88
-9755078.30 5135828.92 180.44
-9755076.21 5135833.70 183.22
-9755075.37 5135833.77 179.55
-9755075.51 5135827.89 182.15
-9755076.11 5135831.31 182.29
-9755075.50 5135829.66 179.72
-9755074.62 5135827.04 183.58
-9755075.18 5135832.85 179.38
-9755075.51 5135828.69 179.73
-9755075.27 5135828.04 181.58
-9755074.61 5135833.72 179.73
-9755075.31 5135829.22 182.84
-9755075.27 5135827.85 185.15
-9755075.43 5135831.84 183.36
-9755075.16 5135831.99 179.39
-9755074.63 5135828.14 179.31
-9755074.57 5135826.13 183.17
-9755074.57 5135829.33 179.32
-9755073.71 5135828.74 179.20
-9755074.60 5135826.52 181.54
-9755073.73 5135827.26 179.16
-9755074.31 5135826.96 179.23
-9755074.31 5135826.10 179.21
-9755068.07 5135834.40 177.86
-9755069.56 5135834.71 178.26
-9755072.87 5135827.25 179.01
-9755064.47 5135830.48 177.20
-9755066.30 5135832.94 177.53
-9755064.85 5135832.05 176.92
-9755072.77 5135833.80 178.97
-9755066.33 5135826.13 177.51
-9755071.93 5135827.89 178.79
-9755064.60 5135827.05 177.10
-9755070.45 5135832.29 178.46
-9755072.27 5135832.88 178.88
-9755070.45 5135835.58 178.46
-9755067.28 5135826.42 177.66
-9755069.57 5135831.40 178.27
-9755068.69 5135828.18 177.99
-9755072.80 5135834.36 178.98
-9755062.20 5135827.01 176.82
-9755065.45 5135826.98 177.43
-9755062.15 5135832.06 176.86
-9755065.47 5135827.88 177.44
-9755064.65 5135834.42 177.36
-9755067.19 5135832.92 177.68
-9755067.19 5135833.83 177.67
-9755072.23 5135832.30 178.89
-9755071.32 5135835.51 178.68
-9755067.19 5135830.85 177.67
-9755069.53 5135827.87 178.20
-9755071.99 5135826.36 178.81
-9755071.94 5135834.66 178.82
-9755061.21 5135844.43 176.97
-9755061.22 5135845.33 176.97
-9755061.47 5135846.85 176.98
-9755059.75 5135846.24 177.01
-9755058.20 5135852.42 177.07
-9755057.05 5135852.73 177.10
-9755057.92 5135852.15 177.08
-9755058.81 5135847.41 177.03
-9755059.41 5135847.73 177.01
-9755058.24 5135845.92 177.02
-9755057.40 5135847.68 177.06
-9755058.89 5135837.02 176.95
-9755058.03 5135835.87 176.96
-9755054.69 5135849.95 178.89
-9755054.08 5135851.79 178.93
-9755054.66 5135852.00 178.98
-9755050.60 5135847.65 177.09
-9755049.67 5135846.76 177.10
-9755053.25 5135849.43 177.11
-9755053.01 5135852.35 178.69
-9755054.68 5135852.46 181.02
-9755054.24 5135851.49 179.96
-9755054.04 5135850.74 179.02
-9755052.34 5135849.46 177.12
-9755052.64 5135850.35 177.12
-9755052.88 5135852.29 178.35
-9755055.35 5135851.77 178.95
-9755054.73 5135851.23 178.80
-9755054.11 5135850.29 179.02
-9755050.87 5135851.84 177.13
-9755052.04 5135852.39 177.13
-9755054.74 5135851.37 179.91
-9755054.90 5135851.63 179.91
-9755055.04 5135849.72 178.87
-9755046.71 5135851.16 177.08
-9755045.84 5135843.48 177.02
-9755055.67 5135836.12 176.99
-9755054.74 5135840.94 177.04
-9755056.26 5135839.40 177.02
-9755054.15 5135841.15 177.04
-9755051.51 5135841.14 177.06
-9755047.38 5135842.01 177.02
-9755046.49 5135842.92 177.03
-9755043.27 5135838.45 176.95
-9755061.30 5135827.88 176.85
-9755061.01 5135832.92 176.88
-9755061.32 5135830.59 176.87
-9755058.68 5135826.41 176.88
-9755058.96 5135832.92 176.92
-9755060.45 5135831.44 176.88
-9755057.14 5135833.75 176.96
-9755052.18 5135827.80 176.96
-9755050.94 5135831.96 177.00
-9755052.19 5135829.61 176.98
-9755055.42 5135830.50 176.95
-9755050.73 5135826.08 176.96
-9755056.25 5135834.66 176.98
-9755051.30 5135829.63 176.99
-9755052.17 5135828.70 176.97
-9755049.17 5135833.75 176.99
-9755051.52 5135834.33 177.02
-9755055.34 5135834.63 176.99
-9755053.93 5135831.98 176.98
-9755053.90 5135831.09 176.97
-9755045.67 5135834.04 176.96
-9755046.47 5135834.59 176.97
-9755043.03 5135828.96 176.88
-9755042.37 5135833.69 176.89
-9755080.28 5135821.05 180.46
-9755081.21 5135818.23 182.30
-9755077.08 5135824.75 183.65
-9755078.55 5135820.37 181.56
-9755081.13 5135819.66 183.02
-9755077.58 5135824.73 185.54
-9755076.05 5135824.60 184.23
-9755078.44 5135824.77 182.37
-9755077.90 5135823.78 183.89
-9755076.89 5135816.41 181.17
-9755076.87 5135823.90 184.31
-9755080.29 5135818.06 182.42
-9755081.16 5135820.42 180.69
-9755080.28 5135820.41 180.49
-9755078.40 5135819.73 183.01
-9755078.50 5135817.20 180.16
-9755076.75 5135824.93 185.54
-9755077.93 5135819.32 183.40
-9755077.07 5135817.16 179.84
-9755080.88 5135819.50 180.67
-9755077.81 5135816.46 181.19
-9755077.92 5135821.21 181.01
-9755077.06 5135816.27 179.80
-9755078.82 5135822.21 180.19
-9755080.32 5135816.19 181.31
-9755079.37 5135823.68 180.26
