-9755326.26 5135851.19 181.19
-9755331.93 5135847.30 181.21
-9755320.67 5135854.69 181.16
-9755325.41 5135846.14 181.20
-9755318.31 5135858.76 181.16
-9755319.44 5135861.73 181.14
-9755317.39 5135859.65 181.16
-9755318.51 5135868.51 181.12
-9755318.56 5135859.65 181.14
-9755318.55 5135859.42 181.14
-9755317.04 5135866.75 181.13
-9755318.80 5135862.01 181.15
-9755318.24 5135866.51 181.12
-9755307.01 5135867.94 181.23
-9755315.55 5135865.53 181.15
-9755314.09 5135867.35 181.16
-9755315.25 5135859.92 181.16
-9755310.26 5135863.78 181.20
-9755308.81 5135864.12 181.22
-9755312.00 5135865.26 181.19
-9755313.21 5135865.84 181.17
-9755307.05 5135859.91 181.22
-9755313.18 5135863.82 181.17
-9755308.13 5135865.21 181.22
-9755311.16 5135860.19 181.21
-9755311.41 5135865.27 181.20
-9755308.84 5135863.19 181.23
-9755312.27 5135870.82 181.18
-9755308.43 5135864.33 181.23
-9755308.84 5135860.50 181.23
-9755312.93 5135866.77 181.18
-9755310.60 5135859.94 181.22
-9755306.45 5135860.21 181.22
-9755314.72 5135859.06 181.18
-9755310.58 5135861.98 181.21
-9755311.14 5135865.51 181.19
-9755308.77 5135862.55 181.23
-9755305.88 5135862.26 181.23
-9755312.38 5135860.54 181.18
-9755305.89 5135864.67 181.21
-9755305.77 5135867.33 181.23
-9755314.72 5135867.36 181.15
-9755307.09 5135859.03 181.24
-9755312.95 5135859.38 181.18
-9755309.71 5135860.22 181.22
-9755314.38 5135867.32 181.15
-9755308.71 5135870.56 181.22
-9755314.35 5135862.05 181.18
-9755307.32 5135858.78 181.24
-9755312.81 5135872.06 181.18
-9755310.24 5135872.02 181.19
-9755317.14 5135844.57 181.22
-9755318.64 5135843.07 181.21
-9755317.78 5135844.01 181.21
-9755319.54 5135849.34 181.21
-9755319.18 5135852.27 181.18
-9755317.15 5135846.08 181.25
-9755317.11 5135852.83 181.20
-9755317.10 5135854.31 181.18
-9755317.97 5135853.78 181.19
-9755317.73 5135849.63 181.23
-9755317.39 5135857.00 181.16
-9755317.49 5135848.96 181.25
-9755307.11 5135843.32 181.23
-9755307.44 5135842.99 181.23
-9755308.03 5135842.73 181.24
-9755310.93 5135844.17 181.22
-9755311.27 5135842.74 181.22
-9755316.24 5135844.32 181.23
-9755306.78 5135858.15 181.23
-9755315.06 5135851.39 181.18
-9755313.93 5135851.35 181.21
-9755313.64 5135844.89 181.24
-9755313.58 5135845.45 181.24
-9755305.89 5135850.40 181.24
-9755305.93 5135848.94 181.23
-9755314.99 5135857.92 181.17
-9755314.44 5135853.73 181.20
-9755315.97 5135852.23 181.21
-9755311.25 5135848.42 181.23
-9755312.08 5135856.95 181.21
-9755309.74 5135850.77 181.22
-9755313.55 5135848.97 181.24
-9755306.52 5135853.66 181.24
-9755315.57 5135851.36 181.19
-9755307.09 5135851.35 181.24
-9755312.04 5135855.20 181.21
-9755311.46 5135858.77 181.21
-9755310.36 5135848.93 181.23
-9755312.92 5135855.25 181.19
-9755310.00 5135856.39 181.22
-9755315.98 5135853.14 181.18
-9755308.63 5135847.23 181.22
-9755315.34 5135854.31 181.19
-9755313.82 5135855.51 181.19
-9755307.10 5135853.07 181.25
-9755307.10 5135855.41 181.24
-9755309.13 5135853.05 181.23
-9755307.06 5135850.97 181.24
-9755307.06 5135845.71 181.22
-9755307.99 5135851.61 181.24
-9755314.48 5135850.73 181.21
-9755315.69 5135845.72 181.23
-9755311.53 5135848.66 181.23
-9755308.86 5135845.13 181.24
-9755309.76 5135855.50 181.22
-9755312.91 5135857.82 181.19
-9755310.30 5135857.84 181.22
-9755314.75 5135849.01 181.23
-9755312.69 5135855.47 181.20
-9755308.88 5135847.18 181.23
-9755312.15 5135847.44 181.24
-9755343.47 5135839.39 181.17
-9755341.70 5135839.95 181.16
-9755337.74 5135842.31 181.16
-9755340.20 5135842.58 181.18
-9755332.81 5135842.31 181.16
-9755338.42 5135841.70 181.17
-9755339.34 5135839.69 181.16
-9755338.41 5135840.88 181.17
-9755337.58 5135839.62 181.16
-9755335.09 5135842.00 181.16
-9755341.07 5135841.10 181.17
-9755334.54 5135842.03 181.16
-9755341.05 5135840.21 181.16
-9755341.36 5135839.63 181.16
-9755341.06 5135842.60 181.19
-9755338.65 5135840.54 181.17
-9755337.75 5135841.14 181.17
-9755334.88 5135843.14 181.17
-9755334.28 5135839.32 181.14
-9755333.95 5135840.84 181.15
-9755334.85 5135840.87 181.14
-9755320.39 5135841.92 181.19
-9755328.07 5135839.90 181.14
-9755323.69 5135841.93 181.18
-9755329.90 5135839.07 181.14
-9755321.91 5135839.28 181.17
-9755322.16 5135840.46 181.16
-9755323.40 5135839.26 181.15
-9755331.14 5135839.65 181.14
-9755331.03 5135839.29 181.12
-9755331.90 5135840.77 181.15
-9755330.42 5135840.55 181.14
-9755319.58 5135839.28 181.18
-9755331.05 5135842.26 181.17
-9755324.53 5135841.93 181.18
-9755321.03 5135841.98 181.18
-9755319.51 5135840.75 181.19
-9755319.20 5135842.21 181.19
-9755318.98 5135842.23 181.19
-9755318.65 5135841.92 181.19
-9755318.35 5135839.82 181.19
-9755318.30 5135842.18 181.20
-9755317.20 5135839.83 181.19
-9755315.44 5135842.77 181.22
-9755314.55 5135841.90 181.23
-9755313.64 5135839.45 181.20
-9755313.41 5135839.24 181.20
-9755310.41 5135839.49 181.21
-9755310.38 5135842.10 181.23
-9755313.65 5135842.20 181.22
-9755311.86 5135840.70 181.22
-9755316.34 5135839.27 181.19
-9755309.80 5135841.54 181.23
-9755313.95 5135841.84 181.22
-9755312.11 5135840.43 181.20
-9755335.80 5135884.93 181.23
-9755320.44 5135885.13 181.21
-9755337.84 5135890.27 181.22
-9755335.19 5135888.81 181.22
-9755335.50 5135886.98 181.26
-9755336.32 5135887.58 181.25
-9755336.99 5135888.18 181.24
-9755341.37 5135885.23 181.25
-9755339.31 5135888.80 181.25
-9755335.22 5135885.22 181.24
-9755320.17 5135885.44 181.21
-9755324.27 5135889.00 181.22
-9755326.03 5135886.61 181.26
-9755330.17 5135887.30 181.25
-9755324.48 5135886.93 181.26
-9755323.65 5135891.07 181.19
-9755323.40 5135889.94 181.20
-9755326.10 5135887.23 181.26
-9755328.45 5135885.80 181.26
-9755322.75 5135890.43 181.21
-9755328.42 5135889.06 181.23
-9755322.50 5135889.33 181.22
-9755326.05 5135885.43 181.25
-9755331.30 5135891.42 181.19
-9755319.01 5135885.45 181.22
-9755344.98 5135882.31 181.20
-9755343.77 5135883.47 181.23
-9755335.21 5135879.32 181.14
-9755341.12 5135882.02 181.19
-9755339.02 5135882.59 181.18
-9755336.41 5135880.22 181.15
-9755337.58 5135876.96 181.11
-9755336.41 5135876.09 181.09
-9755337.95 5135876.96 181.11
-9755333.70 5135884.06 181.21
-9755333.76 5135879.31 181.13
-9755332.00 5135881.37 181.16
-9755333.48 5135879.84 181.14
-9755333.18 5135872.79 181.10
-9755330.21 5135884.85 181.23
-9755319.30 5135876.84 181.12
-9755324.60 5135878.97 181.12
-9755322.59 5135882.78 181.19
-9755322.83 5135880.69 181.14
-9755327.60 5135874.23 181.10
-9755319.66 5135875.08 181.13
-9755325.55 5135873.02 181.12
-9755326.06 5135878.08 181.13
-9755327.57 5135873.37 181.11
-9755321.92 5135883.05 181.18
-9755322.83 5135883.65 181.19
-9755324.31 5135880.12 181.16
-9755331.74 5135875.44 181.12
-9755324.26 5135882.80 181.19
-9755329.65 5135876.67 181.12
-9755317.49 5135885.13 181.21
-9755316.59 5135886.57 181.23
-9755314.55 5135887.20 181.23
-9755310.09 5135888.63 181.24
-9755314.81 5135888.98 181.23
-9755316.63 5135881.02 181.17
-9755317.82 5135882.48 181.17
-9755317.25 5135874.79 181.13
-9755314.86 5135878.02 181.15
-9755311.06 5135874.45 181.18
-9755312.50 5135882.76 181.20
-9755313.47 5135874.46 181.17
-9755306.40 5135873.54 181.24
-9755311.89 5135882.97 181.21
-9755316.10 5135880.11 181.16
-9755315.76 5135880.35 181.17
-9755313.19 5135873.23 181.18
-9755309.86 5135874.73 181.19
-9755307.28 5135872.35 181.22
-9755311.98 5135881.26 181.20
-9755316.12 5135874.16 181.15
-9755309.24 5135883.34 181.21
-9755308.72 5135872.06 181.20
-9755343.59 5135867.55 181.14
-9755343.62 5135861.31 181.14
-9755344.75 5135861.89 181.16
-9755325.94 5135858.00 181.13
-9755330.91 5135858.67 181.13
-9755334.48 5135858.92 181.13
-9755341.83 5135860.72 181.13
-9755335.02 5135862.70 181.11
-9755338.55 5135861.60 181.12
-9755339.73 5135869.31 181.11
-9755332.93 5135867.75 181.07
-9755342.45 5135865.15 181.10
-9755334.71 5135871.34 181.11
-9755335.87 5135862.14 181.12
-9755333.86 5135861.21 181.12
-9755339.52 5135859.49 181.11
-9755339.48 5135864.22 181.11
-9755338.00 5135867.20 181.11
-9755336.47 5135871.03 181.11
-9755342.40 5135863.99 181.12
-9755333.49 5135866.25 181.10
-9755334.68 5135868.06 181.09
-9755341.84 5135868.06 181.12
-9755340.88 5135870.78 181.12
-9755332.40 5135862.13 181.11
-9755333.58 5135868.35 181.09
-9755322.36 5135867.12 181.11
-9755326.74 5135871.31 181.09
-9755320.52 5135870.97 181.11
-9755324.12 5135862.13 181.12
-9755329.42 5135866.55 181.07
-9755326.73 5135868.04 181.09
-9755326.99 5135871.51 181.09
-9755325.57 5135864.74 181.10
-9755322.61 5135863.56 181.11
-9755319.40 5135859.98 181.15
-9755327.62 5135865.29 181.09
-9755329.97 5135862.71 181.12
-9755324.37 5135867.45 181.10
-9755327.67 5135859.48 181.12
-9755327.66 5135868.90 181.07
-9755321.45 5135862.06 181.13
-9755329.45 5135862.12 181.12
-9755321.75 5135863.86 181.12
-9755328.24 5135861.24 181.11
-9755318.85 5135861.76 181.15
-9755331.17 5135872.19 181.10
-9755344.52 5135850.39 181.21
-9755343.63 5135853.85 181.20
-9755344.90 5135846.82 181.22
-9755343.44 5135844.43 181.20
-9755343.67 5135853.00 181.19
-9755342.20 5135844.71 181.19
-9755339.26 5135843.78 181.17
-9755335.41 5135844.65 181.18
-9755341.93 5135842.93 181.18
-9755338.29 5135844.69 181.20
-9755342.54 5135845.35 181.21
-9755334.59 5135842.90 181.17
-9755332.50 5135844.35 181.18
-9755335.76 5135845.54 181.19
-9755321.91 5135843.99 181.19
-9755324.55 5135844.32 181.18
-9755329.55 5135844.36 181.16
-9755319.50 5135842.82 181.22
-9755329.29 5135842.57 181.18
-9755322.20 5135843.10 181.19
-9755330.41 5135844.94 181.19
-9755330.11 5135843.76 181.16
-9755324.87 5135843.40 181.18
-9755327.22 5135845.54 181.19
-9755331.58 5135844.91 181.17
-9755318.92 5135844.01 181.19
-9755333.35 5135858.31 181.13
-9755343.37 5135849.18 181.21
-9755341.56 5135851.50 181.18
-9755338.68 5135851.20 181.18
-9755338.03 5135852.37 181.17
-9755338.67 5135844.92 181.19
-9755340.16 5135847.74 181.22
-9755334.54 5135852.39 181.17
-9755335.40 5135846.45 181.19
-9755334.80 5135857.06 181.14
-9755336.26 5135857.09 181.13
-9755335.70 5135852.36 181.16
-9755333.70 5135846.52 181.20
-9755341.61 5135857.41 181.14
-9755335.72 5135847.07 181.20
-9755335.42 5135854.99 181.13
-9755332.47 5135845.32 181.19
-9755342.23 5135847.36 181.22
-9755336.59 5135854.76 181.14
-9755325.32 5135856.73 181.16
-9755331.24 5135857.03 181.15
-9755330.10 5135852.41 181.17
-9755331.00 5135848.77 181.22
-9755328.55 5135855.59 181.13
-9755329.19 5135847.30 181.20
-9755320.39 5135846.34 181.22
-9755323.06 5135847.56 181.22
-9755325.98 5135849.90 181.19
-9755325.02 5135852.29 181.16
-9755331.89 5135849.92 181.19
-9755328.40 5135847.02 181.21
-9755331.77 5135854.42 181.15
-9755330.72 5135853.23 181.16
-9755322.14 5135851.99 181.19
-9755327.78 5135850.91 181.18
-9755330.39 5135857.75 181.15
-9755330.98 5135851.22 181.21
-9755320.09 5135854.03 181.19
-9755323.59 5135852.05 181.18
-9755322.11 5135855.27 181.16
-9755328.59 5135851.39 181.18
-9755324.45 5135851.10 181.19
-9755319.17 5135857.02 181.16
-9755319.20 5135848.06 181.25
-9755317.95 5135863.86 181.14
-9755317.92 5135860.00 181.16
-9755317.66 5135869.43 181.12
-9755317.96 5135861.11 181.14
-9755317.44 5135861.15 181.15
-9755316.53 5135858.18 181.15
-9755307.33 5135858.16 181.23
-9755311.81 5135857.86 181.22
-9755310.23 5135864.65 181.21
-9755307.68 5135858.99 181.23
-9755312.04 5135862.30 181.20
-9755315.26 5135862.61 181.17
-9755307.07 5135862.58 181.23
-9755311.06 5135865.81 181.19
-9755311.45 5135867.08 181.19
-9755309.39 5135860.51 181.22
-9755314.93 5135871.14 181.13
-9755308.18 5135870.58 181.21
-9755307.64 5135859.66 181.23
-9755308.18 5135863.46 181.22
-9755305.82 5135864.02 181.23
-9755307.29 5135865.55 181.21
-9755308.40 5135869.41 181.21
-9755308.78 5135867.62 181.22
-9755309.43 5135860.24 181.22
-9755305.90 5135861.10 181.23
-9755311.67 5135867.91 181.21
-9755308.24 5135862.28 181.23
-9755306.36 5135869.11 181.21
-9755310.23 5135869.13 181.20
-9755309.41 5135861.39 181.22
-9755310.84 5135867.07 181.20
-9755307.59 5135866.40 181.21
-9755318.89 5135850.49 181.23
-9755317.43 5135854.63 181.18
-9755316.53 5135857.60 181.17
-9755317.04 5135852.26 181.21
-9755307.17 5135844.82 181.23
-9755310.44 5135844.51 181.21
-9755311.13 5135857.22 181.21
-9755314.20 5135848.95 181.23
-9755307.98 5135855.15 181.23
-9755316.28 5135847.81 181.23
-9755311.85 5135846.60 181.23
-9755308.84 5135850.37 181.23
-9755314.19 5135855.49 181.19
-9755313.59 5135849.86 181.22
-9755312.68 5135853.07 181.22
-9755315.31 5135856.16 181.19
-9755310.31 5135856.64 181.23
-9755311.85 5135848.95 181.24
-9755315.97 5135847.26 181.24
-9755312.78 5135845.13 181.23
-9755310.37 5135849.84 181.23
-9755314.17 5135849.83 181.21
-9755312.44 5135848.35 181.24
-9755310.89 5135856.34 181.21
-9755309.47 5135847.15 181.24
-9755310.36 5135845.10 181.24
-9755343.73 5135839.12 181.18
-9755334.90 5135839.33 181.15
-9755335.47 5135839.65 181.14
-9755333.04 5135840.78 181.15
-9755321.93 5135839.58 181.17
-9755325.46 5135839.86 181.15
-9755320.18 5135839.56 181.16
-9755308.04 5135841.86 181.24
-9755311.89 5135840.44 181.22
-9755313.03 5135840.68 181.22
-9755312.18 5135839.56 181.21
-9755332.76 5135887.33 181.24
-9755323.73 5135891.66 181.19
-9755328.66 5135889.96 181.21
-9755328.09 5135890.81 181.19
-9755324.56 5135888.42 181.23
-9755327.80 5135888.12 181.24
-9755327.23 5135885.21 181.25
-9755343.47 5135882.32 181.20
-9755343.52 5135878.78 181.16
-9755342.66 5135875.54 181.15
-9755341.74 5135875.79 181.13
-9755333.51 5135875.42 181.12
-9755333.52 5135877.79 181.13
-9755335.53 5135877.80 181.12
-9755341.99 5135880.22 181.15
-9755334.90 5135884.30 181.22
-9755337.56 5135881.74 181.16
-9755325.23 5135874.27 181.10
-9755326.93 5135882.53 181.19
-9755318.97 5135890.19 181.21
-9755317.73 5135890.18 181.21
-9755310.48 5135886.60 181.24
-9755318.10 5135878.61 181.14
-9755317.05 5135872.72 181.14
-9755307.25 5135878.60 181.22
-9755310.18 5135878.62 181.20
-9755314.94 5135873.56 181.16
-9755309.35 5135872.07 181.20
-9755306.37 5135877.03 181.22
-9755306.07 5135876.20 181.20
-9755310.51 5135876.21 181.19
-9755342.06 5135866.28 181.11
-9755333.79 5135867.77 181.09
-9755339.09 5135870.44 181.10
-9755335.31 5135864.22 181.09
-9755339.73 5135870.44 181.10
-9755335.56 5135871.31 181.11
-9755333.55 5135862.71 181.10
-9755338.20 5135865.44 181.10
-9755342.65 5135866.60 181.12
-9755330.04 5135864.48 181.08
-9755322.06 5135864.68 181.12
-9755329.44 5135870.14 181.08
-9755323.85 5135860.60 181.11
-9755331.87 5135859.13 181.14
-9755324.13 5135868.61 181.10
-9755321.14 5135870.32 181.11
-9755333.78 5135872.80 181.10
-9755343.61 5135849.77 181.21
-9755341.10 5135844.11 181.17
-9755325.09 5135843.17 181.18
-9755341.90 5135852.11 181.20
-9755343.42 5135847.62 181.22
-9755336.01 5135850.90 181.17
-9755338.26 5135857.17 181.13
-9755340.08 5135854.74 181.14
-9755323.59 5135846.03 181.20
-9755326.89 5135849.35 181.21
-9755329.59 5135849.06 181.20
-9755325.42 5135854.64 181.15
-9755328.63 5135853.46 181.17
-9755324.47 5135855.61 181.15
-9755321.57 5135847.24 181.23
-9755319.05 5135867.97 181.12
-9755318.26 5135864.71 181.14
-9755319.37 5135872.16 181.15
-9755317.65 5135858.79 181.15
-9755306.73 5135861.96 181.24
-9755307.92 5135868.79 181.22
-9755311.40 5135863.47 181.21
-9755310.50 5135869.99 181.21
-9755305.85 5135861.37 181.23
-9755310.57 5135868.19 181.19
-9755305.74 5135871.18 181.22
-9755318.53 5135857.95 181.15
-9755307.12 5135842.39 181.24
-9755316.22 5135856.73 181.17
-9755306.19 5135853.07 181.25
-9755308.83 5135853.75 181.24
-9755312.15 5135851.00 181.22
-9755308.84 5135853.97 181.23
-9755307.43 5135845.70 181.23
-9755344.28 5135841.20 181.20
-9755333.95 5135842.31 181.17
-9755328.63 5135840.20 181.14
-9755330.18 5135839.89 181.14
-9755343.74 5135885.83 181.26
-9755344.68 5135884.43 181.24
-9755343.41 5135888.26 181.25
-9755331.98 5135884.93 181.23
-9755332.77 5135891.45 181.19
-9755334.04 5135885.21 181.25
-9755333.68 5135889.09 181.22
-9755336.94 5135889.64 181.23
-9755339.62 5135888.55 181.25
-9755337.28 5135890.28 181.22
-9755336.64 5135888.83 181.24
-9755341.98 5135885.27 181.26
-9755327.82 5135887.18 181.23
-9755322.49 5135887.50 181.25
-9755329.28 5135888.12 181.23
-9755326.04 5135891.68 181.19
-9755323.70 5135886.39 181.26
-9755321.05 5135886.91 181.24
-9755330.75 5135886.72 181.26
-9755324.51 5135885.74 181.25
-9755343.85 5135876.99 181.15
-9755343.54 5135875.27 181.14
-9755344.97 5135875.24 181.16
-9755343.50 5135875.54 181.14
-9755343.75 5135873.69 181.13
-9755344.67 5135876.11 181.17
-9755343.47 5135880.56 181.18
-9755343.53 5135872.22 181.13
-9755343.27 5135873.48 181.13
-9755343.25 5135872.59 181.13
-9755342.89 5135883.52 181.21
-9755340.84 5135878.49 181.15
-9755337.86 5135880.26 181.15
-9755343.24 5135882.57 181.20
-9755339.98 5135876.37 181.12
-9755342.57 5135882.33 181.20
-9755333.23 5135874.58 181.09
-9755336.41 5135877.86 181.11
-9755332.84 5135884.00 181.21
-9755341.78 5135876.94 181.12
-9755333.47 5135882.85 181.19
-9755340.25 5135874.29 181.12
-9755334.93 5135877.54 181.11
-9755334.02 5135877.82 181.12
-9755338.74 5135881.77 181.16
-9755335.20 5135880.22 181.15
-9755337.28 5135875.44 181.10
-9755339.95 5135881.69 181.18
-9755341.97 5135884.08 181.23
-9755340.27 5135881.11 181.15
-9755329.04 5135882.86 181.22
-9755323.73 5135879.23 181.15
-9755319.57 5135883.68 181.19
-9755326.99 5135880.43 181.17
-9755329.67 5135874.26 181.11
-9755323.75 5135874.83 181.11
-9755327.00 5135878.16 181.15
-9755329.40 5135872.51 181.10
-9755320.55 5135878.93 181.14
-9755324.31 5135882.51 181.19
-9755323.14 5135876.89 181.13
-9755324.93 5135872.76 181.12
-9755322.90 5135872.45 181.13
-9755331.14 5135879.56 181.16
-9755331.07 5135880.18 181.16
-9755325.25 5135875.40 181.12
-9755326.11 5135879.59 181.15
-9755322.91 5135875.06 181.12
-9755325.21 5135877.81 181.14
-9755316.61 5135885.41 181.22
-9755315.50 5135887.53 181.23
-9755313.93 5135889.25 181.23
-9755318.67 5135878.01 181.13
-9755311.94 5135878.31 181.18
-9755311.93 5135882.46 181.23
-9755314.35 5135875.35 181.16
-9755310.15 5135877.72 181.19
-9755314.30 5135883.34 181.20
-9755314.06 5135872.66 181.17
-9755311.91 5135883.64 181.21
-9755307.86 5135874.39 181.22
-9755313.41 5135883.63 181.20
-9755344.48 5135866.86 181.15
-9755345.04 5135864.33 181.14
-9755344.74 5135868.69 181.15
-9755345.03 5135870.17 181.15
-9755343.55 5135871.08 181.14
-9755343.26 5135864.23 181.14
-9755344.99 5135862.53 181.16
-9755343.60 5135860.17 181.14
-9755343.02 5135860.72 181.12
-9755343.23 5135871.95 181.13
-9755342.94 5135858.02 181.16
-9755334.50 5135858.26 181.13
-9755338.89 5135858.01 181.14
-9755336.80 5135861.50 181.12
-9755341.24 5135863.65 181.11
-9755341.22 5135862.77 181.12
-9755342.98 5135868.72 181.12
-9755337.95 5135865.41 181.10
-9755338.57 5135863.58 181.10
-9755341.52 5135866.91 181.13
-9755332.07 5135867.76 181.07
-9755335.04 5135864.47 181.10
-9755341.72 5135864.28 181.11
-9755335.02 5135861.84 181.12
-9755339.17 5135868.07 181.10
-9755335.65 5135861.55 181.12
-9755336.46 5135863.90 181.10
-9755337.93 5135868.97 181.11
-9755340.93 5135866.59 181.11
-9755334.12 5135866.92 181.08
-9755332.99 5135860.37 181.12
-9755333.83 5135869.80 181.10
-9755342.35 5135869.59 181.13
-9755336.78 5135863.05 181.10
-9755325.91 5135863.62 181.12
-9755330.30 5135868.32 181.07
-9755325.02 5135862.07 181.12
-9755327.62 5135868.26 181.07
-9755327.68 5135862.43 181.11
-9755323.88 5135861.48 181.12
-9755326.23 5135863.57 181.11
-9755326.08 5135871.57 181.09
-9755328.25 5135867.11 181.09
-9755321.09 5135865.03 181.12
-9755331.75 5135871.34 181.09
-9755320.32 5135860.81 181.13
-9755323.54 5135862.38 181.13
-9755323.56 5135863.27 181.12
-9755325.31 5135859.37 181.13
-9755322.89 5135869.75 181.12
-9755320.59 5135863.23 181.13
-9755326.44 5135865.35 181.10
-9755320.57 5135866.77 181.12
-9755325.90 5135862.31 181.12
-9755321.79 5135863.60 181.13
-9755319.63 5135864.14 181.12
-9755321.82 5135859.12 181.14
-9755322.00 5135865.89 181.12
-9755328.47 5135859.47 181.13
-9755322.34 5135866.21 181.12
-9755328.51 5135865.93 181.08
-9755331.44 5135867.99 181.07
-9755318.82 5135860.85 181.16
-9755330.88 5135872.24 181.10
-9755320.48 5135872.10 181.12
-9755344.28 5135844.14 181.19
-9755344.33 5135843.54 181.19
-9755344.01 5135842.95 181.19
-9755344.55 5135849.15 181.20
-9755344.83 5135858.05 181.17
-9755344.17 5135854.22 181.19
-9755344.79 5135856.25 181.18
-9755339.30 5135844.42 181.19
-9755333.42 5135843.15 181.16
-9755336.89 5135844.40 181.17
-9755334.83 5135844.93 181.18
-9755338.68 5135842.66 181.18
-9755334.00 5135845.02 181.18
-9755331.04 5135844.02 181.17
-9755327.77 5135843.69 181.18
-9755329.30 5135844.32 181.16
-9755328.40 5135842.85 181.17
-9755343.31 5135855.40 181.18
-9755335.34 5135857.74 181.14
-9755337.76 5135847.02 181.21
-9755334.22 5135854.75 181.13
-9755333.00 5135855.58 181.15
-9755334.85 5135845.84 181.19
-9755340.11 5135852.98 181.17
-9755335.73 5135853.24 181.15
-9755335.16 5135846.75 181.21
-9755338.05 5135849.71 181.17
-9755332.75 5135849.15 181.19
-9755335.42 5135847.62 181.21
-9755336.91 5135845.29 181.18
-9755332.18 5135855.66 181.16
-9755335.96 5135855.91 181.13
-9755333.31 5135854.74 181.15
-9755332.15 5135852.60 181.16
-9755332.48 5135849.12 181.19
-9755341.33 5135850.60 181.20
-9755339.52 5135854.18 181.15
-9755320.40 5135847.48 181.23
-9755324.49 5135847.57 181.20
-9755325.41 5135849.09 181.21
-9755325.39 5135847.27 181.21
-9755330.96 5135850.54 181.18
-9755321.18 5135857.60 181.16
-9755329.51 5135855.59 181.14
-9755320.66 5135853.78 181.18
-9755325.12 5135848.18 181.20
-9755319.73 5135855.26 181.18
-9755322.99 5135855.01 181.16
-9755324.45 5135854.37 181.16
-9755319.48 5135845.49 181.21
-9755331.60 5135849.62 181.21
-9755320.38 5135851.10 181.19
-9755326.84 5135855.29 181.15
-9755318.19 5135862.02 181.15
-9755318.26 5135863.54 181.13
-9755317.03 5135862.06 181.16
-9755317.59 5135867.01 181.14
-9755317.86 5135871.57 181.13
-9755307.64 5135857.19 181.23
-9755314.74 5135857.59 181.19
-9755314.76 5135861.14 181.15
-9755313.10 5135864.98 181.16
-9755312.34 5135861.67 181.18
-9755313.47 5135862.31 181.18
-9755305.78 5135868.47 181.22
-9755309.69 5135864.08 181.22
-9755314.73 5135863.52 181.16
-9755306.39 5135867.34 181.21
-9755309.70 5135859.32 181.21
-9755311.20 5135861.99 181.22
-9755307.01 5135861.06 181.23
-9755308.19 5135858.75 181.21
-9755309.94 5135870.28 181.19
-9755310.04 5135860.48 181.21
-9755311.17 5135859.03 181.20
-9755312.34 5135859.07 181.21
-9755315.01 5135859.04 181.17
-9755307.87 5135870.55 181.23
-9755308.76 5135865.87 181.21
-9755312.32 5135862.58 181.20
-9755314.13 5135862.01 181.18
-9755307.01 5135863.12 181.23
-9755313.45 5135871.81 181.18
-9755316.88 5135843.39 181.21
-9755317.76 5135852.58 181.20
-9755318.65 5135847.79 181.25
-9755318.67 5135846.03 181.23
-9755306.58 5135843.87 181.23
-9755314.21 5135843.15 181.22
-9755313.09 5135843.69 181.22
-9755312.73 5135844.55 181.23
-9755312.13 5135844.76 181.23
-9755308.62 5135844.25 181.23
-9755309.48 5135843.08 181.23
-9755312.68 5135849.02 181.23
-9755311.24 5135845.74 181.23
-9755315.09 5135846.60 181.24
-9755313.60 5135846.36 181.24
-9755310.35 5135847.79 181.22
-9755306.55 5135854.78 181.24
-9755313.91 5135847.82 181.23
-9755306.56 5135848.93 181.24
-9755313.53 5135855.80 181.20
-9755307.11 5135852.25 181.25
-9755315.09 5135847.53 181.25
-9755314.77 5135854.33 181.20
-9755310.35 5135846.89 181.22
-9755310.27 5135855.47 181.22
-9755309.16 5135855.44 181.23
-9755313.79 5135854.61 181.20
-9755312.06 5135856.10 181.21
-9755344.30 5135840.26 181.18
-9755343.73 5135841.48 181.19
-9755338.41 5135842.04 181.18
-9755341.66 5135841.15 181.17
-9755335.73 5135840.81 181.15
-9755340.74 5135842.08 181.18
-9755340.18 5135841.16 181.17
-9755334.88 5135841.75 181.16
-9755337.26 5135839.62 181.15
-9755325.44 5135842.20 181.17
-9755330.75 5135841.69 181.15
-9755331.05 5135841.11 181.16
-9755331.33 5135841.41 181.16
-9755327.50 5135842.23 181.18
-9755323.68 5135840.40 181.17
-9755325.17 5135840.76 181.17
-9755322.77 5135840.75 181.17
-9755328.05 5135841.65 181.15
-9755319.24 5135841.27 181.19
-9755319.02 5135840.43 181.19
-9755318.63 5135841.32 181.20
-9755317.51 5135839.25 181.20
-9755313.71 5135841.91 181.23
-9755309.56 5135840.38 181.22
-9755310.40 5135840.42 181.24
-9755334.90 5135890.34 181.20
-9755332.00 5135885.84 181.24
-9755341.99 5135889.09 181.25
-9755321.63 5135888.42 181.23
-9755344.92 5135877.88 181.16
-9755336.63 5135884.68 181.22
-9755331.99 5135882.54 181.20
-9755334.28 5135883.49 181.19
-9755327.57 5135876.88 181.11
-9755322.27 5135878.66 181.13
-9755326.12 5135878.67 181.14
-9755321.15 5135873.91 181.11
-9755315.73 5135879.22 181.16
-9755306.34 5135875.59 181.21
-9755307.56 5135876.20 181.21
-9755344.98 5135872.31 181.16
-9755328.61 5135858.54 181.12
-9755334.42 5135866.85 181.09
-9755328.56 5135863.00 181.10
-9755319.93 5135870.41 181.11
-9755327.69 5135860.37 181.13
-9755344.54 5135851.29 181.21
-9755340.43 5135844.66 181.18
-9755332.76 5135843.41 181.15
-9755327.79 5135842.83 181.19
-9755336.24 5135858.59 181.12
-9755343.37 5135846.51 181.22
-9755340.39 5135855.67 181.13
-9755340.45 5135848.22 181.21
-9755335.07 5135856.20 181.14
-9755333.37 5135848.84 181.19
-9755338.11 5135845.61 181.18
-9755341.61 5135849.73 181.18
-9755320.60 5135852.28 181.18
-9755316.71 5135870.34 181.12
-9755312.30 5135867.93 181.19
-9755313.36 5135843.11 181.22
-9755314.18 5135852.24 181.19
-9755306.27 5135845.09 181.23
-9755307.13 5135845.14 181.22
-9755339.87 5135841.73 181.16
-9755340.13 5135839.37 181.16
-9755321.05 5135842.81 181.19
-9755331.93 5135841.67 181.16
-9755320.47 5135839.90 181.17
-9755324.26 5135840.73 181.17
-9755317.81 5135840.42 181.18
-9755343.70 5135890.05 181.25
-9755333.75 5135884.66 181.22
-9755336.91 5135886.45 181.27
-9755333.45 5135888.24 181.24
-9755332.56 5135888.19 181.23
-9755340.51 5135889.10 181.24
-9755338.72 5135885.85 181.26
-9755338.40 5135888.50 181.24
-9755337.81 5135891.47 181.21
-9755321.34 5135889.90 181.23
-9755331.64 5135886.70 181.25
-9755331.68 5135888.49 181.24
-9755326.90 5135890.50 181.20
-9755344.38 5135876.97 181.16
-9755343.56 5135873.43 181.14
-9755343.46 5135884.07 181.23
-9755342.01 5135879.34 181.16
-9755343.20 5135878.15 181.16
-9755335.56 5135876.40 181.11
-9755338.80 5135875.54 181.10
-9755339.32 5135883.82 181.21
-9755333.79 5135881.96 181.17
-9755337.30 5135880.45 181.15
-9755337.64 5135878.97 181.14
-9755336.75 5135873.41 181.11
-9755337.04 5135883.77 181.21
-9755342.89 5135874.59 181.13
-9755342.05 5135873.47 181.12
-9755332.92 5135882.55 181.18
-9755340.85 5135877.03 181.13
-9755333.72 5135881.34 181.15
-9755340.26 5135880.57 181.16
-9755333.20 5135873.38 181.12
-9755337.04 5135876.32 181.11
-9755341.71 5135872.23 181.11
-9755340.24 5135879.66 181.15
-9755336.94 5135883.15 181.18
-9755332.33 5135872.79 181.12
-9755319.01 5135877.71 181.13
-9755320.20 5135880.10 181.14
-9755327.00 5135881.63 181.19
-9755330.82 5135882.21 181.20
-9755330.25 5135872.48 181.11
-9755327.59 5135875.66 181.12
-9755329.92 5135878.45 181.15
-9755323.12 5135880.13 181.14
-9755319.02 5135882.54 181.16
-9755331.70 5135883.39 181.19
-9755323.81 5135873.30 181.12
-9755329.89 5135879.31 181.13
-9755324.07 5135872.15 181.12
-9755330.78 5135876.03 181.12
-9755321.44 5135872.07 181.12
-9755331.07 5135877.49 181.12
-9755330.83 5135874.89 181.12
-9755327.83 5135881.65 181.20
-9755322.57 5135876.03 181.12
-9755325.52 5135875.41 181.12
-9755329.36 5135875.38 181.12
-9755319.05 5135875.97 181.12
-9755324.62 5135881.38 181.18
-9755317.18 5135885.70 181.22
-9755316.64 5135888.36 181.22
-9755310.41 5135885.74 181.24
-9755317.22 5135883.37 181.19
-9755316.39 5135883.35 181.19
-9755314.89 5135875.31 181.15
-9755311.63 5135877.74 181.18
-9755308.68 5135880.95 181.22
-9755310.77 5135875.36 181.20
-9755310.17 5135872.88 181.22
-9755309.87 5135878.27 181.20
-9755316.04 5135872.11 181.13
-9755311.93 5135874.77 181.18
-9755343.57 5135864.26 181.14
-9755343.91 5135863.74 181.13
-9755322.67 5135857.33 181.15
-9755331.79 5135858.60 181.14
-9755336.45 5135870.13 181.11
-9755336.20 5135865.10 181.10
-9755342.72 5135859.79 181.14
-9755335.59 5135859.47 181.12
-9755334.12 5135861.84 181.13
-9755340.33 5135862.19 181.12
-9755335.29 5135866.59 181.10
-9755341.85 5135859.20 181.12
-9755340.32 5135859.52 181.12
-9755337.93 5135869.87 181.10
-9755341.21 5135860.38 181.12
-9755337.99 5135864.51 181.12
-9755338.56 5135860.07 181.13
-9755332.34 5135868.62 181.07
-9755340.32 5135861.89 181.12
-9755339.18 5135860.68 181.12
-9755333.25 5135863.64 181.10
-9755328.81 5135870.14 181.09
-9755324.99 5135868.60 181.09
-9755330.38 5135862.70 181.11
-9755325.28 5135863.86 181.11
-9755324.41 5135864.12 181.10
-9755327.63 5135867.74 181.08
-9755323.82 5135865.06 181.10
-9755326.77 5135858.85 181.12
-9755328.81 5135860.07 181.12
-9755322.93 5135864.19 181.12
-9755321.13 5135865.87 181.12
-9755321.78 5135862.69 181.13
-9755320.62 5135861.43 181.13
-9755325.64 5135858.81 181.12
-9755321.49 5135866.48 181.11
-9755325.03 5135860.29 181.12
-9755324.68 5135865.94 181.09
-9755322.40 5135858.87 181.14
-9755327.66 5135858.80 181.13
-9755322.68 5135870.92 181.10
-9755324.11 5135859.45 181.13
-9755329.12 5135867.70 181.07
-9755331.79 5135867.77 181.07
-9755326.82 5135862.69 181.11
-9755327.68 5135869.81 181.08
-9755327.08 5135866.27 181.09
-9755330.31 5135861.80 181.12
-9755330.82 5135869.82 181.08
-9755325.21 5135866.76 181.09
-9755327.99 5135860.35 181.12
-9755319.33 5135865.57 181.12
-9755342.05 5135872.27 181.11
-9755345.08 5135857.42 181.16
-9755343.36 5135848.27 181.22
-9755338.47 5135843.49 181.18
-9755334.22 5135844.32 181.17
-9755336.05 5135845.28 181.19
-9755324.18 5135844.61 181.20
-9755330.12 5135842.85 181.17
-9755320.12 5135842.83 181.19
-9755330.44 5135842.60 181.17
-9755331.63 5135842.57 181.16
-9755339.31 5135846.71 181.20
-9755337.46 5135846.77 181.21
-9755336.82 5135852.98 181.15
-9755340.45 5135851.56 181.18
-9755334.18 5135853.83 181.16
-9755336.92 5135849.10 181.19
-9755338.08 5135848.84 181.19
-9755340.68 5135849.12 181.19
-9755332.50 5135847.58 181.23
-9755333.62 5135854.20 181.14
-9755340.39 5135853.91 181.17
-9755338.94 5135854.14 181.13
-9755340.65 5135854.78 181.15
-9755328.31 5135854.71 181.14
-9755330.75 5135851.47 181.19
-9755331.00 5135852.35 181.17
-9755325.10 5135849.01 181.22
-9755326.56 5135845.80 181.20
-9755326.52 5135850.58 181.19
-9755323.05 5135854.37 181.17
-9755325.39 5135853.75 181.17
-9755331.27 5135846.41 181.20
-9755319.78 5135852.91 181.18
-9755330.44 5135846.98 181.21
-9755327.14 5135846.44 181.19
-9755329.54 5135847.03 181.20
-9755323.63 5135849.36 181.19
-9755325.72 5135845.79 181.19
-9755324.26 5135848.45 181.21
-9755331.58 5135852.06 181.17
-9755320.11 5135850.52 181.21
-9755318.86 5135852.53 181.19
-9755317.30 5135868.54 181.14
-9755317.32 5135870.56 181.14
-9755316.70 5135870.59 181.14
-9755317.34 5135862.03 181.14
-9755314.47 5135858.18 181.17
-9755315.88 5135865.25 181.15
-9755311.73 5135869.45 181.19
-9755310.23 5135862.87 181.20
-9755314.97 5135860.21 181.18
-9755312.60 5135865.27 181.19
-9755314.95 5135865.56 181.15
-9755314.63 5135869.99 181.15
-9755315.23 5135867.32 181.16
-9755306.15 5135866.44 181.22
-9755306.42 5135863.99 181.22
-9755312.58 5135869.69 181.17
-9755306.42 5135866.73 181.22
-9755313.22 5135868.53 181.18
-9755312.61 5135870.58 181.17
-9755309.66 5135862.30 181.22
-9755308.55 5135860.50 181.23
-9755306.11 5135867.32 181.23
-9755310.51 5135870.90 181.19
-9755318.37 5135843.13 181.21
-9755316.83 5135845.17 181.22
-9755310.40 5135842.76 181.22
-9755309.53 5135843.67 181.23
-9755306.24 5135842.38 181.23
-9755309.78 5135843.63 181.23
-9755312.16 5135842.46 181.21
-9755308.93 5135844.50 181.23
-9755313.86 5135857.54 181.18
-9755310.31 5135857.60 181.22
-9755313.02 5135846.94 181.23
-9755314.80 5135849.60 181.22
-9755308.86 5135851.04 181.23
-9755305.96 5135854.59 181.24
-9755308.32 5135846.56 181.24
-9755313.58 5135850.79 181.21
-9755307.96 5135854.25 181.25
-9755315.67 5135846.35 181.23
-9755315.30 5135855.20 181.19
-9755314.46 5135857.04 181.19
-9755311.19 5135857.00 181.21
-9755333.70 5135839.37 181.14
-9755342.55 5135842.02 181.18
-9755335.49 5135839.94 181.14
-9755331.37 5135839.64 181.14
-9755328.66 5135841.10 181.16
-9755327.20 5135839.24 181.15
-9755321.87 5135840.13 181.17
-9755328.96 5135841.69 181.16
-9755315.79 5135839.84 181.21
-9755315.13 5135840.10 181.21
-9755309.53 5135839.48 181.22
-9755315.96 5135840.71 181.21
-9755314.57 5135840.97 181.21
-9755310.69 5135840.06 181.22
-9755306.89 5135840.07 181.23
-9755305.15 5135881.82 181.21
-9755304.86 5135879.13 181.21
-9755303.40 5135877.06 181.20
-9755303.07 5135880.64 181.20
-9755301.60 5135876.49 181.18
-9755299.83 5135877.04 181.17
-9755301.35 5135876.77 181.18
-9755303.12 5135875.30 181.19
-9755305.61 5135860.50 181.21
-9755305.59 5135859.61 181.22
-9755304.42 5135858.73 181.21
-9755304.95 5135858.69 181.22
-9755293.45 5135863.68 181.11
-9755305.55 5135862.24 181.23
-9755294.07 5135859.54 181.13
-9755302.31 5135860.19 181.17
-9755304.34 5135867.86 181.20
-9755304.13 5135858.74 181.21
-9755300.88 5135858.08 181.16
-9755303.82 5135858.09 181.20
-9755303.19 5135867.29 181.20
-9755293.76 5135859.81 181.12
-9755297.29 5135858.93 181.14
-9755299.02 5135861.97 181.16
-9755293.15 5135860.09 181.13
-9755299.40 5135863.69 181.16
-9755293.82 5135858.66 181.14
-9755300.61 5135857.83 181.17
-9755299.71 5135857.21 181.16
-9755294.33 5135861.33 181.12
-9755297.32 5135859.60 181.14
-9755300.81 5135864.59 181.16
-9755293.72 5135858.00 181.13
-9755299.01 5135863.13 181.15
-9755302.33 5135858.39 181.18
-9755302.30 5135867.33 181.20
-9755297.27 5135863.40 181.13
-9755302.04 5135858.19 181.18
-9755303.20 5135860.14 181.19
-9755298.17 5135866.66 181.17
-9755303.20 5135857.22 181.19
-9755294.38 5135863.11 181.12
-9755305.54 5135864.02 181.21
-9755292.53 5135859.84 181.13
-9755300.57 5135861.64 181.17
-9755300.55 5135863.48 181.15
-9755304.05 5135862.52 181.19
-9755302.34 5135861.32 181.18
-9755299.69 5135863.97 181.17
-9755292.89 5135860.76 181.11
-9755300.81 5135865.84 181.17
-9755298.50 5135861.35 181.15
-9755293.20 5135860.72 181.12
-9755294.67 5135858.66 181.12
-9755302.30 5135867.57 181.19
-9755301.96 5135864.03 181.17
-9755293.19 5135857.18 181.13
-9755305.27 5135860.47 181.21
-9755305.56 5135860.25 181.22
-9755293.78 5135858.93 181.12
-9755302.59 5135862.19 181.19
-9755305.59 5135857.53 181.24
-9755295.51 5135865.78 181.14
-9755304.68 5135865.19 181.21
-9755304.44 5135859.63 181.20
-9755304.09 5135861.92 181.20
-9755298.72 5135867.58 181.16
-9755301.72 5135865.20 181.16
-9755296.74 5135861.94 181.14
-9755300.87 5135859.62 181.15
-9755299.07 5135863.97 181.15
-9755294.60 5135866.65 181.12
-9755304.73 5135860.78 181.22
-9755297.56 5135858.95 181.13
-9755295.49 5135866.37 181.14
-9755300.84 5135863.42 181.16
-9755293.74 5135866.33 181.12
-9755302.61 5135865.16 181.17
-9755297.32 5135865.19 181.14
-9755296.16 5135858.09 181.12
-9755297.60 5135858.67 181.14
-9755297.92 5135862.24 181.16
-9755305.58 5135858.69 181.23
-9755296.11 5135865.46 181.13
-9755304.69 5135864.95 181.21
-9755295.60 5135860.40 181.13
-9755296.38 5135867.24 181.15
-9755303.51 5135857.88 181.19
-9755305.55 5135867.01 181.21
-9755293.80 5135857.75 181.13
-9755301.73 5135863.12 181.18
-9755294.65 5135859.52 181.12
-9755301.13 5135866.10 181.18
-9755295.56 5135857.22 181.13
-9755298.48 5135859.79 181.15
-9755294.97 5135860.40 181.12
-9755297.92 5135865.77 181.15
-9755298.82 5135857.48 181.15
-9755305.61 5135858.42 181.23
-9755299.05 5135873.75 181.16
-9755302.23 5135868.20 181.19
-9755301.96 5135872.86 181.19
-9755295.79 5135869.02 181.15
-9755294.93 5135870.44 181.13
-9755302.86 5135874.65 181.19
-9755300.49 5135869.65 181.17
-9755305.56 5135868.48 181.22
-9755305.23 5135868.74 181.22
-9755305.51 5135873.83 181.22
-9755304.94 5135870.55 181.21
-9755301.95 5135873.81 181.19
-9755295.18 5135872.00 181.13
-9755293.09 5135869.00 181.12
-9755299.03 5135872.86 181.16
-9755300.77 5135871.40 181.17
-9755300.77 5135869.02 181.18
-9755295.14 5135870.21 181.12
-9755303.11 5135869.09 181.19
-9755295.45 5135872.86 181.16
-9755300.44 5135868.78 181.17
-9755299.89 5135872.61 181.19
-9755301.73 5135871.42 181.18
-9755301.64 5135872.09 181.19
-9755299.87 5135870.78 181.16
-9755299.89 5135871.67 181.18
-9755302.25 5135869.11 181.19
-9755297.56 5135868.47 181.16
-9755293.25 5135856.91 181.13
-9755305.61 5135855.50 181.24
-9755305.61 5135855.72 181.24
-9755302.09 5135856.59 181.21
-9755304.74 5135856.91 181.22
-9755296.43 5135856.03 181.14
-9755294.66 5135856.61 181.15
-9755297.91 5135855.73 181.16
-9755294.05 5135855.99 181.14
-9755300.82 5135856.92 181.19
-9755302.28 5135855.98 181.21
-9755297.32 5135855.76 181.14
-9755304.68 5135855.42 181.23
-9755299.08 5135855.43 181.19
-9755303.30 5135851.86 181.23
-9755302.40 5135850.72 181.24
-9755295.95 5135848.34 181.26
-9755305.65 5135847.45 181.24
-9755305.67 5135850.41 181.24
-9755299.74 5135849.50 181.26
-9755301.49 5135845.96 181.26
-9755305.94 5135852.19 181.26
-9755294.70 5135853.93 181.17
-9755300.61 5135849.76 181.25
-9755301.50 5135850.09 181.24
-9755295.04 5135846.81 181.27
-9755300.43 5135848.33 186.66
-9755305.36 5135853.99 181.24
-9755305.66 5135847.15 181.25
-9755293.82 5135852.13 181.18
-9755305.00 5135850.68 181.24
-9755305.65 5135848.08 181.23
-9755295.59 5135854.48 181.18
-9755302.31 5135852.76 181.23
-9755301.74 5135849.84 181.25
-9755298.87 5135852.50 181.21
-9755293.82 5135849.14 181.23
-9755300.62 5135849.23 181.26
-9755303.25 5135848.94 181.24
-9755297.62 5135849.82 181.24
-9755305.34 5135853.04 181.25
-9755303.03 5135847.74 181.26
-9755292.39 5135849.46 181.22
-9755300.08 5135847.41 183.29
-9755297.94 5135853.92 181.18
-9755300.50 5135847.20 192.70
-9755301.56 5135849.20 181.27
-9755297.94 5135849.46 181.26
-9755298.00 5135848.94 181.27
-9755297.66 5135853.92 181.18
-9755296.23 5135847.43 181.26
-9755300.03 5135850.63 181.23
-9755300.57 5135847.48 181.98
-9755293.25 5135848.83 181.22
-9755297.98 5135847.13 181.27
-9755300.64 5135852.41 181.21
-9755302.68 5135850.73 181.23
-9755303.63 5135848.04 181.25
-9755301.50 5135848.94 181.27
-9755300.01 5135853.86 181.21
-9755303.81 5135851.56 181.23
-9755305.63 5135848.38 181.23
-9755299.11 5135851.56 181.22
-9755304.11 5135855.15 181.23
-9755302.37 5135849.83 181.24
-9755293.84 5135846.50 181.24
-9755292.94 5135850.57 181.21
-9755304.53 5135847.47 181.26
-9755300.53 5135848.29 192.77
-9755302.35 5135854.55 181.20
-9755299.98 5135852.21 181.22
-9755295.61 5135852.48 181.21
-9755298.20 5135852.14 181.22
-9755300.86 5135852.47 181.22
-9755295.90 5135847.69 181.26
-9755303.66 5135845.67 181.23
-9755294.68 5135853.65 181.16
-9755294.43 5135848.01 181.24
-9755295.31 5135850.66 181.22
-9755303.89 5135849.82 181.23
-9755302.02 5135854.59 181.20
-9755300.54 5135847.90 182.00
-9755300.07 5135848.24 182.02
-9755295.61 5135850.64 181.21
-9755300.62 5135854.22 181.20
-9755300.63 5135848.30 181.28
-9755297.63 5135853.03 181.20
-9755299.11 5135853.62 181.19
-9755300.24 5135847.29 192.69
-9755299.48 5135847.68 186.67
-9755304.70 5135854.21 181.24
-9755305.05 5135852.24 181.25
-9755303.28 5135850.69 181.23
-9755298.57 5135847.10 181.26
-9755302.11 5135845.98 181.25
-9755302.63 5135849.79 181.24
-9755300.07 5135847.45 192.68
-9755296.76 5135845.66 181.24
-9755297.95 5135850.05 181.25
-9755304.67 5135852.46 181.25
-9755296.55 5135847.44 181.27
-9755302.73 5135847.41 181.26
-9755302.37 5135849.22 181.25
-9755304.75 5135847.75 181.24
-9755304.11 5135847.47 181.25
-9755305.68 5135849.20 181.23
-9755295.91 5135846.54 181.25
-9755292.62 5135854.44 181.16
-9755298.59 5135849.81 181.23
-9755298.54 5135847.39 181.25
-9755300.09 5135845.66 181.25
-9755297.68 5135846.22 181.26
-9755300.01 5135847.36 182.00
-9755296.24 5135853.09 181.19
-9755300.90 5135853.97 181.21
-9755302.35 5135848.32 181.25
-9755303.88 5135846.81 181.26
-9755298.98 5135847.71 192.76
-9755298.25 5135853.65 181.19
-9755301.22 5135846.26 181.26
-9755305.57 5135852.78 181.26
-9755299.91 5135847.46 181.29
-9755305.64 5135846.54 181.24
-9755300.46 5135847.54 192.30
-9755302.36 5135848.69 181.25
-9755300.34 5135848.88 181.27
-9755294.44 5135847.09 181.25
-9755298.98 5135847.26 192.77
-9755304.19 5135852.21 181.24
-9755300.88 5135853.07 181.22
-9755305.67 5135846.00 181.25
-9755303.26 5135849.17 181.24
-9755294.15 5135847.09 181.25
-9755297.73 5135851.49 181.22
-9755302.96 5135847.16 181.26
-9755302.42 5135852.13 181.24
-9755294.70 5135851.87 181.20
-9755297.11 5135849.45 181.24
-9755299.21 5135845.92 181.26
-9755303.57 5135850.68 181.23
-9755295.88 5135855.41 181.14
-9755293.22 5135855.09 181.14
-9755302.35 5135854.79 181.20
-9755306.30 5135840.33 181.23
-9755305.70 5135840.08 181.23
-9755303.58 5135840.01 181.20
-9755298.60 5135839.74 181.19
-9755303.32 5135840.35 181.21
-9755305.67 5135839.45 181.23
-9755299.73 5135840.58 181.20
-9755299.21 5135839.15 181.19
-9755299.51 5135839.15 181.18
-9755299.48 5135839.70 181.17
-9755304.80 5135840.63 181.22
-9755295.65 5135839.35 181.16
-9755304.81 5135839.16 181.21
-9755296.84 5135839.14 181.16
-9755296.88 5135839.96 181.18
-9755300.04 5135839.41 181.10
-9755299.54 5135840.04 181.17
-9755294.50 5135839.11 181.17
-9755304.50 5135839.99 181.21
-9755302.48 5135840.34 181.21
-9755301.81 5135840.61 181.20
-9755304.80 5135839.45 181.21
-9755292.95 5135845.62 181.22
-9755293.59 5135845.62 181.22
-9755302.43 5135841.24 181.22
-9755300.93 5135845.64 181.24
-9755304.76 5135845.38 181.24
-9755295.91 5135845.62 181.23
-9755295.39 5135843.88 181.22
-9755303.28 5135842.72 181.23
-9755300.06 5135844.77 181.23
-9755300.05 5135840.88 181.19
-9755304.18 5135841.47 181.23
-9755293.80 5135842.63 181.21
-9755295.06 5135844.10 181.23
-9755299.13 5135841.18 181.18
-9755293.30 5135840.87 181.18
-9755302.18 5135843.23 181.23
-9755304.76 5135842.64 181.22
-9755298.56 5135844.80 181.23
-9755296.54 5135842.64 181.22
-9755302.07 5135844.19 181.23
-9755298.92 5135844.45 181.23
-9755302.43 5135842.68 181.22
-9755295.68 5135843.81 181.23
-9755300.69 5135842.98 181.22
-9755297.39 5135843.55 181.22
-9755292.71 5135840.89 181.19
-9755297.97 5135842.72 181.20
-9755302.70 5135843.32 181.23
-9755298.89 5135842.12 181.20
-9755305.70 5135843.05 181.24
-9755297.42 5135842.37 181.20
-9755300.93 5135840.90 181.19
-9755301.24 5135844.17 181.22
-9755295.03 5135844.36 181.23
-9755298.87 5135841.46 181.19
-9755294.48 5135843.27 181.22
-9755293.02 5135842.65 181.21
-9755293.87 5135845.31 181.23
-9755302.72 5135840.96 181.21
-9755301.55 5135843.88 181.24
-9755303.36 5135843.91 181.25
-9755302.45 5135843.29 181.23
-9755294.45 5135842.37 181.20
-9755301.56 5135842.43 181.22
-9755300.06 5135842.98 181.21
-9755305.78 5135825.57 181.20
-9755305.75 5135827.38 181.21
-9755305.95 5135795.91 181.09
-9755397.41 5135837.30 181.23
-9755388.62 5135832.57 181.16
-9755388.55 5135837.29 181.17
-9755394.79 5135833.15 181.21
-9755386.47 5135833.09 181.16
-9755387.33 5135836.96 181.18
-9755393.25 5135832.86 181.20
-9755395.65 5135838.78 181.24
-9755392.65 5135837.03 181.21
-9755386.53 5135837.57 181.18
-9755385.89 5135837.29 181.17
-9755395.04 5135837.35 181.23
-9755382.40 5135838.41 181.16
-9755380.89 5135832.77 181.12
-9755379.42 5135837.84 181.15
-9755383.27 5135833.75 181.14
-9755381.80 5135836.38 181.15
-9755382.32 5135835.46 181.15
-9755381.14 5135834.20 181.13
-9755396.66 5135815.64 181.21
-9755396.91 5135826.35 181.23
-9755397.49 5135823.71 181.22
-9755397.43 5135827.24 181.21
-9755396.68 5135817.19 181.21
-9755386.59 5135815.70 181.17
-9755391.66 5135813.96 181.19
-9755392.20 5135815.66 181.18
-9755392.50 5135816.56 181.18
-9755392.53 5135817.21 181.19
-9755386.57 5135817.99 181.15
-9755388.64 5135815.64 181.16
-9755394.33 5135816.55 181.20
-9755387.51 5135816.50 181.14
-9755388.38 5135816.61 181.16
-9755393.94 5135817.47 181.20
-9755396.59 5135818.99 181.23
-9755394.31 5135818.09 181.19
-9755385.75 5135815.38 181.16
-9755383.40 5135816.56 181.15
-9755379.22 5135815.63 181.14
-9755381.57 5135817.71 181.13
-9755381.05 5135814.13 181.16
-9755383.36 5135815.31 181.15
-9755379.24 5135818.89 181.13
-9755380.98 5135818.87 181.14
-9755392.17 5135827.81 181.18
-9755393.91 5135827.84 181.19
-9755386.84 5135831.95 181.16
-9755389.75 5135829.60 181.17
-9755391.94 5135818.96 181.18
-9755393.27 5135829.92 181.19
-9755395.69 5135824.62 181.20
-9755390.68 5135826.02 181.15
-9755391.87 5135821.24 181.19
-9755386.59 5135820.65 181.16
-9755388.40 5135821.31 181.16
-9755393.04 5135823.98 181.18
-9755387.68 5135828.98 181.14
-9755395.10 5135825.73 181.22
-9755387.48 5135825.45 181.13
-9755393.41 5135821.32 181.20
-9755386.59 5135823.61 181.14
-9755390.71 5135821.25 181.19
-9755390.10 5135827.22 181.15
-9755386.82 5135828.69 181.16
-9755392.69 5135830.49 181.19
-9755394.21 5135830.55 181.20
-9755384.17 5135828.10 181.12
-9755380.95 5135820.64 181.12
-9755385.11 5135820.66 181.16
-9755384.54 5135818.88 181.15
-9755382.45 5135818.86 181.15
-9755385.10 5135825.44 181.12
-9755384.19 5135821.24 181.14
-9755383.36 5135825.40 181.10
-9755378.24 5135832.20 181.11
-9755377.59 5135837.81 181.16
-9755371.72 5135838.66 181.15
-9755372.05 5135834.49 181.14
-9755370.87 5135838.37 181.17
-9755369.98 5135833.02 181.13
-9755364.71 5135832.96 181.14
-9755361.74 5135833.58 181.15
-9755369.39 5135832.11 181.12
-9755362.03 5135834.47 181.16
-9755362.89 5135838.03 181.17
-9755361.16 5135832.98 181.15
-9755365.26 5135838.61 181.16
-9755369.43 5135833.63 181.14
-9755360.23 5135835.63 181.18
-9755365.30 5135837.15 181.15
-9755365.90 5135833.88 181.14
-9755359.42 5135831.78 181.16
-9755363.48 5135835.96 181.15
-9755367.63 5135837.13 181.15
-9755361.37 5135833.88 181.16
-9755367.97 5135835.40 181.15
-9755360.25 5135832.92 181.16
-9755350.60 5135832.07 181.22
-9755357.05 5135834.43 181.19
-9755356.17 5135832.94 181.19
-9755349.37 5135834.40 181.22
-9755358.72 5135838.84 181.20
-9755353.19 5135838.85 181.23
-9755350.24 5135835.31 181.23
-9755357.93 5135832.97 181.18
-9755348.47 5135833.74 181.20
-9755356.99 5135835.93 181.19
-9755357.05 5135832.95 181.19
-9755353.75 5135832.64 181.21
-9755352.04 5135833.85 181.22
-9755355.20 5135838.58 181.22
-9755377.50 5135813.88 181.14
-9755375.08 5135814.64 181.16
-9755375.94 5135815.83 181.15
-9755375.96 5135817.34 181.12
-9755373.61 5135815.57 181.15
-9755376.91 5135816.45 181.13
-9755376.00 5135816.49 181.13
-9755374.48 5135818.83 181.12
-9755372.51 5135814.68 181.15
-9755370.98 5135817.35 181.12
-9755371.28 5135818.26 181.10
-9755374.20 5135821.50 181.11
-9755373.65 5135822.09 181.09
-9755377.70 5135827.24 181.07
-9755378.34 5135820.66 181.13
-9755376.78 5135830.89 181.11
-9755375.94 5135822.94 181.10
-9755373.65 5135823.88 181.06
-9755377.65 5135830.41 181.11
-9755374.21 5135826.46 181.06
-9755373.57 5135830.43 181.09
-9755376.83 5135820.61 181.12
-9755376.51 5135824.45 181.07
-9755375.98 5135822.12 181.11
-9755371.79 5135826.23 181.05
-9755372.10 5135828.91 181.06
-9755371.86 5135821.55 181.09
-9755370.89 5135832.12 181.12
-9755370.39 5135815.56 181.15
-9755365.12 5135814.62 181.16
-9755367.76 5135815.22 181.17
-9755362.73 5135814.07 181.17
-9755364.26 5135815.83 181.17
-9755361.79 5135818.16 181.16
-9755367.42 5135818.18 181.13
-9755363.68 5135818.21 181.15
-9755365.08 5135815.55 181.16
-9755351.31 5135813.64 181.25
-9755357.72 5135815.55 181.19
-9755354.46 5135815.70 181.21
-9755358.05 5135813.95 181.20
-9755360.93 5135821.40 181.17
-9755359.47 5135820.49 181.18
-9755368.83 5135827.11 181.08
-9755367.11 5135825.28 181.10
-9755359.42 5135827.33 181.16
-9755369.21 5135820.60 181.11
-9755360.29 5135820.55 181.17
-9755367.68 5135822.88 181.10
-9755368.55 5135828.92 181.08
-9755366.14 5135830.59 181.12
-9755363.56 5135826.16 181.11
-9755361.19 5135828.84 181.14
-9755359.50 5135823.16 181.17
-9755368.59 5135820.30 181.12
-9755367.07 5135826.23 181.08
-9755364.20 5135824.69 181.11
-9755368.58 5135822.06 181.09
-9755350.31 5135821.96 181.21
-9755349.43 5135826.38 181.21
-9755357.95 5135823.79 181.17
-9755353.83 5135825.26 181.23
-9755350.66 5135820.52 181.23
-9755355.32 5135820.50 181.21
-9755354.74 5135825.23 181.19
-9755352.63 5135825.21 181.22
-9755356.15 5135831.50 181.20
-9755352.95 5135828.47 181.20
-9755352.98 5135821.34 181.22
-9755351.52 5135826.99 181.21
-9755358.53 5135825.24 181.16
-9755349.39 5135829.57 181.21
