-9755115.04 5135625.82 182.31
-9755104.23 5135625.76 187.62
-9755104.59 5135627.00 190.24
-9755109.78 5135625.88 188.81
-9755109.85 5135628.07 189.90
-9755108.76 5135626.63 185.83
-9755107.54 5135625.86 189.77
-9755115.98 5135625.78 181.34
-9755108.33 5135624.80 190.03
-9755109.16 5135624.90 189.53
-9755104.41 5135627.12 189.08
-9755106.52 5135625.48 190.61
-9755113.59 5135627.82 181.43
-9755105.50 5135626.16 191.00
-9755104.88 5135625.53 190.84
-9755104.78 5135627.41 190.78
-9755109.85 5135626.58 188.51
-9755109.55 5135626.02 187.84
-9755107.71 5135627.22 190.46
-9755107.70 5135626.26 190.53
-9755104.52 5135625.21 189.65
-9755108.31 5135627.92 190.74
-9755104.79 5135627.65 190.77
-9755105.41 5135626.54 189.12
-9755110.34 5135626.61 181.35
-9755108.55 5135627.68 185.72
-9755108.07 5135625.90 190.25
-9755108.30 5135627.57 185.76
-9755108.73 5135625.29 189.82
-9755109.28 5135624.92 190.13
-9755111.52 5135625.12 187.28
-9755106.94 5135627.78 190.40
-9755108.37 5135627.60 190.11
-9755104.51 5135627.35 189.12
-9755105.13 5135626.05 190.81
-9755104.08 5135626.03 187.58
-9755105.65 5135625.82 190.04
-9755105.39 5135625.09 189.67
-9755107.70 5135627.27 189.43
-9755104.72 5135627.07 187.70
-9755109.80 5135626.77 188.90
-9755109.18 5135625.76 186.94
-9755108.16 5135625.58 188.15
-9755105.29 5135626.16 190.00
-9755107.80 5135625.66 181.43
-9755115.22 5135625.40 182.95
-9755109.81 5135625.39 187.31
-9755106.04 5135625.20 190.13
-9755114.35 5135625.68 182.20
-9755105.63 5135625.90 190.99
-9755106.08 5135627.39 189.72
-9755105.24 5135626.47 189.44
-9755105.42 5135627.34 191.16
-9755105.70 5135625.89 190.47
-9755104.88 5135625.20 190.99
-9755109.23 5135625.94 187.33
-9755107.75 5135627.45 190.16
-9755105.67 5135625.90 191.36
-9755107.11 5135626.87 191.29
-9755114.48 5135624.90 181.41
-9755113.87 5135626.91 181.42
-9755107.36 5135627.45 181.55
-9755113.27 5135626.63 181.33
-9755109.74 5135625.05 189.94
-9755106.96 5135628.14 188.74
-9755108.68 5135626.52 188.74
-9755105.91 5135626.22 189.51
-9755113.85 5135626.64 181.43
-9755115.09 5135625.29 182.71
-9755108.66 5135627.41 190.13
-9755108.20 5135628.07 190.32
-9755114.94 5135627.38 181.76
-9755104.24 5135626.75 190.19
-9755105.69 5135625.49 190.82
-9755109.43 5135627.84 190.20
-9755104.75 5135624.95 187.10
-9755107.75 5135627.11 188.52
-9755107.76 5135626.94 185.94
-9755109.51 5135628.07 189.67
-9755114.45 5135625.41 181.44
-9755104.52 5135625.46 190.27
-9755108.28 5135627.47 181.40
-9755106.77 5135624.68 191.12
-9755104.89 5135626.44 190.49
-9755109.53 5135625.99 188.53
-9755109.16 5135625.55 190.04
-9755104.77 5135626.54 190.30
-9755107.73 5135627.66 189.94
-9755109.47 5135625.07 187.32
-9755108.41 5135625.48 189.99
-9755106.05 5135624.64 190.43
-9755104.44 5135627.21 181.38
-9755105.11 5135624.87 189.30
-9755107.97 5135625.04 190.52
-9755108.08 5135626.06 189.81
-9755109.84 5135625.09 187.29
-9755105.70 5135627.65 189.28
-9755104.81 5135624.90 189.76
-9755106.09 5135624.56 186.71
-9755105.70 5135626.25 189.00
-9755106.17 5135625.93 188.52
-9755105.57 5135625.90 189.16
-9755114.44 5135626.29 182.20
-9755104.25 5135625.63 189.45
-9755108.29 5135626.88 189.94
-9755115.32 5135625.11 183.77
-9755113.37 5135625.76 181.53
-9755108.15 5135626.81 190.47
-9755114.73 5135627.84 181.43
-9755105.69 5135625.56 187.47
-9755104.16 5135625.07 187.61
-9755113.87 5135625.11 182.20
-9755107.07 5135624.80 189.78
-9755109.57 5135625.90 188.85
-9755105.04 5135626.15 187.59
-9755105.16 5135625.13 188.11
-9755109.60 5135624.67 189.88
-9755105.21 5135624.56 190.23
-9755106.88 5135625.34 190.96
-9755114.98 5135626.51 183.73
-9755107.76 5135627.34 190.83
-9755108.04 5135626.44 190.80
-9755107.46 5135625.14 190.47
-9755114.23 5135625.08 181.62
-9755108.67 5135625.54 189.99
-9755108.99 5135627.65 190.12
-9755106.26 5135626.14 189.98
-9755107.13 5135627.82 186.37
-9755115.06 5135625.72 183.26
-9755106.18 5135625.09 191.29
-9755113.84 5135626.23 182.20
-9755104.48 5135625.69 189.06
-9755106.28 5135626.48 189.35
-9755107.15 5135627.67 188.64
-9755105.63 5135625.17 190.80
-9755115.04 5135624.98 183.70
-9755107.13 5135627.63 190.64
-9755115.36 5135626.35 181.39
-9755115.07 5135628.13 182.51
-9755107.46 5135627.91 190.79
-9755107.45 5135627.00 190.57
-9755104.89 5135627.48 188.44
-9755109.20 5135624.85 186.72
-9755109.59 5135627.01 185.59
-9755107.97 5135626.72 189.88
-9755115.28 5135627.79 182.84
-9755105.28 5135627.95 188.56
-9755105.73 5135627.17 190.86
-9755107.63 5135624.53 189.83
-9755104.26 5135625.97 189.70
-9755105.80 5135627.04 189.08
-9755104.29 5135627.28 186.44
-9755103.91 5135624.93 189.66
-9755104.13 5135625.13 186.53
-9755103.81 5135626.79 190.17
-9755104.11 5135624.75 187.21
-9755103.90 5135626.36 190.17
-9755104.46 5135624.74 186.64
-9755104.22 5135625.84 189.42
-9755104.15 5135627.15 189.13
-9755103.89 5135625.05 187.51
-9755103.49 5135627.31 186.22
-9755103.87 5135626.58 186.43
-9755103.64 5135626.50 189.12
-9755103.95 5135624.87 186.59
-9755103.59 5135627.56 189.31
-9755104.07 5135627.62 188.99
-9755103.89 5135625.96 187.57
-9755103.49 5135625.71 185.79
-9755103.90 5135628.15 189.28
-9755104.15 5135624.83 187.61
-9755103.65 5135626.54 186.39
-9755103.68 5135627.99 187.00
-9755103.67 5135625.85 188.62
-9755103.86 5135626.46 189.84
-9755103.63 5135626.86 186.45
-9755103.61 5135625.60 189.59
-9755103.54 5135625.67 186.52
-9755103.82 5135624.79 186.28
-9755104.25 5135624.72 189.28
-9755103.70 5135624.85 186.59
-9755103.55 5135627.88 187.35
-9755103.78 5135624.66 185.89
-9755103.64 5135626.88 188.76
-9755103.35 5135625.02 186.60
-9755102.94 5135626.62 186.48
-9755101.45 5135628.07 184.61
-9755103.30 5135627.37 189.36
-9755103.62 5135626.22 188.51
-9755103.04 5135627.51 186.71
-9755103.05 5135624.87 186.15
-9755101.85 5135628.05 184.76
-9755102.08 5135626.60 181.29
-9755103.08 5135624.88 185.21
-9755102.83 5135626.15 186.43
-9755103.35 5135626.34 186.91
-9755102.71 5135626.66 186.07
-9755102.78 5135626.37 186.25
-9755103.29 5135627.50 186.59
-9755103.68 5135625.20 187.34
-9755102.69 5135625.05 181.33
-9755103.11 5135625.06 186.15
-9755102.95 5135625.70 186.15
-9755103.65 5135624.84 189.95
-9755103.32 5135625.66 187.30
-9755101.83 5135627.72 186.74
-9755101.27 5135626.63 186.39
-9755100.61 5135628.03 186.56
-9755101.51 5135627.56 186.68
-9755103.60 5135625.11 189.63
-9755102.70 5135626.51 186.45
-9755102.11 5135628.07 187.09
-9755099.73 5135627.40 181.11
-9755101.23 5135628.11 186.41
-9755103.37 5135626.52 188.60
-9755102.79 5135625.47 184.81
-9755102.68 5135628.02 186.90
-9755102.71 5135625.45 186.02
-9755097.98 5135626.52 181.19
-9755102.74 5135625.11 185.34
-9755099.74 5135626.87 181.10
-9755102.70 5135626.27 186.43
-9755101.77 5135625.79 186.14
-9755103.01 5135624.90 190.57
-9755101.90 5135627.89 187.09
-9755102.47 5135627.76 186.76
-9755103.04 5135627.91 189.37
-9755101.43 5135626.94 186.63
-9755102.98 5135624.66 185.42
-9755099.17 5135626.60 181.11
-9755103.35 5135624.98 185.17
-9755102.53 5135626.76 186.05
-9755097.88 5135627.47 181.20
-9755103.19 5135626.84 185.91
-9755103.68 5135624.64 190.01
-9755102.11 5135627.50 186.83
-9755103.11 5135626.35 185.79
-9755101.80 5135626.60 186.45
-9755102.96 5135626.93 186.37
-9755102.91 5135626.50 185.82
-9755102.43 5135628.07 186.73
-9755102.76 5135624.94 184.86
-9755102.17 5135627.75 186.86
-9755098.17 5135625.95 181.18
-9755103.24 5135624.83 186.52
-9755102.63 5135626.19 184.98
-9755103.27 5135627.14 186.28
-9755102.56 5135627.97 189.34
-9755097.65 5135627.43 181.22
-9755103.04 5135627.25 187.30
-9755103.26 5135626.60 185.11
-9755102.42 5135627.65 185.21
-9755098.21 5135627.46 181.18
-9755097.98 5135627.71 181.18
-9755101.15 5135627.18 181.22
-9755099.40 5135627.42 181.12
-9755099.34 5135627.76 181.12
-9755102.99 5135627.20 186.20
-9755102.09 5135624.86 185.14
-9755102.06 5135628.13 186.71
-9755103.21 5135624.95 189.81
-9755103.01 5135625.67 186.21
-9755099.42 5135625.66 181.10
-9755101.46 5135626.55 181.23
-9755101.52 5135626.61 186.43
-9755102.52 5135624.95 184.86
-9755103.48 5135624.85 185.78
-9755101.21 5135627.76 186.50
-9755103.04 5135625.48 186.21
-9755102.98 5135625.50 185.40
-9755103.06 5135626.59 186.53
-9755101.26 5135626.77 186.47
-9755102.76 5135625.43 185.40
-9755097.72 5135626.52 181.20
-9755103.25 5135626.77 188.59
-9755101.82 5135626.25 186.42
-9755102.94 5135627.79 187.02
-9755102.70 5135628.13 186.80
-9755101.84 5135624.79 185.10
-9755103.13 5135626.29 187.77
-9755103.15 5135626.54 186.56
-9755102.52 5135626.51 184.98
-9755103.52 5135627.74 187.08
-9755102.93 5135626.23 181.34
-9755103.57 5135625.96 181.35
-9755102.59 5135625.23 184.87
-9755103.69 5135624.95 187.55
-9755103.37 5135627.58 187.18
-9755103.23 5135627.29 187.18
-9755100.30 5135627.77 181.23
-9755102.57 5135626.67 186.58
-9755103.24 5135625.40 186.40
-9755097.92 5135624.48 181.21
-9755094.97 5135626.50 181.32
-9755095.60 5135626.25 181.30
-9755096.77 5135627.39 181.25
-9755093.00 5135627.12 181.36
-9755092.93 5135627.42 181.35
-9755093.87 5135625.07 181.36
-9755095.59 5135627.99 181.32
-9755097.07 5135625.06 181.23
-9755091.68 5135626.49 181.37
-9755094.08 5135626.52 181.34
-9755117.75 5135614.54 181.20
-9755117.76 5135611.54 181.20
-9755117.77 5135619.87 181.21
-9755117.73 5135617.16 181.20
-9755117.76 5135618.97 181.20
-9755118.10 5135609.14 181.20
-9755117.47 5135611.50 181.19
-9755117.74 5135610.66 181.20
-9755116.85 5135618.03 181.19
-9755116.60 5135614.23 181.18
-9755116.33 5135618.36 181.19
-9755117.73 5135618.07 181.23
-9755116.91 5135611.48 181.19
-9755116.91 5135613.91 181.19
-9755117.43 5135620.76 181.20
-9755117.14 5135624.87 181.19
-9755116.86 5135621.07 181.19
-9755117.19 5135610.09 181.19
-9755117.19 5135609.18 181.18
-9755116.86 5135608.60 181.19
-9755106.85 5135618.60 188.67
-9755105.03 5135619.61 188.32
-9755109.51 5135616.88 186.73
-9755105.91 5135619.13 189.66
-9755109.57 5135616.67 186.74
-9755105.42 5135618.43 189.11
-9755107.57 5135617.35 187.38
-9755114.53 5135616.26 181.37
-9755109.83 5135618.09 186.74
-9755106.01 5135617.15 185.64
-9755106.64 5135619.98 189.70
-9755111.04 5135617.35 186.23
-9755108.55 5135615.12 185.72
-9755108.51 5135614.83 185.95
-9755108.59 5135614.74 181.40
-9755108.21 5135618.36 189.34
-9755115.11 5135620.30 182.87
-9755109.24 5135619.79 185.65
-9755108.57 5135619.16 188.32
-9755112.80 5135611.51 181.26
-9755107.11 5135617.43 186.85
-9755106.22 5135620.34 189.52
-9755108.44 5135620.33 188.39
-9755109.07 5135618.15 185.41
-9755106.62 5135617.04 185.14
-9755114.52 5135615.35 181.37
-9755113.87 5135616.85 181.62
-9755105.48 5135618.37 184.91
-9755105.77 5135610.65 183.84
-9755114.96 5135616.55 182.16
-9755110.05 5135618.32 186.65
-9755109.48 5135619.68 185.65
-9755108.43 5135619.29 189.49
-9755105.45 5135619.61 188.30
-9755105.62 5135617.04 185.75
-9755115.16 5135614.31 183.33
-9755107.12 5135618.84 188.73
-9755109.26 5135611.78 181.37
-9755107.07 5135619.99 188.22
-9755106.39 5135619.20 186.89
-9755115.02 5135619.05 183.42
-9755109.31 5135616.41 186.75
-9755105.65 5135616.82 185.83
-9755112.17 5135615.06 181.32
-9755110.10 5135619.05 186.00
-9755106.29 5135620.44 189.03
-9755111.28 5135613.57 181.33
-9755106.39 5135618.48 189.26
-9755109.82 5135619.12 187.90
-9755108.66 5135617.13 185.38
-9755108.67 5135616.69 186.70
-9755114.53 5135615.92 182.04
-9755106.97 5135618.65 186.91
-9755107.20 5135616.51 187.23
-9755109.52 5135616.26 187.02
-9755108.02 5135618.84 187.16
-9755106.30 5135617.66 188.57
-9755106.89 5135619.32 186.82
-9755104.84 5135619.78 188.75
-9755112.23 5135611.51 181.28
-9755104.90 5135616.61 185.97
-9755107.40 5135617.70 181.53
-9755114.88 5135618.77 183.41
-9755108.61 5135616.92 186.73
-9755107.79 5135619.21 188.68
-9755107.18 5135618.36 185.59
-9755108.08 5135616.81 186.94
-9755104.80 5135618.80 188.33
-9755108.13 5135615.15 185.66
-9755109.40 5135616.40 185.68
-9755111.02 5135619.66 185.23
-9755104.42 5135619.29 184.82
-9755105.40 5135616.92 185.84
-9755108.57 5135617.45 186.37
-9755107.79 5135618.55 188.37
-9755113.08 5135616.56 181.31
-9755104.73 5135620.22 189.89
-9755110.83 5135620.65 186.61
-9755105.67 5135615.56 185.26
-9755108.08 5135620.27 188.05
-9755108.79 5135619.90 187.70
-9755109.02 5135620.67 189.73
-9755105.46 5135610.20 184.51
-9755105.78 5135619.60 189.83
-9755108.11 5135619.25 189.30
-9755108.97 5135618.88 186.97
-9755113.61 5135614.74 181.97
-9755107.26 5135620.64 188.50
-9755107.15 5135617.11 186.58
-9755107.67 5135616.91 187.31
-9755106.81 5135616.85 187.37
-9755107.53 5135619.26 188.51
-9755108.95 5135616.06 185.15
-9755107.01 5135619.78 188.34
-9755105.68 5135619.06 189.03
-9755108.78 5135620.60 189.52
-9755104.54 5135619.32 189.93
-9755108.71 5135615.18 185.11
-9755110.34 5135617.27 186.70
-9755110.49 5135619.87 187.85
-9755104.39 5135620.21 188.34
-9755106.57 5135617.88 186.71
-9755115.99 5135618.61 181.30
-9755114.50 5135619.50 181.42
-9755113.04 5135615.93 181.29
-9755110.05 5135620.11 181.37
-9755105.46 5135618.04 185.55
-9755107.03 5135619.17 186.88
-9755107.24 5135618.13 189.17
-9755107.44 5135617.19 187.38
-9755113.68 5135610.30 182.20
-9755108.03 5135616.56 186.69
-9755106.36 5135616.74 184.59
-9755109.50 5135614.74 181.37
-9755107.78 5135617.99 189.11
-9755113.94 5135618.29 182.18
-9755110.45 5135617.69 186.73
-9755107.10 5135616.73 185.42
-9755115.06 5135613.18 182.26
-9755114.88 5135620.04 182.83
-9755104.54 5135620.42 188.44
-9755110.43 5135611.48 181.33
-9755116.85 5135617.24 181.19
-9755106.95 5135618.74 188.71
-9755106.47 5135617.73 189.93
-9755107.55 5135619.68 189.37
-9755115.98 5135614.79 181.29
-9755107.42 5135619.70 189.43
-9755110.86 5135619.49 188.00
-9755108.74 5135620.11 187.70
-9755104.76 5135620.20 186.13
-9755109.37 5135619.00 188.66
-9755107.92 5135618.86 185.67
-9755106.30 5135618.82 188.67
-9755113.64 5135618.33 181.41
-9755104.90 5135616.48 186.12
-9755104.72 5135618.32 188.31
-9755111.87 5135620.47 186.36
-9755104.83 5135620.58 189.94
-9755104.76 5135618.06 185.50
-9755114.90 5135617.66 182.54
-9755104.70 5135620.55 189.76
-9755114.55 5135615.03 182.28
-9755110.72 5135620.15 186.64
-9755114.91 5135615.29 182.45
-9755108.59 5135618.73 186.70
-9755108.30 5135618.42 188.41
-9755107.50 5135613.27 181.49
-9755108.54 5135619.47 187.12
-9755114.28 5135610.33 181.39
-9755106.97 5135618.88 188.66
-9755105.10 5135618.12 188.39
-9755107.14 5135617.80 186.29
-9755110.71 5135619.01 186.30
-9755107.74 5135615.36 185.15
-9755107.90 5135617.03 185.88
-9755106.91 5135618.52 188.92
-9755108.32 5135619.82 185.63
-9755113.68 5135616.50 182.15
-9755108.67 5135618.54 189.24
-9755108.11 5135619.59 187.11
-9755105.14 5135619.14 188.35
-9755105.32 5135619.73 190.09
-9755115.07 5135620.72 181.38
-9755105.08 5135611.06 184.43
-9755105.75 5135618.56 188.36
-9755113.92 5135614.42 182.15
-9755104.53 5135613.85 181.32
-9755104.25 5135619.69 189.76
-9755114.21 5135610.14 182.22
-9755105.46 5135610.98 184.45
-9755108.06 5135620.22 189.47
-9755114.20 5135618.60 181.41
-9755108.75 5135618.84 189.60
-9755108.74 5135617.52 185.35
-9755106.35 5135618.15 189.11
-9755107.10 5135616.88 184.68
-9755107.21 5135618.63 186.98
-9755105.14 5135618.98 185.62
-9755105.37 5135617.72 181.44
-9755106.01 5135617.89 189.05
-9755112.51 5135612.37 181.28
-9755107.80 5135620.65 188.80
-9755108.82 5135614.56 186.27
-9755109.00 5135616.77 187.07
-9755105.82 5135619.06 188.56
-9755104.48 5135620.55 189.68
-9755115.11 5135617.71 182.60
-9755111.34 5135619.81 185.37
-9755106.04 5135616.29 185.43
-9755104.56 5135612.39 181.34
-9755108.98 5135620.57 189.92
-9755109.47 5135617.13 187.22
-9755108.89 5135620.62 189.02
-9755113.39 5135617.38 181.58
-9755110.38 5135617.47 186.03
-9755105.20 5135616.14 185.73
-9755114.83 5135615.93 183.17
-9755114.25 5135611.81 181.42
-9755110.97 5135620.35 186.63
-9755107.73 5135615.69 185.86
-9755108.01 5135617.90 185.43
-9755107.40 5135619.69 188.90
-9755106.58 5135618.40 186.16
-9755108.84 5135615.27 185.17
-9755114.82 5135619.28 182.74
-9755108.73 5135615.12 185.97
-9755109.24 5135619.67 188.90
-9755111.51 5135618.32 186.50
-9755107.55 5135618.78 189.28
-9755106.04 5135615.69 185.33
-9755106.10 5135617.80 185.04
-9755108.95 5135616.66 186.55
-9755106.62 5135616.52 185.56
-9755108.74 5135618.63 186.91
-9755105.56 5135619.24 189.63
-9755108.67 5135620.49 188.61
-9755114.19 5135619.82 181.43
-9755105.23 5135619.84 186.50
-9755114.55 5135610.34 181.38
-9755104.45 5135614.78 181.31
-9755109.60 5135618.82 186.98
-9755106.68 5135617.10 186.68
-9755107.49 5135616.45 187.01
-9755104.29 5135619.74 189.21
-9755109.52 5135612.72 181.36
-9755106.86 5135616.82 181.55
-9755107.48 5135615.61 185.81
-9755112.22 5135612.99 181.30
-9755108.59 5135613.85 181.40
-9755108.38 5135619.01 187.17
-9755109.29 5135619.14 186.93
-9755107.45 5135620.17 187.84
-9755106.91 5135616.91 186.37
-9755109.63 5135619.57 186.48
-9755109.52 5135619.11 188.18
-9755106.89 5135620.03 189.73
-9755108.33 5135620.58 189.48
-9755109.02 5135618.30 186.23
-9755107.74 5135619.25 181.43
-9755113.36 5135616.00 181.63
-9755113.67 5135611.50 181.42
-9755106.38 5135617.38 187.04
-9755104.78 5135616.26 186.22
-9755109.18 5135614.98 185.33
-9755114.16 5135618.07 181.41
-9755112.76 5135618.35 181.29
-9755104.84 5135611.02 184.46
-9755105.17 5135616.02 185.89
-9755110.20 5135620.03 189.08
-9755110.41 5135618.69 187.89
-9755110.80 5135617.71 186.78
-9755108.89 5135615.45 185.68
-9755115.05 5135618.60 182.53
-9755107.45 5135611.78 181.51
-9755106.02 5135615.45 185.33
-9755110.12 5135619.85 187.78
-9755106.39 5135616.01 185.45
-9755106.88 5135619.66 187.43
-9755106.01 5135620.19 185.52
-9755110.03 5135619.20 186.00
-9755106.53 5135616.04 185.53
-9755108.44 5135617.13 186.83
-9755104.88 5135617.81 189.13
-9755105.13 5135617.24 185.64
-9755115.36 5135619.51 181.37
-9755105.14 5135617.43 186.12
-9755109.16 5135618.91 186.97
-9755107.15 5135619.05 186.53
-9755112.77 5135612.14 181.27
-9755108.38 5135615.52 185.81
-9755109.60 5135617.16 186.72
-9755106.89 5135618.08 189.45
-9755108.58 5135620.17 187.42
-9755111.26 5135615.95 181.34
-9755107.62 5135620.32 189.29
-9755108.51 5135620.22 188.40
-9755106.65 5135619.27 189.71
-9755109.79 5135620.06 187.79
-9755108.03 5135619.91 188.57
-9755104.14 5135619.20 188.65
-9755106.92 5135619.63 189.67
-9755110.40 5135619.68 187.79
-9755105.66 5135620.25 189.87
-9755104.50 5135618.33 188.31
-9755105.70 5135618.74 189.49
-9755106.25 5135616.54 187.47
-9755114.80 5135618.49 183.03
-9755115.00 5135616.50 182.76
-9755113.69 5135615.04 182.16
-9755107.15 5135616.86 187.20
-9755109.54 5135616.42 187.08
-9755105.67 5135618.95 185.30
-9755108.33 5135619.08 189.36
-9755109.71 5135619.25 185.36
-9755113.67 5135615.01 181.66
-9755108.85 5135620.14 181.39
-9755104.84 5135617.46 185.65
-9755107.51 5135616.92 187.14
-9755109.20 5135620.66 188.01
-9755106.40 5135617.14 186.96
-9755105.49 5135618.89 188.84
-9755112.71 5135618.61 181.30
-9755106.87 5135618.14 186.73
-9755105.30 5135618.02 186.06
-9755107.46 5135619.12 181.52
-9755108.13 5135619.95 189.14
-9755113.33 5135615.65 181.61
-9755113.36 5135618.01 181.54
-9755104.27 5135620.60 189.37
-9755108.03 5135618.73 189.19
-9755104.93 5135617.23 185.65
-9755110.12 5135618.48 188.30
-9755109.25 5135619.04 189.36
-9755104.39 5135619.72 189.93
-9755108.48 5135617.44 186.36
-9755108.17 5135615.62 185.10
-9755108.07 5135611.20 181.40
-9755105.40 5135614.72 181.44
-9755108.02 5135619.72 189.15
-9755114.51 5135617.18 181.38
-9755105.13 5135611.66 184.54
-9755110.66 5135617.41 186.10
-9755105.47 5135620.15 190.47
-9755108.43 5135614.78 185.78
-9755104.56 5135619.97 188.78
-9755105.85 5135619.81 188.45
-9755108.06 5135618.40 189.29
-9755108.10 5135619.84 185.62
-9755109.33 5135619.21 185.97
-9755114.67 5135613.20 182.24
-9755111.60 5135618.99 186.37
-9755107.10 5135618.58 189.47
-9755115.09 5135614.47 181.98
-9755115.95 5135618.34 181.30
-9755115.41 5135611.52 181.30
-9755112.76 5135617.43 181.30
-9755108.61 5135616.47 186.76
-9755114.77 5135610.34 182.34
-9755107.83 5135618.89 187.07
-9755105.71 5135618.53 184.83
-9755108.13 5135616.66 186.96
-9755108.39 5135616.86 186.75
-9755105.91 5135620.55 190.12
-9755115.14 5135614.74 182.21
-9755109.49 5135620.63 181.38
-9755113.23 5135616.83 181.37
-9755111.28 5135615.09 181.32
-9755110.51 5135618.08 186.72
-9755108.60 5135618.77 189.55
-9755113.33 5135615.38 181.60
-9755105.99 5135616.51 185.44
-9755104.53 5135617.85 185.48
-9755107.42 5135618.24 188.35
-9755106.05 5135616.94 185.63
-9755107.26 5135618.73 186.64
-9755111.02 5135620.18 186.64
-9755107.45 5135618.87 186.64
-9755106.39 5135619.97 189.65
-9755111.30 5135611.54 181.31
-9755105.40 5135617.83 185.55
-9755105.31 5135618.85 188.80
-9755106.65 5135615.15 185.82
-9755105.15 5135618.67 188.14
-9755114.24 5135610.90 181.40
-9755108.38 5135617.40 185.93
-9755109.88 5135616.97 186.69
-9755106.54 5135616.36 185.17
-9755106.92 5135619.29 189.22
-9755106.32 5135617.92 189.10
-9755105.83 5135620.24 189.99
-9755107.77 5135618.31 188.85
-9755106.92 5135616.09 185.68
-9755114.95 5135617.41 182.29
-9755106.32 5135620.28 189.63
-9755107.98 5135618.23 189.58
-9755105.04 5135610.24 184.25
-9755104.85 5135610.71 184.49
-9755108.62 5135617.25 186.19
-9755107.49 5135619.65 188.41
-9755106.53 5135617.98 186.66
-9755104.50 5135618.09 185.47
-9755114.59 5135611.72 183.60
-9755107.49 5135615.99 185.39
-9755110.44 5135618.87 185.38
-9755107.23 5135618.52 188.88
-9755109.20 5135614.61 186.52
-9755107.17 5135619.67 189.56
-9755105.20 5135617.10 188.47
-9755104.73 5135620.23 189.77
-9755115.09 5135619.20 182.12
-9755109.87 5135618.16 185.71
-9755106.53 5135619.37 188.91
-9755109.52 5135615.65 181.37
-9755108.95 5135618.86 189.57
-9755114.51 5135610.58 182.09
-9755107.13 5135615.53 184.72
-9755106.63 5135615.78 185.70
-9755108.66 5135617.11 186.82
-9755109.81 5135618.31 181.37
-9755105.39 5135618.98 188.24
-9755107.76 5135615.99 185.35
-9755107.77 5135618.52 189.41
-9755105.55 5135615.99 185.30
-9755105.32 5135618.55 188.33
-9755108.03 5135615.10 185.26
-9755109.08 5135618.89 188.52
-9755107.57 5135615.28 185.15
-9755109.75 5135617.77 186.80
-9755108.13 5135618.70 189.29
-9755109.42 5135619.38 188.92
-9755110.21 5135620.62 186.79
-9755109.52 5135620.32 189.51
-9755108.60 5135619.93 189.40
-9755113.10 5135616.85 181.33
-9755104.50 5135617.58 185.18
-9755115.02 5135620.59 182.88
-9755108.39 5135615.77 185.81
-9755104.82 5135619.92 189.99
-9755109.59 5135618.95 188.19
-9755111.92 5135619.40 186.41
-9755109.50 5135620.03 188.04
-9755105.44 5135617.81 188.40
-9755107.64 5135617.83 187.07
-9755107.58 5135619.04 188.68
-9755113.90 5135618.90 181.43
-9755105.70 5135618.55 189.21
-9755110.68 5135620.14 186.17
-9755105.08 5135610.23 181.40
-9755110.97 5135620.08 181.35
-9755109.32 5135617.73 186.74
-9755108.42 5135619.88 185.60
-9755109.38 5135617.79 185.99
-9755106.62 5135616.59 185.51
-9755108.95 5135614.18 181.38
-9755105.61 5135618.17 188.39
-9755109.32 5135616.05 185.49
-9755108.58 5135618.92 189.40
-9755105.42 5135617.17 185.54
-9755107.84 5135619.08 189.51
-9755114.73 5135616.83 183.12
-9755109.36 5135618.96 186.35
-9755109.31 5135615.96 187.14
-9755113.63 5135614.21 181.44
-9755111.86 5135619.21 181.33
-9755112.77 5135610.62 181.25
-9755104.51 5135620.17 189.90
-9755106.62 5135618.12 185.19
-9755107.77 5135615.48 185.87
-9755108.70 5135618.16 185.89
-9755105.26 5135618.46 185.82
-9755114.53 5135614.20 181.38
-9755105.40 5135619.95 184.91
-9755114.80 5135611.77 182.71
-9755106.51 5135619.04 188.65
-9755107.16 5135619.57 187.14
-9755106.25 5135619.32 185.35
-9755104.82 5135615.94 186.27
-9755106.63 5135618.39 186.73
-9755107.40 5135618.96 186.55
-9755108.20 5135615.38 185.10
-9755105.89 5135618.89 188.26
-9755107.51 5135615.44 185.15
-9755105.37 5135610.67 183.79
-9755106.86 5135611.46 181.53
-9755106.64 5135619.15 189.68
-9755109.54 5135616.00 187.14
-9755106.05 5135618.72 189.60
-9755111.42 5135619.13 186.08
-9755104.91 5135610.15 184.15
-9755108.69 5135615.59 185.54
-9755109.01 5135618.75 188.90
-9755107.84 5135617.77 186.27
-9755106.98 5135619.60 188.56
-9755109.63 5135619.95 189.43
-9755105.61 5135619.53 184.30
-9755109.02 5135624.16 186.87
-9755106.04 5135624.43 189.98
-9755104.82 5135624.71 189.70
-9755108.05 5135624.04 188.12
-9755113.85 5135624.50 181.73
-9755105.90 5135620.68 186.70
-9755110.67 5135620.71 186.68
-9755107.25 5135624.60 189.52
-9755105.28 5135624.45 189.31
-9755108.77 5135620.72 189.68
-9755105.84 5135622.91 189.98
-9755106.88 5135620.62 188.93
-9755109.56 5135622.42 188.24
-9755106.93 5135621.92 191.12
-9755109.40 5135624.84 181.37
-9755107.15 5135624.72 190.47
-9755105.73 5135622.22 190.67
-9755106.25 5135620.70 186.98
-9755111.22 5135624.55 181.35
-9755104.49 5135620.90 189.06
-9755108.70 5135621.87 186.96
-9755104.58 5135621.74 189.15
-9755110.43 5135624.87 186.25
-9755108.49 5135624.66 190.43
-9755105.95 5135624.35 189.88
-9755106.96 5135623.99 188.31
-9755103.57 5135624.71 187.57
-9755106.45 5135623.84 189.36
-9755104.27 5135621.22 189.05
-9755104.53 5135624.07 190.82
-9755107.71 5135623.17 190.46
-9755106.56 5135620.75 186.80
-9755108.09 5135620.79 189.36
-9755113.61 5135622.78 181.64
-9755106.59 5135622.62 189.95
-9755105.43 5135621.12 190.00
-9755108.55 5135623.87 190.04
-9755109.87 5135622.43 186.35
-9755107.86 5135624.38 190.69
-9755108.09 5135623.57 189.66
-9755104.52 5135622.30 189.87
-9755104.76 5135621.86 189.15
-9755105.97 5135621.37 185.45
-9755108.58 5135621.77 188.26
-9755108.59 5135624.48 189.59
-9755109.41 5135622.40 187.00
-9755104.16 5135624.65 191.03
-9755104.56 5135623.44 189.36
-9755105.57 5135621.92 190.20
-9755109.02 5135621.71 187.48
-9755104.76 5135621.69 190.40
-9755108.68 5135623.59 189.09
-9755110.13 5135623.39 185.86
-9755104.45 5135622.87 190.96
-9755107.42 5135624.35 190.66
-9755105.72 5135622.12 191.19
-9755113.56 5135621.60 181.42
-9755106.99 5135623.34 187.71
-9755106.03 5135623.39 189.04
-9755110.95 5135620.98 186.28
-9755104.24 5135621.72 190.28
-9755109.78 5135624.25 186.48
-9755114.17 5135624.82 182.21
-9755109.45 5135624.04 189.93
-9755104.77 5135621.25 190.50
-9755106.43 5135622.48 190.19
-9755106.50 5135621.60 189.01
-9755112.46 5135622.47 181.32
-9755104.81 5135623.74 190.83
-9755109.74 5135621.01 186.39
-9755114.16 5135623.91 182.22
-9755105.78 5135620.92 189.69
-9755107.74 5135621.83 189.88
-9755107.22 5135624.43 190.53
-9755105.92 5135624.31 186.77
-9755106.24 5135622.29 191.20
-9755104.53 5135621.45 190.39
-9755106.53 5135624.16 189.85
-9755105.17 5135622.21 190.60
-9755107.99 5135624.12 190.42
-9755110.06 5135624.40 189.82
-9755109.19 5135624.66 187.78
-9755109.85 5135624.10 189.33
-9755113.87 5135624.25 182.00
-9755107.99 5135624.13 189.73
-9755113.85 5135623.58 182.11
-9755104.52 5135620.95 186.55
-9755113.83 5135624.55 181.95
-9755111.28 5135621.20 185.22
-9755104.41 5135624.04 191.13
-9755108.97 5135620.77 189.70
-9755110.67 5135621.83 186.43
-9755104.63 5135622.63 189.18
-9755112.08 5135624.84 186.94
-9755106.51 5135621.32 189.05
-9755105.92 5135622.72 189.37
-9755115.37 5135621.59 182.12
-9755109.54 5135624.57 190.42
-9755108.48 5135622.90 189.83
-9755109.31 5135622.40 189.26
-9755105.97 5135620.63 189.34
-9755113.65 5135622.43 181.61
-9755115.07 5135624.41 183.49
-9755115.97 5135620.99 181.32
-9755107.55 5135621.79 189.62
-9755104.23 5135621.11 190.10
-9755104.20 5135624.67 187.51
-9755108.99 5135624.82 189.47
-9755108.46 5135624.22 186.70
-9755114.99 5135624.48 182.05
-9755109.22 5135620.69 187.13
-9755105.50 5135621.73 190.78
-9755108.04 5135623.46 189.88
-9755108.14 5135623.44 186.95
-9755107.80 5135621.39 188.38
-9755107.13 5135623.28 188.34
-9755115.12 5135624.53 183.24
-9755114.88 5135621.29 181.80
-9755108.68 5135624.50 189.13
-9755106.50 5135622.46 181.57
-9755110.23 5135620.49 185.96
-9755104.48 5135621.71 186.56
-9755106.26 5135623.88 189.36
-9755104.05 5135623.77 190.14
-9755109.94 5135624.73 189.42
-9755104.92 5135623.27 189.75
-9755108.65 5135624.08 189.44
-9755106.31 5135621.97 190.84
-9755106.35 5135621.06 189.27
-9755107.21 5135621.53 187.00
-9755107.11 5135623.02 188.52
-9755109.45 5135623.71 186.83
-9755105.69 5135621.92 190.86
-9755110.39 5135621.13 185.54
-9755109.21 5135622.29 188.29
-9755109.03 5135623.14 189.95
-9755105.75 5135623.11 190.58
-9755105.71 5135621.38 190.38
-9755105.43 5135623.22 189.75
-9755114.49 5135622.46 181.40
-9755115.61 5135622.50 181.36
-9755104.51 5135623.74 191.13
-9755107.86 5135621.85 189.55
-9755109.51 5135621.25 186.77
-9755109.14 5135622.49 186.23
-9755104.18 5135624.53 190.54
-9755105.51 5135623.53 188.96
-9755110.13 5135622.69 187.90
-9755106.19 5135624.24 189.37
-9755108.44 5135624.21 190.49
-9755104.27 5135623.12 190.88
-9755108.89 5135623.41 186.54
-9755104.74 5135621.10 189.95
-9755105.81 5135621.73 189.59
-9755107.47 5135621.54 189.70
-9755110.32 5135621.89 181.37
-9755108.06 5135624.10 190.13
-9755108.56 5135621.68 188.67
-9755109.87 5135622.77 186.06
-9755108.98 5135622.64 188.85
-9755106.78 5135623.21 190.41
-9755109.54 5135621.60 186.79
-9755109.18 5135624.09 190.01
-9755105.55 5135622.02 190.34
-9755113.87 5135623.92 182.21
-9755107.12 5135621.18 189.20
-9755106.91 5135622.41 190.26
-9755109.30 5135623.82 190.08
-9755105.37 5135624.56 190.46
-9755105.16 5135622.37 189.75
-9755106.86 5135622.64 190.96
-9755106.01 5135622.82 190.62
-9755107.32 5135624.06 189.53
-9755115.27 5135624.29 183.49
-9755106.26 5135623.45 187.01
-9755108.85 5135624.46 190.50
-9755109.46 5135622.29 187.18
-9755105.08 5135624.02 190.26
-9755105.58 5135623.88 188.57
-9755107.67 5135623.56 187.14
-9755111.01 5135621.35 185.51
-9755104.18 5135621.66 190.09
-9755105.95 5135624.07 189.47
-9755107.79 5135623.62 189.82
-9755106.94 5135622.29 191.03
-9755108.68 5135621.03 187.08
-9755106.15 5135623.76 189.82
-9755110.11 5135623.89 189.18
-9755104.85 5135624.23 189.24
-9755105.92 5135623.00 189.56
-9755108.28 5135620.71 187.74
-9755105.45 5135623.03 185.40
-9755108.98 5135622.52 189.90
-9755111.55 5135624.24 187.00
-9755104.48 5135623.95 189.79
-9755105.42 5135622.22 190.88
-9755107.60 5135623.50 189.97
-9755108.38 5135621.95 189.19
-9755114.48 5135623.03 181.41
-9755107.47 5135623.71 190.77
-9755104.12 5135620.78 186.32
-9755108.29 5135622.99 189.19
-9755106.01 5135621.11 186.79
-9755107.56 5135622.62 189.96
-9755105.69 5135621.23 186.96
-9755110.21 5135624.05 189.80
-9755107.49 5135620.61 187.56
-9755105.83 5135622.57 189.95
-9755110.39 5135620.22 189.15
-9755105.75 5135622.34 190.12
-9755115.09 5135621.90 181.37
-9755113.63 5135624.52 181.65
-9755107.43 5135623.10 188.25
-9755108.90 5135622.47 188.42
-9755106.17 5135623.34 189.38
-9755107.47 5135623.90 187.39
-9755110.39 5135620.99 185.76
-9755107.96 5135621.47 189.45
-9755105.72 5135620.85 189.24
-9755114.15 5135624.87 181.43
-9755110.13 5135620.84 189.27
-9755108.99 5135623.55 189.67
-9755105.38 5135622.24 189.76
-9755105.96 5135620.91 181.52
-9755115.15 5135622.34 183.02
-9755105.34 5135621.40 188.86
-9755110.80 5135621.53 186.94
-9755105.13 5135622.98 189.12
-9755107.88 5135622.35 190.01
-9755107.83 5135624.50 188.85
-9755107.99 5135623.70 187.32
-9755107.12 5135622.94 191.15
-9755108.00 5135622.07 189.38
-9755108.72 5135622.79 188.84
-9755109.57 5135621.61 188.37
-9755107.17 5135622.64 188.59
-9755106.97 5135621.71 191.12
-9755108.45 5135623.59 187.24
-9755106.31 5135623.63 186.66
-9755106.27 5135623.38 189.92
-9755107.66 5135622.14 187.24
-9755110.16 5135623.26 185.87
-9755106.26 5135620.80 190.17
-9755107.09 5135623.59 187.34
-9755105.63 5135623.33 188.93
-9755105.17 5135620.82 190.36
-9755104.32 5135620.81 190.09
-9755109.72 5135623.19 189.96
-9755106.80 5135621.98 189.21
-9755115.11 5135621.18 182.61
-9755107.19 5135623.89 188.33
-9755104.60 5135624.23 187.53
-9755107.39 5135623.98 191.04
-9755104.85 5135622.91 190.35
-9755108.51 5135623.62 187.08
-9755106.06 5135621.61 186.96
-9755108.09 5135621.23 188.02
-9755108.41 5135621.81 188.23
-9755107.76 5135624.09 190.49
-9755110.16 5135621.65 185.66
-9755114.85 5135621.58 182.61
-9755110.12 5135622.36 188.15
-9755105.71 5135621.66 190.34
-9755115.38 5135624.87 183.77
-9755104.91 5135622.37 190.60
-9755106.03 5135621.66 190.85
-9755104.78 5135621.08 189.09
-9755107.77 5135622.38 188.63
-9755108.65 5135621.37 186.77
-9755113.38 5135623.95 181.60
-9755115.14 5135623.39 183.13
-9755106.35 5135621.47 190.63
-9755109.24 5135620.79 189.53
-9755108.27 5135623.87 186.75
-9755115.03 5135622.80 182.59
-9755106.89 5135624.06 190.11
-9755105.41 5135621.66 190.24
-9755104.22 5135621.85 190.55
-9755107.55 5135623.71 189.97
-9755114.49 5135623.99 181.43
-9755106.90 5135621.13 189.24
-9755108.87 5135623.16 190.33
-9755108.30 5135623.39 187.10
-9755106.42 5135622.02 190.58
-9755113.34 5135623.01 181.59
-9755105.16 5135621.03 186.52
-9755104.55 5135624.09 187.58
-9755105.11 5135622.37 188.40
-9755106.36 5135623.58 189.32
-9755107.98 5135623.28 189.58
-9755107.57 5135621.36 189.27
-9755105.34 5135623.61 181.44
-9755115.99 5135621.89 181.34
-9755108.10 5135623.31 189.92
-9755105.94 5135623.81 188.98
-9755107.26 5135621.15 188.16
-9755105.09 5135621.95 190.49
-9755109.82 5135622.30 189.37
-9755115.25 5135621.78 181.71
-9755107.47 5135621.36 188.57
-9755104.85 5135621.73 190.71
-9755104.78 5135622.60 191.31
-9755108.88 5135621.95 181.38
-9755105.74 5135624.63 189.70
-9755106.99 5135621.29 189.61
-9755108.88 5135623.87 189.65
-9755105.11 5135624.33 190.11
-9755108.15 5135623.46 187.33
-9755106.30 5135623.84 190.93
-9755108.58 5135623.58 189.59
-9755105.59 5135621.96 189.55
-9755104.91 5135622.86 189.14
-9755105.93 5135623.61 189.36
-9755106.23 5135624.11 189.95
-9755109.77 5135623.41 186.38
-9755110.08 5135624.21 187.95
-9755104.90 5135623.23 189.14
-9755104.79 5135622.08 190.75
-9755109.52 5135621.23 189.60
-9755108.32 5135624.08 190.08
-9755106.31 5135622.22 190.57
-9755104.23 5135621.59 185.25
-9755106.59 5135622.03 190.84
-9755106.27 5135622.85 190.34
-9755109.47 5135621.68 185.98
-9755105.30 5135624.26 190.11
-9755110.40 5135621.30 186.86
-9755108.64 5135622.23 187.85
-9755107.10 5135623.05 188.42
-9755104.53 5135620.81 190.42
-9755110.24 5135622.23 185.91
-9755107.61 5135621.53 189.80
-9755105.61 5135623.44 189.56
-9755104.76 5135623.55 189.30
-9755108.98 5135623.30 189.71
-9755107.97 5135624.42 190.06
-9755104.27 5135623.13 189.74
-9755109.44 5135621.88 185.97
-9755109.46 5135622.12 189.35
-9755110.36 5135624.50 189.73
-9755108.94 5135621.53 188.33
-9755109.04 5135623.01 190.02
-9755104.27 5135623.03 190.01
-9755104.18 5135620.76 189.74
-9755107.46 5135620.68 188.75
-9755104.09 5135618.96 184.62
-9755103.96 5135619.66 188.94
-9755104.00 5135620.19 189.97
-9755103.97 5135618.63 184.41
-9755104.02 5135619.89 184.99
-9755103.74 5135620.52 189.88
-9755104.56 5135610.62 181.34
-9755104.15 5135620.12 185.03
-9755103.85 5135619.38 188.80
-9755104.26 5135620.20 188.98
-9755103.95 5135618.51 184.41
-9755103.65 5135620.05 188.93
-9755103.88 5135618.86 188.92
-9755103.88 5135619.03 188.16
-9755103.87 5135620.00 188.33
-9755103.95 5135612.34 181.31
-9755103.96 5135620.00 189.55
-9755103.98 5135620.33 189.91
-9755103.68 5135619.52 184.72
-9755102.20 5135619.69 185.11
-9755098.02 5135616.16 181.22
-9755102.13 5135619.56 186.24
-9755102.66 5135619.14 185.22
-9755102.45 5135620.40 184.94
-9755098.89 5135618.21 181.17
-9755101.96 5135619.86 185.85
-9755101.92 5135620.29 185.40
-9755101.42 5135620.23 186.56
-9755103.59 5135619.98 188.22
-9755100.36 5135617.97 181.23
-9755102.48 5135619.53 185.82
-9755099.54 5135612.64 181.18
-9755102.41 5135618.40 185.15
-9755102.82 5135619.71 185.28
-9755102.90 5135620.08 184.69
-9755099.50 5135611.75 181.19
-9755099.50 5135618.86 181.16
-9755102.98 5135618.10 185.19
-9755101.27 5135618.59 181.27
-9755102.34 5135619.46 185.60
-9755099.45 5135617.09 181.17
-9755102.14 5135619.52 185.54
-9755103.36 5135620.61 189.83
-9755101.54 5135618.91 185.73
-9755102.71 5135620.44 184.80
-9755102.27 5135619.37 184.90
-9755100.99 5135615.01 181.24
-9755102.98 5135617.40 181.31
-9755101.22 5135620.02 181.29
-9755100.93 5135618.21 181.25
-9755102.46 5135616.51 181.29
-9755101.55 5135616.78 181.27
-9755100.95 5135620.02 185.83
-9755103.66 5135610.57 181.32
-9755102.17 5135619.23 186.32
-9755102.17 5135618.38 185.25
-9755102.21 5135619.53 186.23
-9755103.69 5135619.71 190.03
-9755101.89 5135610.56 181.26
-9755102.32 5135619.21 184.75
-9755102.21 5135620.28 189.10
-9755102.61 5135620.32 189.17
-9755102.66 5135619.80 185.91
-9755100.35 5135620.04 181.24
-9755102.39 5135619.69 186.13
-9755099.44 5135616.18 181.17
-9755102.67 5135618.94 184.84
-9755101.20 5135620.48 184.42
-9755100.37 5135620.36 185.09
-9755103.46 5135619.98 189.75
-9755102.17 5135617.76 185.10
-9755103.73 5135619.49 188.94
-9755100.67 5135619.66 185.48
-9755102.71 5135615.61 181.29
-9755100.05 5135611.76 181.22
-9755102.13 5135618.04 185.12
-9755102.38 5135620.17 185.52
-9755100.40 5135619.45 181.24
-9755102.33 5135618.66 184.57
-9755103.04 5135619.85 186.04
-9755099.42 5135618.26 181.16
-9755102.18 5135619.58 184.38
-9755102.14 5135617.07 181.29
-9755098.93 5135613.21 181.20
-9755103.34 5135619.05 184.68
-9755100.08 5135620.03 181.17
-9755102.05 5135617.50 185.08
-9755100.40 5135618.84 181.23
-9755101.83 5135618.36 186.00
-9755102.85 5135620.28 188.45
-9755101.91 5135619.10 184.59
-9755102.19 5135613.82 181.27
-9755102.66 5135620.16 184.69
-9755103.60 5135620.31 188.90
-9755098.61 5135613.53 181.21
-9755102.44 5135619.37 186.26
-9755100.34 5135613.24 181.27
-9755102.50 5135617.58 185.01
-9755101.84 5135616.49 181.27
-9755101.88 5135612.60 181.26
-9755102.08 5135620.19 185.00
-9755100.67 5135620.28 184.33
-9755102.92 5135619.99 189.16
-9755102.67 5135618.64 185.76
-9755102.71 5135619.21 185.96
-9755103.01 5135619.90 188.92
-9755098.87 5135613.79 181.20
-9755098.03 5135614.08 181.21
-9755102.27 5135620.46 184.75
-9755102.18 5135618.89 185.64
-9755098.01 5135613.24 181.21
-9755100.34 5135616.22 181.22
-9755098.04 5135611.16 181.22
-9755101.26 5135620.28 186.53
-9755102.17 5135612.93 181.28
-9755101.83 5135618.69 185.73
-9755102.74 5135618.33 185.17
-9755102.44 5135615.89 181.28
-9755103.05 5135619.69 188.93
-9755100.96 5135620.00 185.05
-9755102.39 5135618.28 185.57
-9755101.22 5135620.03 185.12
-9755098.26 5135617.35 181.21
-9755101.84 5135619.82 184.50
-9755101.14 5135620.05 185.18
-9755101.85 5135617.39 181.29
-9755103.62 5135620.21 184.97
-9755101.57 5135620.21 184.43
-9755101.77 5135620.19 184.50
-9755101.27 5135618.85 185.76
-9755103.00 5135620.23 184.88
-9755102.76 5135620.22 185.93
-9755103.38 5135620.08 188.02
-9755102.44 5135617.73 185.09
-9755100.14 5135620.12 185.70
-9755101.52 5135620.62 186.01
-9755103.65 5135620.56 189.35
-9755104.37 5135624.02 187.43
-9755103.99 5135621.45 189.05
-9755104.16 5135623.48 190.88
-9755103.89 5135620.67 189.34
-9755103.71 5135621.19 185.83
-9755104.00 5135623.94 191.11
-9755103.85 5135623.28 181.34
-9755103.56 5135623.26 189.99
-9755103.91 5135621.32 190.43
-9755103.85 5135622.20 187.01
-9755104.22 5135624.00 187.40
-9755103.97 5135624.23 187.39
-9755103.89 5135622.99 189.72
-9755103.63 5135623.93 190.81
-9755103.95 5135620.79 186.32
-9755103.68 5135621.44 189.37
-9755104.16 5135624.18 189.36
-9755103.63 5135621.10 189.81
-9755103.67 5135624.14 190.18
-9755103.60 5135621.35 185.18
-9755103.62 5135624.20 190.50
-9755104.06 5135621.17 189.05
-9755103.71 5135622.21 190.59
-9755103.89 5135623.59 190.35
-9755103.65 5135621.47 185.77
-9755103.63 5135622.20 185.96
-9755103.82 5135623.59 187.39
-9755103.97 5135623.43 190.77
-9755103.74 5135621.76 188.64
-9755103.92 5135622.54 188.93
-9755104.17 5135622.47 187.31
-9755103.62 5135622.22 186.96
-9755103.87 5135622.22 188.79
-9755103.73 5135623.77 190.47
-9755099.71 5135620.63 181.14
-9755102.10 5135624.62 185.11
-9755103.34 5135621.50 188.77
-9755102.20 5135620.68 188.52
-9755103.00 5135623.23 190.48
-9755101.46 5135621.56 185.05
-9755103.38 5135624.70 189.86
-9755102.13 5135621.22 185.67
-9755103.33 5135623.73 190.59
-9755103.56 5135622.22 190.77
-9755102.86 5135622.41 187.76
-9755103.39 5135624.06 190.52
-9755101.51 5135620.96 185.44
-9755103.09 5135624.32 185.95
-9755100.64 5135620.36 184.32
-9755102.72 5135621.86 185.27
-9755103.06 5135622.87 190.49
-9755103.11 5135620.79 189.33
-9755099.77 5135622.27 186.02
-9755101.24 5135621.36 184.61
-9755102.12 5135623.27 187.18
-9755102.69 5135622.09 188.20
-9755101.15 5135621.73 184.41
-9755100.31 5135624.73 181.12
-9755100.05 5135620.91 184.28
-9755101.17 5135621.40 185.75
-9755103.63 5135621.85 187.07
-9755102.39 5135621.77 181.31
-9755103.65 5135622.83 190.93
-9755098.54 5135623.25 181.16
-9755102.98 5135624.00 190.59
-9755100.00 5135621.87 186.06
-9755103.29 5135623.68 188.53
-9755103.41 5135622.33 189.60
-9755100.98 5135620.81 184.40
-9755102.72 5135623.95 186.92
-9755101.87 5135621.70 184.47
-9755102.24 5135621.24 185.27
-9755102.19 5135620.85 188.53
-9755102.57 5135621.38 185.70
-9755101.84 5135621.51 188.52
-9755100.40 5135621.84 185.47
-9755100.73 5135621.63 185.46
-9755103.62 5135623.71 190.85
-9755102.72 5135623.09 185.89
-9755102.79 5135621.41 189.36
-9755102.84 5135622.45 185.15
-9755102.60 5135621.61 185.26
-9755100.62 5135621.40 184.36
-9755102.74 5135623.79 190.59
-9755103.14 5135621.15 185.78
-9755102.21 5135621.64 185.90
-9755102.90 5135623.08 190.66
-9755100.97 5135622.20 185.58
-9755102.10 5135621.09 184.98
-9755101.02 5135622.51 185.90
-9755101.12 5135621.14 184.36
-9755101.81 5135623.81 190.17
-9755101.68 5135621.20 189.17
-9755102.50 5135620.80 189.14
-9755100.05 5135622.35 181.14
-9755101.01 5135621.88 185.65
-9755101.80 5135622.18 185.19
-9755102.73 5135621.93 188.14
-9755102.94 5135624.17 187.89
-9755101.22 5135621.58 186.21
-9755101.80 5135620.76 184.76
-9755103.37 5135621.38 185.12
-9755101.95 5135623.23 190.11
-9755103.05 5135622.36 185.58
-9755101.01 5135621.12 184.84
-9755102.80 5135624.43 184.27
-9755102.97 5135622.39 190.42
-9755103.30 5135623.49 190.67
-9755101.23 5135622.80 186.02
-9755101.91 5135622.81 190.34
-9755101.86 5135622.19 185.60
-9755101.27 5135621.10 184.50
-9755102.05 5135622.60 184.66
-9755101.51 5135621.87 185.51
-9755097.98 5135622.68 181.19
-9755102.49 5135624.32 190.52
-9755103.26 5135623.00 186.73
-9755101.82 5135622.03 184.38
-9755102.18 5135620.45 186.01
-9755103.47 5135621.40 189.37
-9755100.85 5135623.30 181.20
-9755101.21 5135624.17 181.17
-9755101.84 5135622.49 185.61
-9755102.18 5135623.48 186.13
-9755101.62 5135621.59 184.59
-9755102.74 5135624.28 184.90
-9755102.17 5135621.76 188.60
-9755102.26 5135621.22 188.95
-9755101.85 5135621.08 186.07
-9755099.81 5135621.55 184.34
-9755103.19 5135623.31 187.30
-9755101.77 5135620.76 188.61
-9755102.52 5135621.73 185.86
-9755097.07 5135624.45 181.23
-9755103.06 5135623.63 188.91
-9755100.36 5135623.34 181.16
-9755102.13 5135620.57 188.88
-9755101.72 5135620.87 189.58
-9755102.99 5135621.93 186.07
-9755102.82 5135621.98 188.37
-9755101.53 5135621.66 185.63
-9755103.38 5135623.88 187.35
-9755103.33 5135622.61 188.73
-9755099.75 5135623.26 181.11
-9755103.44 5135623.61 188.29
-9755100.69 5135621.04 184.38
-9755102.48 5135622.86 190.69
-9755103.46 5135624.60 190.88
-9755100.64 5135622.07 181.22
-9755100.31 5135622.26 185.36
-9755102.44 5135622.21 185.11
-9755101.95 5135622.00 185.64
-9755101.87 5135620.87 189.10
-9755100.54 5135621.80 185.78
-9755102.12 5135623.60 184.44
-9755102.70 5135620.74 184.87
-9755103.35 5135623.17 190.68
-9755101.16 5135621.38 184.34
-9755102.24 5135624.24 184.89
-9755103.22 5135622.22 188.42
-9755102.49 5135624.07 184.89
-9755101.49 5135622.59 185.72
-9755103.24 5135623.79 187.05
-9755102.06 5135623.57 181.27
-9755101.79 5135622.51 184.93
-9755102.09 5135620.46 184.54
-9755101.62 5135620.65 189.07
-9755102.14 5135621.46 188.56
-9755102.15 5135621.67 185.26
-9755101.23 5135620.68 181.29
-9755102.33 5135622.29 187.34
-9755102.13 5135621.03 189.66
-9755100.63 5135624.22 181.16
-9755102.36 5135621.64 185.26
-9755103.42 5135623.52 190.00
-9755103.44 5135621.75 188.86
-9755102.10 5135622.46 184.75
-9755102.09 5135621.18 184.62
-9755101.94 5135622.00 184.99
-9755102.20 5135621.95 185.15
-9755100.55 5135622.17 185.39
-9755100.15 5135622.45 186.07
-9755103.20 5135624.29 185.17
-9755101.81 5135621.29 186.10
-9755101.90 5135620.65 189.10
-9755101.28 5135620.76 184.45
-9755098.48 5135620.91 181.18
-9755103.08 5135623.77 190.50
-9755103.24 5135621.96 185.96
-9755102.77 5135623.49 190.05
-9755102.78 5135623.30 185.87
-9755102.23 5135623.40 190.63
-9755101.82 5135621.00 185.36
-9755102.69 5135622.44 185.92
-9755102.71 5135621.15 188.95
-9755100.92 5135623.02 181.21
-9755102.44 5135621.49 188.55
-9755103.39 5135621.00 189.81
-9755100.12 5135621.69 186.06
-9755101.57 5135620.82 188.37
-9755102.42 5135623.25 190.09
-9755114.65 5135610.35 183.76
-9755114.45 5135609.07 182.27
-9755113.90 5135609.09 181.77
-9755112.76 5135609.72 181.23
-9755104.83 5135609.10 181.37
-9755115.44 5135610.40 181.30
-9755105.75 5135609.39 181.45
-9755104.24 5135610.02 181.32
-9755106.58 5135608.50 181.53
-9755112.80 5135609.15 181.23
-9755109.52 5135608.53 181.34
-9755108.94 5135610.05 181.36
-9755113.96 5135609.45 182.19
-9755110.15 5135610.01 181.33
-9755105.12 5135609.11 181.40
-9755112.20 5135608.85 181.25
-9755114.65 5135609.38 182.30
-9755113.11 5135609.71 181.53
-9755110.75 5135609.46 181.30
-9755113.44 5135609.74 181.86
-9755113.09 5135609.50 181.56
-9755104.20 5135609.11 181.33
-9755103.96 5135608.56 181.32
-9755103.61 5135609.99 181.31
-9755098.32 5135610.01 181.23
-9755103.64 5135609.67 181.32
-9755097.74 5135608.48 181.26
-9755102.20 5135610.04 181.28
-9755098.97 5135608.50 181.19
-9755101.92 5135608.50 181.28
-9755100.42 5135609.95 181.29
-9755098.06 5135609.07 181.23
-9755103.06 5135610.30 181.30
-9755101.54 5135609.98 181.29
-9755102.81 5135608.51 181.30
-9755097.17 5135617.06 181.25
-9755097.18 5135609.99 181.25
-9755096.75 5135619.75 181.26
-9755094.78 5135619.10 181.33
-9755097.15 5135615.24 181.25
-9755091.54 5135612.63 181.33
-9755094.75 5135617.66 181.32
-9755096.80 5135617.34 181.26
-9755091.20 5135619.69 181.34
-9755091.81 5135619.95 181.33
-9755092.71 5135612.57 181.35
-9755091.48 5135617.95 181.33
-9755096.26 5135612.29 181.28
-9755096.21 5135614.07 181.28
-9755095.90 5135618.28 181.28
-9755095.96 5135617.32 181.28
-9755093.02 5135617.90 181.35
-9755093.86 5135613.49 181.34
-9755091.86 5135612.52 181.34
-9755095.33 5135615.84 181.31
-9755095.64 5135616.49 181.29
-9755093.08 5135610.78 181.34
-9755092.45 5135613.43 181.34
-9755096.46 5135619.14 181.26
-9755094.71 5135615.56 181.33
-9755093.01 5135614.07 181.33
-9755091.26 5135613.13 181.33
-9755093.05 5135614.96 181.34
-9755096.82 5135618.24 181.25
-9755092.38 5135616.71 181.35
-9755095.37 5135614.95 181.31
-9755093.92 5135617.03 181.34
-9755092.66 5135617.59 181.34
-9755094.14 5135613.46 181.34
-9755093.63 5135611.44 181.35
-9755094.47 5135618.51 181.34
-9755092.41 5135619.35 181.34
-9755093.24 5135618.24 181.35
-9755094.82 5135612.27 181.33
-9755093.59 5135611.08 181.35
-9755093.87 5135619.67 181.34
-9755092.98 5135616.42 181.34
-9755096.77 5135616.77 181.27
-9755096.85 5135612.32 181.26
-9755093.60 5135616.74 181.35
-9755092.42 5135620.25 181.34
-9755095.00 5135620.87 181.31
-9755096.19 5135620.88 181.27
-9755091.22 5135624.73 181.35
-9755091.78 5135620.62 181.34
-9755095.61 5135621.44 181.29
-9755095.04 5135621.49 181.31
-9755094.74 5135620.58 181.32
-9755094.68 5135622.38 181.34
-9755096.22 5135621.78 181.26
-9755093.84 5135623.56 181.35
-9755091.22 5135621.43 181.35
-9755094.13 5135620.91 181.35
-9755096.52 5135623.90 181.25
-9755094.17 5135623.25 181.33
-9755094.42 5135622.32 181.35
-9755094.73 5135623.00 181.31
-9755092.34 5135623.84 181.34
-9755091.29 5135611.09 181.34
-9755093.66 5135608.78 181.34
-9755089.99 5135625.00 181.35
-9755082.60 5135625.57 180.97
-9755084.75 5135628.18 181.62
-9755083.20 5135628.18 181.32
-9755083.12 5135627.58 181.48
-9755085.85 5135625.55 182.35
-9755086.17 5135628.17 182.37
-9755084.69 5135624.94 181.93
-9755086.16 5135627.27 182.38
-9755083.12 5135625.30 181.66
-9755082.92 5135627.31 181.45
-9755088.24 5135625.89 181.31
-9755085.67 5135627.06 181.91
-9755084.06 5135625.28 181.84
-9755083.00 5135628.00 181.34
-9755083.79 5135626.42 181.58
-9755082.38 5135626.23 181.13
-9755085.55 5135627.67 181.52
