-9755320.86 5135418.36 187.92
-9755321.84 5135418.49 187.28
-9755320.96 5135415.85 188.35
-9755322.00 5135413.50 189.31
-9755320.65 5135414.24 188.67
-9755320.13 5135413.54 189.80
-9755320.15 5135418.35 187.88
-9755322.67 5135422.70 186.38
-9755322.49 5135419.04 187.68
-9755322.53 5135425.05 185.63
-9755322.64 5135422.40 186.99
-9755321.77 5135422.69 186.36
-9755320.65 5135420.00 187.04
-9755320.97 5135421.17 186.84
-9755320.03 5135424.16 186.15
-9755320.88 5135424.17 186.16
-9755320.81 5135419.29 187.69
-9755321.80 5135422.65 186.98
-9755320.02 5135421.63 187.21
-9755320.95 5135422.12 186.99
-9755320.02 5135423.55 186.75
-9755319.89 5135404.48 188.99
-9755318.11 5135405.38 188.99
-9755311.65 5135404.73 189.03
-9755312.49 5135404.43 189.03
-9755317.53 5135404.81 188.97
-9755315.74 5135404.48 188.97
-9755316.03 5135405.35 188.99
-9755318.42 5135404.55 188.97
-9755309.23 5135405.32 189.01
-9755319.05 5135417.85 188.17
-9755319.94 5135417.01 188.08
-9755315.92 5135414.52 188.81
-9755320.10 5135415.16 187.96
-9755319.27 5135413.79 188.60
-9755318.41 5135408.60 189.04
-9755313.29 5135408.20 189.76
-9755314.84 5135408.59 189.04
-9755315.70 5135412.73 189.05
-9755317.10 5135417.63 187.97
-9755315.73 5135409.50 189.03
-9755310.09 5135407.10 189.02
-9755316.57 5135411.87 189.05
-9755310.10 5135416.03 188.25
-9755316.61 5135413.34 189.03
-9755316.90 5135412.75 189.05
-9755313.37 5135408.69 189.49
-9755311.01 5135410.36 189.04
-9755315.08 5135416.01 187.99
-9755312.49 5135406.22 189.03
-9755316.00 5135415.41 187.96
-9755310.03 5135417.83 187.82
-9755314.23 5135415.08 188.79
-9755315.17 5135410.41 189.04
-9755318.57 5135414.17 189.23
-9755315.10 5135414.34 188.86
-9755313.29 5135416.05 188.10
-9755314.18 5135416.07 187.99
-9755311.58 5135415.24 188.67
-9755311.57 5135413.62 188.69
-9755317.78 5135418.40 187.92
-9755319.19 5135416.71 187.74
-9755317.49 5135410.39 189.04
-9755312.46 5135413.59 188.64
-9755311.04 5135408.55 189.03
-9755310.95 5135417.80 187.78
-9755312.46 5135412.75 188.84
-9755319.00 5135413.62 189.79
-9755317.40 5135416.98 187.75
-9755318.27 5135416.80 188.10
-9755313.33 5135407.74 189.03
-9755317.46 5135409.54 189.05
-9755312.59 5135408.48 190.27
-9755313.60 5135408.60 189.04
-9755314.20 5135407.70 189.02
-9755319.86 5135407.11 189.01
-9755313.30 5135415.15 188.25
-9755318.10 5135415.25 188.58
-9755316.86 5135417.62 188.10
-9755310.11 5135408.00 189.00
-9755319.21 5135411.86 189.04
-9755315.71 5135408.62 189.03
-9755318.38 5135407.73 189.02
-9755318.38 5135413.73 189.79
-9755310.99 5135409.47 189.04
-9755316.86 5135416.04 187.96
-9755318.88 5135416.14 188.34
-9755309.86 5135416.89 188.66
-9755310.73 5135413.22 189.29
-9755315.03 5135414.15 189.75
-9755317.44 5135415.13 188.61
-9755319.13 5135423.58 186.37
-9755310.93 5135421.72 187.13
-9755309.38 5135419.14 188.09
-9755309.94 5135424.39 186.56
-9755314.13 5135425.32 186.21
-9755314.18 5135419.29 187.34
-9755317.36 5135421.71 187.24
-9755309.95 5135425.28 186.44
-9755314.16 5135421.11 187.03
-9755315.95 5135422.91 186.62
-9755310.98 5135419.85 187.75
-9755315.01 5135425.03 186.22
-9755310.90 5135425.30 186.27
-9755318.64 5135423.47 186.83
-9755313.27 5135424.98 186.23
-9755318.32 5135419.64 187.69
-9755313.58 5135420.22 187.23
-9755318.24 5135423.56 186.38
-9755309.04 5135421.27 187.28
-9755315.83 5135419.98 187.60
-9755311.77 5135420.23 187.33
-9755309.38 5135425.24 186.44
-9755313.31 5135419.04 187.50
-9755311.75 5135424.70 186.98
-9755312.61 5135425.01 186.23
-9755318.23 5135424.99 186.12
-9755311.25 5135421.94 187.50
-9755315.08 5135423.48 187.05
-9755312.63 5135423.54 186.65
-9755317.69 5135423.53 186.90
-9755312.69 5135423.84 187.00
-9755315.07 5135419.62 187.31
-9755316.65 5135422.73 187.00
-9755319.16 5135419.46 187.67
-9755311.81 5135419.30 187.57
-9755309.41 5135422.90 186.89
-9755311.27 5135419.63 187.33
-9755314.54 5135418.97 187.91
-9755323.13 5135396.20 189.03
-9755322.26 5135397.14 189.01
-9755321.65 5135403.60 189.02
-9755320.82 5135399.75 188.99
-9755321.66 5135401.25 189.01
-9755320.72 5135403.01 188.99
-9755313.39 5135397.97 188.99
-9755309.90 5135398.83 189.03
-9755317.49 5135401.85 188.94
-9755315.16 5135401.21 188.94
-9755318.43 5135402.10 188.96
-9755311.61 5135401.18 189.03
-9755319.95 5135397.34 188.99
-9755313.41 5135398.85 188.98
-9755311.04 5135403.87 189.03
-9755318.14 5135397.04 188.98
-9755319.89 5135399.72 188.99
-9755316.68 5135397.92 188.96
-9755311.62 5135403.84 189.05
-9755317.59 5135397.07 188.97
-9755310.15 5135399.69 189.04
-9755312.54 5135401.13 188.99
-9755314.31 5135397.92 188.98
-9755319.33 5135397.10 188.98
-9755318.40 5135401.22 188.95
-9755316.68 5135396.45 188.99
-9755311.62 5135400.30 189.02
-9755315.17 5135403.87 188.98
-9755316.65 5135397.04 188.97
-9755319.05 5135398.86 188.98
-9755391.52 5135379.15 207.03
-9755394.22 5135378.30 207.04
-9755393.23 5135379.18 207.04
-9755390.03 5135378.27 207.05
-9755393.32 5135377.94 207.04
-9755392.42 5135377.99 207.04
-9755392.38 5135380.10 207.04
-9755390.04 5135379.15 207.04
-9755390.95 5135379.76 207.04
-9755389.18 5135377.95 207.05
-9755383.45 5135379.05 220.78
-9755385.94 5135378.27 207.04
-9755383.30 5135378.37 203.53
-9755386.83 5135379.12 207.03
-9755385.07 5135379.07 207.06
-9755383.28 5135378.95 203.56
-9755382.34 5135378.43 203.55
-9755385.05 5135378.20 207.07
-9755386.53 5135378.24 207.04
-9755389.15 5135379.72 207.03
-9755386.57 5135379.30 220.77
-9755391.82 5135379.77 207.03
-9755397.35 5135383.09 207.01
-9755396.19 5135383.06 207.00
-9755390.96 5135382.41 206.99
-9755396.56 5135385.63 220.65
-9755392.43 5135382.41 206.97
-9755390.77 5135386.17 220.66
-9755395.69 5135387.43 220.64
-9755392.35 5135381.47 207.07
-9755392.53 5135389.79 220.72
-9755396.57 5135391.53 220.75
-9755391.51 5135381.58 206.98
-9755396.49 5135383.93 206.99
-9755397.38 5135383.97 206.99
-9755395.65 5135383.02 207.01
-9755395.66 5135381.53 207.01
-9755393.37 5135391.26 220.75
-9755389.17 5135380.62 207.01
-9755395.72 5135384.73 220.58
-9755390.75 5135389.17 220.71
-9755392.49 5135384.76 220.64
-9755389.91 5135385.58 220.67
-9755391.61 5135390.70 220.74
-9755394.81 5135386.53 220.64
-9755391.54 5135388.03 220.69
-9755390.61 5135380.66 207.02
-9755397.42 5135382.47 207.03
-9755394.72 5135381.55 207.04
-9755393.16 5135383.23 207.08
-9755395.61 5135383.97 207.00
-9755391.58 5135381.54 220.62
-9755391.46 5135382.43 206.99
-9755395.65 5135392.38 220.75
-9755390.94 5135381.52 207.01
-9755392.56 5135385.42 220.63
-9755390.05 5135382.09 206.99
-9755390.04 5135381.59 207.00
-9755395.01 5135383.17 207.31
-9755397.38 5135385.41 207.00
-9755394.19 5135383.98 206.98
-9755394.85 5135382.15 207.53
-9755396.52 5135384.81 206.97
-9755397.41 5135384.85 206.99
-9755390.07 5135379.77 220.78
-9755393.30 5135381.25 207.02
-9755395.63 5135382.39 207.03
-9755394.12 5135381.55 207.04
-9755394.79 5135383.95 206.97
-9755392.37 5135382.77 206.98
-9755390.07 5135392.91 220.79
-9755394.16 5135380.67 207.02
-9755395.00 5135383.30 207.03
-9755394.77 5135382.41 208.45
-9755389.24 5135384.08 220.65
-9755392.17 5135381.16 207.47
-9755395.38 5135382.63 208.45
-9755395.65 5135384.56 207.00
-9755395.53 5135382.89 208.45
-9755391.43 5135383.04 206.98
-9755393.34 5135383.66 207.06
-9755396.62 5135382.95 220.65
-9755389.16 5135382.15 207.00
-9755389.17 5135384.73 220.66
-9755395.05 5135382.91 208.49
-9755387.69 5135379.72 207.04
-9755382.39 5135379.01 203.55
-9755388.32 5135389.81 220.74
-9755383.51 5135379.89 203.57
-9755387.71 5135382.14 207.04
-9755385.05 5135380.62 207.01
-9755388.28 5135388.00 220.72
-9755386.78 5135381.54 206.99
-9755383.32 5135384.12 220.66
-9755386.51 5135380.02 207.02
-9755388.25 5135381.54 206.99
-9755385.57 5135381.48 206.98
-9755386.49 5135382.00 207.01
-9755387.69 5135380.63 207.02
-9755383.38 5135385.45 220.69
-9755388.17 5135382.37 206.98
-9755385.75 5135392.15 220.79
-9755385.05 5135381.44 207.01
-9755385.14 5135387.08 220.69
-9755387.38 5135381.51 206.99
-9755382.62 5135381.41 203.63
-9755382.75 5135388.76 220.72
-9755387.54 5135387.37 220.70
-9755385.16 5135386.50 220.70
-9755387.50 5135381.47 220.65
-9755384.24 5135388.00 220.69
-9755385.11 5135387.96 220.69
-9755384.24 5135385.61 220.68
-9755385.69 5135390.62 220.78
-9755386.08 5135388.84 220.74
-9755385.95 5135384.05 220.66
-9755384.83 5135381.40 220.63
-9755386.60 5135383.28 220.64
-9755385.66 5135381.44 220.65
-9755388.30 5135379.72 220.79
-9755386.83 5135380.65 207.01
-9755383.31 5135382.37 220.64
-9755384.80 5135382.36 220.64
-9755382.65 5135379.87 203.58
-9755383.34 5135383.25 220.65
-9755383.44 5135381.35 203.60
-9755392.43 5135396.47 220.87
-9755394.82 5135395.47 220.82
-9755393.31 5135396.22 220.83
-9755395.67 5135393.98 220.81
-9755389.20 5135396.52 220.89
-9755389.77 5135396.20 220.88
-9755396.63 5135394.57 220.80
-9755392.35 5135394.73 220.82
-9755389.73 5135394.70 220.82
-9755386.02 5135392.94 220.79
-9755388.21 5135394.55 220.82
-9755386.01 5135395.57 220.88
-9755388.32 5135396.53 220.89
-9755386.53 5135396.19 220.90
-9755384.21 5135396.51 220.90
-9755384.17 5135393.89 220.86
-9755382.46 5135395.30 220.90
-9755391.79 5135369.98 200.14
-9755395.63 5135374.76 200.27
-9755394.16 5135370.65 200.18
-9755393.29 5135370.06 200.18
-9755394.18 5135370.00 200.20
-9755391.53 5135369.13 200.12
-9755389.98 5135374.85 203.38
-9755390.92 5135370.92 200.10
-9755390.89 5135369.97 200.10
-9755390.05 5135370.90 200.05
-9755390.06 5135377.38 207.06
-9755395.05 5135370.59 200.20
-9755389.73 5135373.88 200.06
-9755393.29 5135374.25 200.17
-9755390.08 5135375.61 207.08
-9755396.52 5135374.76 200.33
-9755393.28 5135376.82 207.06
-9755392.03 5135375.63 200.25
-9755391.76 5135375.00 200.21
-9755390.62 5135374.16 200.12
-9755390.67 5135375.02 200.88
-9755392.64 5135376.52 207.34
-9755397.40 5135368.91 200.30
-9755393.34 5135377.24 208.26
-9755390.65 5135367.34 200.06
-9755395.63 5135373.28 200.25
-9755394.80 5135377.41 207.06
-9755389.14 5135375.00 200.14
-9755393.61 5135375.93 204.10
-9755390.40 5135375.13 203.37
-9755396.48 5135376.57 207.13
-9755393.32 5135377.36 207.33
-9755390.83 5135374.69 207.16
-9755392.39 5135372.38 200.18
-9755393.20 5135375.60 203.53
-9755394.12 5135375.84 202.99
-9755390.94 5135377.39 207.06
-9755395.01 5135376.17 200.30
-9755397.69 5135377.37 204.73
-9755392.47 5135374.85 203.77
-9755395.06 5135367.36 200.19
-9755392.07 5135375.20 203.09
-9755394.06 5135375.83 204.09
-9755390.25 5135375.11 201.40
-9755395.06 5135375.81 207.00
-9755389.20 5135375.88 207.07
-9755393.79 5135377.43 208.23
-9755393.76 5135375.92 203.48
-9755393.95 5135375.27 207.05
-9755392.96 5135374.64 203.72
-9755385.90 5135374.26 203.54
-9755389.10 5135374.91 201.90
-9755387.09 5135368.00 199.85
-9755387.36 5135368.23 199.89
-9755388.29 5135367.36 199.92
-9755389.44 5135374.41 207.16
-9755384.13 5135371.62 203.45
-9755388.28 5135368.83 199.94
-9755384.19 5135370.73 203.46
-9755384.90 5135375.69 207.10
-9755385.88 5135373.07 203.50
-9755386.56 5135376.47 207.06
-9755385.08 5135369.82 203.47
-9755386.81 5135369.35 199.87
-9755387.46 5135374.96 207.12
-9755388.31 5135370.01 199.94
-9755384.21 5135368.33 203.45
-9755384.19 5135367.73 203.44
-9755383.60 5135376.60 203.49
-9755383.26 5135375.73 203.46
-9755385.88 5135368.82 199.84
-9755386.79 5135374.07 199.87
-9755383.31 5135368.34 203.44
-9755389.31 5135374.89 202.39
-9755386.80 5135377.34 207.05
-9755387.40 5135367.34 199.88
-9755388.81 5135374.93 203.92
-9755385.70 5135377.40 207.05
-9755382.66 5135374.82 203.47
-9755385.27 5135374.37 199.96
-9755384.15 5135369.85 203.45
-9755387.67 5135374.14 199.95
-9755383.57 5135369.20 203.46
-9755385.55 5135374.12 199.92
-9755387.64 5135373.26 199.91
-9755382.73 5135370.68 203.44
-9755385.05 5135369.24 203.46
-9755387.39 5135371.54 199.89
-9755382.65 5135373.35 203.44
-9755385.93 5135370.52 199.82
-9755385.42 5135368.12 199.84
-9755388.24 5135374.18 199.97
-9755387.69 5135369.37 199.89
-9755387.43 5135374.88 204.06
-9755382.66 5135371.58 203.43
-9755385.91 5135372.69 199.82
-9755388.47 5135374.85 202.63
-9755387.03 5135371.78 199.88
-9755386.73 5135374.64 199.99
-9755385.96 5135367.41 203.47
-9755386.28 5135372.19 203.53
-9755386.77 5135370.91 199.86
-9755388.30 5135371.49 199.94
-9755382.67 5135377.25 203.51
-9755386.56 5135367.73 203.54
-9755383.58 5135369.87 203.44
-9755386.71 5135371.49 203.56
-9755382.66 5135376.57 203.49
-9755385.09 5135374.05 207.72
-9755385.04 5135374.21 203.52
-9755386.42 5135373.58 199.83
-9755385.89 5135373.84 199.82
-9755379.34 5135378.96 203.56
-9755380.87 5135378.95 203.55
-9755376.64 5135379.06 220.72
-9755381.79 5135379.03 203.54
-9755375.83 5135378.04 203.55
-9755378.66 5135378.47 220.77
-9755379.44 5135378.37 203.54
-9755378.02 5135378.63 220.14
-9755374.39 5135379.24 203.59
-9755375.02 5135378.10 203.55
-9755375.27 5135378.96 203.55
-9755381.00 5135383.16 220.65
-9755381.75 5135379.92 203.57
-9755378.63 5135382.24 220.65
-9755381.09 5135382.06 220.65
-9755378.64 5135385.48 220.69
-9755377.50 5135381.39 220.60
-9755376.01 5135380.82 220.60
-9755379.30 5135381.31 220.60
-9755381.89 5135391.18 220.82
-9755379.43 5135379.86 203.57
-9755381.61 5135388.00 220.74
-9755380.98 5135388.91 220.78
-9755381.75 5135380.44 203.59
-9755379.24 5135383.70 220.65
-9755381.79 5135381.31 203.62
-9755377.52 5135383.18 220.64
-9755377.61 5135380.15 203.59
-9755381.81 5135385.53 220.65
-9755380.77 5135379.83 203.58
-9755380.00 5135380.68 203.59
-9755380.13 5135379.69 220.65
-9755376.80 5135380.44 203.60
-9755380.91 5135381.58 203.64
-9755379.11 5135380.51 203.60
-9755376.87 5135389.60 220.78
-9755375.91 5135380.48 203.57
-9755377.48 5135391.47 220.80
-9755381.85 5135389.01 220.78
-9755377.42 5135386.42 220.71
-9755380.87 5135380.70 203.60
-9755377.67 5135384.68 220.65
-9755377.77 5135387.94 220.74
-9755376.01 5135379.95 220.60
-9755375.98 5135382.40 220.62
-9755376.05 5135385.87 220.66
-9755376.93 5135381.96 203.59
-9755379.97 5135379.80 203.57
-9755381.60 5135381.97 203.65
-9755381.85 5135387.14 220.71
-9755381.10 5135381.94 203.64
-9755379.37 5135381.37 203.60
-9755380.31 5135381.34 203.59
-9755375.30 5135379.85 203.58
-9755375.03 5135389.65 220.75
-9755375.17 5135383.71 220.64
-9755375.45 5135390.52 220.81
-9755374.15 5135392.21 220.85
-9755374.41 5135389.02 220.75
-9755373.45 5135381.61 220.70
-9755373.57 5135382.08 220.78
-9755373.43 5135390.66 220.73
-9755378.57 5135396.46 220.92
-9755380.89 5135393.86 220.87
-9755375.94 5135396.50 220.90
-9755378.32 5135395.57 220.92
-9755376.79 5135394.79 220.87
-9755381.84 5135395.41 220.92
-9755375.93 5135394.52 220.89
-9755381.74 5135394.68 220.88
-9755374.06 5135395.52 220.86
-9755373.83 5135396.87 221.04
-9755373.85 5135392.98 220.86
-9755367.80 5135378.24 192.35
-9755369.55 5135378.28 192.34
-9755362.82 5135378.24 192.34
-9755356.35 5135378.15 193.96
-9755360.14 5135378.13 192.73
-9755356.84 5135378.11 193.96
-9755352.77 5135378.15 192.32
-9755357.19 5135378.18 192.34
-9755353.65 5135379.05 192.32
-9755361.02 5135379.06 192.35
-9755360.48 5135379.10 192.36
-9755356.91 5135379.09 192.35
-9755360.45 5135378.22 192.35
-9755356.56 5135378.37 192.76
-9755366.91 5135381.53 192.39
-9755364.44 5135389.04 189.01
-9755364.51 5135387.25 189.03
-9755367.78 5135379.72 192.37
-9755364.48 5135385.66 192.62
-9755368.64 5135379.72 192.37
-9755363.66 5135383.76 192.39
-9755365.18 5135379.71 192.36
-9755364.58 5135382.35 192.41
-9755364.59 5135383.01 192.39
-9755362.78 5135385.05 192.68
-9755363.71 5135383.06 192.40
-9755363.65 5135383.86 192.81
-9755364.25 5135384.15 192.43
-9755367.77 5135380.60 192.37
-9755364.23 5135388.16 189.02
-9755366.96 5135380.64 192.37
-9755363.52 5135383.96 214.68
-9755363.67 5135379.74 192.35
-9755364.54 5135381.46 192.37
-9755364.21 5135384.13 192.72
-9755362.74 5135382.93 192.39
-9755365.15 5135381.47 192.38
-9755363.10 5135383.79 192.41
-9755362.66 5135392.30 189.03
-9755363.85 5135393.17 189.01
-9755357.78 5135384.71 192.75
-9755362.07 5135392.28 189.03
-9755358.85 5135392.31 189.01
-9755359.86 5135380.84 192.74
-9755357.74 5135384.72 192.38
-9755355.39 5135384.05 192.40
-9755355.39 5135381.67 193.40
-9755361.86 5135383.21 192.37
-9755360.05 5135387.28 189.03
-9755356.81 5135381.88 192.58
-9755358.61 5135380.56 192.36
-9755358.60 5135383.24 192.37
-9755361.27 5135382.35 192.40
-9755358.59 5135381.48 203.62
-9755360.19 5135383.88 192.71
-9755354.52 5135384.07 192.39
-9755361.23 5135385.57 192.66
-9755356.83 5135381.45 192.42
-9755357.81 5135382.34 192.37
-9755358.62 5135384.70 192.71
-9755358.08 5135381.45 192.37
-9755359.49 5135387.22 189.04
-9755359.46 5135389.00 189.04
-9755359.38 5135380.01 192.77
-9755355.04 5135388.61 189.61
-9755358.86 5135388.14 189.03
-9755353.64 5135380.55 192.33
-9755355.44 5135384.69 192.40
-9755357.70 5135392.22 188.99
-9755354.56 5135385.09 203.06
-9755361.23 5135386.35 189.04
-9755361.92 5135382.37 192.39
-9755354.82 5135383.17 192.37
-9755354.07 5135379.63 193.01
-9755361.41 5135384.39 198.32
-9755355.44 5135387.16 190.29
-9755361.54 5135388.99 189.04
-9755355.30 5135389.01 189.00
-9755360.43 5135382.31 192.73
-9755359.44 5135392.31 189.01
-9755357.95 5135391.39 189.00
-9755352.70 5135386.43 192.41
-9755357.83 5135384.82 203.65
-9755357.09 5135388.13 189.02
-9755359.43 5135384.67 208.52
-9755360.48 5135381.42 192.69
-9755360.24 5135383.29 192.30
-9755357.96 5135388.13 189.03
-9755355.28 5135382.15 203.61
-9755361.88 5135384.70 192.73
-9755362.65 5135384.53 208.48
-9755357.58 5135384.86 211.58
-9755359.52 5135379.97 192.36
-9755354.64 5135385.50 203.63
-9755356.93 5135379.97 192.34
-9755356.79 5135392.28 188.97
-9755356.38 5135385.02 203.63
-9755358.61 5135390.49 189.02
-9755353.84 5135391.97 188.98
-9755359.51 5135384.15 192.69
-9755359.47 5135390.50 189.02
-9755356.51 5135381.72 192.53
-9755359.49 5135389.89 189.02
-9755358.42 5135384.05 198.33
-9755357.10 5135380.76 192.95
-9755360.42 5135380.89 192.42
-9755353.01 5135389.61 189.01
-9755352.76 5135384.62 192.39
-9755357.14 5135380.57 192.37
-9755360.76 5135386.07 192.72
-9755357.66 5135384.95 213.23
-9755355.20 5135379.87 192.28
-9755360.04 5135383.81 192.39
-9755361.27 5135379.71 192.35
-9755361.03 5135382.55 192.66
-9755356.22 5135389.62 189.00
-9755360.87 5135384.16 204.73
-9755362.05 5135382.77 205.92
-9755359.11 5135382.75 203.73
-9755352.79 5135382.91 192.39
-9755357.92 5135381.52 203.61
-9755360.43 5135384.10 204.69
-9755363.57 5135396.42 189.02
-9755364.41 5135394.70 189.00
-9755363.56 5135394.67 189.01
-9755363.58 5135394.07 189.02
-9755357.98 5135393.74 188.97
-9755359.43 5135393.76 188.99
-9755361.19 5135393.76 189.02
-9755361.16 5135396.13 189.02
-9755353.84 5135394.64 188.95
-9755355.59 5135394.65 188.94
-9755353.82 5135396.42 188.95
-9755359.46 5135396.41 188.99
-9755354.67 5135395.49 188.94
-9755352.91 5135394.57 188.97
-9755360.30 5135395.54 188.99
-9755360.33 5135396.43 189.01
-9755358.00 5135394.63 188.95
-9755352.95 5135393.68 188.98
-9755378.23 5135374.83 203.44
-9755379.07 5135377.43 203.51
-9755380.00 5135373.95 203.44
-9755381.78 5135372.44 203.44
-9755379.39 5135375.74 203.42
-9755379.13 5135369.79 203.43
-9755378.55 5135369.81 203.43
-9755377.68 5135377.14 203.49
-9755377.71 5135376.62 203.49
-9755381.84 5135376.63 203.49
-9755380.06 5135367.45 203.42
-9755377.39 5135371.57 203.43
-9755380.95 5135377.19 203.50
-9755379.16 5135370.67 203.43
-9755376.80 5135370.70 203.43
-9755379.15 5135373.91 203.44
-9755379.19 5135371.55 203.43
-9755380.34 5135369.19 203.43
-9755378.61 5135375.71 203.43
-9755380.05 5135377.24 203.49
-9755377.72 5135368.25 203.41
-9755377.71 5135374.20 203.45
-9755380.96 5135367.43 203.41
-9755381.80 5135377.49 203.51
-9755379.20 5135367.74 203.42
-9755374.37 5135376.60 203.52
-9755374.39 5135377.48 203.54
-9755375.35 5135369.79 203.44
-9755374.45 5135374.82 203.49
-9755373.53 5135376.49 203.52
-9755373.70 5135376.62 204.15
-9755374.74 5135368.26 203.50
-9755374.47 5135372.40 203.54
-9755373.51 5135373.33 203.49
-9755374.12 5135374.20 203.47
-9755373.48 5135373.30 202.72
-9755375.94 5135372.87 207.05
-9755373.56 5135374.87 203.49
-9755365.19 5135374.99 192.32
-9755367.74 5135374.03 181.69
-9755366.85 5135368.97 181.63
-9755365.37 5135371.64 181.63
-9755369.30 5135375.86 192.31
-9755365.38 5135372.54 181.63
-9755365.95 5135372.29 181.65
-9755366.94 5135377.34 192.34
-9755362.98 5135374.92 192.69
-9755373.54 5135375.67 204.14
-9755368.52 5135373.96 190.52
-9755364.47 5135375.25 181.73
-9755370.08 5135373.97 191.34
-9755363.93 5135374.51 191.59
-9755366.91 5135374.01 181.67
-9755366.66 5135374.16 192.87
-9755369.34 5135374.08 192.34
-9755368.44 5135373.55 191.88
-9755367.53 5135374.05 193.33
-9755364.14 5135374.74 189.82
-9755363.55 5135375.08 181.69
-9755365.19 5135374.62 193.32
-9755366.35 5135367.56 181.61
-9755366.25 5135371.37 181.64
-9755366.25 5135374.67 181.69
-9755366.93 5135368.43 181.62
-9755368.66 5135369.90 181.65
-9755364.64 5135374.14 192.23
-9755368.65 5135373.36 182.37
-9755363.85 5135374.44 192.15
-9755364.26 5135374.83 181.68
-9755364.51 5135369.90 181.61
-9755367.79 5135367.50 181.61
-9755367.54 5135373.94 192.58
-9755362.98 5135374.77 182.34
-9755362.82 5135375.56 192.33
-9755363.43 5135374.93 193.34
-9755363.70 5135377.30 192.32
-9755365.99 5135374.51 189.13
-9755363.05 5135373.34 181.66
-9755372.93 5135376.26 203.41
-9755364.24 5135369.26 181.60
-9755366.96 5135376.74 192.34
-9755362.76 5135367.55 181.58
-9755369.59 5135373.84 189.20
-9755366.31 5135374.20 188.26
-9755367.63 5135374.15 189.39
-9755365.52 5135374.18 193.30
-9755365.40 5135369.63 181.62
-9755362.87 5135374.61 191.38
-9755362.66 5135374.66 181.69
-9755363.94 5135375.48 181.70
-9755368.77 5135373.88 184.83
-9755362.90 5135374.65 187.92
-9755365.96 5135374.45 192.66
-9755364.27 5135374.98 193.31
-9755366.24 5135374.05 181.67
-9755367.55 5135373.88 186.78
-9755362.81 5135374.77 190.39
-9755362.72 5135373.32 181.92
-9755364.97 5135374.39 188.99
-9755362.80 5135374.86 186.43
-9755357.14 5135374.18 182.83
-9755361.80 5135374.75 186.16
-9755360.96 5135373.86 184.96
-9755362.67 5135374.73 182.87
-9755357.93 5135375.69 185.71
-9755358.80 5135374.99 182.54
-9755358.92 5135369.78 181.62
-9755361.36 5135375.20 186.16
-9755361.01 5135375.15 186.75
-9755357.15 5135373.30 182.83
-9755356.24 5135373.37 182.77
-9755354.46 5135371.60 181.51
-9755360.84 5135374.81 184.61
-9755355.39 5135375.72 186.60
-9755361.19 5135375.19 187.87
-9755362.11 5135374.92 181.76
-9755359.57 5135377.56 192.36
-9755361.99 5135374.21 182.04
-9755353.97 5135377.59 192.54
-9755360.12 5135372.60 181.64
-9755357.05 5135375.58 190.56
-9755359.48 5135373.97 181.60
-9755357.63 5135374.83 182.83
-9755360.46 5135375.56 192.37
-9755361.22 5135374.97 181.76
-9755359.51 5135375.31 189.39
-9755359.55 5135375.42 186.87
-9755355.48 5135375.76 192.40
-9755353.48 5135375.99 184.11
-9755353.94 5135368.35 181.57
-9755358.02 5135369.84 181.59
-9755358.58 5135374.03 181.60
-9755357.11 5135372.42 182.80
-9755361.00 5135374.98 192.60
-9755360.06 5135372.70 185.43
-9755359.46 5135375.02 183.68
-9755358.81 5135375.47 187.02
-9755353.57 5135376.36 183.90
-9755356.26 5135370.68 182.78
-9755353.67 5135377.31 192.33
-9755360.20 5135375.05 187.83
-9755357.68 5135375.62 181.66
-9755357.78 5135375.52 192.38
-9755361.28 5135369.89 181.62
-9755357.71 5135374.05 181.63
-9755360.38 5135374.15 184.80
-9755362.23 5135374.80 190.31
-9755356.84 5135375.55 188.90
-9755358.66 5135377.34 192.36
-9755360.42 5135367.76 181.59
-9755359.57 5135375.14 187.57
-9755361.98 5135374.17 182.57
-9755357.74 5135369.20 181.58
-9755360.96 5135374.67 193.33
-9755357.87 5135375.51 193.31
-9755362.14 5135374.86 183.93
-9755356.57 5135375.65 186.42
-9755361.30 5135367.48 181.58
-9755355.38 5135367.75 181.58
-9755355.35 5135370.66 181.54
-9755354.51 5135376.04 183.12
-9755358.68 5135375.60 182.94
-9755361.83 5135372.50 181.70
-9755359.92 5135375.16 190.16
-9755360.53 5135375.01 186.33
-9755360.33 5135375.09 183.00
-9755359.39 5135374.03 184.50
-9755356.95 5135376.71 192.37
-9755353.52 5135376.11 189.85
-9755357.12 5135375.91 182.94
-9755356.07 5135376.42 192.37
-9755360.11 5135377.29 192.34
-9755353.63 5135373.41 181.51
-9755355.96 5135372.44 182.75
-9755356.77 5135375.71 187.70
-9755360.99 5135371.64 181.64
-9755356.27 5135375.89 186.73
-9755357.12 5135373.44 181.66
-9755360.40 5135368.37 181.58
-9755359.03 5135375.11 187.77
-9755360.38 5135373.95 181.64
-9755359.48 5135375.01 185.33
-9755355.44 5135376.44 192.36
-9755360.55 5135375.06 184.55
-9755353.68 5135376.34 187.12
-9755361.58 5135371.89 181.65
-9755361.01 5135374.16 182.94
-9755361.26 5135372.52 181.69
-9755352.98 5135375.93 192.20
-9755357.19 5135368.97 181.56
-9755362.70 5135375.02 183.85
-9755352.79 5135376.46 183.50
-9755355.65 5135369.83 181.55
-9755355.13 5135375.73 186.79
-9755357.17 5135371.88 181.59
-9755356.29 5135376.40 193.29
-9755360.38 5135375.29 187.46
-9755353.73 5135375.70 182.75
-9755357.16 5135374.77 181.61
-9755353.46 5135375.91 186.09
-9755361.93 5135375.47 193.35
-9755362.11 5135375.07 192.84
-9755353.10 5135373.31 182.77
-9755360.36 5135375.49 187.74
-9755362.13 5135369.22 181.59
-9755358.19 5135376.44 193.42
-9755353.25 5135376.01 184.05
-9755356.24 5135374.24 182.80
-9755352.70 5135375.70 181.57
-9755359.73 5135375.09 186.18
-9755359.91 5135375.30 190.78
-9755353.38 5135376.09 186.94
-9755352.76 5135372.43 182.29
-9755354.51 5135375.93 182.28
-9755355.43 5135369.58 182.81
-9755358.08 5135375.30 187.03
-9755355.37 5135371.89 182.24
-9755361.51 5135374.96 190.96
-9755358.66 5135375.17 184.43
-9755357.73 5135371.87 181.63
-9755356.85 5135372.59 181.59
-9755356.52 5135375.95 190.13
-9755357.18 5135374.10 181.65
-9755357.57 5135375.48 187.55
-9755356.62 5135375.92 184.89
-9755349.84 5135378.16 192.35
-9755349.53 5135379.07 192.34
-9755350.42 5135379.02 192.34
-9755348.07 5135378.10 192.37
-9755352.08 5135389.84 189.01
-9755352.16 5135379.95 192.33
-9755351.24 5135383.16 192.37
-9755351.27 5135384.06 192.37
-9755351.23 5135385.59 192.39
-9755351.18 5135389.57 189.01
-9755352.08 5135390.43 189.01
-9755350.53 5135385.65 203.04
-9755350.44 5135385.58 192.40
-9755350.39 5135381.44 192.34
-9755350.27 5135386.69 192.72
-9755352.19 5135382.26 192.37
-9755350.70 5135383.19 192.36
-9755351.33 5135385.62 203.08
-9755349.72 5135391.33 189.03
-9755351.30 5135382.31 192.36
-9755351.31 5135384.97 192.41
-9755349.75 5135392.22 189.01
-9755349.34 5135385.96 203.06
-9755348.80 5135396.36 189.03
-9755350.39 5135381.21 193.95
-9755350.46 5135386.13 192.42
-9755350.09 5135381.88 194.09
-9755349.59 5135386.43 203.64
-9755347.95 5135390.43 189.03
-9755348.01 5135386.61 192.40
-9755348.84 5135391.61 189.03
-9755347.20 5135379.90 192.35
-9755347.97 5135389.56 189.03
-9755348.84 5135388.94 189.03
-9755348.86 5135389.83 189.03
-9755348.89 5135390.49 189.03
-9755347.12 5135380.76 192.33
-9755347.10 5135389.81 189.02
-9755348.98 5135385.96 203.03
-9755347.71 5135386.14 203.54
-9755347.94 5135386.95 192.43
-9755347.15 5135382.24 192.36
-9755348.40 5135381.34 194.03
-9755347.22 5135383.18 192.38
-9755347.14 5135381.58 192.71
-9755347.14 5135386.65 192.47
-9755347.22 5135387.30 203.04
-9755347.88 5135382.96 203.62
-9755346.98 5135380.73 192.67
-9755349.43 5135393.10 189.02
-9755350.60 5135393.74 188.99
-9755352.08 5135393.11 188.99
-9755352.02 5135394.63 188.97
-9755347.06 5135394.60 188.99
-9755348.83 5135392.83 189.02
-9755347.03 5135393.71 189.01
-9755338.60 5135378.14 192.84
-9755340.68 5135379.28 192.33
-9755338.58 5135378.27 189.34
-9755339.81 5135378.30 193.30
-9755337.43 5135378.27 182.23
-9755343.98 5135378.70 192.54
-9755341.51 5135378.01 188.10
-9755344.81 5135379.03 192.35
-9755337.28 5135378.46 185.41
-9755340.34 5135378.08 186.84
-9755337.17 5135378.95 192.39
-9755336.45 5135378.47 185.73
-9755338.86 5135378.03 185.72
-9755339.75 5135378.33 182.32
-9755339.74 5135378.07 188.67
-9755338.35 5135378.05 193.30
-9755341.53 5135377.91 184.29
-9755345.29 5135377.95 193.28
-9755340.58 5135377.95 187.83
-9755341.56 5135377.97 186.42
-9755338.27 5135378.26 184.58
-9755341.34 5135377.97 191.59
-9755339.95 5135378.09 185.65
-9755343.06 5135379.00 192.34
-9755340.80 5135377.88 184.25
-9755338.22 5135378.01 181.60
-9755338.64 5135378.51 185.88
-9755341.68 5135377.90 190.30
-9755336.15 5135378.80 181.67
-9755336.29 5135378.86 185.75
-9755340.70 5135377.87 189.88
-9755335.55 5135378.03 181.59
-9755333.82 5135378.18 183.86
-9755330.01 5135377.96 181.58
-9755335.57 5135378.83 181.60
-9755330.74 5135378.01 183.40
-9755331.71 5135377.96 181.55
-9755331.20 5135379.08 182.94
-9755334.22 5135379.13 184.77
-9755331.75 5135378.93 181.55
-9755334.78 5135378.80 188.88
-9755332.92 5135378.24 181.54
-9755333.73 5135378.88 187.91
-9755332.33 5135379.09 191.86
-9755334.72 5135378.34 182.78
-9755332.95 5135378.81 181.53
-9755334.78 5135378.89 193.32
-9755331.97 5135379.02 183.60
-9755326.44 5135377.94 181.60
-9755330.00 5135379.08 183.50
-9755331.47 5135377.09 181.56
-9755334.97 5135378.86 187.93
-9755332.10 5135378.50 182.51
-9755332.97 5135379.09 188.59
-9755330.87 5135378.47 183.37
-9755335.55 5135378.14 193.23
-9755325.81 5135378.85 181.61
-9755330.57 5135379.10 181.54
-9755334.45 5135379.04 185.66
-9755344.79 5135386.40 192.41
-9755344.72 5135390.42 189.01
-9755339.72 5135386.64 192.37
-9755346.32 5135383.05 193.97
-9755346.22 5135387.94 189.38
-9755337.37 5135390.63 189.04
-9755341.25 5135386.64 192.41
-9755338.29 5135386.37 192.41
-9755342.34 5135391.33 189.00
-9755338.79 5135386.34 192.42
-9755338.00 5135384.62 192.39
-9755346.22 5135379.92 192.40
-9755342.10 5135386.41 192.39
-9755339.81 5135389.15 192.59
-9755336.25 5135383.09 192.36
-9755343.90 5135384.85 192.39
-9755346.20 5135390.42 189.01
-9755336.81 5135387.23 192.63
-9755336.52 5135384.02 192.38
-9755337.12 5135382.22 192.36
-9755343.05 5135382.89 192.36
-9755340.58 5135390.43 189.01
-9755339.48 5135387.18 192.39
-9755341.98 5135387.47 192.60
-9755340.47 5135387.06 194.33
-9755341.22 5135384.01 192.37
-9755343.94 5135379.63 192.34
-9755343.82 5135389.88 189.02
-9755346.57 5135379.83 192.83
-9755343.07 5135379.89 192.33
-9755339.10 5135387.24 192.40
-9755337.12 5135385.48 192.40
-9755343.69 5135387.99 191.58
-9755337.79 5135387.74 192.42
-9755336.38 5135391.55 189.02
-9755345.33 5135386.42 192.41
-9755337.23 5135384.47 203.58
-9755344.76 5135383.09 193.98
-9755344.81 5135384.01 194.01
-9755345.59 5135392.23 189.01
-9755344.59 5135382.12 193.97
-9755340.24 5135387.51 192.44
-9755337.15 5135386.37 192.38
-9755342.17 5135385.50 192.40
-9755338.86 5135384.01 192.39
-9755337.43 5135380.72 192.35
-9755343.82 5135385.53 192.40
-9755336.77 5135378.48 191.59
-9755338.91 5135379.60 192.34
-9755340.54 5135387.49 192.41
-9755345.28 5135387.24 192.42
-9755344.77 5135385.74 192.41
-9755337.96 5135387.18 192.42
-9755346.69 5135381.46 192.34
-9755338.70 5135384.04 203.59
-9755345.03 5135386.84 203.09
-9755345.43 5135380.75 193.96
-9755343.94 5135382.52 192.36
-9755341.31 5135384.96 203.58
-9755343.98 5135383.44 203.57
-9755345.29 5135379.32 193.97
-9755346.88 5135379.95 192.83
-9755345.77 5135379.65 192.85
-9755337.55 5135387.62 203.09
-9755341.46 5135387.08 192.36
-9755336.51 5135381.31 192.35
-9755343.13 5135384.60 203.77
-9755335.75 5135387.74 203.06
-9755338.10 5135386.06 203.47
-9755335.61 5135384.00 192.37
-9755331.57 5135387.16 192.41
-9755335.60 5135386.68 192.40
-9755335.88 5135387.20 192.40
-9755333.17 5135392.42 189.02
-9755335.69 5135380.73 192.37
-9755332.42 5135382.19 192.36
-9755333.28 5135384.01 192.38
-9755331.75 5135379.29 191.08
-9755328.50 5135379.70 187.83
-9755325.84 5135388.42 192.59
-9755324.77 5135386.26 193.66
-9755329.07 5135388.96 193.07
-9755324.22 5135380.67 192.37
-9755331.24 5135379.79 192.39
-9755324.12 5135388.07 192.37
-9755324.14 5135388.96 192.38
-9755335.64 5135384.89 192.38
-9755325.05 5135389.52 192.75
-9755331.42 5135388.24 203.07
-9755334.75 5135381.61 192.37
-9755327.07 5135388.43 192.78
-9755335.02 5135383.13 192.36
-9755333.22 5135386.67 192.41
-9755325.08 5135382.95 193.54
-9755324.71 5135388.94 192.36
-9755323.26 5135383.90 193.30
-9755329.93 5135379.58 186.54
-9755330.69 5135379.29 190.09
-9755326.61 5135388.05 192.41
-9755325.93 5135384.81 192.37
-9755324.10 5135387.18 192.37
-9755335.54 5135392.14 189.03
-9755329.17 5135384.81 192.38
-9755327.39 5135379.74 191.83
-9755333.52 5135388.63 192.41
-9755333.83 5135387.22 192.39
-9755334.71 5135386.36 192.40
-9755334.74 5135385.47 192.39
-9755327.63 5135388.98 192.45
-9755332.38 5135387.28 192.39
-9755328.89 5135392.31 190.06
-9755324.75 5135387.17 192.38
-9755332.42 5135381.61 192.37
-9755325.14 5135390.38 231.59
-9755331.19 5135389.01 192.44
-9755330.59 5135388.14 192.41
-9755328.25 5135384.51 192.37
-9755325.64 5135386.23 193.64
-9755325.01 5135385.65 193.42
-9755325.06 5135383.86 193.39
-9755324.77 5135383.95 192.34
-9755328.90 5135387.96 192.75
-9755335.66 5135379.84 192.37
-9755324.96 5135387.99 203.61
-9755331.42 5135379.30 184.74
-9755325.09 5135380.19 191.28
-9755323.78 5135390.74 231.64
-9755324.12 5135388.72 230.18
-9755324.80 5135380.10 186.56
-9755330.63 5135385.72 192.40
-9755334.77 5135382.17 192.35
-9755325.03 5135387.10 193.66
-9755327.36 5135388.08 192.40
-9755323.86 5135384.76 193.38
-9755332.63 5135379.29 185.85
-9755325.53 5135383.34 192.37
-9755326.82 5135385.69 192.36
-9755326.42 5135379.90 181.60
-9755328.85 5135379.45 181.53
-9755328.58 5135379.52 184.60
-9755331.00 5135388.25 203.06
-9755328.22 5135387.97 193.06
-9755329.11 5135392.08 189.01
-9755325.08 5135384.75 193.42
-9755329.12 5135389.05 192.43
-9755326.79 5135384.80 192.36
-9755330.70 5135388.26 203.47
-9755329.72 5135384.81 192.36
-9755326.78 5135387.24 192.37
-9755325.64 5135380.65 192.33
-9755325.45 5135386.27 203.52
-9755325.59 5135388.91 193.49
-9755327.69 5135379.36 183.46
-9755325.68 5135380.07 193.30
-9755323.28 5135386.60 192.37
-9755334.65 5135388.31 208.50
-9755329.74 5135388.09 192.41
-9755329.14 5135387.80 192.42
-9755328.88 5135379.82 184.50
-9755335.89 5135388.20 192.44
-9755329.13 5135383.94 192.36
-9755331.98 5135379.20 184.43
-9755323.21 5135388.35 192.35
-9755333.86 5135383.07 192.36
-9755329.07 5135379.63 183.47
-9755335.02 5135387.22 192.39
-9755326.51 5135383.05 192.36
-9755329.79 5135388.92 208.49
-9755329.28 5135379.79 187.50
-9755329.73 5135385.73 192.37
-9755326.69 5135387.28 193.65
-9755323.87 5135385.32 192.50
-9755329.74 5135383.07 192.35
-9755335.46 5135388.71 192.59
-9755328.19 5135379.72 181.53
-9755323.92 5135379.93 193.30
-9755334.16 5135388.15 192.38
-9755326.53 5135380.38 192.35
-9755335.66 5135382.22 192.36
-9755328.96 5135379.53 186.46
-9755331.51 5135381.59 192.37
-9755325.01 5135390.38 192.42
-9755334.16 5135386.41 192.39
-9755327.38 5135385.44 192.37
-9755327.58 5135392.08 189.03
-9755324.93 5135387.48 203.65
-9755329.20 5135379.14 192.05
-9755332.46 5135379.77 192.41
-9755335.59 5135388.73 192.43
-9755326.48 5135385.75 193.42
-9755324.07 5135380.23 191.13
-9755324.11 5135388.21 225.60
-9755331.81 5135379.20 193.30
-9755329.42 5135379.35 191.56
-9755324.19 5135384.16 193.19
-9755328.17 5135390.60 189.04
-9755325.59 5135388.02 193.69
-9755327.32 5135388.94 192.43
-9755323.89 5135386.64 203.60
-9755327.63 5135379.75 181.57
-9755333.29 5135385.24 203.56
-9755328.27 5135379.66 183.44
-9755330.68 5135379.24 186.55
-9755323.26 5135389.86 192.72
-9755332.14 5135380.71 192.39
-9755322.97 5135383.23 192.34
-9755335.52 5135388.04 208.46
-9755324.91 5135380.31 191.58
-9755332.38 5135383.95 192.38
-9755330.38 5135388.52 203.52
-9755327.38 5135383.01 192.34
-9755323.21 5135387.16 192.38
-9755323.25 5135390.60 231.26
-9755324.14 5135389.01 208.47
-9755331.54 5135379.61 181.56
-9755323.35 5135390.20 232.42
-9755326.63 5135379.80 191.55
-9755331.45 5135379.32 188.62
-9755332.14 5135379.17 193.29
-9755334.68 5135391.10 190.31
-9755329.65 5135379.51 181.57
-9755330.26 5135379.44 190.99
-9755327.02 5135380.09 185.75
-9755329.59 5135387.21 203.60
-9755330.55 5135379.44 187.22
-9755324.61 5135387.71 192.99
-9755329.32 5135379.86 191.55
-9755331.44 5135379.27 185.69
-9755328.25 5135392.34 190.12
-9755323.70 5135380.19 189.89
-9755329.93 5135379.46 187.33
-9755325.80 5135379.43 182.30
-9755326.52 5135386.61 192.39
-9755330.10 5135379.58 185.72
-9755326.83 5135379.82 187.85
-9755324.33 5135389.11 225.69
-9755324.75 5135389.11 225.72
-9755327.49 5135387.77 203.52
-9755330.41 5135379.41 187.44
-9755323.16 5135379.67 181.66
-9755323.98 5135388.71 218.23
-9755334.11 5135388.75 192.38
-9755326.97 5135379.92 190.40
-9755329.85 5135379.58 188.15
-9755324.73 5135388.76 227.93
-9755333.07 5135385.02 203.60
-9755322.97 5135386.49 192.77
-9755333.11 5135388.10 203.08
-9755324.58 5135389.25 203.73
-9755338.76 5135395.43 188.97
-9755339.68 5135394.57 188.98
-9755344.07 5135395.44 188.95
-9755341.44 5135395.72 188.94
-9755342.93 5135393.06 188.98
-9755339.71 5135393.03 188.99
-9755344.72 5135393.09 188.99
-9755336.44 5135394.52 189.01
-9755326.46 5135392.44 190.12
-9755331.41 5135393.94 189.01
-9755335.56 5135394.56 189.02
-9755335.54 5135393.90 189.04
-9755333.22 5135394.50 189.01
-9755325.79 5135395.61 189.00
-9755331.44 5135394.82 189.00
-9755323.16 5135394.42 189.02
-9755334.98 5135395.42 189.01
-9755329.14 5135392.97 190.07
-9755324.96 5135394.76 189.01
-9755326.42 5135395.37 188.99
-9755334.06 5135394.81 189.01
-9755326.45 5135392.93 190.13
-9755351.29 5135377.56 192.35
-9755351.49 5135372.47 182.75
-9755350.56 5135376.29 181.66
-9755350.60 5135374.18 182.76
-9755350.27 5135376.54 186.11
-9755349.57 5135376.50 183.69
-9755352.12 5135371.04 181.53
-9755350.35 5135376.40 185.58
-9755349.47 5135370.72 181.69
-9755351.29 5135376.45 184.80
-9755352.09 5135376.47 183.87
-9755350.31 5135376.56 182.88
-9755349.51 5135377.28 192.53
-9755350.41 5135376.58 193.29
-9755350.72 5135371.29 182.80
-9755350.40 5135371.73 183.74
-9755351.25 5135372.40 181.79
-9755351.86 5135373.35 181.56
-9755349.79 5135376.38 182.90
-9755353.03 5135374.82 181.53
-9755353.03 5135376.02 182.50
-9755351.27 5135376.42 182.89
-9755349.45 5135374.81 181.53
-9755352.14 5135376.32 182.32
-9755350.90 5135375.74 181.62
-9755350.48 5135376.78 186.87
-9755350.38 5135370.86 183.73
-9755349.45 5135368.11 183.75
-9755351.82 5135376.34 181.63
-9755352.18 5135376.23 182.72
-9755352.09 5135376.00 181.60
-9755349.43 5135376.54 181.65
-9755352.13 5135374.88 181.51
-9755352.63 5135376.14 189.39
-9755350.33 5135375.42 181.56
-9755352.76 5135376.24 182.44
-9755351.24 5135371.79 183.74
-9755351.91 5135376.36 185.71
-9755352.79 5135371.84 182.26
-9755351.56 5135376.57 187.86
-9755352.44 5135376.13 183.55
-9755352.20 5135376.12 188.20
-9755351.91 5135371.88 182.28
-9755349.75 5135376.89 182.42
-9755349.49 5135377.18 193.30
-9755348.87 5135376.69 185.54
-9755347.97 5135375.69 181.57
-9755349.08 5135376.57 187.88
-9755348.00 5135370.80 182.68
-9755348.86 5135374.18 182.77
-9755348.76 5135376.62 183.20
-9755348.59 5135375.74 181.57
-9755347.09 5135374.11 182.77
-9755348.61 5135372.29 183.72
-9755348.60 5135368.35 183.77
-9755348.66 5135367.33 182.84
-9755347.12 5135373.47 183.72
-9755349.13 5135371.24 182.82
-9755348.08 5135376.97 183.39
-9755347.16 5135376.80 182.32
-9755348.62 5135370.69 181.71
-9755340.54 5135377.10 181.56
-9755338.85 5135377.11 181.57
-9755346.27 5135370.04 181.56
-9755343.07 5135377.38 184.27
-9755346.24 5135369.17 181.55
-9755338.05 5135375.86 182.79
-9755345.39 5135377.17 193.32
-9755344.81 5135377.23 193.33
-9755338.86 5135370.91 181.55
-9755346.36 5135377.47 185.13
-9755345.36 5135377.43 181.87
-9755346.25 5135376.52 181.62
-9755338.89 5135372.38 181.71
-9755338.00 5135372.44 181.72
-9755346.27 5135377.03 182.81
-9755344.75 5135376.55 181.57
-9755345.73 5135377.45 181.64
-9755341.53 5135369.04 183.75
-9755340.62 5135376.56 181.58
-9755336.23 5135374.06 183.74
-9755338.30 5135370.01 181.56
-9755340.60 5135373.18 183.73
-9755337.12 5135371.51 181.58
-9755337.98 5135370.62 181.57
-9755344.79 5135367.62 183.73
-9755344.70 5135377.26 185.39
-9755345.36 5135376.56 181.60
-9755348.20 5135376.92 188.98
-9755341.51 5135376.29 181.57
-9755339.82 5135367.54 183.73
-9755342.45 5135372.05 181.73
-9755345.29 5135377.41 182.92
-9755342.94 5135374.12 183.75
-9755346.26 5135377.31 189.71
-9755337.96 5135375.17 182.12
-9755338.88 5135370.02 181.54
-9755336.47 5135366.55 182.26
-9755342.96 5135374.97 182.78
-9755342.37 5135376.52 181.55
-9755337.37 5135374.06 183.73
-9755338.04 5135366.66 183.72
-9755337.97 5135374.93 183.74
-9755339.43 5135371.46 181.56
-9755342.09 5135377.76 188.42
-9755336.56 5135368.96 183.73
-9755343.69 5135377.34 192.75
-9755337.31 5135368.39 182.95
-9755336.47 5135376.83 181.56
-9755338.48 5135369.13 181.57
-9755343.71 5135377.34 181.56
-9755345.37 5135377.24 185.65
-9755342.37 5135377.35 184.29
-9755345.67 5135370.90 183.75
-9755337.36 5135376.54 181.56
-9755337.34 5135367.54 183.79
-9755345.70 5135377.26 186.53
-9755345.32 5135375.69 181.56
-9755338.90 5135373.46 183.74
-9755344.82 5135377.28 191.26
-9755336.56 5135372.53 183.77
-9755337.14 5135369.99 183.78
-9755339.42 5135372.06 181.72
-9755342.70 5135377.76 188.25
-9755344.78 5135377.44 181.60
-9755344.83 5135374.48 182.79
-9755346.28 5135366.74 183.72
-9755342.50 5135377.69 189.39
-9755343.94 5135377.52 186.21
-9755346.36 5135377.34 181.65
-9755341.55 5135377.31 184.27
-9755345.19 5135377.42 190.47
-9755343.08 5135377.72 189.31
-9755337.34 5135375.67 181.56
-9755346.30 5135376.89 186.29
-9755336.80 5135374.87 182.76
-9755345.04 5135377.37 188.10
-9755346.31 5135367.88 181.63
-9755346.16 5135371.08 182.79
-9755341.30 5135377.33 192.31
-9755342.59 5135377.59 190.20
-9755337.76 5135372.30 181.73
-9755345.64 5135371.26 181.69
-9755336.52 5135372.56 181.75
-9755336.28 5135367.28 182.33
-9755328.20 5135377.63 181.55
-9755334.45 5135376.51 181.58
-9755328.88 5135371.55 184.50
-9755333.34 5135367.47 183.73
-9755329.75 5135366.63 182.89
-9755323.86 5135372.26 181.63
-9755326.42 5135377.39 181.58
-9755329.78 5135367.90 182.21
-9755335.11 5135368.89 181.46
-9755334.24 5135374.39 183.76
-9755329.92 5135366.57 182.04
-9755325.00 5135373.75 181.58
-9755332.06 5135369.92 181.62
-9755329.96 5135370.84 181.71
-9755327.20 5135370.05 184.51
-9755330.61 5135369.08 181.63
-9755334.43 5135377.50 183.72
-9755334.79 5135367.26 183.73
-9755331.38 5135374.31 184.26
-9755330.02 5135371.62 184.49
-9755332.09 5135372.31 181.62
-9755325.02 5135375.61 181.56
-9755329.15 5135373.95 184.49
-9755331.10 5135374.60 182.50
-9755325.60 5135368.44 181.60
-9755326.46 5135369.92 181.61
-9755330.60 5135374.73 182.40
-9755335.67 5135375.96 181.56
-9755331.12 5135375.10 183.44
-9755329.13 5135370.65 185.41
-9755331.78 5135372.30 181.62
-9755325.03 5135369.94 181.61
-9755323.20 5135376.44 181.66
-9755331.76 5135371.75 181.64
-9755332.12 5135368.19 181.62
-9755329.18 5135368.95 181.79
-9755330.85 5135373.52 181.65
-9755324.11 5135374.66 181.64
-9755330.68 5135370.09 184.43
-9755323.29 5135370.84 181.64
-9755334.22 5135366.98 183.76
-9755329.13 5135366.68 181.69
-9755325.87 5135374.98 181.56
-9755332.90 5135377.35 181.59
-9755330.92 5135374.66 183.57
-9755335.04 5135367.26 181.71
-9755327.33 5135376.49 181.55
-9755324.99 5135377.33 181.60
-9755328.88 5135368.30 184.49
-9755330.00 5135372.29 181.70
-9755330.24 5135370.38 182.27
-9755328.87 5135367.32 181.71
-9755329.21 5135369.82 185.39
-9755330.23 5135373.84 181.61
-9755327.10 5135366.55 183.07
-9755330.06 5135369.92 181.66
-9755330.31 5135370.75 182.19
-9755326.84 5135367.75 184.46
-9755322.98 5135368.19 181.65
-9755323.27 5135367.50 181.66
-9755328.33 5135366.68 181.98
-9755327.28 5135367.83 183.70
-9755327.69 5135373.11 184.49
-9755335.08 5135366.76 181.61
-9755326.83 5135366.52 183.82
-9755330.88 5135369.95 181.62
-9755321.68 5135378.88 184.71
-9755320.57 5135378.23 181.68
-9755320.59 5135378.09 185.72
-9755321.67 5135377.95 181.67
-9755322.62 5135378.83 181.67
-9755321.71 5135378.83 181.68
-9755320.78 5135379.27 185.44
-9755323.26 5135386.41 193.48
-9755323.19 5135380.78 181.65
-9755323.40 5135380.04 192.26
-9755322.95 5135390.79 230.09
-9755322.49 5135390.03 232.15
-9755323.18 5135388.63 227.88
-9755323.13 5135387.68 213.35
-9755323.50 5135380.44 189.64
-9755322.37 5135381.24 192.37
-9755322.36 5135383.28 193.33
-9755322.44 5135380.62 192.38
-9755322.36 5135382.16 192.37
-9755321.50 5135389.79 230.79
-9755320.86 5135388.85 192.99
-9755320.85 5135386.64 192.81
-9755320.90 5135387.27 193.45
-9755322.31 5135388.33 192.66
-9755320.80 5135380.00 186.25
-9755322.39 5135383.31 192.34
-9755320.91 5135382.41 192.73
-9755322.46 5135387.30 193.64
-9755323.07 5135387.86 203.58
-9755320.81 5135389.79 192.72
-9755322.32 5135380.82 181.67
-9755320.69 5135389.71 232.14
-9755320.93 5135380.57 185.32
-9755322.40 5135380.89 193.28
-9755320.45 5135388.20 232.13
-9755321.67 5135380.60 192.87
-9755322.28 5135379.94 181.67
-9755321.74 5135379.72 181.67
-9755320.83 5135379.10 181.70
-9755321.17 5135382.42 192.40
-9755321.27 5135389.74 230.23
-9755320.58 5135388.93 230.21
-9755321.58 5135387.50 208.23
-9755321.75 5135380.42 184.72
-9755322.42 5135382.38 193.28
-9755322.36 5135382.35 192.79
-9755320.83 5135379.59 184.70
-9755321.74 5135380.57 181.67
-9755320.55 5135388.21 223.18
-9755320.84 5135388.21 225.60
-9755321.83 5135389.61 208.45
-9755321.36 5135387.73 208.29
-9755320.84 5135380.16 185.32
-9755322.42 5135389.59 227.91
-9755322.38 5135389.54 192.39
-9755321.80 5135380.58 189.84
-9755321.53 5135380.35 185.31
-9755321.48 5135382.12 192.36
-9755320.94 5135379.71 181.71
-9755320.66 5135380.78 188.81
-9755320.56 5135386.57 192.41
-9755322.16 5135380.17 192.25
-9755320.82 5135389.98 230.49
-9755322.07 5135388.99 231.97
-9755320.70 5135387.52 224.40
-9755321.17 5135389.63 227.92
-9755322.69 5135388.06 232.02
-9755322.35 5135380.42 184.71
-9755320.82 5135394.76 189.01
-9755321.68 5135393.82 189.02
-9755322.56 5135392.93 189.03
-9755322.58 5135395.63 189.03
-9755322.30 5135393.89 189.03
-9755320.25 5135378.92 184.54
-9755319.12 5135378.32 186.23
-9755315.93 5135378.24 186.28
-9755312.37 5135378.21 186.34
-9755317.36 5135378.86 186.25
-9755311.48 5135378.26 186.36
-9755316.73 5135378.23 186.27
-9755316.48 5135377.36 186.26
-9755320.32 5135378.69 181.70
-9755318.50 5135377.38 186.23
-9755310.29 5135378.19 186.37
-9755319.93 5135377.45 185.45
-9755320.00 5135390.05 192.67
-9755319.11 5135380.04 186.23
-9755314.99 5135381.71 190.71
-9755314.08 5135380.59 186.31
-9755319.99 5135384.77 192.35
-9755314.99 5135387.34 193.94
-9755317.58 5135381.47 192.78
-9755315.90 5135386.56 192.35
-9755320.01 5135379.76 186.25
-9755315.86 5135388.33 192.40
-9755315.85 5135387.22 192.40
-9755319.16 5135386.59 192.36
-9755315.26 5135386.12 192.38
-9755313.86 5135390.80 203.60
-9755315.91 5135382.99 192.34
-9755315.22 5135385.66 194.49
-9755314.14 5135384.03 195.10
-9755314.78 5135391.34 202.96
-9755312.62 5135388.27 192.38
-9755314.13 5135389.52 202.99
-9755315.66 5135384.77 192.34
-9755313.49 5135383.07 192.79
-9755313.58 5135386.04 193.64
-9755312.36 5135380.54 186.34
-9755315.88 5135384.19 192.30
-9755313.88 5135381.73 192.75
-9755310.01 5135383.81 192.38
-9755315.29 5135385.50 193.88
-9755313.53 5135386.52 192.36
-9755318.21 5135386.24 192.36
-9755313.27 5135385.65 192.35
-9755316.58 5135389.02 202.97
-9755313.27 5135383.80 192.37
-9755317.37 5135386.25 192.36
-9755315.10 5135390.42 203.02
-9755317.35 5135387.17 192.38
-9755314.40 5135381.51 190.77
-9755313.59 5135381.58 192.37
-9755313.47 5135380.62 186.32
-9755311.17 5135381.49 186.38
-9755315.97 5135381.50 187.67
-9755319.06 5135380.57 186.25
-9755312.60 5135386.49 192.36
-9755311.77 5135383.26 192.36
-9755314.96 5135385.05 192.36
-9755315.22 5135386.13 193.98
-9755314.96 5135384.00 193.63
-9755312.37 5135383.46 195.08
-9755316.79 5135380.00 186.26
-9755317.65 5135380.61 186.26
-9755319.70 5135380.65 192.92
-9755309.94 5135381.48 186.39
-9755312.17 5135381.92 189.09
-9755311.72 5135381.46 186.36
-9755315.88 5135389.68 192.47
-9755313.45 5135387.23 194.61
-9755317.65 5135381.51 186.24
-9755313.17 5135389.69 192.38
-9755310.90 5135382.35 186.41
-9755319.84 5135381.01 189.05
-9755315.16 5135389.16 203.51
-9755311.20 5135390.46 192.44
-9755319.91 5135388.93 192.76
-9755316.76 5135388.04 192.38
-9755317.35 5135381.38 187.70
-9755314.82 5135385.60 191.81
