-9755336.90 5135284.34 182.47
-9755337.37 5135285.39 186.79
-9755337.02 5135284.14 185.78
-9755342.06 5135281.23 181.37
-9755336.61 5135283.22 189.64
-9755336.95 5135277.79 189.84
-9755337.03 5135277.70 186.86
-9755336.80 5135284.72 182.23
-9755328.91 5135279.24 190.05
-9755335.66 5135281.03 190.15
-9755336.70 5135280.86 181.59
-9755336.59 5135278.70 181.63
-9755329.16 5135285.13 190.09
-9755336.55 5135284.97 183.08
-9755325.05 5135280.12 190.05
-9755331.51 5135283.67 190.10
-9755331.53 5135278.66 190.09
-9755329.77 5135284.28 190.09
-9755334.76 5135284.31 190.13
-9755336.85 5135281.99 182.91
-9755326.49 5135284.27 190.07
-9755326.50 5135281.02 190.04
-9755334.76 5135283.69 190.14
-9755335.66 5135279.26 190.19
-9755336.77 5135281.17 182.87
-9755335.63 5135282.85 190.14
-9755331.51 5135282.53 190.07
-9755332.41 5135282.53 190.10
-9755328.01 5135283.65 190.08
-9755336.64 5135278.46 190.30
-9755330.05 5135280.13 190.06
-9755329.19 5135278.64 190.05
-9755328.31 5135279.26 190.05
-9755330.66 5135278.69 190.07
-9755336.44 5135284.45 186.94
-9755334.16 5135279.28 190.15
-9755336.49 5135281.01 189.64
-9755333.26 5135283.43 190.12
-9755336.42 5135281.86 182.18
-9755336.51 5135277.60 186.94
-9755324.99 5135282.50 190.05
-9755333.01 5135277.75 190.18
-9755327.36 5135286.06 190.10
-9755323.91 5135280.97 190.03
-9755336.52 5135279.19 182.05
-9755336.52 5135280.93 186.93
-9755330.03 5135285.16 190.11
-9755336.55 5135278.66 186.90
-9755336.67 5135283.35 184.03
-9755333.87 5135286.07 190.13
-9755336.55 5135280.32 181.59
-9755327.43 5135281.02 190.04
-9755335.70 5135277.77 190.25
-9755336.77 5135284.40 181.62
-9755330.63 5135277.76 190.10
-9755333.25 5135285.79 190.13
-9755327.36 5135280.12 190.05
-9755335.67 5135280.16 181.67
-9755336.73 5135278.26 185.80
-9755336.48 5135279.43 186.91
-9755334.18 5135280.12 190.13
-9755336.73 5135285.24 181.60
-9755336.71 5135282.01 181.59
-9755336.66 5135281.93 189.49
-9755329.19 5135283.68 190.09
-9755336.52 5135284.12 183.03
-9755335.98 5135284.10 186.99
-9755336.75 5135282.24 183.41
-9755333.01 5135280.15 190.10
-9755334.05 5135284.83 181.47
-9755336.80 5135285.75 189.86
-9755336.70 5135282.92 184.50
-9755330.61 5135285.76 190.12
-9755335.64 5135284.30 190.13
-9755326.53 5135278.60 190.03
-9755323.85 5135285.13 190.08
-9755336.49 5135283.94 183.46
-9755336.83 5135285.22 186.14
-9755329.76 5135285.73 190.11
-9755328.88 5135277.73 190.06
-9755336.51 5135283.14 186.91
-9755336.49 5135277.63 181.67
-9755336.55 5135284.87 183.44
-9755325.61 5135286.05 190.10
-9755336.02 5135280.51 186.95
-9755336.80 5135282.69 188.28
-9755336.78 5135285.80 182.98
-9755336.00 5135277.83 186.89
-9755336.45 5135279.24 182.55
-9755336.73 5135283.65 186.00
-9755336.74 5135283.52 181.63
-9755336.57 5135285.89 183.45
-9755342.08 5135292.58 183.01
-9755341.45 5135292.75 182.26
-9755336.70 5135286.07 182.33
-9755342.03 5135292.43 182.30
-9755337.21 5135288.34 183.03
-9755341.49 5135294.11 183.03
-9755338.16 5135290.11 181.49
-9755337.31 5135289.14 182.32
-9755339.98 5135288.31 181.45
-9755339.05 5135290.09 181.47
-9755342.97 5135293.36 182.79
-9755343.79 5135293.33 182.98
-9755336.97 5135286.74 183.04
-9755341.08 5135295.74 181.24
-9755337.26 5135289.22 186.34
-9755343.17 5135291.89 181.35
-9755341.67 5135295.13 181.26
-9755338.98 5135294.82 181.37
-9755342.18 5135294.07 183.58
-9755337.25 5135289.18 181.54
-9755342.20 5135291.91 182.47
-9755336.91 5135289.77 186.34
-9755340.72 5135294.20 182.92
-9755337.28 5135287.38 181.55
-9755341.27 5135293.30 183.79
-9755342.19 5135295.01 182.84
-9755342.88 5135292.44 183.77
-9755342.02 5135287.10 181.38
-9755340.50 5135294.24 181.38
-9755338.80 5135293.22 182.87
-9755338.18 5135290.96 181.47
-9755337.04 5135288.57 182.09
-9755336.97 5135286.79 181.56
-9755338.12 5135296.58 181.30
-9755337.13 5135287.52 186.85
-9755343.14 5135295.10 181.19
-9755336.81 5135286.84 182.14
-9755339.05 5135288.33 181.47
-9755337.23 5135293.94 182.98
-9755337.06 5135289.84 187.19
-9755337.31 5135289.25 184.96
-9755337.84 5135295.68 181.32
-9755339.63 5135295.09 181.31
-9755337.29 5135288.29 190.32
-9755341.65 5135292.62 183.73
-9755337.10 5135288.54 188.83
-9755337.31 5135288.53 189.45
-9755337.27 5135289.06 190.18
-9755337.11 5135289.70 188.63
-9755343.19 5135288.60 181.36
-9755337.08 5135287.66 186.23
-9755337.03 5135288.60 185.33
-9755339.61 5135294.25 181.43
-9755340.23 5135289.17 181.44
-9755337.05 5135288.97 182.88
-9755341.46 5135291.82 182.47
-9755341.72 5135291.80 182.89
-9755336.97 5135289.97 183.86
-9755340.81 5135287.46 181.42
-9755342.85 5135291.95 181.83
-9755341.43 5135286.78 181.39
-9755337.22 5135288.41 185.93
-9755342.31 5135294.64 183.53
-9755336.65 5135285.63 186.44
-9755343.77 5135289.21 181.36
-9755337.29 5135288.56 183.85
-9755342.22 5135296.03 181.20
-9755344.10 5135287.74 181.32
-9755343.74 5135296.65 181.13
-9755339.10 5135287.70 181.49
-9755337.29 5135289.18 187.93
-9755337.03 5135287.49 190.62
-9755337.27 5135294.19 181.47
-9755336.98 5135286.19 189.79
-9755343.74 5135294.13 183.83
-9755336.49 5135289.33 182.24
-9755337.14 5135287.61 183.38
-9755338.22 5135287.50 181.50
-9755341.72 5135292.91 184.23
-9755336.45 5135290.04 182.12
-9755344.90 5135296.68 181.08
-9755344.29 5135293.70 183.83
-9755336.90 5135286.51 189.35
-9755336.74 5135287.76 182.04
-9755339.62 5135291.83 181.44
-9755339.97 5135293.58 183.10
-9755344.34 5135294.09 183.08
-9755342.60 5135292.80 183.77
-9755336.35 5135289.99 190.21
-9755337.94 5135286.51 181.53
-9755339.92 5135293.26 182.30
-9755337.03 5135289.70 190.63
-9755336.97 5135289.85 185.38
-9755336.45 5135289.90 186.49
-9755336.43 5135293.24 183.00
-9755325.14 5135295.83 182.91
-9755325.78 5135292.61 183.19
-9755334.77 5135286.70 190.13
-9755324.75 5135286.01 190.09
-9755329.93 5135294.43 182.81
-9755325.16 5135294.17 181.63
-9755324.98 5135293.43 182.86
-9755336.80 5135289.45 182.60
-9755326.69 5135289.90 182.29
-9755336.61 5135286.20 181.60
-9755325.76 5135292.54 182.31
-9755324.87 5135290.05 187.09
-9755336.48 5135286.93 183.45
-9755330.57 5135289.82 186.39
-9755332.30 5135289.51 188.68
-9755324.91 5135294.25 184.47
-9755331.56 5135289.93 187.93
-9755325.88 5135289.80 183.70
-9755324.89 5135292.61 182.21
-9755327.56 5135295.94 181.44
-9755328.94 5135289.82 188.82
-9755327.21 5135292.68 181.53
-9755325.46 5135295.00 181.57
-9755334.01 5135292.71 181.48
-9755335.81 5135294.99 182.90
-9755330.53 5135289.29 190.12
-9755328.13 5135289.61 184.09
-9755327.13 5135289.61 188.34
-9755331.65 5135290.94 181.54
-9755330.84 5135289.89 188.75
-9755328.80 5135289.62 189.52
-9755326.64 5135289.91 187.80
-9755334.80 5135290.07 182.13
-9755325.57 5135289.84 190.68
-9755329.92 5135290.93 181.56
-9755330.98 5135289.54 189.39
-9755328.42 5135289.81 184.67
-9755326.38 5135290.04 181.59
-9755324.08 5135293.35 184.02
-9755328.36 5135289.87 185.96
-9755325.88 5135289.94 187.15
-9755332.88 5135289.62 188.40
-9755336.48 5135290.78 182.30
-9755325.82 5135289.89 188.41
-9755336.51 5135289.58 187.00
-9755326.99 5135289.62 189.20
-9755330.01 5135289.54 186.04
-9755329.07 5135289.93 187.07
-9755324.91 5135290.14 189.52
-9755328.19 5135290.03 190.67
-9755331.44 5135289.50 182.81
-9755326.58 5135293.93 182.12
-9755324.07 5135289.30 190.17
-9755328.86 5135288.67 190.13
-9755326.34 5135290.10 186.82
-9755336.64 5135287.67 182.85
-9755331.63 5135290.26 190.37
-9755325.75 5135289.96 181.63
-9755335.55 5135288.41 190.13
-9755325.20 5135295.52 181.81
-9755330.00 5135289.90 190.64
-9755336.36 5135293.22 182.24
-9755331.98 5135290.01 187.87
-9755331.71 5135289.51 187.80
-9755330.80 5135289.52 186.26
-9755329.64 5135289.92 187.84
-9755328.24 5135287.52 190.12
-9755327.32 5135289.95 188.87
-9755335.78 5135289.92 183.79
-9755324.27 5135294.99 183.02
-9755334.88 5135294.84 181.37
-9755328.14 5135289.90 183.10
-9755334.79 5135289.42 188.30
-9755334.09 5135294.79 183.26
-9755331.33 5135289.95 184.02
-9755334.88 5135289.52 181.97
-9755329.31 5135295.68 181.43
-9755333.63 5135289.56 187.95
-9755336.15 5135295.28 182.23
-9755332.37 5135287.56 190.13
-9755324.84 5135290.12 183.83
-9755324.31 5135292.58 182.13
-9755326.53 5135290.10 190.68
-9755325.04 5135290.01 186.30
-9755333.87 5135289.97 183.23
-9755333.15 5135296.59 181.35
-9755325.36 5135293.70 184.43
-9755325.71 5135294.20 181.60
-9755332.27 5135291.84 181.52
-9755334.93 5135289.96 183.24
-9755327.56 5135290.83 181.55
-9755324.92 5135289.98 182.09
-9755336.32 5135289.94 187.99
-9755331.66 5135292.64 181.49
-9755324.25 5135295.79 183.03
-9755325.29 5135294.65 184.38
-9755327.87 5135289.64 182.10
-9755325.18 5135295.02 181.58
-9755325.60 5135291.76 182.53
-9755325.61 5135287.49 190.14
-9755326.79 5135287.54 190.13
-9755324.94 5135290.83 181.56
-9755327.89 5135289.97 188.83
-9755333.24 5135289.89 187.96
-9755334.98 5135289.95 188.19
-9755334.02 5135291.79 181.49
-9755331.34 5135295.09 181.39
-9755330.73 5135293.27 183.02
-9755333.80 5135289.60 186.67
-9755325.80 5135292.65 181.53
-9755325.57 5135289.40 181.64
-9755330.00 5135289.94 182.94
-9755332.93 5135289.91 184.45
-9755333.25 5135293.42 181.40
-9755334.18 5135289.92 190.66
-9755331.66 5135289.68 189.51
-9755333.25 5135289.90 186.16
-9755333.88 5135289.59 183.33
-9755331.52 5135289.63 185.84
-9755326.31 5135289.93 188.77
-9755335.54 5135293.30 183.00
-9755331.92 5135289.49 187.14
-9755332.34 5135289.99 186.84
-9755334.57 5135290.08 181.53
-9755329.22 5135293.37 182.71
-9755334.62 5135289.25 181.58
-9755334.06 5135290.02 186.98
-9755331.30 5135289.98 182.19
-9755327.52 5135293.29 181.59
-9755332.57 5135289.52 186.53
-9755324.89 5135291.79 181.52
-9755333.89 5135289.99 189.51
-9755335.00 5135289.77 186.85
-9755326.37 5135294.15 181.61
-9755330.83 5135289.99 181.55
-9755325.71 5135294.03 183.56
-9755327.94 5135289.96 187.71
-9755329.71 5135286.70 190.11
-9755329.00 5135289.39 181.57
-9755334.92 5135289.42 183.15
-9755330.47 5135289.52 182.27
-9755329.25 5135293.97 182.15
-9755336.44 5135289.83 187.01
-9755329.90 5135289.91 187.04
-9755336.76 5135288.64 181.89
-9755325.92 5135289.72 182.95
-9755333.14 5135290.31 181.54
-9755324.28 5135290.83 181.55
-9755336.35 5135293.50 183.54
-9755328.98 5135289.77 184.56
-9755334.10 5135289.63 189.69
-9755326.79 5135288.42 190.13
-9755336.32 5135295.09 181.35
-9755331.38 5135289.32 184.58
-9755333.23 5135294.11 182.06
-9755332.70 5135289.50 189.53
-9755331.46 5135289.58 189.52
-9755332.24 5135290.30 181.55
-9755326.37 5135293.59 183.60
-9755325.94 5135289.98 189.64
-9755325.75 5135295.96 181.46
-9755327.26 5135289.45 181.65
-9755328.39 5135293.21 182.08
-9755331.77 5135293.49 182.81
-9755332.24 5135290.91 181.54
-9755325.78 5135290.60 181.56
-9755328.79 5135289.46 183.67
-9755324.44 5135290.02 187.82
-9755332.59 5135289.77 186.32
-9755336.05 5135292.93 183.53
-9755335.18 5135289.79 184.02
-9755326.61 5135289.64 182.19
-9755329.88 5135295.04 181.45
-9755331.71 5135290.03 181.56
-9755328.13 5135295.05 181.50
-9755333.30 5135293.39 182.95
-9755333.84 5135292.92 183.29
-9755333.92 5135289.53 185.76
-9755334.05 5135290.29 181.53
-9755333.78 5135289.76 187.92
-9755335.75 5135289.55 189.59
-9755336.69 5135292.72 181.47
-9755332.24 5135296.58 181.35
-9755327.59 5135289.57 183.10
-9755333.13 5135295.69 181.34
-9755331.75 5135289.49 187.21
-9755329.90 5135295.96 181.41
-9755329.70 5135289.59 187.06
-9755336.71 5135289.52 181.56
-9755332.25 5135289.38 181.60
-9755336.08 5135295.43 182.73
-9755327.59 5135289.98 181.58
-9755330.75 5135295.62 181.38
-9755328.37 5135289.51 187.33
-9755324.34 5135292.06 183.43
-9755329.76 5135289.45 183.04
-9755335.52 5135292.15 181.48
-9755330.44 5135289.53 187.07
-9755334.05 5135285.81 181.50
-9755325.15 5135296.51 181.44
-9755333.18 5135289.81 183.25
-9755327.26 5135290.50 182.26
-9755324.94 5135293.70 184.54
-9755335.74 5135289.39 181.55
-9755324.04 5135290.01 181.58
-9755328.39 5135290.34 181.56
-9755332.94 5135292.83 182.22
-9755336.11 5135292.81 182.07
-9755325.56 5135289.86 184.42
-9755326.06 5135296.51 181.44
-9755331.74 5135289.84 184.27
-9755332.89 5135289.88 182.46
-9755326.29 5135292.87 182.04
-9755329.84 5135289.94 182.14
-9755326.94 5135289.59 188.64
-9755330.46 5135289.89 185.79
-9755330.08 5135289.79 184.22
-9755333.28 5135294.67 181.92
-9755330.44 5135289.74 182.26
-9755322.52 5135298.29 181.44
-9755322.52 5135299.45 181.43
-9755323.40 5135305.68 186.98
-9755323.41 5135303.99 185.65
-9755323.07 5135302.44 186.28
-9755323.20 5135306.55 186.44
-9755323.36 5135302.51 185.36
-9755322.60 5135306.51 186.33
-9755322.16 5135301.46 181.44
-9755322.75 5135302.24 185.47
-9755321.59 5135303.38 184.39
-9755321.62 5135302.25 184.39
-9755321.63 5135303.36 186.39
-9755320.76 5135305.40 186.98
-9755322.29 5135303.93 185.76
-9755320.76 5135304.94 186.19
-9755320.89 5135303.99 185.26
-9755322.23 5135304.99 187.82
-9755323.07 5135299.76 181.42
-9755321.34 5135299.39 181.43
-9755317.47 5135299.11 181.45
-9755320.12 5135299.13 181.44
-9755320.76 5135298.23 181.44
-9755321.01 5135301.09 184.61
-9755319.82 5135302.28 183.70
-9755316.54 5135304.89 183.87
-9755310.71 5135306.60 185.47
-9755313.35 5135306.57 185.81
-9755312.49 5135303.16 183.79
-9755315.96 5135304.79 185.47
-9755319.23 5135303.15 183.13
-9755314.85 5135300.58 181.48
-9755310.95 5135304.25 184.25
-9755312.77 5135303.97 184.82
-9755314.28 5135303.94 185.56
-9755311.00 5135305.72 185.14
-9755319.92 5135301.70 183.20
-9755315.14 5135300.06 181.47
-9755313.38 5135305.71 185.74
-9755318.58 5135301.68 183.63
-9755317.39 5135301.38 183.01
-9755320.20 5135302.37 182.75
-9755315.10 5135303.16 183.81
-9755312.59 5135306.04 186.28
-9755318.46 5135306.41 185.93
-9755311.93 5135303.12 183.81
-9755314.02 5135304.24 185.89
-9755313.30 5135299.98 181.49
-9755313.38 5135301.61 183.58
-9755314.85 5135306.52 186.25
-9755315.23 5135304.28 185.57
-9755317.43 5135301.70 183.77
-9755314.28 5135304.91 185.14
-9755315.92 5135305.59 181.51
-9755317.30 5135304.31 184.39
-9755319.34 5135305.76 186.88
-9755319.87 5135306.32 186.16
-9755315.74 5135305.69 184.71
-9755310.94 5135305.10 184.39
-9755310.08 5135305.73 185.25
-9755311.01 5135299.67 181.50
-9755319.25 5135302.31 183.83
-9755319.77 5135301.67 183.59
-9755315.13 5135302.37 182.90
-9755315.67 5135303.42 186.07
-9755316.57 5135305.92 181.46
-9755319.19 5135306.64 185.97
-9755314.50 5135303.13 183.19
-9755311.00 5135303.72 183.18
-9755315.75 5135300.60 181.48
-9755313.36 5135304.01 185.96
-9755315.90 5135304.27 181.48
-9755313.38 5135305.61 185.86
-9755320.14 5135302.65 184.49
-9755316.76 5135306.09 186.18
-9755310.94 5135301.47 181.51
-9755310.92 5135301.75 182.91
-9755315.16 5135301.04 183.61
-9755316.95 5135304.17 181.54
-9755316.37 5135303.22 183.15
-9755316.48 5135304.07 185.98
-9755323.29 5135279.47 190.05
-9755323.30 5135278.33 190.05
-9755322.39 5135281.24 190.04
-9755322.66 5135284.21 190.06
-9755321.52 5135282.76 190.04
-9755322.42 5135277.72 190.05
-9755322.35 5135278.32 190.05
-9755322.30 5135285.13 190.06
-9755321.53 5135284.26 190.05
-9755323.25 5135294.05 182.73
-9755323.16 5135289.87 182.23
-9755323.24 5135287.49 190.11
-9755323.25 5135293.41 182.08
-9755323.60 5135289.55 182.71
-9755323.30 5135289.86 182.93
-9755322.50 5135293.75 182.92
-9755322.62 5135289.24 190.16
-9755321.77 5135286.01 190.08
-9755322.37 5135290.16 181.99
-9755322.37 5135289.15 186.96
-9755322.29 5135290.03 186.88
-9755321.60 5135289.93 181.99
-9755323.54 5135289.47 181.59
-9755321.50 5135289.97 186.87
-9755321.63 5135289.19 186.93
-9755322.54 5135292.35 181.54
-9755323.43 5135289.99 181.57
-9755321.63 5135296.49 181.43
-9755321.70 5135286.89 190.10
-9755322.26 5135289.43 183.42
-9755322.36 5135286.90 190.10
-9755321.39 5135289.90 189.77
-9755322.23 5135289.90 182.96
-9755322.46 5135294.66 182.18
-9755323.22 5135290.14 183.38
-9755322.86 5135290.11 185.78
-9755323.15 5135289.64 183.40
-9755321.63 5135293.22 181.60
-9755323.39 5135294.99 181.50
-9755310.90 5135279.41 190.07
-9755315.89 5135280.32 190.03
-9755320.03 5135284.26 190.05
-9755310.90 5135280.32 190.05
-9755314.16 5135280.90 190.02
-9755320.06 5135280.96 190.03
-9755311.77 5135281.84 190.05
-9755318.21 5135282.74 190.04
-9755315.95 5135282.45 190.05
-9755312.36 5135281.88 190.04
-9755318.23 5135281.85 190.04
-9755316.79 5135277.67 190.09
-9755319.14 5135278.61 190.05
-9755320.59 5135280.94 190.03
-9755313.26 5135280.95 190.04
-9755314.16 5135277.70 190.11
-9755314.97 5135280.09 190.02
-9755320.00 5135283.33 190.05
-9755312.67 5135280.92 190.04
-9755320.92 5135282.48 190.03
-9755317.36 5135279.44 190.02
-9755316.80 5135285.99 190.08
-9755320.69 5135290.14 183.87
-9755314.43 5135290.74 182.97
-9755321.35 5135289.58 183.41
-9755313.40 5135297.31 181.48
-9755320.89 5135290.09 185.56
-9755314.87 5135290.01 184.59
-9755316.06 5135290.29 181.56
-9755314.85 5135289.96 186.90
-9755315.77 5135290.15 182.19
-9755318.27 5135293.43 183.10
-9755315.82 5135289.98 185.92
-9755318.22 5135289.25 190.13
-9755314.97 5135292.48 182.20
-9755321.06 5135290.09 183.16
-9755311.71 5135288.61 190.13
-9755319.10 5135290.07 190.68
-9755318.13 5135289.94 181.62
-9755318.93 5135293.10 182.73
-9755317.23 5135289.63 181.61
-9755312.49 5135292.60 181.56
-9755316.04 5135291.73 181.53
-9755314.32 5135290.65 183.60
-9755314.15 5135290.28 183.72
-9755312.67 5135289.85 190.09
-9755314.84 5135290.76 182.18
-9755321.01 5135290.03 184.61
-9755315.86 5135286.85 190.08
-9755313.30 5135290.78 183.04
-9755314.32 5135290.53 184.81
-9755319.36 5135288.37 190.14
-9755316.01 5135290.81 181.53
-9755313.45 5135292.42 182.07
-9755315.66 5135290.77 181.94
-9755321.01 5135291.73 181.54
-9755315.86 5135288.32 190.13
-9755320.82 5135289.95 189.35
-9755317.55 5135289.22 190.65
-9755315.14 5135294.08 181.55
-9755316.65 5135290.82 181.55
-9755311.44 5135293.72 182.40
-9755313.94 5135291.61 181.62
-9755314.98 5135289.93 182.82
-9755318.15 5135291.71 181.55
-9755314.84 5135292.44 183.06
-9755311.65 5135293.46 181.55
-9755320.87 5135290.22 188.11
-9755311.60 5135295.54 181.50
-9755311.64 5135290.78 182.50
-9755320.58 5135290.13 186.54
-9755317.16 5135290.84 181.55
-9755312.57 5135292.82 182.32
-9755319.07 5135290.02 186.86
-9755314.24 5135290.16 182.26
-9755314.41 5135292.56 182.01
-9755319.53 5135289.93 183.41
-9755310.85 5135289.92 186.95
-9755317.51 5135295.03 181.47
-9755319.05 5135289.92 181.58
-9755316.73 5135289.93 186.89
-9755314.77 5135290.09 185.52
-9755319.02 5135293.23 181.61
-9755315.25 5135290.78 181.55
-9755320.45 5135292.65 181.56
-9755320.76 5135296.49 181.43
-9755320.14 5135296.74 181.45
-9755319.16 5135293.26 182.39
-9755314.06 5135286.81 190.08
-9755314.88 5135290.13 186.48
-9755318.18 5135289.87 182.09
-9755318.52 5135289.44 186.96
-9755314.95 5135289.99 187.97
-9755321.76 5135290.04 185.90
-9755315.89 5135289.22 190.13
-9755315.21 5135290.08 190.18
-9755313.36 5135290.22 186.37
-9755320.54 5135290.87 182.01
-9755316.64 5135293.19 181.57
-9755315.73 5135289.98 189.65
-9755314.27 5135292.56 181.55
-9755319.31 5135291.75 181.53
-9755319.11 5135287.47 190.12
-9755312.58 5135290.77 182.50
-9755317.56 5135290.15 181.92
-9755311.66 5135290.11 183.43
-9755318.19 5135289.86 190.66
-9755320.14 5135290.17 182.14
-9755312.48 5135294.93 181.53
-9755313.21 5135288.30 190.11
-9755318.99 5135295.91 181.44
-9755312.50 5135295.82 181.51
-9755312.45 5135297.31 181.48
-9755313.37 5135294.33 181.57
-9755315.79 5135289.95 186.89
-9755313.73 5135290.19 188.74
-9755318.95 5135289.64 183.43
-9755315.58 5135291.69 182.01
-9755316.59 5135289.86 183.43
-9755314.40 5135290.51 186.75
-9755318.39 5135294.39 181.50
-9755320.17 5135293.55 181.61
-9755314.85 5135289.97 183.43
-9755314.50 5135292.50 182.60
-9755316.64 5135292.60 181.55
-9755316.70 5135294.97 181.48
-9755320.16 5135290.08 185.57
-9755311.13 5135289.46 186.95
-9755312.01 5135291.93 181.63
-9755311.01 5135294.94 181.52
-9755320.79 5135289.64 181.60
-9755312.53 5135293.46 181.56
-9755315.20 5135289.50 186.98
-9755318.48 5135290.10 185.79
-9755315.45 5135292.28 182.82
-9755320.19 5135290.92 181.99
-9755315.74 5135293.54 181.58
-9755314.15 5135290.57 187.89
-9755310.15 5135292.55 181.49
-9755311.44 5135289.51 182.58
-9755390.73 5135275.29 181.09
-9755386.92 5135273.52 181.25
-9755389.53 5135276.55 181.55
-9755387.58 5135259.55 181.27
-9755393.06 5135270.23 181.05
-9755395.78 5135267.98 181.03
-9755395.05 5135271.21 181.03
-9755390.52 5135263.80 181.15
-9755394.01 5135261.99 181.08
-9755396.97 5135263.79 181.04
-9755385.15 5135268.43 181.37
-9755386.45 5135264.06 182.36
-9755384.28 5135269.21 181.94
-9755387.58 5135264.54 183.44
-9755383.37 5135263.96 181.44
-9755387.54 5135260.99 182.66
-9755385.15 5135270.24 181.36
-9755388.47 5135262.23 181.25
-9755388.12 5135259.41 183.14
-9755386.36 5135266.11 182.71
-9755386.37 5135266.89 183.52
-9755386.37 5135265.50 181.29
-9755388.15 5135265.22 181.26
-9755384.79 5135263.34 181.98
-9755387.93 5135264.48 183.40
-9755386.11 5135260.10 183.61
-9755387.87 5135262.88 182.00
-9755387.46 5135269.06 182.13
-9755381.24 5135271.71 182.01
-9755381.14 5135271.39 182.27
-9755377.41 5135277.26 182.01
-9755379.22 5135277.10 181.74
-9755378.93 5135274.33 181.91
-9755378.92 5135276.19 181.73
-9755373.50 5135272.26 181.87
-9755366.97 5135272.87 186.11
-9755366.43 5135271.57 185.80
-9755365.08 5135271.91 181.07
-9755365.75 5135271.57 188.10
-9755365.27 5135271.36 186.09
-9755370.47 5135272.15 187.56
-9755369.86 5135272.52 185.92
-9755365.56 5135271.12 187.76
-9755369.91 5135272.79 185.03
-9755367.16 5135278.05 187.07
-9755370.90 5135276.08 181.19
-9755371.71 5135276.56 181.78
-9755372.72 5135273.31 181.85
-9755369.35 5135272.76 188.34
-9755370.76 5135277.73 183.58
-9755374.24 5135273.66 186.76
-9755364.21 5135275.41 180.89
-9755372.17 5135275.17 181.91
-9755364.90 5135273.27 185.88
-9755370.42 5135272.50 184.51
-9755373.91 5135274.02 181.22
-9755370.88 5135277.25 183.50
-9755373.34 5135277.95 185.29
-9755374.17 5135275.00 187.42
-9755371.34 5135273.82 184.98
-9755373.55 5135276.08 185.90
-9755370.94 5135275.15 181.19
-9755369.84 5135274.86 188.96
-9755371.32 5135273.50 186.04
-9755367.28 5135277.63 187.50
-9755369.91 5135273.71 186.01
-9755369.08 5135274.28 187.75
-9755356.85 5135277.77 181.00
-9755356.27 5135274.18 181.01
-9755363.34 5135274.57 180.90
-9755360.97 5135275.12 180.95
-9755352.99 5135277.74 180.96
-9755381.08 5135264.51 181.40
-9755382.59 5135271.21 183.12
-9755378.43 5135266.07 181.40
-9755382.77 5135266.93 181.75
-9755376.32 5135269.30 181.36
-9755376.06 5135263.60 181.42
-9755376.08 5135260.09 181.38
-9755371.97 5135270.79 182.53
-9755373.81 5135271.03 182.55
-9755369.27 5135267.98 182.97
-9755371.03 5135265.42 181.33
-9755367.03 5135265.10 183.00
-9755371.38 5135264.20 181.79
-9755366.32 5135263.03 181.11
-9755370.73 5135271.14 186.11
-9755370.85 5135270.80 185.68
-9755364.53 5135265.06 181.07
-9755363.64 5135270.12 180.91
-9755367.20 5135260.23 182.93
-9755367.54 5135267.28 184.79
-9755368.07 5135270.46 186.94
-9755368.73 5135269.25 186.69
-9755372.79 5135260.97 181.40
-9755366.43 5135269.33 186.43
-9755364.26 5135262.69 181.03
-9755371.00 5135262.02 182.77
-9755373.14 5135262.11 181.40
-9755363.68 5135263.01 180.93
-9755372.55 5135270.52 186.04
-9755370.44 5135270.91 186.83
-9755370.41 5135268.81 183.57
-9755370.71 5135267.02 182.04
-9755370.37 5135269.98 183.52
-9755372.30 5135264.23 182.03
-9755370.25 5135261.16 183.72
-9755360.17 5135261.52 181.03
-9755355.41 5135263.87 181.05
-9755361.06 5135263.00 180.98
-9755361.01 5135267.17 180.98
-9755353.69 5135261.48 181.06
-9755354.56 5135268.84 181.05
-9755349.76 5135271.21 180.94
-9755352.97 5135276.82 180.97
-9755350.68 5135277.42 180.91
-9755349.78 5135274.44 180.91
-9755349.46 5135274.12 180.90
-9755338.02 5135271.20 185.25
-9755337.52 5135272.01 186.37
-9755340.34 5135272.00 181.44
-9755338.01 5135271.95 181.69
-9755337.24 5135271.16 186.80
-9755337.79 5135271.56 190.21
-9755337.10 5135271.97 181.85
-9755337.77 5135271.06 188.02
-9755337.47 5135270.91 183.96
-9755337.40 5135271.12 189.03
-9755337.32 5135271.18 182.49
-9755337.47 5135271.98 188.66
-9755337.32 5135271.98 187.17
-9755337.68 5135271.36 183.40
-9755339.15 5135271.98 181.68
-9755337.79 5135271.04 184.50
-9755337.16 5135271.21 191.41
-9755344.74 5135272.66 181.33
-9755340.64 5135271.15 181.40
-9755337.21 5135271.61 183.26
-9755339.76 5135271.11 181.55
-9755338.04 5135270.73 188.50
-9755337.76 5135270.90 185.98
-9755343.89 5135272.66 181.34
-9755337.16 5135272.90 185.93
-9755337.44 5135271.37 189.43
-9755328.93 5135271.80 190.31
-9755335.68 5135271.88 190.17
-9755336.61 5135271.88 190.19
-9755324.81 5135271.79 190.08
-9755325.70 5135271.20 190.09
-9755331.27 5135272.71 190.08
-9755335.74 5135272.79 190.19
-9755330.69 5135270.96 190.09
-9755333.06 5135271.24 190.10
-9755336.71 5135272.24 181.73
-9755325.67 5135273.00 190.06
-9755332.14 5135271.85 190.09
-9755339.14 5135276.76 181.46
-9755338.02 5135272.86 181.69
-9755336.90 5135278.86 185.86
-9755338.01 5135275.13 191.33
-9755341.51 5135276.77 181.39
-9755337.37 5135276.40 184.83
-9755337.42 5135276.55 184.64
-9755342.08 5135274.38 181.37
-9755337.90 5135276.08 187.03
-9755337.96 5135275.39 185.99
-9755337.44 5135276.35 188.23
-9755337.39 5135276.62 189.63
-9755337.51 5135272.78 189.01
-9755336.97 5135277.40 186.26
-9755340.60 5135274.41 181.39
-9755337.50 5135275.84 182.05
-9755337.76 5135276.02 184.59
-9755337.96 5135275.15 185.31
-9755337.73 5135274.63 186.68
-9755339.48 5135273.51 181.67
-9755337.92 5135275.26 187.03
-9755337.94 5135274.36 181.69
-9755337.80 5135276.06 190.57
-9755337.45 5135274.35 182.68
-9755337.83 5135275.18 190.04
-9755338.25 5135275.57 181.52
-9755337.16 5135273.63 186.30
-9755337.45 5135276.24 183.01
-9755337.14 5135273.54 185.18
-9755337.84 5135274.76 188.33
-9755337.13 5135276.75 182.11
-9755337.94 5135275.79 186.22
-9755337.38 5135275.00 185.40
-9755338.88 5135272.97 181.69
-9755337.47 5135273.66 189.51
-9755337.37 5135274.39 187.22
-9755337.92 5135276.04 183.22
-9755337.96 5135276.72 181.52
-9755338.11 5135275.89 185.61
-9755337.40 5135274.15 186.35
-9755337.51 5135275.08 189.01
-9755337.45 5135274.51 190.34
-9755337.69 5135274.70 183.19
-9755337.40 5135276.24 185.34
-9755337.88 5135275.84 183.56
-9755343.84 5135275.89 181.34
-9755337.34 5135276.55 190.52
-9755337.57 5135274.38 188.72
-9755338.85 5135273.44 181.69
-9755337.26 5135274.43 188.07
-9755338.89 5135275.87 181.48
-9755337.15 5135276.68 187.84
-9755343.84 5135276.78 181.35
-9755337.08 5135276.69 183.88
-9755337.37 5135273.60 187.75
-9755337.35 5135275.94 181.42
-9755338.80 5135275.24 181.48
-9755341.19 5135275.87 181.40
-9755337.87 5135274.14 191.33
-9755337.45 5135274.45 183.43
-9755337.91 5135275.14 188.78
-9755337.72 5135274.20 190.31
-9755337.90 5135276.14 188.23
-9755337.06 5135276.74 186.35
-9755338.00 5135275.16 189.53
-9755337.75 5135273.74 189.64
-9755340.01 5135272.92 181.49
-9755336.96 5135276.79 191.40
-9755337.41 5135274.72 181.71
-9755337.45 5135276.36 187.06
-9755337.03 5135277.49 185.79
-9755337.70 5135274.72 186.26
-9755336.46 5135272.73 181.83
-9755336.49 5135273.58 181.80
-9755328.05 5135275.98 190.05
-9755333.02 5135276.89 190.20
-9755328.91 5135273.61 190.06
-9755332.43 5135276.00 190.19
-9755335.40 5135276.01 190.27
-9755331.55 5135275.39 190.14
-9755333.93 5135276.03 190.23
-9755325.69 5135274.22 190.04
-9755336.59 5135277.11 182.99
-9755330.69 5135275.12 190.11
-9755336.51 5135277.20 182.13
-9755325.69 5135275.07 190.02
-9755336.56 5135276.89 190.27
-9755336.54 5135277.05 186.91
-9755333.88 5135276.86 190.22
-9755336.82 5135277.05 186.19
-9755332.42 5135275.12 190.16
-9755334.79 5135275.11 190.24
-9755336.41 5135276.93 181.72
-9755336.82 5135276.86 183.88
-9755336.62 5135276.59 191.41
-9755336.65 5135276.99 188.06
-9755325.65 5135276.86 189.95
-9755336.02 5135276.20 191.40
-9755324.19 5135275.38 190.04
-9755336.66 5135277.18 189.93
-9755333.95 5135276.03 181.96
-9755333.36 5135273.66 190.15
-9755325.89 5135276.26 189.94
-9755323.95 5135273.53 191.18
-9755336.73 5135277.12 185.79
-9755353.65 5135270.32 181.01
-9755351.29 5135263.50 181.01
-9755350.39 5135262.28 181.01
-9755350.41 5135265.60 186.65
-9755353.03 5135266.48 181.02
-9755350.42 5135263.82 180.98
-9755348.45 5135266.71 183.92
-9755348.71 5135265.83 186.09
-9755349.31 5135262.21 183.79
-9755348.98 5135266.78 185.92
-9755349.48 5135264.38 180.98
-9755349.06 5135263.16 183.43
-9755348.96 5135266.15 187.76
-9755349.33 5135260.54 185.35
-9755348.62 5135259.98 183.85
-9755348.36 5135259.95 183.86
-9755339.59 5135259.36 181.50
-9755338.06 5135259.87 181.55
-9755337.71 5135270.22 188.92
-9755338.66 5135262.22 181.53
-9755339.49 5135270.28 181.44
-9755338.88 5135268.44 181.50
-9755343.77 5135262.87 184.55
-9755343.85 5135270.26 181.32
-9755337.79 5135270.32 191.40
-9755341.27 5135267.93 181.39
-9755344.57 5135263.78 186.07
-9755337.10 5135265.51 181.57
-9755344.68 5135264.66 186.42
-9755343.91 5135267.35 181.32
-9755337.17 5135268.73 181.55
-9755341.53 5135264.65 181.41
-9755337.35 5135269.98 181.87
-9755339.48 5135267.89 181.49
-9755337.78 5135270.05 188.09
-9755340.65 5135267.03 181.44
-9755338.32 5135262.81 181.55
-9755339.51 5135268.74 181.46
-9755338.04 5135261.90 181.54
-9755341.55 5135266.41 181.40
-9755337.24 5135269.35 186.11
-9755337.09 5135269.48 188.49
-9755337.53 5135269.95 188.86
-9755341.58 5135263.50 181.41
-9755337.14 5135267.03 181.55
-9755337.41 5135267.88 181.53
-9755343.80 5135263.06 186.37
-9755337.78 5135260.48 181.55
-9755340.42 5135262.85 181.48
-9755337.16 5135261.41 181.55
-9755338.34 5135263.75 181.54
-9755337.17 5135263.71 181.58
-9755347.80 5135261.07 183.97
-9755346.90 5135260.55 185.13
-9755337.99 5135265.49 181.54
-9755338.91 5135269.36 181.47
-9755341.56 5135270.54 181.39
-9755337.18 5135260.45 181.56
-9755337.49 5135270.16 182.61
-9755339.82 5135260.18 181.50
-9755339.78 5135269.42 181.44
-9755337.08 5135267.04 182.86
-9755337.91 5135270.21 189.79
-9755337.15 5135264.32 181.57
-9755344.24 5135265.19 186.10
-9755338.32 5135261.30 181.54
-9755347.15 5135261.51 187.93
-9755344.00 5135262.96 185.05
-9755337.41 5135270.19 181.55
-9755346.07 5135261.47 187.63
-9755337.46 5135266.06 181.57
-9755337.47 5135270.58 187.11
-9755336.34 5135259.45 190.63
-9755337.30 5135266.97 181.97
-9755337.74 5135270.46 182.08
-9755344.22 5135265.19 185.79
-9755337.13 5135262.84 181.58
-9755336.90 5135267.88 182.83
-9755345.70 5135260.72 185.91
-9755344.80 5135268.78 181.29
-9755338.08 5135269.32 181.52
-9755337.00 5135268.44 182.22
-9755336.28 5135259.59 181.93
-9755336.61 5135259.43 186.88
-9755336.31 5135265.39 182.79
-9755337.11 5135267.37 183.66
-9755336.32 5135269.52 191.42
-9755336.93 5135268.31 182.99
-9755336.27 5135265.51 189.56
-9755334.89 5135259.72 190.13
-9755336.61 5135263.63 189.79
-9755336.31 5135260.19 186.91
-9755336.69 5135268.01 182.30
-9755336.55 5135263.40 182.21
-9755334.89 5135266.25 190.12
-9755336.52 5135262.03 189.67
-9755336.58 5135262.86 186.81
-9755335.94 5135264.07 186.89
-9755335.74 5135266.21 190.14
-9755336.65 5135266.44 186.09
-9755336.37 5135264.47 183.42
-9755336.36 5135264.48 182.23
-9755336.54 5135264.27 189.45
-9755336.55 5135268.62 190.13
-9755336.35 5135262.65 182.82
-9755331.32 5135264.42 190.10
-9755334.84 5135267.15 190.12
-9755327.50 5135262.92 190.10
-9755336.41 5135264.65 190.32
-9755336.36 5135259.80 183.40
-9755328.93 5135270.33 190.09
-9755337.10 5135265.65 190.30
-9755336.64 5135263.49 187.03
-9755336.34 5135260.35 183.40
-9755336.43 5135265.42 186.25
-9755336.61 5135263.58 182.74
-9755335.77 5135269.55 190.61
-9755335.71 5135268.62 190.57
-9755336.60 5135267.77 183.18
-9755335.03 5135259.19 181.83
-9755324.28 5135259.63 190.66
-9755336.60 5135262.98 185.70
-9755336.53 5135261.19 182.29
-9755336.30 5135261.90 186.89
-9755336.34 5135261.34 186.91
-9755331.31 5135268.60 190.09
-9755336.65 5135263.82 186.38
-9755336.42 5135261.35 189.77
-9755332.22 5135259.68 190.11
-9755328.99 5135262.64 190.10
-9755325.75 5135261.18 190.11
-9755324.88 5135262.03 190.11
-9755328.11 5135259.67 190.11
-9755336.38 5135261.98 182.22
-9755333.39 5135261.24 190.12
-9755333.99 5135262.99 190.12
-9755336.62 5135264.50 185.80
-9755337.09 5135267.52 181.93
-9755324.83 5135266.14 190.10
-9755333.06 5135267.09 190.12
-9755336.43 5135262.24 186.49
-9755336.49 5135265.40 182.04
-9755331.66 5135262.08 190.10
-9755327.51 5135268.58 190.09
-9755331.60 5135269.50 190.09
-9755336.28 5135267.92 186.89
-9755336.42 5135266.10 182.24
-9755336.43 5135268.02 189.64
-9755336.60 5135261.95 181.56
-9755336.32 5135259.59 185.94
-9755336.91 5135268.79 186.79
-9755326.01 5135268.57 190.10
-9755328.06 5135267.10 190.09
-9755332.14 5135270.33 190.09
-9755336.55 5135264.45 182.88
-9755324.86 5135262.65 190.12
-9755336.50 5135268.71 182.76
-9755336.40 5135260.27 189.47
-9755328.09 5135262.96 190.09
-9755336.31 5135261.16 185.92
-9755336.51 5135268.96 183.45
-9755328.14 5135261.17 190.11
-9755336.57 5135265.21 186.87
-9755326.59 5135267.11 190.07
-9755335.73 5135260.17 186.91
-9755336.56 5135264.34 186.88
-9755329.84 5135269.48 190.08
-9755336.50 5135266.12 183.43
-9755336.52 5135267.67 181.55
-9755336.47 5135266.28 183.00
-9755335.85 5135267.87 186.93
-9755327.19 5135261.16 190.10
-9755336.35 5135259.46 189.70
-9755331.35 5135263.83 190.11
-9755334.92 5135260.32 190.12
-9755336.59 5135263.72 181.60
-9755334.91 5135262.67 190.12
-9755336.55 5135263.60 188.02
-9755336.70 5135262.93 188.02
-9755330.76 5135262.09 190.12
-9755334.84 5135269.48 190.11
-9755335.75 5135260.95 186.99
-9755336.54 5135268.73 186.18
-9755325.75 5135259.65 190.15
-9755336.70 5135267.31 186.42
-9755336.56 5135267.16 182.35
-9755336.43 5135263.83 185.31
-9755336.81 5135269.58 181.58
-9755336.29 5135266.16 186.93
-9755328.33 5135270.38 190.10
-9755336.88 5135264.28 181.93
-9755335.98 5135261.07 182.24
-9755336.22 5135265.30 183.42
-9755336.55 5135268.67 181.54
-9755335.74 5135264.58 186.89
-9755325.45 5135260.55 190.13
-9755336.27 5135262.16 182.82
-9755336.42 5135263.69 184.09
-9755323.97 5135262.97 190.11
-9755336.84 5135267.65 183.58
-9755336.65 5135262.61 186.43
-9755336.51 5135260.04 185.89
-9755336.79 5135269.27 185.34
-9755336.86 5135263.86 183.21
-9755335.88 5135262.03 186.94
-9755336.78 5135263.74 184.69
-9755335.82 5135266.12 186.92
-9755336.31 5135262.89 183.40
-9755322.06 5135271.86 191.45
-9755322.23 5135270.93 190.97
-9755321.61 5135271.02 191.00
-9755323.80 5135274.07 190.81
-9755323.33 5135275.34 190.03
-9755322.39 5135275.35 190.05
-9755322.43 5135277.10 190.08
-9755322.42 5135273.84 190.06
-9755321.51 5135274.45 190.05
-9755320.82 5135271.75 191.49
-9755315.09 5135271.78 190.07
-9755314.18 5135271.16 190.09
-9755311.83 5135271.19 190.08
-9755317.45 5135271.77 190.08
-9755319.18 5135271.77 190.09
-9755315.93 5135272.64 190.06
-9755317.43 5135272.71 190.07
-9755311.75 5135273.52 190.06
-9755319.19 5135275.33 190.08
-9755310.98 5135273.48 190.06
-9755315.94 5135275.34 190.10
-9755318.56 5135274.44 190.06
-9755316.83 5135273.55 190.05
-9755318.30 5135276.21 190.11
-9755318.28 5135275.32 190.08
-9755311.78 5135274.38 190.09
-9755317.41 5135276.83 190.12
-9755320.69 5135274.47 190.06
-9755312.41 5135274.44 190.09
-9755315.01 5135276.18 190.15
-9755312.68 5135272.61 190.07
-9755310.91 5135276.21 190.18
-9755313.28 5135274.43 190.09
-9755317.47 5135273.56 190.05
-9755315.03 5135275.01 190.09
-9755322.45 5135264.65 190.11
-9755322.45 5135270.31 190.09
-9755323.23 5135259.61 190.20
-9755321.88 5135266.15 190.11
-9755323.34 5135266.74 190.10
-9755321.57 5135270.30 190.10
-9755321.58 5135265.27 190.09
-9755321.58 5135267.96 190.10
-9755321.38 5135259.64 190.66
-9755321.59 5135264.40 190.10
-9755317.44 5135270.30 190.09
-9755320.65 5135268.55 190.10
-9755316.66 5135260.18 190.16
-9755314.82 5135263.76 190.09
-9755317.51 5135263.16 190.09
-9755319.24 5135262.88 190.09
-9755314.86 5135260.48 190.60
-9755318.07 5135266.16 190.08
-9755316.59 5135259.68 190.66
-9755315.70 5135262.85 190.10
-9755316.60 5135263.75 190.09
-9755315.09 5135267.63 190.08
-9755313.39 5135260.48 190.16
-9755311.02 5135261.94 190.11
-9755314.22 5135269.40 190.09
-9755319.82 5135265.26 190.08
-9755320.74 5135263.78 190.09
-9755311.57 5135263.72 190.10
-9755313.61 5135269.39 190.10
-9755319.84 5135268.76 190.10
-9755319.25 5135265.27 190.08
-9755311.00 5135262.85 190.11
-9755316.00 5135261.98 190.12
-9755311.01 5135260.53 190.13
-9755315.07 5135267.29 190.08
-9755314.25 5135263.75 190.11
-9755315.09 5135269.40 190.08
-9755317.56 5135260.21 190.63
-9755319.84 5135267.90 190.09
-9755313.34 5135266.98 190.08
-9755310.98 5135263.73 190.09
-9755317.48 5135269.71 190.09
-9755318.35 5135269.72 190.09
-9755313.37 5135267.59 190.09
-9755311.60 5135261.99 190.12
-9755311.66 5135259.65 189.66
-9755315.14 5135266.16 190.09
-9755317.49 5135264.36 190.08
-9755320.08 5135269.44 190.11
-9755313.38 5135261.99 190.12
-9755311.57 5135267.02 190.09
-9755314.25 5135262.90 190.11
-9755317.48 5135261.09 190.11
-9755316.02 5135266.15 190.07
-9755320.75 5135264.67 190.09
-9755314.17 5135268.51 190.09
-9755311.56 5135265.48 190.07
-9755310.90 5135270.21 190.08
-9755314.22 5135261.09 190.13
-9755309.17 5135361.95 185.62
-9755305.94 5135361.05 185.50
-9755305.66 5135358.40 185.52
-9755305.94 5135361.64 185.48
-9755305.09 5135357.80 185.50
-9755300.06 5135360.63 181.55
-9755306.82 5135358.68 185.55
-9755309.53 5135357.73 186.16
-9755302.11 5135360.61 181.55
-9755301.81 5135362.41 181.57
-9755297.06 5135357.39 181.48
-9755309.20 5135359.26 185.63
-9755300.07 5135357.65 181.49
-9755308.58 5135362.52 185.60
-9755309.21 5135360.18 185.62
-9755309.17 5135362.25 186.36
-9755296.79 5135360.88 181.53
-9755304.40 5135362.70 181.58
-9755304.08 5135360.82 182.64
-9755306.83 5135360.75 185.53
-9755298.50 5135361.17 181.55
-9755299.13 5135356.75 181.46
-9755304.54 5135359.04 185.39
-9755298.84 5135356.74 181.46
-9755304.25 5135358.56 185.44
-9755298.82 5135361.77 181.56
-9755308.59 5135361.62 185.59
-9755305.03 5135360.74 185.32
-9755296.81 5135356.43 181.46
-9755303.57 5135362.64 181.59
-9755294.42 5135358.48 181.48
-9755292.62 5135360.84 181.51
-9755293.85 5135360.86 181.51
-9755295.03 5135360.91 181.52
-9755296.21 5135357.61 181.47
-9755292.92 5135359.96 181.49
-9755293.55 5135360.27 181.50
-9755293.54 5135357.02 181.46
-9755300.87 5135363.56 181.59
-9755308.28 5135364.05 185.57
-9755304.39 5135364.18 181.62
-9755296.73 5135362.65 181.56
-9755307.43 5135364.31 185.52
-9755295.85 5135363.53 181.57
-9755292.64 5135363.27 181.57
-9755294.99 5135364.12 181.58
-9755293.79 5135362.64 181.55
-9755293.52 5135363.22 181.55
-9755309.21 5135352.64 181.47
-9755304.44 5135356.92 185.47
-9755310.23 5135352.22 184.82
-9755306.01 5135353.73 184.03
-9755309.20 5135352.06 181.44
-9755298.25 5135356.14 181.47
-9755308.40 5135354.45 182.19
-9755301.82 5135356.17 181.47
-9755308.95 5135350.25 183.56
-9755299.46 5135354.39 181.44
-9755309.26 5135353.58 181.46
-9755306.85 5135354.15 181.44
-9755307.73 5135354.41 181.46
-9755303.67 5135349.43 181.38
-9755298.58 5135354.12 181.42
-9755309.19 5135353.24 183.15
-9755310.14 5135356.11 184.24
-9755304.50 5135349.14 182.23
-9755302.76 5135351.15 181.82
-9755306.10 5135350.08 184.03
-9755303.66 5135350.08 181.39
-9755299.44 5135353.22 181.42
-9755305.35 5135354.13 181.45
-9755305.96 5135351.66 184.04
-9755309.18 5135352.84 184.01
-9755303.38 5135349.38 182.07
-9755301.91 5135351.15 182.02
-9755308.98 5135352.61 182.77
-9755306.05 5135353.67 184.44
-9755297.10 5135354.09 181.42
-9755302.74 5135352.02 181.42
-9755305.92 5135353.58 181.44
-9755297.98 5135351.71 181.39
-9755305.95 5135354.16 181.45
-9755297.11 5135352.90 181.41
-9755296.82 5135356.18 181.45
-9755297.14 5135352.03 181.39
-9755309.20 5135351.75 182.88
-9755298.66 5135351.76 181.39
-9755303.61 5135352.94 181.41
-9755301.80 5135350.17 182.09
-9755300.38 5135350.28 181.37
-9755305.05 5135356.17 181.48
-9755300.95 5135351.75 181.40
-9755296.83 5135350.85 181.37
-9755308.64 5135351.25 181.39
-9755307.56 5135355.94 185.62
-9755306.04 5135354.27 182.16
-9755305.93 5135355.30 181.49
-9755307.42 5135353.40 184.88
-9755304.30 5135351.98 184.23
-9755308.02 5135354.19 182.41
-9755308.61 5135352.79 184.72
-9755297.12 5135349.96 181.36
-9755298.61 5135349.68 181.35
-9755308.38 5135352.91 181.60
-9755298.03 5135352.64 181.41
-9755304.41 5135356.21 181.47
-9755304.56 5135352.64 183.95
-9755302.08 5135355.33 181.45
-9755308.86 5135350.81 183.12
-9755308.63 5135350.99 183.12
-9755308.41 5135353.17 184.89
-9755307.67 5135356.01 184.82
-9755309.20 5135350.92 181.42
-9755305.41 5135350.58 184.00
-9755307.90 5135353.30 182.62
-9755300.57 5135349.18 181.94
-9755293.84 5135354.33 181.42
-9755295.38 5135356.16 181.44
-9755296.18 5135352.60 181.40
-9755295.92 5135349.89 181.35
-9755295.36 5135351.68 181.38
-9755295.33 5135354.09 181.43
-9755294.50 5135350.21 181.35
-9755294.48 5135349.03 181.33
-9755293.29 5135351.12 181.36
-9755293.62 5135353.78 181.42
-9755294.52 5135351.11 181.37
-9755295.97 5135350.83 181.37
-9755307.50 5135348.27 181.37
-9755302.76 5135348.42 182.06
-9755306.78 5135348.26 182.31
-9755298.44 5135339.43 190.18
-9755300.17 5135339.62 187.06
-9755300.79 5135340.33 186.09
-9755296.87 5135339.61 190.30
-9755306.88 5135347.52 183.93
-9755298.47 5135341.91 187.67
-9755298.64 5135342.61 186.40
-9755307.77 5135344.96 181.31
-9755297.85 5135338.80 191.85
-9755299.29 5135338.54 188.72
-9755299.35 5135342.68 185.28
-9755299.32 5135342.05 186.34
-9755305.13 5135342.88 181.29
-9755299.21 5135347.58 181.31
-9755298.41 5135337.88 190.30
-9755300.08 5135342.04 186.24
-9755298.66 5135342.79 184.88
-9755301.00 5135338.72 181.22
-9755305.09 5135348.35 183.93
-9755301.60 5135344.34 181.29
-9755297.64 5135338.55 191.40
-9755297.62 5135343.41 188.03
-9755299.35 5135342.84 186.34
-9755298.60 5135338.79 190.65
-9755298.66 5135343.56 184.47
-9755306.88 5135345.36 181.31
-9755301.10 5135338.76 185.22
-9755298.77 5135340.49 187.91
-9755297.06 5135338.55 192.01
-9755296.77 5135343.48 188.02
-9755310.18 5135341.96 183.47
-9755297.77 5135343.39 187.30
-9755308.35 5135342.92 181.29
-9755297.76 5135343.52 184.73
-9755304.25 5135341.97 181.28
-9755297.80 5135341.93 188.88
-9755309.00 5135340.69 183.50
-9755301.86 5135347.01 181.32
-9755300.84 5135337.84 185.57
-9755297.85 5135339.74 190.51
-9755301.04 5135338.00 184.75
-9755297.78 5135337.94 191.83
-9755299.26 5135341.97 186.78
-9755309.55 5135348.49 182.06
-9755308.41 5135339.68 181.23
-9755308.14 5135347.68 182.41
-9755301.69 5135338.69 185.52
-9755308.30 5135347.64 181.36
-9755304.26 5135346.00 183.90
-9755298.50 5135339.14 191.16
-9755299.24 5135340.14 187.97
-9755297.85 5135341.95 187.94
-9755298.49 5135338.56 189.66
-9755307.86 5135347.65 182.85
-9755298.51 5135343.56 186.43
-9755301.65 5135341.07 181.25
-9755297.47 5135340.25 190.91
-9755305.14 5135345.19 183.88
-9755308.40 5135342.06 181.28
-9755301.89 5135339.51 184.93
-9755298.61 5135341.73 185.40
-9755306.88 5135347.97 181.37
-9755299.27 5135339.62 189.29
-9755298.45 5135341.08 188.67
-9755301.03 5135338.82 186.24
-9755296.68 5135340.95 190.52
-9755303.67 5135346.95 183.92
-9755300.12 5135341.12 181.26
-9755304.55 5135346.89 183.91
-9755298.35 5135342.82 185.26
-9755306.27 5135347.83 181.40
-9755301.96 5135337.87 181.19
-9755298.48 5135338.02 189.63
-9755305.77 5135348.48 182.26
-9755306.92 5135341.13 181.25
-9755307.75 5135346.11 181.34
-9755299.90 5135339.94 187.51
-9755298.91 5135339.53 187.14
-9755306.94 5135345.16 183.89
-9755309.27 5135342.00 181.30
-9755298.50 5135341.05 188.05
-9755301.02 5135339.54 181.24
-9755301.01 5135343.74 181.27
-9755300.18 5135342.42 185.45
-9755297.84 5135341.41 187.13
-9755298.52 5135338.47 188.64
-9755306.61 5135344.36 181.29
-9755299.04 5135339.48 188.60
-9755298.36 5135344.34 181.27
-9755299.33 5135338.86 189.63
-9755299.10 5135337.80 189.31
-9755299.28 5135340.08 186.51
-9755299.49 5135342.45 184.73
-9755299.30 5135341.29 187.58
-9755297.61 5135338.97 189.72
-9755308.40 5135344.34 181.30
-9755304.54 5135341.15 181.26
-9755308.37 5135343.54 181.29
-9755298.12 5135340.85 186.30
-9755297.69 5135337.85 191.06
-9755305.72 5135348.95 182.52
-9755301.94 5135339.91 181.24
-9755300.78 5135341.87 184.90
-9755297.77 5135340.32 190.39
-9755299.60 5135341.94 181.25
-9755307.42 5135345.49 183.08
-9755306.90 5135348.82 181.37
-9755309.88 5135339.90 184.49
-9755298.01 5135348.51 181.32
-9755300.72 5135342.86 181.27
-9755298.41 5135342.91 186.98
-9755302.52 5135337.56 181.20
-9755301.13 5135337.89 186.20
-9755306.93 5135345.96 181.35
-9755297.74 5135345.79 181.29
-9755302.76 5135341.97 181.27
-9755305.11 5135348.82 182.54
-9755300.04 5135342.50 186.34
-9755299.45 5135339.34 187.25
-9755298.36 5135343.70 181.26
-9755298.19 5135341.66 189.42
-9755309.35 5135341.82 182.68
-9755297.79 5135343.49 185.42
-9755296.72 5135340.94 191.03
-9755297.53 5135343.25 185.86
-9755301.24 5135341.22 184.88
-9755307.48 5135346.12 182.36
-9755301.03 5135337.88 181.22
-9755298.31 5135337.56 191.22
-9755296.80 5135339.96 192.20
-9755296.69 5135343.00 185.38
-9755307.71 5135346.62 182.00
-9755308.47 5135347.01 181.80
-9755301.65 5135338.80 184.53
-9755299.31 5135342.09 185.18
-9755300.75 5135340.79 186.18
-9755309.15 5135342.39 183.49
-9755299.23 5135344.64 181.28
-9755300.47 5135346.46 182.18
-9755298.74 5135343.27 185.83
-9755296.88 5135344.08 186.94
-9755299.93 5135340.20 181.25
-9755301.89 5135339.56 181.23
-9755299.58 5135342.16 185.00
-9755300.51 5135339.69 184.83
-9755309.87 5135342.48 182.11
-9755306.06 5135337.84 181.21
-9755299.19 5135343.28 185.03
-9755306.00 5135342.01 181.27
-9755301.64 5135338.00 184.50
-9755296.85 5135340.20 181.23
-9755296.02 5135338.61 192.91
-9755294.36 5135338.34 188.51
-9755295.96 5135340.20 191.97
-9755294.25 5135342.26 185.15
-9755295.92 5135338.80 191.52
-9755295.38 5135341.97 186.93
-9755295.31 5135342.05 186.09
-9755296.05 5135341.19 191.16
-9755295.20 5135340.46 190.19
-9755295.99 5135340.27 192.69
-9755293.41 5135338.77 190.91
-9755294.64 5135339.42 191.87
-9755295.43 5135342.78 189.02
-9755292.76 5135341.91 181.21
-9755294.61 5135341.13 190.27
-9755294.40 5135340.23 190.95
-9755296.02 5135343.52 184.66
-9755293.43 5135341.71 187.18
-9755295.16 5135337.72 191.24
-9755294.50 5135339.69 188.62
-9755295.26 5135341.15 191.28
-9755296.07 5135338.41 189.48
-9755294.30 5135338.79 191.35
-9755296.10 5135343.31 188.04
-9755296.12 5135337.83 192.71
-9755292.84 5135341.93 186.71
-9755295.12 5135342.79 181.26
-9755293.55 5135347.56 181.30
-9755295.27 5135341.02 187.77
-9755293.85 5135341.00 189.51
-9755294.55 5135342.67 184.71
-9755294.35 5135341.93 189.21
-9755295.13 5135346.08 181.28
-9755296.58 5135343.19 185.23
-9755296.28 5135345.20 181.28
-9755293.69 5135342.87 184.66
-9755293.35 5135339.26 190.96
-9755295.31 5135337.61 192.01
-9755294.62 5135337.94 189.06
-9755295.51 5135342.40 189.55
-9755293.01 5135346.04 181.28
-9755293.91 5135341.60 187.85
-9755292.41 5135342.41 183.92
-9755295.00 5135343.35 184.10
-9755294.21 5135344.31 181.26
-9755294.76 5135342.59 186.48
-9755294.69 5135343.56 185.37
-9755295.59 5135340.23 192.45
-9755296.71 5135341.56 190.05
-9755294.56 5135342.42 187.64
-9755295.67 5135338.89 190.53
-9755310.02 5135322.17 182.25
-9755302.02 5135321.22 182.51
-9755306.17 5135320.34 182.54
-9755297.89 5135320.60 182.54
-9755301.19 5135320.32 182.58
-9755302.07 5135320.31 182.57
-9755302.61 5135321.51 182.47
-9755298.49 5135321.19 182.53
-9755298.48 5135319.37 182.59
-9755308.28 5135319.47 182.57
-9755309.10 5135321.28 182.41
-9755301.74 5135319.72 182.62
-9755304.37 5135321.53 182.44
-9755300.84 5135321.20 182.52
-9755306.13 5135321.26 182.44
-9755305.26 5135321.52 182.43
-9755293.48 5135321.44 182.52
-9755294.37 5135320.54 182.50
-9755292.59 5135319.95 182.62
-9755292.59 5135321.43 182.52
-9755293.79 5135319.95 182.51
-9755298.46 5135334.60 186.91
-9755303.43 5135331.03 181.14
-9755298.38 5135334.02 186.77
-9755302.81 5135334.59 181.17
-9755297.84 5135333.71 187.05
-9755303.38 5135332.23 181.13
-9755296.83 5135333.81 186.93
-9755300.48 5135331.93 181.13
-9755298.43 5135333.93 186.05
-9755299.58 5135331.33 181.12
-9755309.47 5135330.37 185.70
-9755301.64 5135332.81 181.14
-9755299.26 5135335.45 186.96
-9755300.22 5135328.69 181.36
-9755297.10 5135334.37 187.38
-9755298.81 5135322.35 182.43
-9755297.56 5135330.09 181.19
