-9755667.88 5135517.44 184.89
-9755667.05 5135516.54 186.12
-9755669.11 5135517.36 186.15
-9755675.03 5135516.47 186.40
-9755670.26 5135516.28 184.94
-9755670.87 5135517.42 184.95
-9755670.95 5135516.59 184.96
-9755675.94 5135515.63 186.11
-9755669.95 5135517.41 186.15
-9755671.44 5135516.56 184.98
-9755674.20 5135516.45 186.33
-9755668.47 5135515.58 186.15
-9755676.45 5135516.46 186.26
-9755667.65 5135517.41 186.12
-9755677.07 5135515.69 185.05
-9755676.44 5135515.94 186.28
-9755672.33 5135517.16 185.02
-9755674.43 5135517.28 186.20
-9755673.27 5135515.63 186.70
-9755667.36 5135516.54 186.11
-9755672.64 5135518.08 185.05
-9755677.37 5135517.74 184.98
-9755666.10 5135518.29 184.97
-9755677.04 5135518.05 185.03
-9755665.55 5135517.72 185.02
-9755664.96 5135516.49 185.07
-9755648.49 5135518.18 185.33
-9755663.54 5135514.14 185.09
-9755657.58 5135514.11 185.11
-9755662.36 5135514.14 185.12
-9755659.13 5135514.10 185.12
-9755653.50 5135514.02 185.17
-9755658.77 5135515.03 185.12
-9755653.78 5135513.83 186.81
-9755652.06 5135514.04 185.63
-9755651.13 5135514.37 185.19
-9755650.27 5135514.03 187.13
-9755648.48 5135514.07 185.32
-9755650.78 5135513.74 186.00
-9755650.18 5135514.96 185.60
-9755663.50 5135514.74 185.12
-9755656.70 5135514.98 185.11
-9755654.30 5135516.68 186.78
-9755654.12 5135515.74 186.78
-9755661.07 5135516.49 185.18
-9755658.52 5135515.93 185.11
-9755664.11 5135516.46 185.10
-9755661.73 5135515.06 185.15
-9755659.38 5135514.68 185.15
-9755654.28 5135516.37 186.36
-9755656.98 5135516.47 185.10
-9755659.10 5135517.36 185.14
-9755656.98 5135517.65 185.10
-9755663.48 5135517.68 185.08
-9755656.72 5135515.58 185.10
-9755657.61 5135515.60 185.09
-9755652.38 5135515.85 185.59
-9755651.77 5135517.43 185.63
-9755649.37 5135517.33 185.29
-9755649.38 5135516.73 185.29
-9755650.25 5135517.28 186.85
-9755650.25 5135515.91 185.57
-9755650.28 5135516.35 186.00
-9755650.29 5135516.63 186.85
-9755648.46 5135516.73 185.33
-9755676.55 5135499.83 185.58
-9755668.99 5135492.79 186.20
-9755668.56 5135498.58 185.42
-9755674.24 5135499.11 185.56
-9755673.38 5135492.87 185.13
-9755673.95 5135491.16 185.50
-9755677.81 5135494.37 186.50
-9755674.07 5135494.64 185.57
-9755670.68 5135497.90 184.98
-9755672.46 5135491.99 185.51
-9755672.44 5135491.98 186.44
-9755674.79 5135490.14 186.39
-9755677.47 5135493.47 185.02
-9755670.76 5135491.11 185.00
-9755677.85 5135502.03 186.45
-9755677.51 5135489.56 186.65
-9755676.61 5135490.26 185.03
-9755673.41 5135493.49 185.55
-9755674.02 5135490.14 186.36
-9755674.21 5135493.69 185.57
-9755668.36 5135500.15 186.17
-9755676.56 5135501.18 185.47
-9755674.24 5135493.68 186.32
-9755669.17 5135500.98 186.01
-9755673.37 5135496.13 185.53
-9755669.87 5135491.02 186.18
-9755670.15 5135491.94 184.97
-9755670.73 5135490.23 185.00
-9755673.41 5135495.26 185.11
-9755669.15 5135498.57 186.17
-9755670.95 5135498.52 185.00
-9755675.17 5135495.26 185.13
-9755673.03 5135500.91 185.07
-9755669.18 5135499.08 184.95
-9755675.77 5135494.24 186.73
-9755668.38 5135492.49 186.20
-9755670.08 5135492.83 186.24
-9755668.33 5135494.23 186.19
-9755675.16 5135493.52 185.58
-9755674.27 5135500.23 185.56
-9755670.11 5135496.75 186.19
-9755675.96 5135500.67 185.46
-9755667.53 5135491.01 186.18
-9755669.29 5135489.52 186.17
-9755672.42 5135497.55 185.49
-9755677.47 5135491.07 186.47
-9755667.50 5135496.11 186.19
-9755676.06 5135488.78 185.08
-9755668.26 5135501.04 186.17
-9755673.60 5135491.08 185.45
-9755674.87 5135491.73 185.11
-9755675.72 5135490.19 185.11
-9755672.60 5135489.45 186.31
-9755674.24 5135496.09 185.52
-9755677.59 5135499.96 186.44
-9755669.22 5135496.94 184.97
-9755674.31 5135494.84 185.59
-9755675.11 5135495.97 185.53
-9755669.17 5135496.90 186.17
-9755670.13 5135494.34 186.23
-9755666.83 5135499.09 184.93
-9755671.68 5135490.06 186.86
-9755669.30 5135491.14 185.36
-9755675.77 5135496.93 185.53
-9755668.35 5135493.71 186.20
-9755669.29 5135495.22 186.20
-9755667.44 5135488.43 186.16
-9755668.40 5135490.40 186.21
-9755669.19 5135498.49 184.96
-9755672.50 5135494.35 185.47
-9755669.23 5135500.86 184.96
-9755672.75 5135498.42 185.46
-9755670.15 5135495.13 186.20
-9755666.93 5135490.15 186.16
-9755672.50 5135496.03 186.26
-9755667.80 5135497.92 186.23
-9755670.10 5135493.72 186.20
-9755672.68 5135501.10 186.20
-9755672.49 5135495.22 185.48
-9755666.59 5135491.92 186.29
-9755672.08 5135497.78 185.46
-9755672.48 5135498.11 186.79
-9755674.71 5135500.20 185.56
-9755676.93 5135491.06 185.01
-9755672.09 5135492.58 185.42
-9755669.23 5135501.08 185.33
-9755674.14 5135491.08 186.32
-9755677.23 5135491.16 185.01
-9755668.37 5135496.04 186.19
-9755672.54 5135492.54 185.49
-9755677.78 5135496.72 186.40
-9755672.49 5135490.17 186.38
-9755667.79 5135494.23 186.21
-9755672.46 5135493.37 186.74
-9755672.44 5135499.91 186.04
-9755668.31 5135496.92 186.17
-9755672.43 5135492.15 186.82
-9755676.33 5135496.98 186.80
-9755677.80 5135490.15 185.69
-9755676.59 5135492.71 186.89
-9755676.03 5135498.41 186.82
-9755677.78 5135494.43 185.61
-9755674.82 5135497.61 185.08
-9755668.97 5135497.52 186.17
-9755674.86 5135492.61 185.09
-9755666.57 5135496.03 186.27
-9755677.53 5135489.26 186.67
-9755674.94 5135489.61 186.38
-9755677.72 5135501.75 185.02
-9755676.32 5135490.50 186.86
-9755676.29 5135496.16 185.10
-9755675.99 5135499.87 186.82
-9755670.13 5135497.41 186.21
-9755671.95 5135491.02 186.78
-9755673.99 5135491.90 186.37
-9755667.72 5135493.36 186.18
-9755673.37 5135501.74 185.53
-9755677.77 5135489.42 185.55
-9755672.61 5135491.18 185.43
-9755672.64 5135495.90 185.49
-9755672.47 5135499.30 186.80
-9755673.09 5135489.28 186.30
-9755670.74 5135492.56 184.99
-9755670.20 5135489.51 186.24
-9755672.55 5135499.45 185.49
-9755671.02 5135488.38 184.99
-9755672.47 5135492.46 186.88
-9755668.31 5135497.54 186.18
-9755676.50 5135501.74 186.28
-9755667.76 5135498.40 186.21
-9755672.52 5135501.74 185.57
-9755677.15 5135496.12 185.01
-9755670.00 5135501.36 185.36
-9755669.60 5135490.46 185.41
-9755675.78 5135500.12 185.46
-9755672.26 5135491.00 186.77
-9755667.58 5135490.46 186.16
-9755676.32 5135489.57 186.77
-9755668.99 5135496.08 186.19
-9755666.87 5135495.22 186.17
-9755673.03 5135499.95 185.47
-9755675.73 5135489.30 186.33
-9755672.69 5135500.80 185.48
-9755667.87 5135500.14 186.15
-9755667.44 5135496.91 186.20
-9755670.08 5135501.14 184.97
-9755676.92 5135495.92 185.01
-9755669.33 5135491.07 186.19
-9755671.93 5135490.33 186.65
-9755674.27 5135501.67 185.56
-9755669.09 5135499.01 186.18
-9755677.49 5135490.15 186.67
-9755666.91 5135494.21 186.19
-9755676.05 5135499.09 186.83
-9755677.11 5135490.23 185.01
-9755666.55 5135500.85 184.94
-9755666.85 5135497.88 184.93
-9755669.23 5135495.27 184.96
-9755672.07 5135497.62 185.97
-9755671.61 5135499.34 185.00
-9755669.06 5135488.68 186.16
-9755676.27 5135492.02 186.85
-9755675.88 5135490.98 186.82
-9755676.04 5135501.19 186.81
-9755671.59 5135498.51 185.00
-9755676.50 5135500.76 186.80
-9755671.59 5135494.96 184.99
-9755670.62 5135495.71 186.57
-9755675.94 5135497.02 186.83
-9755676.90 5135489.96 185.01
-9755672.38 5135501.77 186.05
-9755672.00 5135492.12 186.82
-9755671.89 5135489.54 186.77
-9755676.94 5135491.46 185.01
-9755670.64 5135501.76 184.97
-9755670.79 5135489.35 184.99
-9755670.13 5135496.70 184.97
-9755677.23 5135492.01 185.01
-9755669.11 5135501.99 186.11
-9755677.19 5135492.56 185.00
-9755671.54 5135501.48 185.00
-9755666.70 5135489.49 186.18
-9755671.89 5135496.70 185.03
-9755677.55 5135488.68 186.67
-9755676.31 5135488.94 186.69
-9755665.97 5135493.46 184.98
-9755666.00 5135497.55 184.96
-9755665.86 5135491.80 186.57
-9755665.74 5135491.65 184.98
-9755665.96 5135498.51 184.96
-9755665.37 5135498.13 184.99
-9755666.02 5135491.08 184.97
-9755665.45 5135491.06 185.00
-9755666.26 5135493.65 186.08
-9755665.97 5135495.19 184.98
-9755665.97 5135495.81 184.98
-9755665.42 5135491.66 185.00
-9755665.41 5135500.22 185.01
-9755670.98 5135502.37 185.00
-9755670.08 5135513.01 186.18
-9755669.85 5135506.67 186.11
-9755676.62 5135501.80 185.08
-9755669.24 5135504.04 186.22
-9755673.36 5135504.24 185.53
-9755673.23 5135504.92 185.52
-9755667.68 5135507.00 186.22
-9755669.26 5135507.57 186.25
-9755668.29 5135502.47 186.21
-9755668.31 5135506.53 186.16
-9755667.43 5135501.44 184.92
-9755669.21 5135506.41 186.17
-9755677.81 5135508.74 186.74
-9755672.71 5135507.34 185.54
-9755672.70 5135506.75 185.53
-9755677.84 5135508.17 186.65
-9755673.27 5135511.58 185.43
-9755669.17 5135505.59 186.22
-9755673.05 5135502.63 185.50
-9755667.76 5135502.18 186.14
-9755669.11 5135511.77 186.14
-9755668.55 5135510.85 186.16
-9755672.49 5135511.00 185.45
-9755669.19 5135503.52 186.22
-9755669.97 5135506.55 185.43
-9755666.70 5135510.83 186.27
-9755674.09 5135512.45 186.28
-9755670.60 5135509.15 184.95
-9755667.12 5135504.40 186.17
-9755670.87 5135513.33 184.96
-9755672.38 5135503.43 185.54
-9755668.26 5135512.38 186.14
-9755666.81 5135513.21 186.39
-9755672.56 5135505.03 186.18
-9755672.52 5135509.91 185.55
-9755676.09 5135506.51 186.82
-9755674.18 5135511.55 185.07
-9755667.42 5135511.69 186.09
-9755675.90 5135512.48 185.52
-9755669.16 5135510.03 186.17
-9755672.45 5135507.41 186.05
-9755669.22 5135505.26 184.94
-9755671.55 5135505.33 185.00
-9755670.90 5135510.93 184.97
-9755669.15 5135512.33 186.11
-9755672.43 5135512.33 186.75
-9755667.78 5135504.14 186.17
-9755666.83 5135502.33 184.95
-9755674.09 5135513.28 186.32
-9755670.33 5135509.81 184.98
-9755675.00 5135513.23 186.32
-9755668.67 5135503.41 186.25
-9755670.10 5135508.56 184.94
-9755670.63 5135510.04 184.97
-9755670.07 5135505.31 184.97
-9755672.66 5135508.38 186.31
-9755672.42 5135511.79 186.79
-9755668.39 5135507.33 186.17
-9755669.10 5135507.36 185.38
-9755672.82 5135504.39 185.51
-9755673.43 5135513.24 186.29
-9755668.41 5135505.90 186.29
-9755670.06 5135511.46 186.12
-9755672.50 5135508.28 185.52
-9755676.61 5135505.01 185.08
-9755675.71 5135510.80 185.56
-9755666.84 5135503.21 184.94
-9755666.82 5135505.29 184.97
-9755667.62 5135513.17 186.18
-9755672.44 5135509.12 186.78
-9755672.62 5135503.41 186.80
-9755670.33 5135507.65 184.95
-9755668.56 5135511.53 186.12
-9755671.59 5135504.10 184.99
-9755667.70 5135503.51 184.92
-9755670.32 5135506.76 184.97
-9755670.38 5135504.10 184.97
-9755675.33 5135512.68 186.31
-9755669.18 5135505.59 184.95
-9755676.53 5135506.72 186.80
-9755666.78 5135508.24 184.96
-9755672.41 5135510.91 186.80
-9755670.27 5135512.51 184.95
-9755671.78 5135513.27 184.98
-9755671.55 5135503.58 185.00
-9755668.26 5135513.22 186.17
-9755666.71 5135511.65 186.28
-9755669.20 5135509.35 184.94
-9755673.26 5135512.40 186.30
-9755672.70 5135505.85 186.79
-9755676.59 5135508.50 186.80
-9755675.14 5135506.56 185.55
-9755672.46 5135509.05 185.52
-9755669.09 5135509.08 186.13
-9755668.28 5135504.96 186.27
-9755667.76 5135509.17 186.01
-9755670.13 5135513.12 184.91
-9755667.39 5135502.60 184.94
-9755666.78 5135509.18 186.00
-9755677.40 5135511.61 185.02
-9755671.79 5135510.66 184.98
-9755676.63 5135510.87 186.84
-9755670.68 5135506.82 184.97
-9755670.04 5135503.22 184.95
-9755667.76 5135507.96 186.11
-9755677.35 5135512.47 185.03
-9755672.43 5135504.32 186.77
-9755672.73 5135512.33 186.17
-9755671.54 5135505.88 184.99
-9755668.94 5135502.64 186.19
-9755670.07 5135508.85 184.94
-9755670.65 5135505.63 184.97
-9755670.12 5135510.79 184.98
-9755677.47 5135511.01 185.01
-9755672.41 5135503.51 186.28
-9755669.57 5135510.22 184.99
-9755666.76 5135507.65 184.96
-9755668.17 5135506.16 185.33
-9755675.71 5135512.47 186.35
-9755675.92 5135507.62 186.84
-9755677.69 5135507.32 186.64
-9755676.22 5135512.40 186.82
-9755672.46 5135504.96 186.78
-9755665.88 5135509.99 184.98
-9755665.91 5135510.87 184.98
-9755665.91 5135512.38 184.98
-9755665.92 5135503.17 184.97
-9755665.31 5135505.27 185.01
-9755665.92 5135504.13 184.97
-9755665.02 5135509.71 185.05
-9755665.89 5135511.50 184.97
-9755665.32 5135504.40 185.01
-9755665.34 5135506.17 185.01
-9755665.07 5135501.43 185.05
-9755665.33 5135506.70 185.01
-9755665.08 5135502.89 185.06
-9755665.02 5135507.95 185.06
-9755659.18 5135499.01 185.17
-9755665.10 5135496.07 185.03
-9755656.24 5135495.71 185.12
-9755656.60 5135490.99 185.11
-9755654.19 5135496.91 185.15
-9755658.30 5135497.83 185.13
-9755657.12 5135497.80 185.10
-9755660.98 5135491.01 185.15
-9755657.74 5135491.59 185.11
-9755665.43 5135499.68 185.00
-9755664.52 5135489.56 185.08
-9755654.13 5135500.79 185.15
-9755654.52 5135493.34 185.17
-9755665.15 5135489.00 185.02
-9755661.88 5135500.19 185.12
-9755658.31 5135499.02 185.11
-9755657.70 5135499.32 185.11
-9755654.49 5135498.44 185.15
-9755657.14 5135493.39 185.11
-9755659.18 5135496.63 185.17
-9755658.36 5135489.86 185.11
-9755660.66 5135493.39 185.17
-9755654.22 5135495.16 185.15
-9755660.14 5135494.27 185.19
-9755656.00 5135494.55 185.13
-9755660.38 5135492.79 185.18
-9755656.26 5135499.31 185.14
-9755655.37 5135494.24 185.16
-9755663.35 5135496.68 185.11
-9755654.38 5135498.73 186.61
-9755657.11 5135496.62 185.11
-9755663.99 5135491.64 185.12
-9755658.59 5135496.93 185.13
-9755654.53 5135492.81 185.17
-9755658.56 5135498.45 185.12
-9755654.51 5135489.51 185.18
-9755658.62 5135494.27 185.14
-9755660.08 5135498.42 185.18
-9755659.84 5135495.17 185.18
-9755662.74 5135495.80 185.13
-9755663.64 5135492.52 185.12
-9755658.31 5135500.74 185.13
-9755664.49 5135499.92 185.09
-9755661.58 5135492.75 185.16
-9755659.49 5135494.24 185.18
-9755657.76 5135497.57 185.09
-9755654.22 5135491.86 185.15
-9755658.62 5135499.92 185.14
-9755658.62 5135495.20 185.13
-9755664.47 5135497.58 185.07
-9755658.36 5135491.86 185.13
-9755653.66 5135490.83 186.84
-9755661.83 5135495.19 185.13
-9755655.98 5135491.91 185.13
-9755660.37 5135499.91 185.19
-9755655.05 5135497.81 185.16
-9755655.06 5135501.96 185.15
-9755661.57 5135494.56 185.13
-9755660.99 5135498.74 185.17
-9755659.19 5135498.70 185.17
-9755663.56 5135496.15 185.12
-9755653.61 5135500.14 186.84
-9755654.15 5135500.97 186.77
-9755657.71 5135493.66 185.09
-9755660.09 5135496.94 185.16
-9755655.96 5135489.23 185.14
-9755661.24 5135500.24 185.15
-9755653.65 5135499.51 186.86
-9755660.44 5135488.66 185.15
-9755654.45 5135499.29 185.13
-9755663.57 5135498.48 185.11
-9755663.36 5135494.33 185.11
-9755656.58 5135492.81 185.10
-9755662.72 5135491.03 185.13
-9755661.82 5135497.55 185.14
-9755659.25 5135491.02 185.19
-9755654.35 5135494.72 186.60
-9755658.35 5135492.50 185.12
-9755655.37 5135496.91 185.15
-9755653.47 5135489.23 187.12
-9755664.25 5135494.61 185.09
-9755654.26 5135496.94 186.70
-9755660.95 5135497.51 185.15
-9755654.19 5135488.64 187.14
-9755661.05 5135489.22 185.16
-9755653.60 5135488.48 187.08
-9755663.67 5135497.86 185.09
-9755657.77 5135489.27 185.10
-9755663.89 5135499.05 185.10
-9755664.42 5135501.68 185.08
-9755661.90 5135491.03 185.13
-9755657.68 5135501.09 185.11
-9755653.45 5135492.70 186.87
-9755653.64 5135490.25 186.96
-9755664.84 5135489.89 185.05
-9755663.97 5135495.24 185.10
-9755654.28 5135489.46 186.86
-9755655.39 5135495.44 185.16
-9755656.31 5135488.66 185.13
-9755661.59 5135493.43 185.15
-9755653.72 5135501.01 186.95
-9755656.25 5135497.78 185.11
-9755662.73 5135496.65 185.11
-9755654.55 5135490.39 185.17
-9755654.38 5135495.85 186.71
-9755654.19 5135494.28 185.14
-9755657.05 5135502.01 185.11
-9755659.19 5135500.19 185.18
-9755655.05 5135500.75 185.15
-9755651.79 5135498.69 185.17
-9755652.84 5135498.34 185.63
-9755651.91 5135491.01 185.15
-9755651.24 5135499.17 185.64
-9755651.89 5135495.98 185.65
-9755652.71 5135499.87 185.15
-9755650.95 5135495.70 185.19
-9755650.36 5135495.99 185.61
-9755650.34 5135498.37 185.63
-9755650.03 5135496.23 186.89
-9755650.97 5135500.15 185.16
-9755649.43 5135497.49 185.19
-9755650.43 5135492.67 185.60
-9755651.85 5135489.46 185.18
-9755652.66 5135500.77 185.65
-9755651.83 5135495.43 185.18
-9755651.02 5135495.05 185.64
-9755650.35 5135489.43 185.17
-9755648.55 5135497.46 185.33
-9755650.18 5135494.25 185.62
-9755651.82 5135500.14 185.64
-9755649.89 5135493.26 186.42
-9755650.34 5135497.45 185.65
-9755650.04 5135495.03 186.89
-9755652.48 5135492.76 185.64
-9755650.35 5135494.52 186.89
-9755652.44 5135499.29 185.61
-9755652.72 5135490.34 185.66
-9755650.42 5135490.34 185.66
-9755649.77 5135493.51 186.93
-9755649.72 5135495.34 185.93
-9755648.53 5135500.72 185.32
-9755650.33 5135499.20 185.19
-9755649.46 5135500.14 185.19
-9755651.91 5135488.34 185.16
-9755650.95 5135492.77 185.63
-9755651.80 5135501.59 185.60
-9755648.59 5135491.84 185.32
-9755648.65 5135493.62 185.31
-9755648.54 5135499.22 185.31
-9755650.38 5135491.87 185.64
-9755650.39 5135496.86 185.61
-9755652.67 5135501.62 185.65
-9755650.04 5135498.05 185.95
-9755649.83 5135500.27 186.84
-9755648.57 5135498.35 185.32
-9755651.77 5135500.70 185.61
-9755649.85 5135500.71 186.85
-9755652.14 5135490.36 185.18
-9755648.56 5135499.88 185.32
-9755650.11 5135496.60 186.53
-9755649.81 5135496.72 186.91
-9755649.73 5135494.98 186.91
-9755649.81 5135496.23 186.91
-9755648.64 5135492.73 185.31
-9755650.38 5135497.22 186.60
-9755649.80 5135494.14 186.92
-9755650.24 5135499.77 185.88
-9755653.65 5135501.92 185.60
-9755660.35 5135501.70 185.20
-9755663.30 5135501.75 185.09
-9755656.18 5135513.48 185.12
-9755660.30 5135506.11 185.18
-9755662.66 5135510.62 185.10
-9755663.52 5135511.45 185.10
-9755656.84 5135502.30 185.11
-9755658.35 5135501.64 185.13
-9755659.43 5135509.99 185.17
-9755660.02 5135504.92 185.21
-9755653.83 5135505.22 186.35
-9755660.88 5135512.34 185.18
-9755653.88 5135513.22 186.42
-9755661.48 5135508.47 185.12
-9755653.77 5135511.56 187.05
-9755664.41 5135510.91 185.09
-9755656.23 5135504.94 185.11
-9755656.77 5135507.58 185.13
-9755653.91 5135501.88 186.95
-9755654.46 5135513.46 187.07
-9755662.71 5135506.73 185.11
-9755664.09 5135512.42 185.10
-9755657.73 5135503.43 185.10
-9755654.41 5135509.93 185.14
-9755662.08 5135506.72 185.13
-9755655.92 5135510.25 185.13
-9755657.64 5135509.68 185.11
-9755663.50 5135509.46 185.10
-9755657.93 5135510.89 185.09
-9755654.15 5135506.08 186.97
-9755662.11 5135507.61 185.11
-9755654.40 5135504.04 185.14
-9755658.50 5135509.40 185.11
-9755661.77 5135511.75 185.14
-9755657.62 5135512.38 185.09
-9755654.40 5135511.45 185.13
-9755653.91 5135508.36 187.08
-9755660.90 5135506.72 185.16
-9755658.82 5135510.85 185.12
-9755655.92 5135504.05 185.11
-9755659.40 5135509.38 185.17
-9755661.75 5135505.55 185.14
-9755654.06 5135509.28 186.47
-9755654.65 5135510.87 185.14
-9755654.43 5135505.18 185.13
-9755664.18 5135511.79 185.09
-9755660.32 5135512.64 185.19
-9755655.03 5135506.12 185.14
-9755655.61 5135509.92 185.15
-9755656.20 5135505.81 185.11
-9755654.15 5135502.53 185.16
-9755664.44 5135513.26 185.08
-9755654.38 5135512.57 185.14
-9755653.58 5135512.46 187.08
-9755656.14 5135512.64 185.11
-9755654.43 5135508.22 185.12
-9755658.55 5135502.56 185.13
-9755660.26 5135510.87 185.18
-9755655.90 5135508.42 185.12
-9755662.68 5135503.49 185.11
-9755653.77 5135510.16 185.18
-9755661.16 5135513.25 185.17
-9755660.34 5135509.09 185.17
-9755657.10 5135504.02 185.10
-9755659.23 5135501.64 185.18
-9755654.35 5135512.78 186.42
-9755662.95 5135511.84 185.09
-9755654.16 5135507.46 187.09
-9755658.60 5135511.74 185.10
-9755653.83 5135506.60 187.06
-9755659.15 5135505.85 185.16
-9755660.29 5135511.76 185.18
-9755660.30 5135507.32 185.19
-9755658.55 5135509.97 185.11
-9755654.18 5135504.80 186.80
-9755661.75 5135512.40 185.15
-9755656.74 5135512.65 185.11
-9755653.88 5135507.40 187.09
-9755655.33 5135504.02 185.14
-9755659.41 5135506.42 185.18
-9755654.15 5135506.86 187.05
-9755657.05 5135513.21 185.11
-9755653.85 5135505.97 186.99
-9755662.63 5135509.43 185.11
-9755662.67 5135504.10 185.12
-9755659.17 5135507.61 185.16
-9755655.86 5135510.87 185.14
-9755653.24 5135510.81 185.22
-9755662.72 5135507.64 185.11
-9755654.98 5135511.72 185.13
-9755653.49 5135511.39 185.19
-9755659.15 5135505.20 185.16
-9755662.71 5135508.48 185.11
-9755651.17 5135502.52 185.71
-9755651.23 5135503.45 185.17
-9755651.20 5135510.64 186.39
-9755652.67 5135507.51 185.62
-9755649.39 5135511.70 185.27
-9755650.04 5135502.70 186.98
-9755652.57 5135504.33 185.61
-9755649.41 5135501.94 185.18
-9755651.20 5135511.73 185.19
-9755652.58 5135505.86 185.63
-9755651.16 5135508.96 186.51
-9755649.68 5135506.01 185.18
-9755651.14 5135511.48 186.22
-9755652.60 5135512.52 186.90
-9755651.80 5135508.36 185.63
-9755650.39 5135508.17 185.64
-9755651.20 5135511.54 187.07
-9755650.33 5135508.97 185.72
-9755651.10 5135508.37 185.58
-9755651.16 5135509.89 186.89
-9755650.32 5135501.66 185.64
-9755649.39 5135509.84 185.27
-9755650.30 5135509.24 187.12
-9755650.25 5135510.01 187.17
-9755651.97 5135511.71 187.12
-9755648.52 5135506.04 185.33
-9755652.05 5135503.69 185.63
-9755650.33 5135511.61 187.11
-9755652.65 5135511.74 187.12
-9755650.46 5135513.43 185.73
-9755651.17 5135512.55 186.92
-9755650.30 5135504.32 186.89
-9755651.20 5135509.00 186.92
-9755649.47 5135504.01 185.20
-9755650.34 5135507.29 185.63
-9755652.63 5135510.12 187.03
-9755650.31 5135502.82 185.64
-9755652.60 5135503.53 185.61
-9755648.55 5135504.27 185.32
-9755650.33 5135504.91 185.61
-9755651.01 5135506.79 185.63
-9755650.30 5135503.14 185.62
-9755648.15 5135515.86 185.32
-9755648.54 5135505.20 185.34
-9755652.65 5135504.93 185.16
-9755651.67 5135513.11 186.89
-9755649.43 5135510.80 185.26
-9755650.12 5135504.33 185.66
-9755648.55 5135506.92 185.33
-9755650.29 5135511.72 185.20
-9755649.44 5135509.31 185.23
-9755651.23 5135505.07 185.63
-9755650.24 5135504.71 186.86
-9755651.76 5135506.62 185.15
-9755650.94 5135512.45 186.33
-9755648.51 5135513.17 185.34
-9755652.02 5135510.03 187.10
-9755650.27 5135503.37 186.89
-9755652.02 5135505.20 185.18
-9755649.84 5135501.84 186.72
-9755651.73 5135512.50 186.89
-9755652.03 5135509.02 186.89
-9755651.23 5135507.61 185.16
-9755649.32 5135513.15 185.28
-9755652.61 5135511.66 185.18
-9755650.90 5135503.98 185.18
-9755649.79 5135506.67 187.17
-9755653.03 5135513.08 186.91
-9755650.42 5135507.52 187.14
-9755649.84 5135508.22 187.10
-9755650.34 5135508.28 187.08
-9755648.50 5135509.30 185.31
-9755649.72 5135503.37 186.92
-9755652.14 5135508.66 186.89
-9755647.88 5135514.06 185.33
-9755643.73 5135514.02 185.12
-9755647.60 5135514.96 185.33
-9755645.24 5135514.05 185.33
-9755641.96 5135514.02 184.99
-9755640.55 5135513.96 185.03
-9755639.36 5135514.88 185.02
-9755646.38 5135515.82 185.33
-9755645.52 5135516.41 185.34
-9755647.03 5135515.22 185.32
-9755647.02 5135516.72 185.31
-9755647.92 5135516.38 185.32
-9755643.75 5135515.52 185.11
-9755642.86 5135516.11 184.99
-9755642.63 5135514.93 184.99
-9755644.63 5135517.26 185.27
-9755642.00 5135515.86 185.00
-9755641.40 5135515.83 185.03
-9755641.37 5135516.40 185.00
-9755642.30 5135516.46 184.97
-9755641.06 5135516.42 185.02
-9755638.73 5135515.78 185.02
-9755638.75 5135515.19 185.03
-9755638.46 5135516.13 185.01
-9755638.72 5135517.28 185.01
-9755639.64 5135516.39 185.00
-9755634.58 5135514.25 186.43
-9755637.26 5135514.00 185.15
-9755629.61 5135513.38 185.09
-9755635.51 5135514.92 185.96
-9755633.83 5135514.33 186.12
-9755635.32 5135513.97 186.45
-9755629.58 5135513.97 185.08
-9755635.22 5135513.30 186.44
-9755637.61 5135514.95 185.11
-9755635.23 5135513.07 185.18
-9755636.15 5135513.08 185.20
-9755618.98 5135513.98 184.73
-9755618.43 5135513.90 184.67
-9755626.36 5135513.89 185.11
-9755620.77 5135513.36 184.90
-9755621.41 5135514.25 184.85
-9755624.91 5135514.24 185.12
-9755634.61 5135515.62 186.44
-9755634.55 5135517.45 186.43
-9755633.75 5135515.71 185.23
-9755629.61 5135514.83 185.08
-9755634.67 5135516.67 186.45
-9755628.69 5135514.85 185.09
-9755636.12 5135515.75 186.12
-9755636.93 5135516.59 186.01
-9755635.54 5135515.67 186.14
-9755632.89 5135516.33 185.15
-9755636.99 5135517.53 185.18
-9755628.74 5135516.61 185.08
-9755631.36 5135515.39 185.09
-9755637.21 5135515.77 185.89
-9755627.26 5135515.69 185.12
-9755633.77 5135515.77 186.15
-9755627.79 5135515.71 185.09
-9755636.37 5135515.47 185.18
-9755633.80 5135516.34 186.02
-9755636.13 5135515.11 186.03
-9755636.72 5135515.14 185.86
-9755632.88 5135516.02 185.15
-9755636.87 5135517.56 186.07
-9755628.70 5135515.73 185.07
-9755626.34 5135516.57 185.12
-9755620.45 5135517.43 184.81
-9755618.99 5135517.18 184.68
-9755621.69 5135515.10 184.91
-9755624.54 5135514.80 185.13
-9755623.14 5135515.67 185.14
-9755625.44 5135517.51 185.14
-9755619.84 5135517.48 184.84
-9755618.40 5135515.72 184.54
-9755624.01 5135515.12 185.12
-9755626.36 5135517.47 185.13
-9755620.77 5135515.69 184.85
-9755624.59 5135516.30 185.11
-9755625.44 5135515.70 185.13
-9755625.44 5135516.64 185.12
-9755623.16 5135514.79 185.11
-9755647.44 5135497.75 185.34
-9755646.22 5135494.19 185.32
-9755645.31 5135500.10 185.34
-9755643.59 5135488.89 185.15
-9755642.93 5135500.73 185.00
-9755641.82 5135495.01 184.94
-9755642.14 5135488.53 184.94
-9755645.96 5135490.94 185.33
-9755641.51 5135500.10 184.97
-9755646.85 5135493.59 185.33
-9755646.21 5135493.32 185.33
-9755642.10 5135490.31 184.96
-9755647.73 5135488.59 185.34
-9755646.57 5135489.42 185.32
-9755647.66 5135499.49 185.34
-9755646.27 5135492.76 185.32
-9755646.26 5135498.68 185.33
-9755645.37 5135495.36 185.33
-9755641.15 5135498.94 184.97
-9755641.22 5135497.10 184.97
-9755643.08 5135489.47 185.06
-9755643.85 5135500.08 185.17
-9755646.82 5135495.11 185.33
-9755644.47 5135488.54 185.32
-9755644.78 5135489.44 185.34
-9755642.77 5135491.85 185.01
-9755645.99 5135491.82 185.34
-9755647.13 5135491.82 185.33
-9755645.42 5135490.04 185.33
-9755644.80 5135491.85 185.33
-9755642.03 5135499.81 184.95
-9755644.25 5135489.98 185.31
-9755640.26 5135499.21 184.97
-9755641.29 5135488.49 184.93
-9755646.86 5135490.95 185.34
-9755643.59 5135495.10 185.14
-9755640.93 5135495.09 184.97
-9755647.74 5135495.94 185.33
-9755643.57 5135490.95 185.17
-9755640.65 5135496.82 184.97
-9755644.49 5135495.95 185.33
-9755645.40 5135488.54 185.32
-9755640.33 5135497.47 184.96
-9755647.74 5135489.99 185.33
-9755640.69 5135494.18 184.97
-9755645.34 5135492.74 185.34
-9755640.43 5135491.83 184.96
-9755640.33 5135489.42 184.95
-9755643.00 5135490.33 185.06
-9755640.67 5135488.56 184.97
-9755638.85 5135500.71 184.99
-9755639.42 5135495.01 184.91
-9755639.74 5135500.36 184.94
-9755639.53 5135493.60 184.93
-9755639.47 5135491.83 184.91
-9755638.92 5135499.24 184.99
-9755638.89 5135494.15 184.96
-9755639.50 5135488.52 184.90
-9755638.85 5135492.97 184.97
-9755639.77 5135489.24 184.93
-9755638.84 5135496.56 184.96
-9755639.46 5135498.60 184.93
-9755638.90 5135493.54 184.97
-9755638.58 5135495.94 184.97
-9755638.84 5135495.28 184.97
-9755643.80 5135513.46 185.12
-9755643.81 5135509.89 185.12
-9755647.90 5135511.69 185.33
-9755644.75 5135506.62 185.33
-9755642.65 5135507.53 185.00
-9755642.06 5135506.05 185.00
-9755642.02 5135512.26 185.01
-9755642.87 5135506.90 185.00
-9755645.31 5135503.38 185.32
-9755642.07 5135509.30 185.00
-9755644.73 5135506.05 185.32
-9755640.27 5135509.90 185.02
-9755647.08 5135503.39 185.32
-9755647.83 5135513.18 185.32
-9755647.08 5135509.87 185.32
-9755641.70 5135511.62 185.01
-9755644.71 5135504.55 185.32
-9755645.33 5135503.92 185.33
-9755640.25 5135508.38 185.00
-9755642.97 5135508.14 185.00
-9755644.39 5135509.86 185.22
-9755644.65 5135509.31 185.29
-9755643.21 5135509.29 185.06
-9755641.13 5135508.10 185.01
-9755644.70 5135502.73 185.32
-9755641.98 5135510.19 185.00
-9755646.16 5135506.04 185.33
-9755642.04 5135508.40 184.98
-9755642.09 5135504.24 184.99
-9755641.45 5135504.22 184.99
-9755645.28 5135509.31 185.33
-9755647.06 5135509.31 185.32
-9755647.03 5135508.43 185.32
-9755644.65 5135513.43 185.27
-9755643.82 5135507.56 185.13
-9755642.65 5135509.92 185.00
-9755647.61 5135509.28 185.32
-9755641.18 5135502.47 184.99
-9755642.02 5135505.18 184.96
-9755647.07 5135501.63 185.32
-9755646.18 5135510.82 185.32
-9755643.81 5135504.23 185.15
-9755647.60 5135504.86 185.34
-9755642.07 5135506.34 184.99
-9755643.78 5135512.55 185.13
-9755642.61 5135513.16 185.00
-9755647.92 5135507.54 185.33
-9755642.96 5135502.81 185.01
-9755640.50 5135511.67 185.03
-9755643.26 5135510.84 185.06
-9755645.01 5135507.49 185.34
-9755642.94 5135511.68 185.01
-9755646.16 5135501.88 185.33
-9755642.68 5135510.82 185.00
-9755641.97 5135513.15 184.99
-9755641.45 5135510.75 184.99
-9755641.41 5135509.85 185.01
-9755642.94 5135501.58 185.01
-9755643.17 5135512.46 185.03
-9755644.35 5135512.80 185.23
-9755640.85 5135510.78 185.02
-9755638.50 5135503.39 185.00
-9755638.77 5135510.46 185.04
-9755639.42 5135504.22 184.98
-9755638.56 5135501.55 184.99
-9755639.41 5135502.76 184.97
-9755639.36 5135511.07 185.03
-9755639.40 5135509.23 185.01
-9755638.80 5135511.61 185.02
-9755639.34 5135507.76 185.02
-9755634.01 5135493.42 186.45
-9755634.68 5135499.99 186.44
-9755635.34 5135493.81 186.32
-9755633.79 5135500.89 186.33
-9755633.02 5135498.24 186.33
-9755633.56 5135494.39 186.32
-9755635.35 5135496.66 186.31
-9755635.69 5135493.54 185.20
-9755633.83 5135498.29 186.38
-9755633.87 5135495.88 186.36
-9755635.62 5135495.89 186.32
-9755634.74 5135494.40 186.43
-9755633.92 5135489.26 186.42
-9755635.36 5135497.63 186.34
-9755633.59 5135496.76 185.20
-9755634.78 5135491.73 186.42
-9755634.71 5135500.87 186.43
-9755634.71 5135497.56 186.44
-9755634.59 5135494.49 185.56
-9755629.69 5135493.52 185.11
-9755630.64 5135496.48 185.11
-9755637.07 5135496.23 185.12
-9755634.45 5135493.43 186.44
-9755637.07 5135493.59 185.14
-9755631.47 5135497.68 185.11
-9755636.52 5135499.19 185.18
-9755628.77 5135497.36 185.09
-9755635.62 5135500.01 186.32
-9755633.03 5135494.94 186.33
-9755634.70 5135496.73 186.43
-9755634.66 5135499.33 186.43
-9755636.53 5135490.28 185.18
-9755633.93 5135488.50 186.43
-9755636.22 5135497.68 186.32
-9755636.19 5135495.29 186.34
-9755630.32 5135495.90 185.12
-9755636.51 5135498.25 185.18
-9755631.13 5135500.96 185.09
-9755632.99 5135497.58 186.33
-9755633.89 5135491.09 186.43
-9755627.95 5135488.42 185.13
-9755628.82 5135496.19 185.10
-9755633.26 5135494.12 185.19
-9755630.63 5135488.44 185.09
-9755635.69 5135488.51 185.19
-9755633.73 5135495.03 186.35
-9755638.24 5135501.01 184.99
-9755627.94 5135495.91 185.09
-9755633.85 5135490.19 186.41
-9755632.13 5135489.44 185.14
-9755635.63 5135490.33 185.19
-9755627.93 5135495.24 185.11
-9755635.63 5135491.77 185.20
-9755632.11 5135500.94 185.11
-9755634.76 5135491.24 186.42
-9755632.40 5135491.78 185.16
-9755635.61 5135498.55 186.32
-9755632.96 5135499.34 186.33
-9755633.88 5135496.95 186.35
-9755631.25 5135488.50 185.12
-9755633.83 5135499.37 186.35
-9755634.75 5135498.58 186.42
-9755627.37 5135495.28 185.10
-9755627.90 5135498.21 185.08
-9755628.01 5135492.64 185.09
-9755635.32 5135494.35 186.32
-9755633.88 5135492.54 186.41
-9755632.08 5135495.30 185.11
-9755630.37 5135489.96 185.10
-9755638.20 5135500.11 184.98
-9755632.08 5135495.87 185.11
-9755631.19 5135496.79 185.09
-9755631.25 5135489.96 185.12
-9755635.31 5135499.37 186.33
-9755628.85 5135491.16 185.10
-9755632.34 5135495.61 186.54
-9755633.26 5135489.36 185.21
-9755632.09 5135492.91 185.13
-9755631.20 5135492.62 185.11
-9755635.34 5135495.02 186.32
-9755636.17 5135494.39 186.35
-9755634.73 5135501.71 186.42
-9755633.88 5135497.52 186.34
-9755631.89 5135488.53 185.14
-9755627.10 5135490.27 185.11
-9755637.98 5135490.33 184.98
-9755627.05 5135499.15 185.13
-9755627.10 5135491.72 185.11
-9755635.07 5135491.16 185.19
-9755627.98 5135489.27 185.10
-9755638.01 5135492.66 184.99
-9755636.14 5135500.92 186.33
-9755628.89 5135489.35 185.10
-9755633.56 5135488.48 185.21
-9755634.77 5135489.31 186.40
-9755636.49 5135500.65 185.18
-9755636.17 5135499.38 186.32
-9755628.82 5135495.29 185.10
-9755629.72 5135495.88 185.10
-9755634.76 5135491.73 185.19
-9755630.30 5135500.02 185.12
-9755627.98 5135489.95 185.10
-9755630.53 5135499.44 185.10
-9755627.07 5135495.87 185.14
-9755630.35 5135493.79 185.10
-9755632.97 5135500.84 186.33
-9755632.46 5135497.66 186.43
-9755636.22 5135490.91 185.18
-9755636.84 5135500.82 186.47
-9755627.03 5135498.25 185.13
-9755637.71 5135499.15 185.02
-9755618.81 5135496.10 184.70
-9755618.84 5135496.75 184.68
-9755618.80 5135498.55 184.67
-9755619.97 5135498.52 184.82
-9755626.55 5135489.33 185.12
-9755621.78 5135490.80 185.10
-9755622.09 5135494.04 185.12
-9755623.22 5135497.60 185.15
-9755622.33 5135497.05 185.12
-9755626.26 5135498.51 185.12
-9755625.58 5135494.41 185.14
-9755619.97 5135493.45 184.85
-9755620.58 5135500.92 184.85
-9755625.38 5135493.45 185.13
-9755624.72 5135493.49 185.14
-9755620.63 5135493.49 184.86
-9755626.48 5135491.70 185.13
-9755625.55 5135500.86 185.13
-9755625.53 5135497.35 185.12
-9755618.80 5135494.37 184.72
-9755622.31 5135500.87 185.11
-9755620.53 5135495.88 184.85
-9755619.76 5135496.15 184.85
-9755624.99 5135494.08 185.14
-9755625.59 5135499.12 185.14
-9755623.84 5135493.16 185.14
-9755625.81 5135498.58 185.13
-9755624.17 5135496.99 185.12
-9755623.92 5135489.62 185.15
-9755623.79 5135492.59 185.14
-9755619.72 5135492.57 184.82
-9755620.59 5135494.33 184.84
-9755624.15 5135488.43 185.15
-9755619.13 5135489.59 184.79
-9755624.53 5135489.29 185.13
-9755624.78 5135488.46 185.14
-9755621.80 5135498.50 185.08
-9755623.22 5135500.32 185.14
-9755626.51 5135492.83 185.12
-9755623.85 5135496.15 185.14
-9755619.77 5135488.43 184.85
-9755625.38 5135492.85 185.14
-9755621.73 5135500.06 185.06
-9755618.87 5135489.93 184.76
-9755619.71 5135491.72 184.82
-9755626.47 5135501.16 185.15
-9755623.31 5135489.32 185.15
-9755623.20 5135499.37 185.13
-9755623.20 5135494.91 185.12
-9755623.26 5135490.18 185.14
-9755623.22 5135501.18 185.14
-9755618.80 5135491.72 184.72
-9755621.77 5135497.91 185.07
-9755621.15 5135494.36 184.90
-9755624.13 5135497.61 185.12
-9755626.50 5135493.52 185.13
-9755626.46 5135490.21 185.12
-9755618.83 5135492.61 184.73
-9755621.17 5135494.97 184.91
-9755624.69 5135501.20 185.13
-9755636.45 5135503.40 185.18
-9755634.76 5135502.60 186.43
-9755635.68 5135508.35 186.23
-9755632.02 5135513.35 185.12
-9755638.23 5135507.52 185.01
-9755631.13 5135507.49 185.09
-9755633.84 5135502.67 186.32
-9755636.23 5135507.39 185.99
-9755630.26 5135501.48 185.11
-9755631.48 5135502.70 185.10
-9755635.35 5135501.73 186.34
-9755627.88 5135506.79 185.09
-9755634.13 5135513.01 186.44
-9755628.26 5135501.81 185.08
-9755633.80 5135506.53 186.21
-9755637.01 5135510.73 185.16
-9755632.76 5135504.17 186.32
-9755634.70 5135504.39 186.43
-9755633.76 5135510.12 186.41
-9755633.87 5135503.23 186.30
-9755630.54 5135507.48 185.09
-9755633.76 5135512.50 185.21
-9755634.68 5135504.92 186.42
-9755636.45 5135507.21 185.18
-9755630.46 5135511.90 185.11
-9755631.42 5135504.47 185.11
-9755637.05 5135504.21 185.14
-9755637.30 5135509.28 185.14
-9755637.07 5135502.49 185.13
-9755633.22 5135506.02 186.18
-9755636.46 5135501.85 185.17
-9755636.10 5135501.88 186.33
-9755635.58 5135506.68 186.26
-9755632.05 5135507.46 185.12
-9755638.23 5135504.80 185.00
-9755637.86 5135512.50 185.05
-9755637.57 5135511.63 185.13
-9755636.21 5135509.90 186.24
-9755635.95 5135508.01 186.14
-9755634.65 5135510.03 186.39
-9755631.46 5135501.80 185.10
-9755635.57 5135505.96 186.23
-9755633.33 5135507.74 186.05
-9755629.71 5135501.48 185.09
-9755629.93 5135510.10 185.10
-9755634.64 5135511.60 186.45
-9755635.25 5135509.26 185.18
-9755627.27 5135501.78 185.10
-9755631.12 5135508.30 185.08
-9755635.55 5135503.29 186.32
-9755635.30 5135512.21 185.19
-9755634.58 5135510.62 186.43
-9755627.01 5135504.09 185.14
-9755627.89 5135510.12 185.09
-9755637.28 5135511.62 185.15
-9755634.21 5135512.48 186.43
-9755627.28 5135512.74 185.11
-9755638.73 5135506.33 185.01
-9755635.15 5135511.57 186.45
-9755627.91 5135502.70 185.10
-9755632.27 5135512.45 185.13
-9755636.45 5135511.62 185.19
-9755636.15 5135502.64 186.32
-9755627.93 5135503.29 185.08
-9755629.68 5135508.34 185.09
-9755632.02 5135506.59 185.14
-9755635.41 5135512.42 186.42
-9755635.22 5135509.76 185.18
-9755633.75 5135505.00 186.30
-9755636.47 5135510.12 185.19
-9755632.93 5135501.51 186.32
-9755632.00 5135503.34 185.13
-9755637.64 5135503.34 185.07
-9755629.02 5135509.20 185.08
-9755628.78 5135501.51 185.09
-9755631.99 5135511.52 185.13
-9755632.92 5135502.62 186.31
-9755627.89 5135505.08 185.08
-9755633.23 5135510.10 186.40
-9755633.17 5135508.16 186.11
-9755635.31 5135502.71 186.31
-9755629.71 5135502.42 185.09
-9755629.08 5135504.18 185.10
-9755635.58 5135509.31 186.40
-9755636.77 5135502.37 186.42
-9755633.61 5135508.88 186.13
-9755629.68 5135504.15 185.09
-9755635.24 5135509.97 186.43
-9755635.27 5135510.94 186.45
-9755630.32 5135503.30 185.10
-9755635.58 5135507.58 186.12
-9755637.04 5135503.61 185.14
-9755630.53 5135510.07 185.11
-9755627.36 5135503.30 185.11
-9755638.26 5135503.32 184.98
-9755629.62 5135506.87 185.09
-9755632.46 5135501.52 186.34
-9755633.93 5135508.25 186.44
-9755636.47 5135504.22 185.18
-9755636.20 5135503.33 186.29
-9755629.69 5135510.68 185.09
-9755634.67 5135509.42 187.48
-9755627.00 5135511.58 185.12
-9755629.96 5135503.61 185.10
-9755628.83 5135502.69 185.08
-9755636.76 5135503.26 186.45
-9755630.79 5135508.35 185.09
-9755628.79 5135510.11 185.08
-9755637.69 5135501.81 185.03
-9755636.77 5135502.07 186.34
-9755621.67 5135513.32 184.91
-9755625.52 5135507.48 185.14
-9755626.39 5135505.69 185.12
-9755624.64 5135501.78 185.12
-9755619.94 5135509.21 184.81
-9755624.08 5135503.32 185.13
-9755618.71 5135507.67 184.67
-9755621.44 5135501.74 184.92
-9755624.61 5135505.64 185.11
-9755618.79 5135503.54 184.68
-9755623.16 5135509.22 185.14
-9755621.64 5135511.52 184.96
-9755619.67 5135507.40 184.88
-9755624.63 5135513.31 185.12
-9755619.89 5135505.90 184.83
-9755625.52 5135503.55 185.13
-9755618.69 5135512.42 184.19
-9755623.17 5135505.65 185.13
-9755620.53 5135504.98 184.85
-9755626.38 5135511.53 185.10
-9755619.93 5135504.14 184.89
-9755623.14 5135503.55 185.14
-9755619.92 5135502.69 184.82
-9755621.37 5135510.31 184.87
-9755622.28 5135512.45 185.09
-9755623.77 5135503.87 185.13
-9755625.27 5135506.80 185.13
-9755620.57 5135504.12 184.83
-9755622.29 5135503.28 185.09
-9755624.06 5135507.42 185.11
-9755624.62 5135509.21 185.12
-9755623.16 5135510.02 185.13
-9755626.39 5135510.70 185.08
-9755626.45 5135506.85 185.14
-9755622.35 5135501.49 185.10
-9755624.01 5135512.39 185.12
-9755623.13 5135507.71 185.14
-9755621.08 5135506.76 184.83
-9755620.47 5135510.96 184.88
-9755622.26 5135504.15 185.11
-9755623.99 5135506.80 185.13
-9755621.41 5135504.99 184.90
-9755622.22 5135509.16 185.08
-9755618.11 5135504.03 184.64
-9755624.34 5135511.55 185.13
-9755623.80 5135501.48 185.12
-9755622.25 5135513.08 185.07
-9755625.78 5135508.32 185.12
-9755624.67 5135506.81 185.12
-9755625.58 5135504.49 185.13
-9755618.46 5135506.85 184.65
-9755617.48 5135514.37 181.22
-9755616.61 5135514.10 181.23
-9755614.77 5135514.34 181.07
-9755611.55 5135514.30 181.05
-9755618.06 5135516.67 183.09
-9755617.41 5135516.18 182.18
-9755617.48 5135515.82 182.27
-9755615.07 5135517.62 181.22
-9755615.41 5135514.92 181.25
-9755615.52 5135517.21 182.85
-9755618.11 5135517.48 183.17
-9755615.15 5135515.57 181.22
-9755616.59 5135517.52 183.03
-9755613.98 5135514.99 181.09
-9755616.59 5135516.11 182.20
-9755609.17 5135514.02 181.00
-9755610.98 5135514.06 181.06
-9755611.29 5135513.44 181.05
-9755609.81 5135515.74 181.01
-9755608.89 5135514.91 181.01
-9755609.18 5135517.25 180.98
-9755618.16 5135499.09 184.62
-9755618.26 5135498.47 184.40
-9755617.26 5135495.95 181.25
-9755614.71 5135497.45 181.23
-9755618.17 5135500.27 184.66
-9755617.36 5135490.38 181.22
-9755614.67 5135495.98 181.21
-9755614.69 5135489.15 181.25
-9755614.10 5135489.43 181.08
-9755617.29 5135499.29 181.26
-9755618.23 5135495.88 184.59
-9755615.81 5135496.60 181.26
-9755613.88 5135497.47 181.09
-9755617.60 5135496.64 181.28
-9755617.53 5135500.77 181.24
-9755616.39 5135501.03 181.24
-9755614.64 5135495.38 181.21
-9755614.03 5135492.47 181.08
-9755616.49 5135490.95 181.22
-9755614.10 5135494.54 181.08
-9755613.79 5135490.92 181.09
-9755616.51 5135490.38 181.21
-9755618.36 5135493.44 184.69
-9755616.66 5135499.25 181.25
-9755615.85 5135488.62 181.25
-9755617.09 5135488.32 181.24
-9755614.94 5135493.66 181.22
-9755617.04 5135493.61 181.25
-9755614.97 5135492.15 181.26
-9755614.00 5135501.05 181.07
-9755614.68 5135490.93 181.23
-9755613.20 5135499.29 181.08
-9755613.21 5135493.35 181.10
-9755612.57 5135495.37 181.09
-9755612.55 5135497.77 181.09
-9755613.27 5135489.10 181.07
-9755613.52 5135496.03 181.09
-9755612.93 5135498.71 181.09
-9755612.90 5135490.94 181.08
-9755612.57 5135489.20 181.09
-9755613.05 5135496.61 181.09
-9755612.61 5135490.32 181.08
-9755614.04 5135503.48 181.08
-9755616.68 5135505.80 181.21
-9755615.49 5135507.51 181.25
-9755615.19 5135501.62 181.24
-9755614.87 5135512.61 181.17
-9755618.35 5135509.26 184.50
-9755613.95 5135502.49 181.05
-9755616.62 5135509.89 181.24
-9755616.66 5135510.81 181.24
-9755613.98 5135501.97 181.05
-9755616.01 5135509.92 181.24
-9755617.85 5135501.90 181.24
-9755614.76 5135508.42 181.07
-9755618.21 5135501.86 184.64
-9755617.56 5135501.66 181.25
-9755615.46 5135508.40 181.26
-9755617.83 5135504.03 181.21
-9755615.45 5135511.10 181.25
-9755615.77 5135502.50 181.23
-9755614.89 5135502.78 181.21
-9755615.80 5135501.61 181.25
-9755613.99 5135512.56 181.06
-9755616.60 5135509.27 181.23
-9755614.01 5135509.04 181.06
-9755615.41 5135512.27 181.25
-9755613.33 5135512.54 181.08
-9755617.22 5135509.34 181.25
-9755616.65 5135504.91 181.21
-9755613.29 5135511.67 181.06
-9755612.48 5135509.04 181.06
-9755613.18 5135505.67 181.08
-9755612.27 5135501.65 181.10
-9755613.07 5135502.54 181.08
-9755612.55 5135503.41 181.10
-9755613.01 5135507.31 181.06
-9755612.57 5135509.93 181.09
-9755611.60 5135501.87 181.10
-9755611.38 5135510.17 181.06
-9755610.77 5135494.14 181.06
-9755611.76 5135496.84 181.09
-9755611.67 5135501.00 181.10
-9755609.00 5135497.81 181.08
-9755609.08 5135490.05 181.07
-9755609.38 5135492.75 181.08
-9755610.61 5135489.48 181.08
-9755609.83 5135499.25 181.09
-9755610.82 5135499.20 181.09
-9755610.57 5135495.41 181.09
-9755609.00 5135495.33 181.09
-9755609.36 5135491.84 181.09
-9755609.07 5135489.53 181.07
-9755611.69 5135498.71 181.09
-9755610.48 5135498.70 181.09
-9755611.62 5135499.86 181.11
-9755610.00 5135490.88 181.09
-9755609.96 5135490.01 181.08
-9755609.39 5135493.64 181.08
-9755611.72 5135488.89 181.09
-9755609.73 5135496.61 181.08
-9755609.94 5135495.17 181.03
-9755610.87 5135497.77 181.10
-9755611.47 5135494.87 181.10
-9755609.11 5135491.05 181.09
-9755611.43 5135490.34 181.09
-9755610.83 5135488.31 181.09
-9755609.94 5135489.34 181.09
-9755610.25 5135498.34 181.09
-9755611.45 5135494.13 181.08
-9755611.59 5135506.85 181.05
-9755611.33 5135508.18 181.08
-9755610.75 5135510.25 181.06
-9755611.60 5135502.52 181.11
-9755608.94 5135509.30 181.05
-9755609.87 5135506.61 181.06
-9755611.66 5135504.30 181.09
-9755611.66 5135504.83 181.09
-9755610.16 5135509.87 181.03
-9755608.95 5135508.12 181.05
-9755610.86 5135503.37 181.09
-9755610.18 5135503.42 181.08
-9755608.98 5135511.65 181.04
-9755608.95 5135503.35 181.07
-9755609.85 5135502.46 181.11
-9755610.48 5135512.29 181.05
-9755608.96 5135506.83 181.07
-9755712.08 5135487.60 185.65
-9755708.50 5135488.62 185.11
-9755710.00 5135488.25 186.78
-9755707.97 5135472.00 185.10
-9755707.71 5135470.58 186.24
-9755713.24 5135473.26 186.38
-9755713.14 5135474.57 186.55
-9755713.94 5135475.37 185.12
-9755712.04 5135471.17 185.61
-9755709.76 5135472.91 185.56
-9755710.65 5135473.05 185.62
-9755709.45 5135472.05 185.61
-9755709.69 5135473.84 185.61
-9755711.24 5135474.45 185.64
-9755709.01 5135470.59 186.57
-9755710.36 5135473.59 185.61
-9755710.38 5135471.23 185.62
-9755711.24 5135473.56 185.14
-9755711.21 5135475.65 185.13
-9755709.76 5135474.70 185.61
-9755709.40 5135470.28 185.61
-9755713.03 5135474.69 186.86
-9755707.69 5135471.35 186.35
-9755712.82 5135470.22 186.84
-9755711.19 5135472.07 185.62
-9755712.79 5135472.73 186.83
-9755709.44 5135472.94 186.84
-9755712.12 5135474.39 185.61
-9755713.59 5135472.98 185.13
-9755708.84 5135470.10 186.83
-9755708.02 5135470.34 185.11
-9755713.49 5135472.13 186.79
-9755709.40 5135473.80 186.83
-9755707.91 5135474.64 185.09
-9755707.94 5135474.15 185.09
-9755713.48 5135472.64 186.81
-9755713.55 5135470.52 186.74
-9755709.47 5135471.16 186.41
-9755709.54 5135474.37 186.80
-9755713.61 5135474.35 185.15
-9755712.93 5135473.75 186.82
-9755709.46 5135471.11 186.81
-9755713.10 5135473.44 186.38
-9755708.87 5135471.89 186.85
-9755708.79 5135487.13 185.09
-9755708.98 5135476.23 185.78
-9755707.96 5135477.95 185.07
-9755712.85 5135483.52 186.08
-9755710.64 5135476.18 185.62
-9755707.90 5135485.39 185.10
-9755711.14 5135486.89 185.63
-9755710.96 5135481.80 185.12
-9755707.96 5135482.77 185.09
-9755713.73 5135476.91 186.86
-9755710.26 5135480.55 185.63
-9755707.96 5135486.80 186.25
-9755710.39 5135483.69 186.33
-9755713.59 5135482.16 185.14
-9755713.91 5135478.87 185.15
-9755709.70 5135477.70 185.59
-9755713.03 5135486.18 186.98
-9755710.55 5135482.68 186.97
-9755709.62 5135479.41 185.62
-9755711.86 5135481.84 186.43
-9755707.95 5135484.48 185.06
-9755711.79 5135484.48 186.99
-9755707.80 5135485.29 186.22
-9755709.43 5135480.31 185.62
-9755709.68 5135481.19 185.64
-9755712.07 5135478.81 185.67
-9755711.20 5135479.46 185.11
-9755713.52 5135486.18 186.99
-9755713.71 5135482.59 186.57
-9755713.85 5135477.10 185.15
-9755711.16 5135484.41 187.00
-9755712.22 5135483.54 186.23
-9755712.97 5135485.32 186.86
-9755708.80 5135483.92 185.11
-9755712.05 5135480.90 185.64
-9755713.01 5135480.18 187.02
-9755708.01 5135483.63 185.11
-9755710.30 5135481.21 185.65
-9755710.64 5135482.06 186.85
-9755711.13 5135485.33 186.84
-9755713.00 5135477.11 185.55
-9755712.84 5135484.36 185.70
-9755711.10 5135486.01 185.63
-9755712.98 5135480.13 185.61
-9755710.68 5135486.82 185.55
-9755707.69 5135485.95 186.21
-9755709.44 5135480.20 187.00
-9755709.71 5135477.02 185.63
-9755713.49 5135483.63 185.12
-9755712.03 5135477.94 185.64
-9755709.32 5135483.50 186.49
-9755708.80 5135485.33 185.09
-9755709.35 5135484.46 185.11
-9755710.63 5135479.70 185.61
-9755710.06 5135483.26 187.85
-9755709.39 5135487.14 186.99
-9755711.18 5135481.18 185.65
-9755712.01 5135483.54 186.82
-9755707.92 5135481.85 185.07
-9755711.44 5135480.42 185.63
-9755709.65 5135486.91 185.61
-9755709.51 5135486.28 185.65
-9755713.47 5135482.26 186.90
-9755710.53 5135486.24 185.62
-9755713.24 5135481.11 187.00
-9755712.04 5135481.73 186.81
-9755711.43 5135482.63 186.97
-9755711.23 5135482.09 186.85
-9755713.58 5135481.45 187.00
-9755708.93 5135478.66 186.98
-9755711.47 5135476.26 185.61
-9755712.07 5135482.61 186.89
-9755713.42 5135486.56 186.40
-9755712.89 5135484.41 186.90
-9755713.51 5135475.72 186.22
-9755709.44 5135476.16 185.62
-9755710.55 5135483.02 186.44
-9755708.90 5135481.90 187.05
-9755712.90 5135482.64 186.92
-9755709.11 5135477.58 186.88
-9755713.83 5135477.77 185.11
-9755709.36 5135478.57 185.88
-9755713.53 5135485.53 186.25
-9755713.20 5135476.06 186.23
-9755709.15 5135486.96 187.00
-9755712.03 5135480.40 185.11
-9755709.45 5135478.83 186.93
-9755713.23 5135485.67 186.39
-9755713.04 5135478.83 186.99
-9755713.52 5135482.08 186.60
-9755713.51 5135487.03 186.99
-9755709.16 5135483.02 187.06
-9755707.01 5135487.71 186.21
-9755693.82 5135487.68 185.57
-9755706.23 5135487.71 185.54
-9755697.88 5135488.61 185.14
-9755699.67 5135488.61 185.14
-9755695.43 5135488.55 185.58
-9755704.63 5135487.91 186.23
-9755705.55 5135488.63 185.07
-9755705.28 5135487.66 186.15
-9755697.60 5135488.52 186.87
-9755694.86 5135487.94 185.57
-9755699.67 5135487.63 186.28
-9755697.10 5135487.75 185.55
-9755698.77 5135487.65 186.37
-9755704.08 5135487.77 186.34
-9755693.75 5135487.82 186.97
-9755702.25 5135487.68 186.22
-9755703.17 5135488.03 185.12
-9755693.28 5135487.49 186.92
-9755697.39 5135487.89 186.85
-9755692.23 5135488.28 185.12
-9755692.01 5135487.86 186.86
-9755681.64 5135488.46 184.98
-9755685.46 5135488.51 185.05
-9755684.85 5135487.58 186.30
-9755680.80 5135486.91 186.57
-9755689.03 5135487.87 186.43
-9755688.22 5135487.00 185.51
-9755688.21 5135486.94 186.75
-9755689.10 5135488.47 186.54
