-9755633.06 5135880.54 185.13
-9755630.64 5135886.16 185.17
-9755628.94 5135883.78 185.05
-9755627.18 5135874.93 184.72
-9755628.93 5135875.80 185.05
-9755634.44 5135886.49 185.09
-9755625.39 5135883.21 183.54
-9755628.54 5135881.74 184.94
-9755633.69 5135877.33 185.12
-9755625.09 5135876.52 183.27
-9755628.00 5135886.16 184.84
-9755624.77 5135878.86 182.45
-9755624.80 5135885.64 183.65
-9755626.14 5135883.89 182.67
-9755623.87 5135878.24 182.45
-9755625.10 5135875.58 182.61
-9755630.69 5135879.01 185.15
-9755625.37 5135876.48 182.56
-9755625.63 5135881.23 182.63
-9755626.28 5135874.91 184.69
-9755630.67 5135879.67 185.15
-9755625.54 5135877.66 183.43
-9755633.02 5135881.45 185.12
-9755624.79 5135875.01 182.56
-9755624.77 5135885.08 183.19
-9755625.89 5135882.97 182.48
-9755623.88 5135881.81 182.45
-9755633.04 5135883.21 185.12
-9755625.08 5135876.42 184.63
-9755625.31 5135878.82 182.52
-9755629.53 5135876.67 185.14
-9755625.41 5135884.65 183.18
-9755623.90 5135879.13 182.44
-9755632.22 5135875.15 185.15
-9755623.64 5135875.90 182.44
-9755619.20 5135880.60 182.33
-9755618.21 5135885.37 182.32
-9755619.17 5135876.72 182.32
-9755620.64 5135878.29 182.32
-9755622.97 5135878.86 182.44
-9755621.50 5135881.52 182.31
-9755617.42 5135878.82 182.31
-9755616.51 5135877.96 182.30
-9755618.31 5135881.53 182.33
-9755616.54 5135876.75 182.30
-9755619.79 5135877.36 182.31
-9755618.24 5135878.24 182.31
-9755621.58 5135879.08 182.33
-9755618.27 5135882.05 182.34
-9755620.65 5135880.65 182.32
-9755621.49 5135880.92 182.31
-9755623.93 5135875.01 182.44
-9755615.64 5135877.33 182.30
-9755618.25 5135876.20 182.31
-9755621.46 5135885.61 182.32
-9755619.15 5135878.25 182.33
-9755618.32 5135875.86 182.31
-9755617.39 5135875.60 182.31
-9755615.62 5135874.94 182.29
-9755617.10 5135883.28 182.31
-9755617.42 5135874.96 182.32
-9755618.84 5135883.20 182.32
-9755622.98 5135882.13 182.45
-9755617.33 5135884.15 182.33
-9755621.51 5135876.45 182.30
-9755619.13 5135884.78 182.30
-9755620.69 5135876.44 182.31
-9755616.75 5135874.95 182.30
-9755620.00 5135882.10 182.32
-9755622.14 5135875.02 182.32
-9755616.74 5135883.82 182.32
-9755622.44 5135879.70 182.31
-9755619.12 5135877.35 182.31
-9755619.66 5135883.84 182.32
-9755615.55 5135885.59 182.30
-9755622.95 5135885.06 182.44
-9755623.02 5135874.99 182.42
-9755618.82 5135884.18 182.33
-9755612.31 5135887.35 182.30
-9755614.12 5135887.38 182.30
-9755613.27 5135887.11 182.30
-9755614.98 5135891.56 182.28
-9755614.99 5135890.42 182.28
-9755610.56 5135891.56 182.23
-9755613.46 5135891.53 182.26
-9755614.08 5135889.46 182.29
-9755609.10 5135889.43 182.26
-9755610.02 5135887.40 182.28
-9755609.11 5135887.90 182.25
-9755613.00 5135882.37 182.30
-9755615.04 5135877.35 182.30
-9755610.59 5135885.59 182.28
-9755612.35 5135886.51 182.28
-9755613.47 5135886.23 182.29
-9755613.89 5135880.55 182.28
-9755611.71 5135884.99 182.31
-9755614.75 5135878.25 182.28
-9755612.62 5135878.19 182.28
-9755612.36 5135884.99 182.29
-9755614.75 5135880.64 182.30
-9755614.69 5135879.07 182.29
-9755611.73 5135885.88 182.29
-9755610.55 5135882.31 182.28
-9755611.52 5135877.33 182.29
-9755612.71 5135881.51 182.30
-9755612.66 5135874.89 182.28
-9755612.44 5135875.83 182.27
-9755614.18 5135877.32 182.30
-9755610.94 5135876.44 182.29
-9755612.64 5135879.09 182.29
-9755610.89 5135879.69 182.27
-9755611.48 5135879.07 182.29
-9755610.88 5135879.05 182.27
-9755614.73 5135885.33 182.31
-9755613.57 5135876.44 182.30
-9755610.94 5135874.90 182.27
-9755608.81 5135884.94 182.27
-9755609.65 5135884.72 182.28
-9755610.01 5135877.57 182.27
-9755609.11 5135880.58 182.27
-9755609.77 5135879.94 182.28
-9755609.83 5135876.41 182.27
-9755608.83 5135885.84 182.26
-9755711.89 5135861.78 185.02
-9755707.99 5135861.68 186.29
-9755709.51 5135860.76 186.26
-9755711.22 5135861.72 186.45
-9755708.64 5135861.69 186.24
-9755713.05 5135861.81 185.47
-9755707.09 5135861.72 186.25
-9755713.40 5135860.83 185.56
-9755713.67 5135861.15 185.01
-9755706.26 5135861.71 186.27
-9755712.43 5135861.23 185.01
-9755707.99 5135871.42 186.28
-9755708.82 5135874.05 186.18
-9755708.56 5135869.01 185.70
-9755705.70 5135865.81 185.10
-9755712.99 5135867.34 185.50
-9755711.25 5135867.48 185.05
-9755713.43 5135872.49 185.50
-9755711.36 5135866.31 185.45
-9755713.06 5135865.84 185.49
-9755713.55 5135865.89 185.47
-9755711.25 5135870.85 186.46
-9755710.66 5135864.09 186.34
-9755707.06 5135866.70 186.25
-9755711.22 5135865.93 185.05
-9755712.98 5135873.51 185.50
-9755708.55 5135873.18 186.25
-9755712.08 5135873.61 185.48
-9755712.16 5135864.33 186.25
-9755706.17 5135862.61 185.12
-9755713.53 5135869.11 186.27
-9755705.66 5135867.29 186.33
-9755706.25 5135865.84 186.22
-9755712.12 5135866.73 185.22
-9755711.26 5135869.08 186.43
-9755706.79 5135863.29 185.02
-9755713.01 5135871.56 185.50
-9755708.63 5135870.90 186.29
-9755713.86 5135865.88 186.24
-9755712.80 5135870.03 185.50
-9755713.57 5135873.02 185.50
-9755711.17 5135874.13 186.47
-9755709.83 5135862.52 186.32
-9755705.66 5135864.19 185.09
-9755713.90 5135866.47 185.46
-9755705.38 5135862.94 185.10
-9755709.51 5135865.04 185.08
-9755705.70 5135863.21 186.23
-9755712.39 5135864.67 185.43
-9755712.71 5135863.86 185.00
-9755712.15 5135862.63 185.04
-9755708.79 5135868.17 186.20
-9755708.06 5135868.26 186.30
-9755707.10 5135870.95 185.08
-9755711.17 5135868.20 186.48
-9755712.71 5135870.77 185.49
-9755708.69 5135862.50 186.23
-9755706.26 5135868.16 185.07
-9755711.94 5135870.15 185.42
-9755705.60 5135868.49 185.10
-9755709.48 5135863.50 186.24
-9755705.63 5135865.30 185.10
-9755712.68 5135863.46 185.47
-9755704.69 5135874.15 185.11
-9755709.50 5135869.05 186.19
-9755706.18 5135871.55 185.09
-9755707.98 5135867.57 186.31
-9755710.04 5135865.48 186.35
-9755713.82 5135874.80 185.49
-9755706.23 5135863.99 186.24
-9755707.95 5135872.30 186.30
-9755711.25 5135866.70 186.46
-9755709.19 5135869.65 186.15
-9755712.69 5135864.98 185.00
-9755706.22 5135864.95 186.23
-9755710.33 5135867.70 185.04
-9755712.40 5135864.69 185.01
-9755706.29 5135864.19 185.09
-9755710.70 5135868.32 186.48
-9755713.40 5135869.29 185.01
-9755709.52 5135865.81 186.23
-9755707.15 5135864.02 186.30
-9755708.63 5135866.14 185.05
-9755706.19 5135869.63 186.18
-9755707.99 5135875.06 186.36
-9755710.35 5135866.79 185.04
-9755711.24 5135875.05 186.52
-9755707.08 5135871.45 186.27
-9755711.22 5135874.79 185.05
-9755709.21 5135871.73 185.98
-9755713.83 5135868.98 185.42
-9755706.18 5135874.69 186.24
-9755712.70 5135869.12 185.01
-9755706.21 5135866.76 185.09
-9755708.82 5135862.04 185.04
-9755711.91 5135868.96 185.04
-9755712.17 5135863.30 185.01
-9755710.33 5135874.75 185.06
-9755712.88 5135863.22 184.95
-9755706.65 5135871.54 185.97
-9755706.65 5135870.65 186.03
-9755712.98 5135862.63 185.48
-9755713.74 5135862.90 185.44
-9755712.61 5135862.38 185.01
-9755704.28 5135864.90 186.44
-9755709.45 5135873.36 186.17
-9755706.34 5135847.73 186.26
-9755706.36 5135846.28 186.23
-9755706.94 5135847.61 185.06
-9755712.87 5135846.90 185.45
-9755710.48 5135846.03 186.47
-9755707.87 5135847.82 186.27
-9755712.21 5135847.87 185.47
-9755713.96 5135847.73 184.99
-9755712.29 5135846.27 185.42
-9755708.84 5135846.08 185.00
-9755707.84 5135846.02 186.25
-9755705.48 5135847.51 185.08
-9755712.83 5135847.92 184.92
-9755710.45 5135847.49 184.98
-9755710.57 5135848.35 186.40
-9755712.23 5135847.86 184.98
-9755709.31 5135848.11 185.04
-9755705.73 5135846.25 186.29
-9755706.72 5135846.89 185.23
-9755710.54 5135846.84 186.46
-9755705.74 5135846.07 185.07
-9755712.30 5135846.99 185.46
-9755706.31 5135847.53 185.09
-9755708.70 5135847.83 185.03
-9755710.16 5135848.50 184.99
-9755707.82 5135853.44 186.28
-9755709.24 5135848.90 185.73
-9755707.14 5135849.52 185.05
-9755706.91 5135853.78 185.49
-9755712.25 5135852.65 185.44
-9755706.33 5135848.62 186.29
-9755711.26 5135849.29 185.48
-9755713.94 5135852.51 185.02
-9755713.80 5135858.72 186.24
-9755708.03 5135858.35 185.06
-9755707.17 5135856.62 186.34
-9755708.70 5135851.61 186.28
-9755708.59 5135858.48 186.20
-9755708.07 5135860.81 186.28
-9755708.56 5135856.98 185.06
-9755707.81 5135859.31 186.30
-9755706.23 5135851.94 186.08
-9755713.70 5135853.45 185.45
-9755712.82 5135859.07 185.46
-9755710.15 5135849.26 185.01
-9755707.23 5135851.01 186.37
-9755707.10 5135851.35 185.43
-9755707.76 5135857.49 186.31
-9755712.84 5135849.39 185.45
-9755713.66 5135849.51 185.42
-9755710.45 5135854.05 185.02
-9755710.51 5135849.21 186.49
-9755711.94 5135853.51 185.47
-9755710.42 5135858.46 185.03
-9755710.49 5135854.34 185.01
-9755707.85 5135852.53 186.32
-9755707.79 5135854.32 186.28
-9755711.80 5135855.75 185.62
-9755707.13 5135857.61 185.08
-9755713.65 5135858.41 185.48
-9755712.79 5135853.50 185.43
-9755713.67 5135849.29 185.01
-9755713.81 5135854.04 186.76
-9755706.29 5135859.86 186.23
-9755706.42 5135859.53 185.20
-9755712.25 5135850.22 185.44
-9755712.82 5135858.23 185.46
-9755710.08 5135850.65 186.40
-9755706.29 5135856.10 185.06
-9755713.60 5135855.15 186.27
-9755712.15 5135857.53 186.27
-9755707.19 5135856.03 186.31
-9755712.13 5135858.54 185.46
-9755712.79 5135852.52 185.49
-9755710.69 5135855.00 185.00
-9755710.20 5135853.75 185.01
-9755705.51 5135849.31 185.09
-9755712.79 5135854.28 186.44
-9755713.38 5135851.05 184.99
-9755707.25 5135858.46 186.29
-9755706.95 5135852.88 185.49
-9755711.37 5135854.91 186.33
-9755711.87 5135860.23 185.02
-9755707.20 5135857.52 186.31
-9755713.09 5135851.72 185.47
-9755713.03 5135851.16 184.96
-9755711.93 5135854.30 186.27
-9755712.28 5135849.53 185.46
-9755710.98 5135858.43 186.46
-9755706.87 5135851.57 185.42
-9755712.67 5135859.99 184.95
-9755712.35 5135860.87 185.43
-9755709.54 5135858.16 185.05
-9755711.92 5135855.82 186.11
-9755713.07 5135860.07 185.46
-9755705.40 5135859.60 185.09
-9755708.39 5135859.98 186.23
-9755708.67 5135857.32 185.06
-9755711.97 5135848.71 184.99
-9755705.41 5135856.63 185.10
-9755704.87 5135850.18 185.09
-9755706.53 5135849.67 185.47
-9755710.76 5135857.48 186.47
-9755712.33 5135851.11 185.44
-9755705.39 5135853.72 185.09
-9755712.46 5135851.77 185.00
-9755710.53 5135854.03 186.49
-9755706.55 5135859.25 186.22
-9755708.98 5135853.49 185.07
-9755712.13 5135857.33 185.01
-9755713.41 5135852.22 185.02
-9755709.57 5135850.22 185.04
-9755712.69 5135855.19 184.97
-9755710.74 5135851.14 185.00
-9755710.75 5135854.92 186.50
-9755705.64 5135859.93 185.09
-9755712.24 5135849.03 184.97
-9755708.91 5135861.07 185.11
-9755705.40 5135857.24 185.10
-9755712.17 5135854.36 186.73
-9755710.48 5135849.29 185.02
-9755707.11 5135849.95 185.13
-9755707.21 5135850.11 186.37
-9755711.96 5135852.31 185.00
-9755710.80 5135851.01 185.73
-9755710.08 5135857.30 185.02
-9755711.52 5135857.24 186.89
-9755710.77 5135856.98 186.47
-9755708.81 5135848.29 184.98
-9755703.88 5135860.71 186.25
-9755700.66 5135861.60 186.33
-9755698.59 5135861.73 185.00
-9755693.02 5135861.00 186.24
-9755692.36 5135860.99 186.25
-9755689.70 5135861.03 186.30
-9755689.79 5135861.05 184.98
-9755703.93 5135861.67 186.28
-9755703.94 5135864.06 185.47
-9755704.07 5135862.54 186.28
-9755704.42 5135862.81 186.47
-9755703.87 5135868.48 186.27
-9755703.83 5135864.90 186.28
-9755703.85 5135867.57 186.27
-9755704.19 5135872.98 186.75
-9755704.38 5135866.38 186.40
-9755704.40 5135865.86 186.33
-9755702.98 5135871.48 186.28
-9755702.41 5135862.53 186.31
-9755703.05 5135863.40 186.28
-9755701.27 5135863.36 186.31
-9755700.58 5135868.13 186.31
-9755693.75 5135868.40 186.15
-9755692.97 5135868.41 186.20
-9755692.93 5135862.45 186.22
-9755693.87 5135867.57 186.40
-9755691.23 5135863.35 186.21
-9755693.65 5135862.17 186.30
-9755698.92 5135864.99 185.04
-9755690.90 5135868.99 186.22
-9755699.75 5135872.34 185.02
-9755700.61 5135867.58 186.33
-9755702.39 5135864.94 185.54
-9755702.94 5135867.61 186.29
-9755700.62 5135869.04 185.50
-9755694.49 5135864.33 185.02
-9755693.82 5135871.57 186.39
-9755702.16 5135867.61 186.30
-9755693.89 5135866.03 186.39
-9755702.37 5135873.21 186.29
-9755695.66 5135861.70 184.99
-9755702.75 5135862.60 186.31
-9755702.15 5135864.33 186.30
-9755692.96 5135867.51 186.20
-9755693.56 5135870.15 186.20
-9755690.60 5135865.76 186.21
-9755701.44 5135873.86 185.14
-9755699.79 5135863.16 185.02
-9755700.67 5135862.49 186.35
-9755702.16 5135864.93 186.30
-9755692.14 5135863.31 186.21
-9755690.00 5135861.90 184.96
-9755692.02 5135874.94 186.15
-9755696.20 5135862.54 184.98
-9755702.97 5135866.66 186.28
-9755696.21 5135872.63 185.03
-9755692.04 5135873.99 186.18
-9755698.28 5135867.37 185.02
-9755695.31 5135866.74 185.01
-9755692.53 5135861.49 184.99
-9755703.12 5135872.63 186.29
-9755693.81 5135873.24 184.99
-9755702.30 5135873.24 185.48
-9755692.40 5135868.96 186.20
-9755700.36 5135865.99 186.52
-9755699.74 5135869.08 185.02
-9755697.38 5135867.62 185.00
-9755701.22 5135864.06 186.28
-9755700.56 5135866.69 186.46
-9755699.73 5135865.83 185.03
-9755698.07 5135866.63 186.67
-9755692.05 5135865.82 186.20
-9755699.45 5135868.56 185.03
-9755702.95 5135865.76 186.26
-9755692.39 5135868.13 186.19
-9755702.14 5135869.90 186.29
-9755702.86 5135874.05 186.33
-9755702.09 5135866.63 186.33
-9755696.23 5135865.51 184.99
-9755703.02 5135865.17 186.30
-9755691.45 5135870.24 186.19
-9755690.60 5135872.34 186.20
-9755694.45 5135863.15 185.01
-9755695.66 5135865.24 184.98
-9755694.68 5135871.72 185.00
-9755693.01 5135865.16 186.22
-9755702.10 5135875.03 185.09
-9755693.84 5135874.09 184.99
-9755695.61 5135867.54 184.99
-9755701.46 5135874.76 185.13
-9755690.59 5135871.37 186.16
-9755700.03 5135868.19 185.01
-9755698.60 5135863.19 185.03
-9755695.00 5135862.54 185.02
-9755694.71 5135872.26 184.99
-9755702.96 5135874.66 186.32
-9755702.34 5135871.41 186.27
-9755695.60 5135864.07 185.00
-9755691.56 5135862.47 186.23
-9755697.03 5135871.61 185.49
-9755697.08 5135863.42 184.98
-9755702.05 5135870.02 185.09
-9755697.65 5135863.43 185.00
-9755692.30 5135872.56 186.29
-9755694.35 5135873.21 184.99
-9755694.66 5135874.69 185.02
-9755695.04 5135866.69 185.02
-9755698.04 5135864.35 185.00
-9755698.56 5135865.19 185.01
-9755693.33 5135865.81 186.22
-9755690.67 5135866.94 186.22
-9755699.13 5135862.30 185.01
-9755697.67 5135868.48 185.01
-9755698.03 5135865.51 184.98
-9755702.15 5135868.17 186.28
-9755692.80 5135873.54 185.94
-9755691.43 5135866.58 186.21
-9755694.39 5135874.70 185.00
-9755697.07 5135866.80 185.02
-9755698.27 5135866.69 185.02
-9755694.45 5135866.69 185.01
-9755690.36 5135861.94 185.05
-9755695.85 5135873.46 185.01
-9755696.22 5135866.71 185.02
-9755689.76 5135862.40 186.36
-9755689.77 5135864.26 186.34
-9755689.95 5135869.35 184.98
-9755688.81 5135864.25 184.95
-9755689.66 5135869.11 186.24
-9755690.00 5135865.77 186.22
-9755689.98 5135864.27 184.99
-9755689.70 5135864.76 186.33
-9755689.69 5135868.38 184.98
-9755689.10 5135868.41 184.99
-9755690.24 5135863.82 184.97
-9755689.04 5135867.96 186.89
-9755689.91 5135869.67 184.98
-9755692.88 5135874.97 186.15
-9755688.77 5135875.28 185.32
-9755688.10 5135861.06 186.85
-9755684.67 5135861.10 186.89
-9755682.39 5135860.96 185.50
-9755679.18 5135860.92 186.43
-9755682.41 5135860.98 186.13
-9755686.59 5135861.93 186.66
-9755679.17 5135860.96 185.43
-9755685.44 5135860.68 185.32
-9755682.39 5135861.79 185.50
-9755674.89 5135860.97 185.35
-9755676.52 5135861.01 185.41
-9755682.95 5135868.97 185.49
-9755688.28 5135868.40 186.36
-9755681.57 5135866.84 185.51
-9755681.58 5135861.64 185.50
-9755677.26 5135861.66 186.25
-9755681.13 5135873.34 186.02
-9755679.96 5135870.13 185.50
-9755682.37 5135864.15 185.50
-9755679.74 5135866.90 185.50
-9755687.36 5135873.17 184.94
-9755679.01 5135870.92 186.62
-9755681.58 5135865.99 185.48
-9755686.78 5135873.97 185.40
-9755688.24 5135871.60 185.33
-9755682.39 5135866.01 185.49
-9755678.49 5135873.14 184.97
-9755688.22 5135866.60 186.90
-9755679.10 5135871.73 185.60
-9755677.35 5135868.91 186.66
-9755682.94 5135865.77 185.49
-9755684.44 5135870.99 186.69
-9755680.61 5135868.91 185.50
-9755679.09 5135868.93 186.41
-9755687.92 5135869.04 185.37
-9755682.38 5135867.19 185.49
-9755680.57 5135861.86 185.48
-9755679.76 5135862.50 185.50
-9755679.10 5135867.45 186.44
-9755680.03 5135863.37 185.47
-9755679.13 5135863.29 186.42
-9755684.61 5135869.91 184.94
-9755680.59 5135866.00 185.50
-9755683.22 5135872.50 186.55
-9755680.53 5135868.36 185.48
-9755685.69 5135862.65 186.86
-9755682.41 5135872.24 185.46
-9755679.20 5135865.98 186.43
-9755679.95 5135874.09 186.50
-9755679.03 5135870.01 186.42
-9755685.67 5135865.07 186.68
-9755684.98 5135864.17 186.74
-9755678.84 5135868.34 184.97
-9755685.60 5135868.72 184.98
-9755679.14 5135874.85 186.05
-9755683.84 5135866.62 184.97
-9755679.13 5135868.36 186.41
-9755684.36 5135868.32 186.34
-9755684.80 5135865.00 186.87
-9755685.61 5135863.48 186.50
-9755680.83 5135872.29 185.46
-9755677.65 5135869.11 185.48
-9755678.27 5135866.61 185.01
-9755679.21 5135861.82 186.41
-9755685.58 5135870.77 184.97
-9755679.07 5135871.63 186.61
-9755681.53 5135869.83 185.52
-9755688.08 5135867.43 186.83
-9755677.40 5135874.70 186.91
-9755688.30 5135870.20 185.37
-9755684.79 5135861.58 186.89
-9755683.18 5135867.72 186.37
-9755677.33 5135866.63 185.44
-9755684.82 5135862.44 186.90
-9755681.68 5135874.22 186.50
-9755686.71 5135869.85 184.93
-9755686.41 5135874.31 184.96
-9755680.00 5135870.77 185.50
-9755678.84 5135865.16 184.97
-9755677.29 5135862.80 185.47
-9755684.14 5135873.14 184.97
-9755687.35 5135872.31 185.37
-9755683.01 5135863.28 185.51
-9755682.66 5135866.84 186.34
-9755683.15 5135870.70 185.51
-9755688.21 5135873.46 185.43
-9755681.52 5135869.01 185.46
-9755683.29 5135873.32 185.55
-9755683.71 5135873.99 186.54
-9755687.29 5135864.83 186.80
-9755687.28 5135873.04 185.38
-9755680.03 5135867.45 185.51
-9755686.60 5135862.62 186.86
-9755688.24 5135870.73 185.37
-9755687.36 5135869.21 185.42
-9755683.26 5135864.22 186.38
-9755687.37 5135862.80 186.59
-9755684.09 5135863.04 184.95
-9755684.12 5135862.76 184.95
-9755688.15 5135866.63 185.42
-9755686.96 5135870.96 185.44
-9755688.25 5135872.29 185.36
-9755684.36 5135873.97 186.69
-9755679.10 5135866.01 185.00
-9755688.08 5135866.07 185.37
-9755677.30 5135865.71 185.53
-9755684.20 5135861.70 186.65
-9755682.29 5135873.41 185.53
-9755688.20 5135874.05 186.68
-9755688.05 5135867.57 185.39
-9755678.22 5135863.63 185.01
-9755688.73 5135873.94 186.68
-9755679.30 5135869.25 185.00
-9755682.03 5135868.42 185.00
-9755678.20 5135872.29 184.98
-9755683.20 5135870.65 186.30
-9755684.15 5135869.88 184.97
-9755680.09 5135864.25 185.50
-9755684.41 5135872.75 186.67
-9755684.08 5135868.41 184.98
-9755686.04 5135863.23 186.85
-9755685.33 5135865.64 186.68
-9755687.90 5135871.73 184.96
-9755678.82 5135867.49 184.98
-9755686.23 5135874.92 184.96
-9755687.57 5135867.69 185.39
-9755679.93 5135869.23 185.50
-9755684.17 5135861.62 184.95
-9755679.11 5135873.70 185.52
-9755676.78 5135866.90 186.53
-9755681.49 5135874.86 186.50
-9755686.30 5135865.45 186.68
-9755679.93 5135874.65 186.00
-9755676.48 5135869.24 185.42
-9755678.22 5135869.23 184.99
-9755688.27 5135872.73 186.68
-9755686.36 5135868.62 185.39
-9755676.78 5135868.32 185.36
-9755676.74 5135867.42 185.40
-9755684.14 5135864.86 186.90
-9755684.42 5135871.39 186.41
-9755684.75 5135865.74 186.90
-9755686.51 5135866.35 185.38
-9755687.32 5135865.85 186.66
-9755686.77 5135863.39 185.78
-9755688.29 5135869.77 186.61
-9755684.68 5135874.85 186.44
-9755679.12 5135861.87 185.00
-9755688.14 5135874.03 185.35
-9755677.27 5135861.63 185.46
-9755684.74 5135863.41 185.68
-9755688.53 5135874.57 186.66
-9755688.30 5135865.81 186.43
-9755686.36 5135872.57 185.41
-9755677.33 5135871.59 185.60
-9755677.31 5135868.37 186.68
-9755684.48 5135864.61 186.57
-9755685.64 5135864.18 186.82
-9755682.29 5135874.79 186.44
-9755679.74 5135861.48 184.97
-9755680.87 5135871.63 185.00
-9755687.91 5135869.26 184.95
-9755676.48 5135872.51 185.43
-9755677.52 5135873.24 186.85
-9755684.69 5135868.37 186.81
-9755678.65 5135864.76 186.37
-9755684.63 5135868.96 186.70
-9755685.34 5135863.48 185.78
-9755682.99 5135868.40 186.37
-9755680.88 5135872.53 185.01
-9755688.19 5135874.97 185.36
-9755680.58 5135870.77 185.01
-9755685.57 5135863.82 186.44
-9755679.02 5135871.86 186.72
-9755685.31 5135868.19 185.42
-9755680.60 5135874.87 186.42
-9755682.68 5135869.89 186.35
-9755684.38 5135871.86 186.68
-9755688.60 5135861.84 186.86
-9755687.11 5135866.32 185.37
-9755677.65 5135866.90 185.00
-9755685.53 5135865.64 186.66
-9755684.94 5135862.95 186.86
-9755686.26 5135870.13 185.38
-9755676.70 5135870.77 184.97
-9755675.83 5135867.46 185.39
-9755675.88 5135865.69 185.42
-9755676.71 5135866.84 184.97
-9755675.58 5135861.56 184.97
-9755676.72 5135861.53 185.40
-9755676.85 5135865.32 186.67
-9755676.72 5135866.53 185.40
-9755676.57 5135865.90 185.39
-9755674.92 5135865.11 185.38
-9755674.98 5135862.60 185.45
-9755675.50 5135870.09 184.94
-9755676.52 5135864.99 185.42
-9755676.51 5135862.43 184.96
-9755674.81 5135874.05 185.40
-9755675.29 5135864.85 184.93
-9755676.82 5135862.40 186.68
-9755676.76 5135869.84 184.97
-9755675.57 5135873.96 184.94
-9755674.95 5135870.70 184.91
-9755676.55 5135868.88 186.64
-9755675.93 5135864.21 184.97
-9755676.76 5135871.90 184.96
-9755675.13 5135864.29 185.35
-9755676.51 5135863.63 184.97
-9755675.02 5135861.84 184.94
-9755684.37 5135874.89 184.98
-9755688.29 5135874.88 186.68
-9755675.04 5135874.92 185.40
-9755676.09 5135874.88 184.96
-9755674.96 5135874.86 184.94
-9755701.32 5135846.82 186.30
-9755692.96 5135847.60 186.34
-9755693.04 5135846.14 186.15
-9755700.43 5135847.12 186.33
-9755691.33 5135847.61 186.21
-9755693.95 5135847.16 185.04
-9755698.99 5135845.97 185.00
-9755702.23 5135847.76 186.32
-9755691.31 5135846.47 184.96
-9755691.62 5135846.96 186.21
-9755697.24 5135846.31 185.00
-9755692.51 5135847.72 186.25
-9755690.71 5135846.99 186.19
-9755701.44 5135845.91 186.29
-9755700.43 5135847.75 186.34
-9755691.34 5135847.81 185.47
-9755692.79 5135846.84 186.28
-9755699.53 5135847.81 185.01
-9755694.85 5135846.86 185.01
-9755698.66 5135847.74 185.00
-9755695.17 5135847.72 185.01
-9755689.83 5135846.16 186.31
-9755689.86 5135847.08 186.21
-9755689.17 5135845.96 184.95
-9755703.71 5135853.64 185.50
-9755703.98 5135848.59 186.37
-9755703.87 5135858.42 186.26
-9755703.92 5135860.16 186.27
-9755703.63 5135857.53 186.28
-9755703.89 5135856.91 186.27
-9755703.76 5135850.98 186.39
-9755703.54 5135855.21 186.08
-9755703.65 5135853.90 186.47
-9755701.34 5135854.29 186.39
-9755699.57 5135849.31 185.02
-9755699.27 5135848.72 185.01
-9755700.41 5135856.59 186.36
-9755700.46 5135849.01 185.08
-9755693.30 5135859.87 186.42
-9755697.99 5135857.56 185.32
-9755701.31 5135859.27 186.32
-9755703.04 5135851.95 186.27
-9755701.32 5135852.82 185.47
-9755701.35 5135857.45 186.32
-9755699.81 5135856.13 185.02
-9755698.92 5135858.72 184.99
-9755702.83 5135853.57 186.32
-9755691.64 5135854.41 185.45
-9755703.03 5135859.35 185.69
-9755701.27 5135860.17 186.31
-9755692.50 5135850.67 186.25
-9755703.07 5135854.24 186.36
-9755691.27 5135858.42 186.18
-9755702.19 5135848.64 186.29
-9755693.03 5135854.87 184.97
-9755692.35 5135849.46 186.26
-9755697.48 5135859.92 184.99
-9755691.61 5135850.02 186.20
-9755691.32 5135849.35 186.19
-9755696.61 5135855.80 185.00
-9755693.13 5135850.15 184.99
-9755700.51 5135851.99 185.50
-9755701.29 5135854.26 185.53
-9755693.89 5135850.08 185.00
-9755701.41 5135853.56 185.54
-9755701.21 5135853.67 186.32
-9755703.05 5135856.02 186.27
-9755693.04 5135856.03 184.97
-9755690.83 5135851.83 186.22
-9755701.94 5135856.01 186.27
-9755694.45 5135860.19 185.04
-9755701.53 5135859.90 185.53
-9755692.41 5135849.26 184.98
-9755692.15 5135858.47 186.21
-9755695.41 5135859.04 185.01
-9755701.26 5135855.18 186.14
-9755691.56 5135851.82 186.27
-9755695.73 5135859.63 185.06
-9755698.45 5135857.51 186.18
-9755694.80 5135851.00 185.04
-9755697.23 5135850.74 185.01
-9755702.17 5135857.45 186.33
-9755703.09 5135859.20 186.27
-9755700.09 5135856.62 185.04
-9755697.17 5135857.81 185.01
-9755700.72 5135853.91 185.93
-9755700.51 5135853.60 185.86
-9755697.85 5135853.46 185.40
-9755696.51 5135858.97 185.00
-9755690.53 5135850.97 186.19
-9755693.10 5135850.35 186.28
-9755702.22 5135850.03 186.34
-9755702.17 5135859.85 186.26
-9755694.25 5135850.93 185.03
-9755701.36 5135852.75 186.18
-9755691.57 5135856.01 184.97
-9755698.66 5135857.55 186.18
-9755690.98 5135851.02 185.45
-9755692.16 5135853.49 186.19
-9755693.29 5135856.90 184.98
-9755695.60 5135861.08 185.03
-9755693.60 5135853.64 184.99
-9755693.63 5135856.88 185.01
-9755695.36 5135858.42 185.00
-9755694.19 5135858.35 185.04
-9755690.70 5135859.82 184.97
-9755690.86 5135849.41 186.16
-9755695.41 5135855.03 185.47
-9755691.24 5135856.04 185.46
-9755692.19 5135857.35 186.19
-9755695.98 5135854.82 185.01
-9755696.84 5135850.08 185.00
-9755693.70 5135853.78 185.52
-9755693.69 5135851.88 185.00
-9755698.96 5135853.38 185.00
-9755692.22 5135850.38 186.21
-9755693.93 5135854.84 185.00
-9755699.80 5135859.91 185.02
-9755695.95 5135853.65 185.01
-9755691.52 5135860.06 186.21
-9755703.11 5135848.61 186.28
-9755690.64 5135855.93 186.02
-9755701.90 5135851.85 187.50
-9755702.16 5135856.35 186.85
-9755701.69 5135852.07 187.47
-9755695.10 5135856.92 185.01
-9755690.95 5135855.35 186.23
-9755690.93 5135855.09 184.96
-9755692.51 5135852.53 185.97
-9755700.59 5135851.06 185.10
-9755693.65 5135859.30 185.01
-9755700.09 5135850.41 186.47
-9755695.13 5135849.24 185.01
-9755698.31 5135856.98 185.00
-9755695.96 5135851.65 185.01
-9755696.54 5135860.23 185.00
-9755700.10 5135856.59 186.73
-9755693.60 5135855.76 185.00
-9755689.79 5135849.94 186.29
-9755690.10 5135857.44 186.02
-9755689.71 5135852.82 184.96
-9755690.11 5135849.43 186.20
-9755689.75 5135859.24 184.94
-9755689.82 5135852.08 186.11
-9755689.81 5135850.09 184.95
-9755690.11 5135860.22 186.24
-9755689.57 5135850.94 186.26
-9755690.13 5135852.61 186.17
-9755688.92 5135852.76 184.96
-9755688.91 5135851.01 184.93
-9755689.17 5135854.87 184.94
-9755689.93 5135848.37 186.89
-9755689.92 5135853.24 186.07
-9755689.68 5135848.20 185.89
-9755689.20 5135859.23 184.95
-9755689.80 5135851.82 184.95
-9755689.35 5135850.06 186.37
-9755689.58 5135853.28 186.71
-9755690.11 5135849.16 184.93
-9755689.39 5135845.90 186.23
-9755684.90 5135846.84 185.42
-9755687.98 5135847.78 185.64
-9755682.50 5135847.98 186.43
-9755679.92 5135845.97 186.33
-9755684.25 5135845.93 184.97
-9755683.43 5135846.17 185.00
-9755686.70 5135847.48 185.37
-9755684.29 5135846.15 186.68
-9755681.73 5135846.10 186.40
-9755681.68 5135847.85 186.47
-9755679.24 5135846.03 186.48
-9755678.40 5135846.15 184.97
-9755684.83 5135845.96 185.42
-9755687.57 5135845.73 184.93
-9755687.80 5135845.91 185.37
-9755687.45 5135847.46 185.32
-9755678.51 5135847.97 186.57
-9755680.34 5135847.29 186.00
-9755685.48 5135846.29 184.96
-9755678.29 5135847.73 184.95
-9755677.70 5135846.16 184.98
-9755678.96 5135847.62 185.01
-9755685.90 5135847.83 185.38
-9755687.96 5135846.72 185.39
-9755686.64 5135846.27 185.40
-9755676.60 5135846.17 185.41
-9755675.93 5135846.75 184.97
-9755674.83 5135847.63 184.95
-9755676.62 5135847.05 185.42
-9755677.21 5135847.29 186.72
-9755675.11 5135846.74 185.39
-9755688.16 5135860.04 186.89
-9755689.39 5135850.16 185.61
-9755688.25 5135859.76 185.45
-9755683.03 5135855.63 185.60
-9755682.46 5135852.69 185.53
-9755682.54 5135848.59 186.36
-9755682.36 5135860.06 185.50
-9755684.19 5135855.94 184.99
-9755682.39 5135850.33 186.30
-9755682.38 5135856.84 185.53
-9755683.96 5135850.24 186.41
-9755680.69 5135850.19 186.52
-9755686.97 5135849.40 185.39
-9755682.93 5135860.35 185.58
-9755682.37 5135854.45 185.53
-9755682.65 5135855.19 185.56
-9755688.61 5135856.65 186.66
-9755684.12 5135858.60 184.97
-9755687.77 5135853.35 184.93
-9755678.76 5135849.90 186.44
-9755686.58 5135849.15 185.38
-9755682.41 5135857.74 185.52
-9755678.90 5135856.74 186.44
-9755685.75 5135855.68 185.41
-9755684.21 5135858.59 186.39
-9755687.49 5135850.17 185.42
-9755678.94 5135850.93 184.99
-9755688.00 5135849.57 185.42
-9755686.58 5135853.29 184.96
-9755686.35 5135852.16 185.43
-9755678.68 5135852.92 186.18
-9755687.67 5135856.79 185.33
-9755678.40 5135851.74 186.65
-9755683.93 5135853.86 186.34
-9755684.18 5135852.08 184.99
-9755688.12 5135859.22 185.37
-9755688.16 5135849.29 186.17
-9755678.30 5135848.52 184.97
-9755683.99 5135854.98 186.64
-9755682.63 5135853.08 186.44
-9755679.69 5135854.17 185.52
-9755684.75 5135859.51 185.39
-9755685.69 5135854.49 184.95
-9755678.55 5135859.23 184.97
-9755682.18 5135849.37 186.50
-9755683.96 5135852.59 186.67
-9755685.68 5135849.46 185.36
-9755678.89 5135854.30 186.15
-9755679.85 5135857.98 186.41
-9755677.45 5135851.52 184.99
-9755689.33 5135856.94 185.53
-9755683.34 5135848.59 185.01
-9755680.68 5135858.31 185.52
-9755682.54 5135851.03 186.10
-9755681.45 5135850.84 186.60
-9755679.76 5135859.28 186.34
-9755684.03 5135856.78 186.66
-9755682.41 5135859.51 185.53
-9755686.54 5135858.97 184.93
-9755681.54 5135855.01 185.53
-9755681.51 5135853.48 185.50
-9755680.02 5135860.04 185.52
-9755681.66 5135849.35 186.47
-9755687.48 5135848.34 184.98
-9755683.37 5135849.48 184.98
-9755680.06 5135853.58 185.49
-9755686.27 5135854.44 185.42
-9755688.04 5135853.34 185.38
-9755685.02 5135855.13 185.37
-9755683.97 5135854.25 186.36
-9755684.19 5135855.07 184.99
-9755680.00 5135859.15 185.52
-9755684.74 5135860.13 184.96
-9755687.08 5135855.59 185.36
-9755687.40 5135858.39 185.39
-9755683.91 5135850.91 186.69
-9755687.19 5135855.08 184.95
-9755678.31 5135849.42 184.98
-9755688.30 5135852.67 186.63
-9755682.74 5135850.28 186.70
-9755683.95 5135852.73 184.99
-9755688.08 5135857.50 185.34
-9755681.74 5135859.89 185.51
-9755688.21 5135856.02 185.43
-9755688.00 5135848.66 185.38
-9755684.05 5135850.84 186.36
-9755688.11 5135858.86 186.81
-9755688.10 5135853.00 185.41
-9755684.15 5135859.43 186.89
-9755682.77 5135856.73 186.38
-9755678.89 5135860.11 184.97
-9755682.44 5135858.37 185.51
-9755684.24 5135849.39 186.68
-9755688.88 5135853.38 184.97
-9755678.39 5135852.48 186.76
-9755686.57 5135850.04 184.96
-9755685.71 5135860.15 185.32
-9755684.81 5135849.12 184.97
-9755688.04 5135856.87 185.39
-9755685.70 5135848.84 185.38
-9755680.75 5135849.34 186.43
-9755678.50 5135858.60 184.96
-9755680.00 5135849.37 186.45
-9755685.67 5135855.26 185.41
-9755682.98 5135856.80 185.50
-9755678.68 5135849.33 186.50
-9755677.09 5135855.16 186.93
-9755682.48 5135855.13 186.44
-9755686.60 5135860.15 185.38
-9755679.17 5135854.17 185.00
-9755678.66 5135850.55 186.68
-9755682.56 5135852.70 186.50
-9755688.02 5135855.02 185.41
-9755683.22 5135857.75 186.43
-9755680.67 5135854.19 185.49
-9755676.49 5135860.09 184.97
-9755684.00 5135852.39 186.66
-9755678.68 5135853.19 186.68
-9755684.75 5135858.34 185.41
-9755678.69 5135853.45 186.63
-9755684.22 5135855.96 186.65
-9755684.67 5135857.98 186.65
-9755686.69 5135850.10 185.33
-9755684.16 5135859.88 184.97
-9755683.91 5135857.76 184.98
-9755684.17 5135857.75 186.39
-9755682.39 5135855.83 186.37
-9755688.06 5135858.68 185.43
-9755687.92 5135860.62 185.32
-9755688.10 5135854.38 185.37
-9755684.16 5135860.33 186.89
-9755682.97 5135857.71 185.53
-9755687.75 5135851.71 185.32
-9755687.56 5135848.61 185.35
-9755678.67 5135848.30 185.53
-9755685.91 5135852.76 185.42
-9755688.04 5135848.54 186.67
-9755678.86 5135856.83 184.97
-9755687.40 5135853.33 184.97
-9755684.26 5135850.56 186.68
-9755687.99 5135851.22 185.38
-9755680.82 5135850.93 186.55
-9755688.07 5135851.63 185.32
-9755687.70 5135852.49 185.37
-9755688.20 5135858.56 186.76
-9755676.62 5135848.55 185.41
-9755676.56 5135855.23 185.43
-9755675.91 5135860.63 184.97
-9755676.46 5135856.83 185.43
-9755674.79 5135852.54 185.36
-9755674.82 5135859.17 185.36
-9755675.99 5135848.53 184.97
-9755675.87 5135859.21 184.97
-9755674.83 5135851.78 186.14
-9755676.84 5135860.96 186.67
-9755675.90 5135857.45 184.95
-9755674.74 5135850.23 186.65
-9755675.00 5135860.09 184.93
-9755675.88 5135850.23 186.67
-9755676.57 5135855.10 184.98
-9755675.59 5135854.19 184.97
-9755674.75 5135851.10 186.15
-9755675.92 5135853.79 186.64
-9755676.62 5135850.20 186.74
-9755676.85 5135858.24 186.41
-9755676.51 5135857.49 186.68
-9755676.82 5135860.01 186.67
-9755676.81 5135854.10 186.91
-9755675.77 5135856.85 185.33
-9755676.61 5135854.95 186.92
-9755675.74 5135856.05 185.42
-9755676.47 5135857.68 185.41
-9755676.19 5135860.13 185.41
-9755676.75 5135853.74 185.29
-9755676.60 5135855.64 184.94
-9755675.02 5135855.00 184.94
-9755675.48 5135853.66 184.98
-9755675.12 5135856.77 185.42
-9755676.52 5135850.73 184.99
-9755674.86 5135851.13 186.89
-9755675.68 5135855.05 185.45
-9755675.30 5135858.24 185.38
-9755672.91 5135861.24 185.02
-9755672.92 5135866.71 186.62
-9755673.32 5135872.32 186.27
-9755673.00 5135863.51 186.31
-9755674.03 5135869.16 185.33
-9755672.38 5135861.56 185.01
-9755670.00 5135868.33 185.06
-9755668.43 5135869.42 185.07
-9755674.45 5135863.59 185.36
-9755673.23 5135866.85 185.34
-9755672.73 5135862.61 186.55
-9755667.67 5135864.45 185.09
-9755672.28 5135871.63 185.03
-9755665.88 5135862.66 185.15
-9755665.18 5135871.87 185.10
-9755671.69 5135872.19 185.05
-9755674.06 5135873.39 185.35
-9755671.11 5135870.67 185.06
-9755668.50 5135874.19 185.11
-9755668.13 5135870.70 185.09
-9755669.09 5135871.59 185.06
-9755674.13 5135863.94 184.95
-9755668.23 5135868.28 185.10
-9755667.65 5135865.92 185.09
-9755672.60 5135862.45 185.01
-9755674.08 5135872.20 185.33
-9755673.25 5135874.00 186.28
-9755674.35 5135866.00 184.95
-9755672.63 5135869.79 185.05
-9755664.99 5135870.72 185.07
-9755674.11 5135861.52 185.39
-9755672.62 5135863.35 185.00
-9755664.33 5135867.37 185.05
-9755666.77 5135869.76 185.12
-9755664.09 5135865.05 185.06
-9755671.75 5135861.53 185.03
-9755673.21 5135874.26 186.83
-9755664.97 5135862.62 185.07
-9755667.62 5135862.69 185.08
-9755664.12 5135864.15 185.07
-9755665.82 5135870.06 185.10
-9755674.33 5135865.09 184.94
-9755667.57 5135869.19 185.07
-9755669.97 5135870.65 185.09
-9755664.35 5135868.27 185.05
-9755669.99 5135871.53 185.06
-9755667.83 5135873.99 185.09
-9755670.30 5135861.83 185.07
-9755664.94 5135868.91 185.07
-9755666.08 5135870.67 185.14
-9755665.83 5135873.02 185.12
-9755665.85 5135867.42 185.14
-9755663.43 5135870.61 185.04
-9755663.45 5135871.57 185.06
-9755662.35 5135860.85 185.10
-9755663.48 5135873.91 185.06
-9755663.41 5135869.20 185.07
-9755662.53 5135871.55 185.10
-9755662.65 5135865.08 185.08
-9755663.52 5135861.81 185.07
-9755662.56 5135873.94 185.08
-9755662.59 5135864.13 185.07
-9755662.63 5135862.41 185.07
-9755673.19 5135874.49 186.82
-9755670.79 5135875.12 185.09
-9755657.68 5135860.81 185.60
-9755659.14 5135860.76 186.78
-9755660.08 5135860.80 185.58
-9755660.12 5135860.90 186.29
-9755656.70 5135860.77 186.79
-9755658.27 5135860.84 186.79
-9755647.06 5135860.87 184.92
-9755652.00 5135864.89 185.25
-9755656.72 5135862.01 186.80
-9755656.71 5135874.80 185.15
-9755657.56 5135866.71 185.60
-9755659.40 5135861.79 185.15
-9755660.97 5135866.07 185.99
-9755658.43 5135871.64 185.59
-9755661.15 5135864.15 185.08
-9755652.01 5135864.11 185.25
-9755652.89 5135872.96 185.25
-9755660.70 5135873.35 186.14
-9755657.02 5135870.02 186.21
-9755660.00 5135865.84 186.74
-9755659.29 5135874.11 185.62
-9755658.31 5135867.57 185.53
-9755654.37 5135868.47 185.25
-9755658.55 5135868.53 185.52
-9755652.89 5135865.88 185.25
-9755655.17 5135872.69 185.25
-9755660.01 5135863.51 185.56
-9755656.07 5135864.72 185.14
-9755651.70 5135871.75 185.25
-9755660.20 5135862.68 186.14
-9755658.52 5135872.54 185.60
-9755656.05 5135870.65 185.15
-9755660.04 5135868.48 186.75
-9755658.47 5135863.28 185.13
-9755654.93 5135871.53 185.25
-9755657.54 5135867.32 185.59
-9755656.65 5135864.19 186.10
-9755654.31 5135864.40 185.25
-9755659.97 5135864.97 185.57
-9755660.15 5135873.40 185.58
-9755661.95 5135874.17 185.10
-9755660.45 5135867.36 186.08
-9755656.93 5135869.08 185.99
-9755660.80 5135874.15 185.60
-9755660.28 5135868.98 186.76
-9755660.07 5135863.36 186.75
-9755651.65 5135869.97 185.25
-9755660.16 5135872.20 186.76
-9755660.43 5135873.23 186.11
-9755653.43 5135870.62 185.24
-9755654.30 5135872.37 185.25
-9755651.15 5135867.62 185.23
-9755652.93 5135861.73 185.25
-9755656.13 5135862.57 185.15
-9755653.45 5135871.51 185.25
-9755654.68 5135863.49 185.25
-9755657.73 5135874.17 185.57
-9755656.77 5135869.86 186.81
-9755656.76 5135867.26 186.08
-9755652.57 5135871.44 185.25
-9755660.22 5135869.92 185.61
-9755660.22 5135873.87 185.58
-9755656.98 5135871.69 186.17
-9755660.20 5135870.89 185.58
-9755653.78 5135866.75 185.25
-9755656.76 5135865.78 186.81
-9755655.48 5135870.59 185.24
-9755660.52 5135874.35 186.46
-9755658.39 5135864.87 185.61
-9755660.87 5135864.31 186.81
-9755654.37 5135869.11 185.25
-9755656.81 5135872.25 186.04
-9755660.04 5135864.17 186.77
-9755651.72 5135869.07 185.25
-9755657.55 5135868.21 185.59
-9755660.56 5135869.65 186.76
-9755660.73 5135872.56 186.78
-9755661.95 5135873.59 185.10
-9755651.13 5135866.71 185.20
-9755656.08 5135868.30 185.14
-9755660.46 5135870.56 186.07
-9755656.72 5135861.71 185.15
-9755656.72 5135870.90 186.19
-9755660.85 5135863.41 186.80
-9755659.20 5135870.68 185.53
-9755653.76 5135869.06 185.25
-9755651.11 5135865.81 185.22
-9755650.24 5135865.84 185.04
-9755656.40 5135864.30 186.82
-9755651.08 5135869.11 185.18
-9755656.13 5135864.06 185.15
-9755656.75 5135866.62 186.82
-9755656.70 5135873.12 186.09
-9755656.74 5135864.90 186.80
-9755651.06 5135874.12 185.18
-9755660.29 5135861.34 186.65
-9755660.21 5135864.12 185.93
-9755660.46 5135872.55 185.99
-9755651.09 5135870.01 185.19
-9755656.77 5135868.11 186.11
-9755656.41 5135864.77 186.44
-9755655.79 5135867.62 185.20
-9755661.76 5135861.73 185.12
-9755652.62 5135862.61 185.25
-9755656.42 5135861.31 186.49
-9755660.56 5135869.35 186.16
-9755651.32 5135873.53 185.23
-9755648.48 5135860.76 184.91
-9755646.99 5135868.21 184.89
-9755646.12 5135861.66 184.92
-9755647.89 5135864.08 184.91
-9755646.32 5135860.80 184.90
-9755649.67 5135861.95 184.95
-9755648.54 5135862.55 184.90
-9755646.06 5135872.60 184.88
-9755649.27 5135872.37 184.86
-9755647.17 5135870.03 184.90
-9755646.10 5135863.46 184.91
-9755650.46 5135873.56 185.04
-9755647.00 5135871.45 184.88
-9755650.17 5135872.64 185.00
-9755646.04 5135873.20 184.87
-9755646.04 5135869.99 184.88
-9755645.46 5135872.64 184.94
-9755646.93 5135872.36 184.89
-9755649.33 5135864.06 184.93
-9755648.80 5135865.23 184.88
-9755645.23 5135867.30 184.96
-9755646.96 5135866.75 184.89
-9755648.71 5135873.25 184.88
-9755648.74 5135870.87 184.86
-9755646.41 5135867.92 184.88
-9755646.02 5135869.12 184.89
-9755647.30 5135864.99 184.91
-9755647.92 5135862.54 184.90
-9755647.85 5135863.53 184.93
-9755647.83 5135870.90 184.88
-9755659.32 5135875.00 185.61
-9755653.71 5135874.75 185.25
-9755650.43 5135874.74 185.04
-9755655.20 5135874.77 185.24
-9755648.73 5135874.73 184.89
-9755650.16 5135873.86 185.00
-9755649.26 5135875.01 184.87
-9755646.88 5135875.00 184.86
-9755670.75 5135846.09 185.03
-9755674.26 5135846.83 185.39
-9755665.05 5135846.98 185.08
-9755673.90 5135846.12 184.96
-9755669.22 5135846.13 185.08
-9755672.43 5135847.61 184.99
-9755665.11 5135847.59 185.08
-9755671.63 5135846.10 185.00
-9755673.38 5135845.85 185.40
-9755669.21 5135847.63 185.09
-9755670.94 5135847.89 185.04
-9755664.20 5135847.61 185.05
-9755672.44 5135847.04 184.99
-9755670.73 5135847.04 185.02
-9755674.28 5135845.56 185.40
-9755674.23 5135845.27 184.94
-9755663.54 5135846.66 185.06
-9755662.77 5135846.05 185.06
-9755674.48 5135848.50 184.94
-9755673.26 5135860.11 184.98
-9755674.15 5135857.61 185.40
-9755665.31 5135857.67 185.10
-9755674.25 5135860.04 185.39
-9755670.62 5135852.03 185.05
-9755664.98 5135860.27 185.07
-9755668.33 5135849.36 185.08
-9755674.26 5135855.68 185.35
-9755673.37 5135851.08 186.75
-9755673.56 5135857.67 184.96
-9755672.59 5135848.34 186.60
-9755673.23 5135858.50 186.65
-9755664.77 5135859.10 185.10
-9755672.66 5135855.94 184.97
-9755672.98 5135859.38 186.32
-9755672.41 5135852.07 184.99
-9755665.02 5135851.75 185.06
-9755668.30 5135857.05 185.10
-9755674.40 5135858.58 184.94
-9755674.27 5135852.12 186.21
-9755673.50 5135854.41 184.95
-9755674.21 5135856.84 185.37
-9755669.17 5135852.66 185.06
-9755673.32 5135852.98 184.93
-9755673.29 5135852.61 186.67
-9755673.93 5135849.93 186.68
-9755670.07 5135849.98 185.08
-9755670.63 5135850.28 185.05
-9755671.82 5135853.84 185.00
-9755671.56 5135848.50 185.03
-9755672.77 5135853.48 184.97
-9755672.38 5135850.91 184.98
-9755669.11 5135859.46 185.09
-9755674.22 5135858.28 185.34
-9755672.70 5135852.63 184.99
-9755673.56 5135851.81 185.91
-9755672.07 5135857.13 185.01
-9755672.69 5135848.51 185.00
-9755667.64 5135854.09 185.11
-9755672.09 5135858.86 185.01
-9755671.54 5135858.25 185.04
-9755673.27 5135850.03 186.83
-9755665.07 5135854.37 185.08
-9755668.31 5135850.84 185.11
-9755664.22 5135848.50 185.08
-9755672.73 5135853.48 186.84
-9755669.22 5135855.00 185.07
-9755671.46 5135855.33 185.04
-9755671.58 5135849.66 185.02
-9755674.15 5135850.14 186.66
-9755671.82 5135852.35 185.01
-9755673.29 5135850.33 184.94
-9755672.67 5135859.10 185.00
-9755670.67 5135853.55 185.04
-9755671.55 5135850.88 185.03
-9755665.91 5135852.00 185.14
-9755669.12 5135860.07 185.07
-9755674.07 5135854.37 185.40
-9755665.07 5135848.43 185.08
-9755664.45 5135850.82 185.06
-9755672.72 5135854.01 186.60
-9755672.53 5135854.08 186.86
-9755668.27 5135855.88 185.07
-9755666.87 5135851.12 185.08
-9755672.64 5135855.02 184.99
-9755668.28 5135858.52 185.11
-9755672.65 5135858.22 185.00
-9755669.16 5135853.51 185.04
-9755674.10 5135852.49 184.95
-9755670.09 5135852.90 185.07
-9755673.34 5135851.76 184.93
-9755671.73 5135857.40 185.03
-9755671.90 5135849.38 185.01
-9755670.89 5135855.04 185.06
-9755672.50 5135848.62 186.85
-9755672.69 5135850.52 184.99
-9755664.42 5135858.53 185.06
-9755672.72 5135855.24 186.85
-9755672.77 5135849.36 186.87
-9755663.52 5135852.60 185.05
-9755673.22 5135854.27 186.84
-9755665.96 5135848.40 185.16
-9755674.42 5135854.77 185.39
-9755671.82 5135854.10 185.00
-9755674.39 5135851.37 185.97
-9755672.76 5135856.71 186.67
-9755663.24 5135856.72 185.05
-9755662.43 5135851.73 185.05
-9755662.67 5135857.61 185.04
-9755663.49 5135857.39 185.04
-9755662.68 5135856.13 185.07
-9755662.71 5135849.93 185.07
-9755663.49 5135858.54 185.07
-9755662.74 5135852.83 185.06
-9755662.73 5135850.83 185.07
-9755657.74 5135846.03 185.14
-9755660.07 5135846.18 186.16
-9755658.32 5135846.90 185.59
-9755661.85 5135846.08 185.10
-9755659.48 5135847.82 185.60
-9755656.28 5135846.93 186.20
-9755654.14 5135847.78 185.27
-9755656.42 5135847.64 186.18
-9755659.59 5135845.97 186.75
-9755660.09 5135845.94 186.75
-9755660.92 5135847.24 185.09
-9755653.60 5135847.47 185.25
-9755652.08 5135846.59 185.26
-9755656.41 5135846.11 186.35
-9755659.49 5135844.98 185.60
-9755657.62 5135845.38 185.60
-9755651.80 5135847.49 185.25
-9755657.71 5135847.59 185.14
-9755661.27 5135845.16 185.11
-9755648.56 5135846.83 184.89
-9755650.33 5135847.16 185.11
-9755647.97 5135845.38 184.92
-9755657.76 5135859.04 186.23
-9755657.82 5135854.98 185.61
-9755659.42 5135859.22 186.62
-9755656.93 5135858.06 186.62
-9755656.50 5135849.57 186.78
-9755656.46 5135850.17 186.20
-9755650.91 5135847.79 185.23
-9755656.83 5135854.31 185.62
-9755657.20 5135858.99 186.64
-9755658.51 5135859.30 186.97
-9755660.92 5135855.24 185.09
-9755658.54 5135855.78 185.58
-9755660.11 5135850.26 186.16
-9755658.51 5135857.45 186.65
-9755660.06 5135849.32 185.10
-9755656.82 5135856.01 186.76
-9755656.78 5135856.86 186.86
-9755659.42 5135859.27 186.98
-9755659.42 5135853.42 185.58
-9755659.18 5135851.70 185.13
-9755654.12 5135853.43 185.26
-9755660.13 5135849.28 185.99
-9755655.30 5135857.54 185.24
-9755656.31 5135852.61 185.98
-9755656.75 5135857.52 186.82
-9755652.96 5135847.77 185.25
-9755651.14 5135859.33 185.25
-9755659.50 5135849.59 185.13
-9755657.73 5135858.45 186.81
-9755657.68 5135850.76 185.60
-9755658.54 5135848.41 185.61
-9755658.20 5135850.24 185.56
-9755650.89 5135850.80 185.24
-9755660.86 5135851.11 185.08
-9755660.10 5135848.64 186.02
-9755660.26 5135849.30 186.75
-9755657.68 5135849.63 185.11
-9755657.44 5135848.47 185.61
-9755657.65 5135850.16 185.60
-9755656.33 5135854.43 186.48
-9755659.36 5135858.50 186.20
-9755650.27 5135854.90 185.09
-9755656.98 5135850.19 185.64
-9755659.95 5135852.74 186.08
-9755653.52 5135859.38 185.25
-9755659.94 5135859.04 186.10
-9755654.72 5135856.05 185.26
-9755657.68 5135857.56 186.90
-9755659.44 5135857.55 186.84
-9755652.63 5135854.28 185.25
-9755654.42 5135854.60 185.25
-9755657.02 5135860.17 186.89
-9755659.45 5135850.23 185.13
-9755658.51 5135853.44 185.60
-9755652.91 5135859.05 185.25
-9755655.26 5135860.21 185.25
-9755660.07 5135850.14 186.79
-9755651.81 5135850.72 185.25
-9755656.27 5135850.81 186.12
-9755660.33 5135854.27 186.77
-9755656.68 5135848.52 186.78
-9755651.14 5135854.88 185.24
-9755655.00 5135854.33 185.24
-9755656.19 5135854.96 185.14
-9755661.24 5135849.93 185.10
-9755661.16 5135858.20 185.09
-9755656.17 5135859.09 185.14
-9755661.16 5135857.58 185.11
-9755657.04 5135858.36 186.80
-9755658.49 5135856.61 186.80
-9755659.44 5135856.06 185.58
-9755652.01 5135860.23 185.26
-9755659.98 5135860.09 186.89
-9755656.44 5135848.89 186.60
-9755655.96 5135849.90 185.15
-9755651.77 5135849.26 185.26
-9755656.42 5135853.34 186.09
-9755660.95 5135857.52 186.79
-9755650.54 5135859.34 185.11
-9755651.17 5135856.95 185.26
-9755653.53 5135855.81 185.25
-9755655.33 5135849.58 185.23
-9755652.89 5135857.57 185.25
-9755660.04 5135851.26 186.81
-9755650.56 5135856.07 185.11
-9755654.40 5135858.74 185.25
-9755656.21 5135849.25 186.49
-9755657.70 5135859.54 186.97
-9755660.32 5135851.70 185.09
-9755656.50 5135854.99 186.24
-9755653.57 5135851.03 185.25
-9755661.17 5135851.98 185.10
-9755655.30 5135848.68 185.24
-9755661.88 5135848.43 185.09
-9755652.04 5135857.48 185.25
-9755656.31 5135857.47 186.69
-9755656.37 5135850.48 186.78
-9755656.66 5135856.41 186.59
-9755650.61 5135850.17 185.16
-9755650.58 5135854.25 185.14
-9755650.56 5135851.04 185.15
-9755646.16 5135856.69 184.93
-9755648.51 5135859.31 184.93
-9755646.16 5135854.24 184.93
-9755650.59 5135856.96 185.12
-9755645.35 5135851.88 184.94
-9755647.97 5135855.72 184.94
-9755647.66 5135847.78 184.93
-9755646.22 5135850.17 184.93
-9755647.61 5135854.03 184.93
-9755648.77 5135859.97 184.91
-9755646.84 5135847.75 184.93
-9755646.12 5135851.90 184.92
-9755650.32 5135848.10 185.12
-9755649.98 5135859.30 185.01
-9755646.19 5135857.82 184.94
-9755646.15 5135853.39 184.92
-9755647.92 5135857.52 184.94
-9755645.31 5135850.71 184.97
-9755648.55 5135852.51 184.92
-9755648.58 5135849.49 184.88
-9755646.10 5135860.18 184.90
-9755646.19 5135855.14 184.93
-9755646.21 5135855.76 184.93
-9755647.93 5135856.41 184.95
-9755638.11 5135860.72 185.09
-9755638.68 5135872.29 185.06
-9755638.74 5135870.80 185.04
-9755642.24 5135864.30 185.22
-9755642.00 5135861.01 185.21
-9755637.28 5135861.94 185.07
-9755641.34 5135867.57 185.18
-9755639.03 5135871.71 185.08
-9755639.02 5135867.52 185.07
-9755641.00 5135873.15 185.18
-9755640.51 5135869.97 185.20
-9755640.52 5135861.58 185.20
-9755641.97 5135861.63 185.43
-9755639.02 5135864.29 185.09
-9755644.25 5135872.01 185.02
-9755641.31 5135869.97 185.59
-9755638.98 5135863.40 185.12
-9755639.62 5135864.02 185.18
-9755644.61 5135873.26 184.95
-9755637.25 5135861.03 185.08
-9755641.36 5135864.90 185.18
-9755637.83 5135864.01 185.08
-9755638.78 5135869.02 185.06
-9755645.18 5135864.34 184.96
-9755639.01 5135861.60 185.12
-9755642.25 5135872.35 185.20
-9755638.13 5135862.79 185.09
-9755643.71 5135873.20 185.08
-9755644.59 5135861.94 184.94
-9755639.90 5135874.10 185.17
-9755640.11 5135867.53 185.22
-9755643.70 5135869.04 185.07
-9755638.10 5135869.03 185.06
-9755643.75 5135860.79 185.05
-9755639.23 5135873.20 185.13
-9755638.72 5135865.16 185.07
-9755640.54 5135862.49 185.22
-9755639.55 5135874.63 185.15
-9755637.78 5135873.21 185.07
-9755644.66 5135864.30 184.94
-9755638.10 5135874.09 185.07
-9755642.75 5135872.33 185.19
-9755639.63 5135862.52 185.18
-9755638.71 5135869.91 185.05
