-9755532.74 5135541.65 186.86
-9755533.58 5135540.86 186.94
-9755532.73 5135542.82 184.73
-9755533.28 5135542.79 184.32
-9755533.45 5135542.01 186.08
-9755532.98 5135544.40 184.96
-9755533.04 5135543.32 185.89
-9755532.11 5135543.68 184.13
-9755532.53 5135540.26 187.29
-9755532.75 5135544.17 184.80
-9755533.65 5135541.12 185.46
-9755532.47 5135541.05 187.42
-9755533.31 5135542.57 186.42
-9755533.30 5135546.42 181.34
-9755531.87 5135542.55 185.88
-9755532.16 5135543.87 184.15
-9755533.70 5135541.16 184.93
-9755533.00 5135541.99 186.43
-9755532.47 5135542.02 186.68
-9755531.96 5135540.26 186.81
-9755532.77 5135542.64 185.79
-9755532.74 5135545.25 181.40
-9755532.48 5135542.08 186.55
-9755532.32 5135544.73 184.76
-9755533.04 5135541.77 186.41
-9755533.40 5135542.36 186.20
-9755532.74 5135543.61 184.62
-9755531.92 5135542.04 186.15
-9755533.31 5135544.20 184.74
-9755532.87 5135541.12 187.42
-9755532.52 5135542.37 186.13
-9755532.24 5135543.29 185.48
-9755533.13 5135544.41 184.46
-9755533.55 5135546.14 181.31
-9755532.14 5135541.13 187.03
-9755532.11 5135544.16 184.21
-9755532.69 5135541.42 187.32
-9755532.71 5135541.13 184.50
-9755532.70 5135543.56 185.18
-9755533.05 5135543.65 184.47
-9755532.14 5135541.75 186.51
-9755533.00 5135544.67 184.80
-9755531.89 5135541.45 186.67
-9755532.17 5135542.95 186.09
-9755532.34 5135542.37 185.96
-9755533.32 5135541.68 181.35
-9755533.35 5135541.57 185.91
-9755532.44 5135542.73 186.08
-9755533.59 5135541.48 186.20
-9755533.04 5135541.10 187.03
-9755531.81 5135542.71 185.98
-9755532.95 5135541.84 186.80
-9755532.76 5135543.57 185.58
-9755533.04 5135541.47 186.69
-9755531.89 5135541.16 187.07
-9755533.35 5135541.78 186.09
-9755533.34 5135542.67 185.78
-9755533.59 5135545.56 181.30
-9755532.10 5135540.79 186.44
-9755532.36 5135543.98 184.26
-9755532.54 5135543.58 185.84
-9755533.34 5135541.15 186.78
-9755532.47 5135543.60 184.15
-9755532.20 5135544.22 184.80
-9755532.95 5135541.46 186.75
-9755531.87 5135543.34 184.11
-9755532.12 5135544.13 184.17
-9755532.79 5135544.27 184.62
-9755532.17 5135542.27 186.51
-9755533.03 5135542.50 186.66
-9755532.99 5135542.71 185.83
-9755532.70 5135542.00 186.75
-9755532.47 5135541.45 187.29
-9755532.42 5135544.19 184.79
-9755533.38 5135541.73 186.55
-9755533.31 5135542.13 186.48
-9755532.99 5135542.35 186.69
-9755533.02 5135541.35 187.03
-9755532.92 5135541.70 186.86
-9755531.87 5135541.07 187.15
-9755532.25 5135543.32 186.33
-9755532.68 5135544.34 181.40
-9755533.30 5135542.27 186.81
-9755532.83 5135541.73 186.40
-9755532.05 5135546.14 181.41
-9755533.00 5135543.10 185.22
-9755532.18 5135543.64 185.35
-9755531.95 5135543.21 185.35
-9755532.50 5135541.74 186.82
-9755534.02 5135541.84 185.75
-9755532.36 5135544.47 184.81
-9755533.60 5135542.30 187.00
-9755532.44 5135545.89 181.93
-9755533.11 5135540.55 187.05
-9755532.75 5135543.23 185.81
-9755533.30 5135542.28 186.49
-9755531.86 5135540.86 187.20
-9755533.01 5135541.77 185.69
-9755533.36 5135541.21 186.53
-9755533.11 5135542.09 186.47
-9755533.58 5135541.38 186.50
-9755532.97 5135542.55 184.69
-9755533.62 5135542.57 186.07
-9755533.48 5135542.33 186.58
-9755533.54 5135542.44 186.52
-9755532.63 5135546.71 181.39
-9755533.55 5135542.55 184.09
-9755532.74 5135540.84 187.28
-9755532.44 5135543.30 185.61
-9755532.54 5135540.57 186.86
-9755531.49 5135540.04 186.04
-9755530.41 5135539.41 185.43
-9755530.10 5135539.93 185.36
-9755531.33 5135539.77 186.01
-9755530.64 5135540.30 185.56
-9755532.02 5135539.70 186.09
-9755531.23 5135539.39 184.81
-9755531.36 5135540.30 184.34
-9755530.06 5135539.99 185.44
-9755530.19 5135539.44 184.40
-9755530.35 5135539.61 181.44
-9755530.77 5135539.97 185.28
-9755531.46 5135539.71 185.15
-9755530.03 5135540.14 181.46
-9755531.39 5135540.09 184.43
-9755529.78 5135540.04 183.64
-9755530.98 5135540.03 184.24
-9755531.33 5135539.98 184.79
-9755530.39 5135539.86 184.72
-9755530.19 5135540.04 184.64
-9755531.70 5135540.11 186.15
-9755531.24 5135540.25 185.91
-9755530.92 5135539.75 185.82
-9755531.27 5135540.23 186.85
-9755531.74 5135539.51 186.50
-9755530.95 5135539.50 184.82
-9755530.92 5135540.08 185.65
-9755530.39 5135540.11 184.86
-9755530.76 5135539.66 185.62
-9755530.81 5135540.13 184.79
-9755531.92 5135543.76 185.15
-9755529.78 5135542.38 185.28
-9755531.63 5135541.75 186.69
-9755531.24 5135543.63 184.16
-9755531.38 5135542.87 185.74
-9755532.80 5135542.59 186.73
-9755531.54 5135540.28 184.43
-9755530.42 5135543.74 185.06
-9755529.78 5135543.30 185.28
-9755529.80 5135541.05 181.45
-9755531.96 5135544.29 184.77
-9755531.27 5135540.86 186.26
-9755529.77 5135546.73 181.45
-9755531.25 5135545.24 181.43
-9755531.26 5135542.02 185.74
-9755530.67 5135542.37 185.95
-9755530.32 5135543.77 181.45
-9755531.25 5135544.69 184.47
-9755529.81 5135541.80 185.79
-9755531.32 5135541.23 186.22
-9755530.14 5135541.99 186.03
-9755531.08 5135541.44 186.32
-9755530.33 5135540.56 185.64
-9755529.76 5135540.66 183.67
-9755531.25 5135543.74 181.43
-9755529.89 5135543.10 185.08
-9755530.47 5135544.36 184.79
-9755530.58 5135544.36 181.44
-9755529.83 5135540.95 184.04
-9755529.92 5135541.60 183.46
-9755531.83 5135543.24 186.37
-9755531.60 5135540.21 186.46
-9755531.65 5135543.27 185.22
-9755530.93 5135541.50 186.10
-9755530.84 5135540.06 185.85
-9755531.32 5135540.83 185.73
-9755530.80 5135540.91 186.21
-9755530.41 5135542.91 185.09
-9755529.86 5135541.28 184.04
-9755531.84 5135541.42 187.03
-9755529.91 5135542.34 185.76
-9755529.61 5135541.79 184.64
-9755529.71 5135542.61 181.44
-9755531.22 5135542.89 186.34
-9755529.74 5135540.63 185.23
-9755530.92 5135544.23 184.39
-9755530.16 5135540.67 185.32
-9755529.59 5135541.75 185.81
-9755530.43 5135541.21 185.61
-9755530.42 5135540.91 185.55
-9755530.46 5135541.44 186.20
-9755529.85 5135541.90 183.44
-9755529.50 5135541.58 185.37
-9755530.33 5135542.87 181.45
-9755530.69 5135543.23 186.35
-9755531.31 5135542.13 186.28
-9755531.60 5135544.41 184.18
-9755530.90 5135542.38 186.44
-9755530.73 5135541.44 185.61
-9755530.70 5135542.70 185.84
-9755531.07 5135540.92 186.03
-9755531.00 5135541.94 186.43
-9755531.27 5135542.36 186.32
-9755531.74 5135540.92 186.10
-9755531.56 5135543.29 185.06
-9755531.15 5135543.18 181.43
-9755530.64 5135541.12 185.64
-9755529.71 5135540.56 184.41
-9755531.12 5135544.95 184.72
-9755531.79 5135542.42 185.27
-9755531.07 5135541.72 186.23
-9755530.28 5135542.00 183.51
-9755531.40 5135540.95 186.67
-9755531.22 5135543.42 184.88
-9755530.06 5135542.51 181.44
-9755531.60 5135541.08 187.35
-9755531.33 5135543.19 186.70
-9755530.92 5135544.17 184.42
-9755531.01 5135543.23 186.47
-9755529.80 5135542.10 183.44
-9755530.13 5135541.83 185.20
-9755531.75 5135542.42 184.20
-9755530.35 5135541.38 181.46
-9755531.55 5135542.63 186.26
-9755531.25 5135541.22 186.61
-9755531.29 5135542.84 184.16
-9755530.67 5135542.58 186.19
-9755531.43 5135541.06 187.30
-9755530.90 5135543.31 185.05
-9755530.39 5135541.71 186.18
-9755530.79 5135542.48 184.62
-9755531.62 5135541.29 184.27
-9755531.21 5135541.04 187.00
-9755531.72 5135542.95 185.83
-9755531.27 5135540.83 186.96
-9755529.83 5135541.85 185.19
-9755530.32 5135543.26 185.05
-9755530.79 5135542.69 186.44
-9755531.03 5135541.14 186.04
-9755531.04 5135540.88 186.24
-9755529.54 5135540.88 185.55
-9755530.75 5135543.31 184.03
-9755531.01 5135542.07 186.11
-9755530.47 5135543.63 184.06
-9755530.41 5135542.36 186.06
-9755530.89 5135545.83 181.42
-9755530.94 5135543.38 184.15
-9755530.54 5135541.68 186.30
-9755531.62 5135543.26 186.30
-9755530.98 5135542.94 186.47
-9755530.73 5135543.07 185.04
-9755529.74 5135541.54 185.29
-9755529.64 5135541.75 186.15
-9755530.36 5135541.21 185.82
-9755531.33 5135543.48 186.41
-9755531.47 5135541.10 186.18
-9755529.83 5135544.03 181.44
-9755531.39 5135543.55 184.89
-9755530.62 5135543.47 181.43
-9755531.18 5135546.11 181.42
-9755531.22 5135542.40 183.91
-9755530.58 5135546.75 181.43
-9755531.05 5135541.60 184.10
-9755530.10 5135540.53 185.65
-9755531.14 5135542.90 181.43
-9755531.02 5135541.98 185.84
-9755531.32 5135544.78 183.99
-9755531.27 5135541.82 186.20
-9755531.39 5135541.02 184.52
-9755530.38 5135543.03 185.05
-9755530.99 5135541.13 186.01
-9755530.97 5135542.37 185.96
-9755553.77 5135525.87 181.18
-9755554.87 5135522.90 181.18
-9755553.45 5135525.86 181.19
-9755547.85 5135526.39 181.21
-9755554.69 5135522.97 181.19
-9755551.07 5135524.05 181.19
-9755549.01 5135525.27 181.21
-9755554.63 5135525.21 181.17
-9755554.33 5135525.62 181.18
-9755550.49 5135526.70 181.19
-9755547.90 5135524.94 181.23
-9755552.24 5135524.64 181.20
-9755551.09 5135522.89 181.19
-9755547.88 5135523.16 181.21
-9755549.00 5135524.36 181.19
-9755549.34 5135522.87 181.20
-9755550.16 5135524.08 181.21
-9755555.25 5135524.43 181.19
-9755547.90 5135526.17 181.23
-9755552.93 5135523.73 181.19
-9755554.09 5135523.76 181.17
-9755555.55 5135524.38 181.18
-9755550.51 5135524.68 181.20
-9755552.54 5135524.65 181.19
-9755553.48 5135525.52 181.19
-9755549.36 5135523.77 181.21
-9755549.29 5135526.30 181.21
-9755550.48 5135527.00 181.20
-9755554.63 5135524.42 181.19
-9755555.24 5135526.45 181.18
-9755549.32 5135525.18 181.21
-9755552.60 5135523.20 181.20
-9755548.79 5135525.23 181.21
-9755547.27 5135523.45 181.23
-9755536.35 5135525.06 181.32
-9755541.06 5135526.63 181.28
-9755547.57 5135524.86 181.20
-9755547.02 5135524.31 181.24
-9755546.72 5135524.58 181.25
-9755537.80 5135526.86 181.30
-9755542.59 5135525.86 181.26
-9755536.34 5135523.34 181.30
-9755545.24 5135522.84 181.25
-9755536.10 5135523.97 181.33
-9755540.29 5135523.98 181.28
-9755540.76 5135524.62 181.27
-9755534.55 5135526.61 181.33
-9755539.35 5135523.12 181.29
-9755535.78 5135523.59 181.33
-9755540.45 5135524.54 181.29
-9755541.37 5135525.86 181.26
-9755536.35 5135523.68 181.31
-9755536.39 5135524.32 181.31
-9755546.38 5135524.63 181.24
-9755545.42 5135523.08 181.24
-9755534.79 5135525.43 181.33
-9755543.73 5135525.45 181.23
-9755534.27 5135526.07 181.34
-9755541.68 5135525.86 181.29
-9755544.88 5135523.44 181.24
-9755538.43 5135526.02 181.29
-9755542.53 5135525.16 181.27
-9755539.94 5135524.31 181.30
-9755541.07 5135526.34 181.27
-9755544.87 5135525.77 181.24
-9755536.96 5135524.59 181.31
-9755538.70 5135524.51 181.31
-9755535.09 5135523.99 181.33
-9755546.93 5135526.43 181.23
-9755537.82 5135526.05 181.30
-9755534.88 5135523.63 181.32
-9755545.51 5135524.01 181.26
-9755542.82 5135522.87 181.25
-9755537.52 5135525.50 181.31
-9755540.22 5135525.42 181.30
-9755534.02 5135524.21 181.33
-9755537.30 5135524.21 181.30
-9755537.22 5135524.84 181.32
-9755546.36 5135526.98 181.22
-9755541.01 5135526.93 181.28
-9755540.20 5135526.07 181.27
-9755540.45 5135526.32 181.26
-9755542.84 5135526.40 181.25
-9755543.11 5135523.38 181.26
-9755536.30 5135525.74 181.33
-9755535.81 5135524.60 181.33
-9755536.35 5135526.61 181.33
-9755532.81 5135524.06 185.20
-9755532.57 5135524.65 185.52
-9755533.51 5135524.60 185.42
-9755532.58 5135524.62 185.19
-9755532.18 5135525.51 185.92
-9755532.79 5135523.71 184.62
-9755532.84 5135524.03 184.57
-9755534.03 5135526.88 181.34
-9755532.82 5135525.24 185.27
-9755532.83 5135524.38 185.22
-9755532.55 5135523.52 185.13
-9755533.65 5135525.43 181.32
-9755531.94 5135525.00 185.32
-9755532.33 5135525.87 185.58
-9755532.29 5135524.36 185.64
-9755532.53 5135525.19 184.45
-9755531.95 5135524.58 185.77
-9755532.91 5135525.56 185.18
-9755532.30 5135522.90 185.09
-9755532.31 5135524.59 185.09
-9755532.49 5135523.74 185.13
-9755533.71 5135526.28 181.35
-9755532.50 5135522.96 185.10
-9755533.13 5135524.64 185.28
-9755532.21 5135524.96 185.38
-9755532.20 5135525.53 185.69
-9755551.01 5135535.90 181.22
-9755551.37 5135527.01 181.20
-9755552.80 5135527.86 181.18
-9755554.07 5135530.03 181.18
-9755548.61 5135539.71 181.24
-9755551.04 5135535.04 181.19
-9755555.78 5135532.71 181.19
-9755549.55 5135539.20 181.22
-9755549.64 5135535.89 181.21
-9755547.77 5135535.11 181.22
-9755551.90 5135530.83 181.19
-9755549.53 5135531.12 181.21
-9755549.82 5135535.33 181.22
-9755547.84 5135535.92 181.22
-9755554.58 5135539.23 181.19
-9755555.76 5135535.98 181.16
-9755547.86 5135527.31 181.22
-9755550.74 5135539.18 181.22
-9755547.48 5135532.60 181.22
-9755553.43 5135529.12 181.16
-9755548.42 5135527.84 181.18
-9755555.36 5135538.49 181.16
-9755549.60 5135530.21 181.22
-9755553.74 5135528.19 181.19
-9755555.75 5135539.50 181.16
-9755549.62 5135532.06 181.22
-9755549.48 5135538.82 181.21
-9755555.80 5135533.61 181.16
-9755552.59 5135529.39 181.17
-9755551.03 5135527.57 181.19
-9755551.05 5135537.96 181.21
-9755547.44 5135534.96 181.22
-9755549.29 5135530.17 181.22
-9755555.72 5135537.35 181.18
-9755548.67 5135537.34 181.24
-9755549.41 5135528.50 181.20
-9755551.02 5135532.67 181.22
-9755553.42 5135537.42 181.19
-9755553.67 5135531.76 181.18
-9755549.60 5135533.26 181.21
-9755547.80 5135529.41 181.23
-9755553.41 5135534.19 181.18
-9755551.06 5135531.67 181.21
-9755555.19 5135532.07 181.17
-9755549.97 5135527.86 181.20
-9755551.11 5135533.48 181.19
-9755553.14 5135538.25 181.20
-9755555.14 5135532.71 181.19
-9755553.43 5135532.05 181.19
-9755548.35 5135538.20 181.22
-9755551.83 5135534.14 181.19
-9755548.74 5135530.28 181.20
-9755552.48 5135538.54 181.20
-9755554.81 5135535.89 181.16
-9755549.30 5135531.07 181.21
-9755550.80 5135535.85 181.20
-9755550.13 5135537.05 181.22
-9755553.41 5135531.14 181.19
-9755548.71 5135531.15 181.21
-9755555.80 5135529.45 181.19
-9755551.30 5135535.82 181.22
-9755553.43 5135533.25 181.20
-9755549.20 5135539.15 181.21
-9755547.83 5135528.17 181.20
-9755552.46 5135537.37 181.21
-9755554.90 5135532.70 181.18
-9755555.48 5135530.00 181.17
-9755553.94 5135535.88 181.19
-9755552.86 5135533.50 181.17
-9755547.52 5135529.09 181.19
-9755548.75 5135527.88 181.19
-9755555.11 5135535.96 181.18
-9755551.16 5135536.46 181.22
-9755547.25 5135528.48 181.23
-9755534.50 5135530.14 181.32
-9755545.73 5135536.75 181.23
-9755534.59 5135533.39 181.33
-9755536.65 5135528.70 181.32
-9755533.88 5135529.92 181.34
-9755543.67 5135528.07 181.23
-9755541.07 5135528.78 181.26
-9755546.93 5135532.22 181.21
-9755535.93 5135537.00 181.30
-9755545.67 5135537.62 181.24
-9755546.29 5135539.65 181.24
-9755535.43 5135531.01 181.35
-9755541.26 5135538.54 181.27
-9755536.87 5135532.63 181.33
-9755536.27 5135535.23 181.30
-9755534.54 5135531.95 181.33
-9755546.96 5135530.83 181.21
-9755534.52 5135536.08 181.34
-9755541.93 5135534.28 181.26
-9755538.08 5135532.23 181.31
-9755537.77 5135531.68 181.30
-9755536.27 5135531.94 181.33
-9755538.10 5135539.09 181.32
-9755544.63 5135530.22 181.25
-9755536.28 5135531.06 181.33
-9755546.32 5135535.86 181.24
-9755537.19 5135533.18 181.34
-9755536.91 5135531.07 181.31
-9755536.89 5135534.60 181.32
-9755538.09 5135529.31 181.32
-9755535.20 5135529.56 181.31
-9755543.71 5135536.06 181.24
-9755534.21 5135536.63 181.33
-9755542.52 5135534.41 181.23
-9755546.79 5135537.89 181.22
-9755536.88 5135537.86 181.33
-9755536.01 5135538.46 181.32
-9755538.13 5135536.96 181.30
-9755535.43 5135528.98 181.22
-9755536.30 5135528.67 181.34
-9755546.34 5135533.46 181.22
-9755535.41 5135529.61 181.32
-9755539.26 5135539.07 181.28
-9755546.05 5135538.70 181.25
-9755540.48 5135528.36 181.29
-9755546.05 5135533.79 181.23
-9755538.72 5135532.25 181.29
-9755537.25 5135531.97 181.32
-9755539.52 5135531.98 181.26
-9755535.76 5135530.23 181.33
-9755538.92 5135535.81 181.30
-9755543.30 5135536.19 181.24
-9755534.03 5135527.74 181.33
-9755534.80 5135529.27 181.34
-9755541.35 5135530.84 181.27
-9755545.08 5135537.93 181.23
-9755542.57 5135537.39 181.24
-9755537.19 5135536.10 181.31
-9755534.06 5135539.20 185.07
-9755542.13 5135537.57 182.33
-9755545.75 5135529.32 181.23
-9755542.57 5135537.21 182.38
-9755533.92 5135530.68 181.33
-9755546.92 5135535.83 181.22
-9755543.05 5135538.46 181.24
-9755545.48 5135531.26 181.22
-9755543.89 5135532.66 181.25
-9755535.68 5135536.66 181.33
-9755544.21 5135526.94 181.24
-9755535.13 5135529.24 181.33
-9755536.10 5135529.90 181.32
-9755534.20 5135533.42 181.32
-9755537.22 5135527.83 181.33
-9755539.59 5135535.58 181.29
-9755538.70 5135537.54 181.30
-9755542.19 5135538.13 182.34
-9755546.90 5135536.38 181.22
-9755537.24 5135528.67 181.32
-9755541.02 5135535.27 181.27
-9755543.68 5135538.80 181.24
-9755538.02 5135535.85 181.30
-9755546.00 5135532.28 181.24
-9755536.23 5135532.28 181.33
-9755544.57 5135532.66 181.26
-9755535.96 5135532.81 181.32
-9755539.24 5135535.25 181.28
-9755543.70 5135534.63 181.23
-9755543.71 5135529.88 181.24
-9755539.89 5135531.13 181.28
-9755542.71 5135537.80 182.38
-9755536.59 5135534.97 181.31
-9755543.67 5135532.61 181.26
-9755536.80 5135538.83 181.32
-9755535.74 5135529.33 181.32
-9755539.57 5135528.39 181.28
-9755545.48 5135534.35 181.24
-9755546.69 5135532.07 181.22
-9755546.09 5135528.51 181.23
-9755543.33 5135529.95 181.24
-9755545.13 5135535.84 181.22
-9755546.35 5135530.20 181.21
-9755544.56 5135529.30 181.23
-9755535.15 5135531.05 181.34
-9755542.82 5135532.31 181.26
-9755534.50 5135535.22 181.32
-9755542.46 5135539.00 182.28
-9755540.11 5135535.60 181.28
-9755539.57 5135536.71 181.29
-9755538.97 5135530.19 181.31
-9755543.66 5135530.47 181.25
-9755544.83 5135529.36 181.24
-9755539.36 5135530.48 181.31
-9755546.89 5135533.17 181.22
-9755535.98 5135537.55 181.33
-9755534.56 5135534.63 181.35
-9755543.11 5135528.74 181.25
-9755545.78 5135527.54 181.22
-9755540.89 5135539.14 181.28
-9755545.75 5135538.28 181.24
-9755541.64 5135537.58 181.25
-9755545.73 5135535.25 181.23
-9755545.99 5135536.45 181.22
-9755543.04 5135531.06 181.27
-9755540.44 5135529.55 181.27
-9755533.35 5135535.18 181.30
-9755533.31 5135539.12 185.43
-9755532.25 5135538.89 185.54
-9755533.61 5135535.79 181.33
-9755533.07 5135533.41 181.32
-9755533.61 5135539.11 185.43
-9755533.06 5135539.31 184.34
-9755532.75 5135538.83 185.43
-9755531.87 5135539.12 185.79
-9755533.64 5135529.57 181.34
-9755533.62 5135536.29 181.31
-9755533.30 5135536.67 181.31
-9755532.42 5135534.31 181.38
-9755533.40 5135539.14 185.46
-9755533.07 5135538.55 185.54
-9755532.77 5135536.66 181.36
-9755533.93 5135528.68 181.35
-9755532.42 5135537.54 181.42
-9755532.76 5135529.29 181.35
-9755532.17 5135527.54 181.33
-9755532.48 5135531.05 181.34
-9755533.61 5135531.08 181.33
-9755533.68 5135538.84 185.18
-9755531.94 5135535.82 181.97
-9755533.07 5135539.38 186.75
-9755533.05 5135532.51 181.34
-9755532.18 5135534.59 181.41
-9755532.28 5135538.59 185.00
-9755532.81 5135533.37 181.34
-9755532.96 5135538.52 184.81
-9755532.40 5135539.23 185.58
-9755532.49 5135538.55 184.97
-9755532.91 5135538.02 184.81
-9755533.13 5135528.69 181.31
-9755532.71 5135529.52 181.34
-9755532.74 5135531.94 181.34
-9755532.17 5135538.85 185.00
-9755533.58 5135534.33 181.31
-9755533.63 5135537.01 181.31
-9755532.19 5135538.12 181.41
-9755533.33 5135534.28 181.31
-9755533.36 5135538.56 184.82
-9755533.38 5135527.77 181.34
-9755532.80 5135528.67 181.33
-9755531.95 5135526.74 184.56
-9755531.37 5135522.84 184.92
-9755531.97 5135523.42 184.46
-9755529.87 5135525.13 185.89
-9755529.65 5135523.38 186.02
-9755531.89 5135524.17 184.20
-9755529.64 5135523.62 186.39
-9755531.67 5135524.92 185.82
-9755532.04 5135524.08 185.53
-9755529.84 5135524.51 184.17
-9755530.04 5135526.77 183.97
-9755530.80 5135526.08 184.37
-9755530.90 5135526.08 184.63
-9755530.47 5135524.26 185.82
-9755531.35 5135524.88 185.78
-9755531.61 5135526.09 185.75
-9755530.18 5135523.50 186.66
-9755531.70 5135523.16 185.06
-9755531.33 5135526.48 184.57
-9755530.85 5135526.95 184.42
-9755531.14 5135524.37 185.57
-9755530.45 5135525.46 185.96
-9755531.42 5135524.31 185.81
-9755531.13 5135524.99 185.81
-9755531.37 5135526.04 185.83
-9755530.44 5135526.17 185.64
-9755531.27 5135526.54 183.77
-9755531.93 5135524.84 185.82
-9755530.26 5135526.53 185.68
-9755529.67 5135524.22 185.96
-9755529.62 5135526.30 181.46
-9755531.99 5135525.53 185.85
-9755531.61 5135524.50 185.58
-9755530.20 5135523.96 184.94
-9755529.69 5135524.85 185.96
-9755530.45 5135526.26 181.44
-9755530.19 5135524.48 186.46
-9755531.14 5135524.07 185.69
-9755531.08 5135523.99 185.64
-9755530.22 5135523.35 186.31
-9755530.24 5135524.19 186.69
-9755531.76 5135524.67 184.93
-9755530.44 5135526.45 183.97
-9755531.34 5135524.18 184.49
-9755530.87 5135523.72 185.89
-9755531.93 5135524.27 184.20
-9755529.86 5135526.82 181.45
-9755529.48 5135525.82 185.61
-9755531.37 5135526.69 184.68
-9755529.96 5135523.47 185.95
-9755529.94 5135523.60 186.17
-9755530.69 5135524.30 185.67
-9755531.41 5135526.33 185.79
-9755531.40 5135525.51 184.52
-9755529.92 5135526.22 184.06
-9755530.00 5135523.71 186.73
-9755530.26 5135524.31 186.60
-9755531.00 5135526.45 184.46
-9755530.37 5135524.75 184.53
-9755529.70 5135525.78 185.69
-9755530.40 5135523.68 185.23
-9755530.17 5135523.99 185.89
-9755529.89 5135526.08 183.77
-9755530.46 5135526.39 185.68
-9755530.50 5135524.68 184.88
-9755531.14 5135527.09 183.98
-9755529.91 5135523.06 186.02
-9755529.68 5135523.78 185.67
-9755529.92 5135526.40 184.06
-9755529.53 5135525.59 185.42
-9755531.68 5135523.23 185.01
-9755530.35 5135525.45 184.15
-9755530.85 5135525.19 185.74
-9755530.47 5135524.89 184.85
-9755530.79 5135522.83 185.39
-9755530.22 5135523.11 186.05
-9755529.77 5135523.34 185.30
-9755531.11 5135525.80 185.66
-9755530.28 5135524.66 183.81
-9755531.04 5135525.85 184.70
-9755530.27 5135524.56 186.21
-9755530.51 5135525.45 185.66
-9755531.63 5135526.21 184.61
-9755529.90 5135525.90 185.67
-9755531.88 5135525.05 184.48
-9755531.37 5135525.20 185.96
-9755530.19 5135524.89 185.87
-9755530.43 5135523.47 185.30
-9755531.07 5135524.61 185.59
-9755529.59 5135523.65 186.23
-9755531.49 5135524.00 184.36
-9755531.46 5135525.52 184.67
-9755529.84 5135525.21 185.68
-9755531.21 5135524.00 184.40
-9755529.93 5135524.25 184.97
-9755530.11 5135524.62 183.57
-9755530.47 5135526.79 184.07
-9755529.71 5135523.01 186.33
-9755531.51 5135524.23 183.76
-9755530.34 5135522.78 186.35
-9755529.68 5135523.56 185.78
-9755530.50 5135524.59 186.20
-9755529.39 5135526.04 185.63
-9755530.81 5135526.68 184.42
-9755530.48 5135523.38 186.18
-9755531.75 5135523.50 185.51
-9755530.54 5135525.12 185.66
-9755530.71 5135524.35 185.29
-9755530.46 5135524.57 185.82
-9755531.51 5135526.98 184.06
-9755531.86 5135535.42 182.49
-9755531.33 5135527.16 181.42
-9755531.32 5135530.14 181.42
-9755530.81 5135526.88 181.42
-9755531.92 5135538.91 185.79
-9755531.55 5135535.45 181.75
-9755531.28 5135538.80 185.19
-9755531.56 5135539.12 185.72
-9755530.92 5135539.09 185.50
-9755531.39 5135535.51 181.69
-9755531.28 5135538.16 181.44
-9755531.67 5135535.92 181.75
-9755530.67 5135535.19 181.45
-9755531.58 5135528.37 182.49
-9755531.82 5135538.56 185.04
-9755530.48 5135527.64 183.95
-9755531.37 5135535.76 182.48
-9755531.04 5135529.23 181.43
-9755531.26 5135535.46 181.43
-9755531.85 5135538.11 181.43
-9755530.97 5135536.64 181.44
-9755529.85 5135532.23 181.46
-9755530.45 5135534.84 181.45
-9755531.26 5135538.55 185.19
-9755531.62 5135538.49 185.61
-9755530.04 5135539.26 184.27
-9755531.66 5135527.04 184.73
-9755531.21 5135539.08 185.24
-9755531.01 5135527.56 184.02
-9755530.14 5135530.14 181.44
-9755531.27 5135536.38 181.43
-9755531.68 5135527.59 184.70
-9755531.61 5135538.51 185.04
-9755530.43 5135531.03 181.45
-9755531.28 5135530.46 181.42
-9755531.48 5135535.80 182.34
-9755530.46 5135528.38 181.44
-9755530.10 5135535.74 181.45
-9755530.37 5135537.57 181.44
-9755531.37 5135538.66 185.61
-9755530.95 5135538.62 185.51
-9755530.16 5135529.24 181.45
-9755531.94 5135527.50 181.36
-9755531.09 5135527.36 184.71
-9755529.79 5135538.14 181.46
-9755531.31 5135538.44 181.44
-9755530.42 5135534.30 181.46
-9755529.38 5135527.64 183.50
-9755530.54 5135539.21 184.72
-9755530.93 5135539.05 181.44
-9755529.53 5135539.33 181.46
-9755525.39 5135539.57 181.53
-9755527.69 5135540.17 181.48
-9755528.01 5135539.87 181.48
-9755528.00 5135539.62 181.48
-9755525.94 5135540.18 181.52
-9755524.51 5135540.19 181.53
-9755506.37 5135548.47 199.84
-9755528.90 5135546.09 181.46
-9755526.57 5135543.45 181.49
-9755529.47 5135541.66 181.46
-9755527.96 5135545.23 181.48
-9755529.55 5135540.02 185.69
-9755526.53 5135544.04 181.50
-9755526.20 5135541.05 181.52
-9755527.42 5135541.68 181.49
-9755527.66 5135544.05 181.48
-9755527.99 5135541.65 181.48
-9755527.69 5135540.47 181.48
-9755528.56 5135540.20 181.48
-9755527.39 5135545.80 181.49
-9755525.34 5135545.81 181.52
-9755529.57 5135541.06 184.54
-9755525.38 5135543.14 181.52
-9755525.59 5135542.80 181.51
-9755525.93 5135545.20 181.52
-9755529.14 5135542.56 181.45
-9755526.51 5135546.08 181.50
-9755528.88 5135541.09 181.47
-9755526.56 5135546.39 181.50
-9755529.51 5135541.39 181.45
-9755525.63 5135542.22 181.52
-9755529.41 5135541.53 184.75
-9755527.98 5135546.13 181.48
-9755527.97 5135542.24 181.48
-9755527.67 5135542.55 181.48
-9755525.65 5135543.12 181.51
-9755526.23 5135543.44 181.50
-9755524.70 5135544.59 181.54
-9755525.37 5135543.75 181.52
-9755529.59 5135523.37 186.35
-9755528.40 5135525.46 185.31
-9755529.51 5135522.97 184.88
-9755528.74 5135525.79 185.56
-9755528.63 5135522.89 184.40
-9755528.91 5135522.81 184.68
-9755529.59 5135524.55 185.95
-9755529.55 5135523.43 186.25
-9755529.37 5135523.36 186.22
-9755528.72 5135524.06 184.07
-9755529.60 5135525.19 185.49
-9755527.93 5135525.00 185.19
-9755527.25 5135525.99 181.50
-9755529.60 5135526.56 183.90
-9755528.15 5135523.49 184.32
-9755529.31 5135524.05 184.33
-9755529.21 5135523.54 184.52
-9755528.43 5135523.80 184.02
-9755525.18 5135522.97 181.49
-9755529.60 5135524.01 186.21
-9755523.68 5135524.19 181.53
-9755528.78 5135523.96 186.11
-9755529.31 5135525.86 185.57
-9755527.21 5135524.21 181.48
-9755529.27 5135526.70 183.60
-9755529.00 5135524.11 185.25
-9755528.73 5135525.20 185.38
-9755527.84 5135524.61 185.30
-9755529.24 5135525.39 181.46
-9755529.31 5135526.09 185.83
-9755521.26 5135526.20 181.57
-9755527.54 5135526.87 181.50
-9755523.10 5135524.12 181.54
-9755529.00 5135527.04 183.50
-9755527.89 5135525.52 185.15
-9755521.65 5135523.53 181.57
-9755524.55 5135523.57 181.51
-9755528.12 5135526.89 181.49
-9755527.69 5135525.46 185.14
-9755528.02 5135525.36 181.48
-9755527.82 5135523.92 181.46
-9755528.77 5135522.98 184.66
-9755526.98 5135523.85 181.48
-9755529.18 5135524.39 184.30
-9755529.07 5135523.91 184.19
-9755528.02 5135526.34 185.58
-9755528.34 5135522.86 183.87
-9755528.21 5135524.61 185.29
-9755528.86 5135524.53 186.45
-9755528.56 5135526.57 185.70
-9755523.41 5135523.57 181.53
-9755529.06 5135524.47 186.43
-9755525.48 5135525.06 181.51
-9755521.92 5135522.94 181.55
-9755529.01 5135523.48 184.51
-9755529.35 5135524.29 186.39
-9755528.05 5135523.00 181.47
-9755528.78 5135526.99 183.51
-9755529.21 5135523.67 184.51
-9755525.73 5135524.16 181.49
-9755527.58 5135524.97 185.17
-9755528.48 5135522.92 184.25
-9755528.10 5135525.54 185.28
-9755528.77 5135526.31 185.79
-9755528.80 5135523.42 183.75
-9755526.65 5135524.24 181.48
-9755528.98 5135523.79 184.43
-9755525.15 5135526.24 181.52
-9755522.53 5135522.96 181.55
-9755528.94 5135522.87 185.53
-9755526.32 5135523.88 181.49
-9755524.84 5135526.26 181.52
-9755527.97 5135525.94 184.73
-9755528.15 5135522.96 183.88
-9755523.10 5135524.75 181.54
-9755527.81 5135525.14 181.49
-9755528.37 5135526.04 184.85
-9755528.48 5135526.75 183.49
-9755528.76 5135523.78 185.55
-9755523.12 5135523.88 181.54
-9755528.09 5135526.09 185.54
-9755526.34 5135525.42 181.49
-9755527.24 5135522.76 181.47
-9755528.90 5135522.96 183.83
-9755528.70 5135523.08 185.51
-9755521.89 5135526.20 181.56
-9755525.75 5135525.97 181.51
-9755527.22 5135524.78 181.49
-9755525.74 5135525.07 181.50
-9755529.39 5135525.78 186.05
-9755527.82 5135523.80 183.80
-9755528.12 5135526.29 181.50
-9755528.96 5135524.15 184.36
-9755522.20 5135525.94 181.55
-9755528.76 5135524.85 185.34
-9755521.59 5135525.35 181.57
-9755529.01 5135524.74 184.42
-9755528.43 5135525.38 185.55
-9755527.50 5135523.46 183.80
-9755529.28 5135526.29 185.85
-9755528.36 5135525.42 184.22
-9755528.99 5135525.20 185.45
-9755527.55 5135522.87 183.94
-9755528.63 5135523.27 184.55
-9755528.80 5135524.02 186.45
-9755524.87 5135523.01 181.50
-9755514.28 5135522.78 184.89
-9755513.98 5135524.50 184.79
-9755517.21 5135525.95 184.90
-9755517.35 5135524.34 185.02
-9755517.21 5135524.85 184.96
-9755517.70 5135522.96 184.45
-9755517.25 5135523.99 184.50
-9755515.72 5135522.81 185.23
-9755517.28 5135523.03 185.25
-9755515.46 5135525.46 185.07
-9755516.31 5135524.10 181.58
-9755515.78 5135526.02 184.86
-9755516.41 5135525.45 184.67
-9755515.81 5135522.82 185.19
-9755515.74 5135526.37 184.88
-9755518.10 5135526.17 181.60
-9755514.85 5135523.38 185.10
-9755516.64 5135524.27 184.65
-9755519.57 5135525.02 181.59
-9755514.90 5135524.87 185.18
-9755516.34 5135523.36 184.90
-9755516.63 5135524.89 184.64
-9755516.37 5135524.23 184.80
-9755518.66 5135523.51 181.59
-9755518.99 5135525.63 181.58
-9755516.03 5135523.05 185.02
-9755517.50 5135523.99 185.26
-9755517.45 5135525.25 184.47
-9755516.66 5135526.03 184.57
-9755517.48 5135523.18 184.00
-9755517.15 5135525.76 184.50
-9755517.73 5135523.15 184.03
-9755516.01 5135526.06 184.78
-9755516.34 5135524.89 184.74
-9755515.74 5135525.13 184.97
-9755519.84 5135525.31 181.58
-9755519.26 5135524.17 181.59
-9755516.37 5135524.54 184.75
-9755517.46 5135525.79 184.87
-9755520.17 5135523.82 181.59
-9755515.47 5135523.10 185.25
-9755526.03 5135527.13 181.51
-9755528.92 5135527.62 183.48
-9755529.50 5135538.39 181.46
-9755528.64 5135527.61 183.53
-9755524.52 5135533.06 181.52
-9755529.49 5135532.22 181.47
-9755524.86 5135533.34 181.53
-9755523.95 5135528.32 181.54
-9755526.30 5135530.10 181.52
-9755523.40 5135527.72 181.55
-9755524.82 5135531.90 181.53
-9755529.55 5135528.92 181.46
-9755527.21 5135527.73 181.50
-9755525.41 5135530.99 181.52
-9755529.54 5135534.88 181.45
-9755528.74 5135527.37 183.51
-9755523.07 5135527.42 181.55
-9755526.29 5135529.20 181.51
-9755524.74 5135538.08 181.54
-9755528.08 5135535.12 181.48
-9755524.84 5135527.38 181.53
-9755529.23 5135530.97 181.47
-9755526.26 5135536.60 181.51
-9755528.04 5135537.80 181.49
-9755527.17 5135535.42 181.50
-9755528.66 5135537.82 181.48
-9755527.14 5135534.27 181.50
-9755527.18 5135528.04 181.50
-9755525.68 5135536.92 181.53
-9755526.90 5135529.54 181.49
-9755529.55 5135535.78 181.45
-9755528.02 5135535.98 181.48
-9755526.60 5135531.88 181.51
-9755524.75 5135538.97 181.54
-9755525.38 5135535.72 181.52
-9755529.54 5135528.02 181.45
-9755526.00 5135533.34 181.51
-9755525.74 5135528.60 181.52
-9755527.22 5135527.10 181.50
-9755528.33 5135536.65 181.49
-9755525.12 5135530.13 181.52
-9755524.46 5135538.69 181.55
-9755526.28 5135534.29 181.51
-9755525.44 5135533.03 181.52
-9755524.86 5135528.63 181.53
-9755528.04 5135533.68 181.49
-9755523.66 5135527.44 181.55
-9755524.17 5135536.61 181.54
-9755523.34 5135529.51 181.56
-9755528.88 5135539.28 181.47
-9755521.03 5135527.71 181.57
-9755523.92 5135537.83 181.54
-9755524.20 5135530.13 181.55
-9755526.28 5135531.29 181.51
-9755527.13 5135536.91 181.50
-9755528.71 5135531.63 181.48
-9755526.60 5135528.63 181.49
-9755525.68 5135530.99 181.52
-9755525.71 5135529.53 181.51
-9755524.20 5135537.51 181.55
-9755523.00 5135535.16 181.54
-9755527.18 5135530.97 181.50
-9755529.49 5135538.15 181.47
-9755528.07 5135530.42 181.49
-9755529.56 5135530.70 181.45
-9755529.27 5135527.02 183.50
-9755523.89 5135539.25 181.55
-9755528.69 5135527.76 181.49
-9755527.73 5135531.90 181.49
-9755523.04 5135528.53 181.56
-9755527.16 5135532.44 181.48
-9755528.06 5135538.70 181.48
-9755528.93 5135537.82 181.47
-9755528.37 5135528.62 181.47
-9755520.40 5135527.10 181.58
-9755514.87 5135526.91 185.20
-9755518.66 5135527.68 181.59
-9755519.25 5135527.09 181.59
-9755516.34 5135528.43 184.55
-9755516.66 5135527.80 184.53
-9755516.03 5135528.69 184.62
-9755516.87 5135528.73 184.49
-9755516.68 5135528.07 185.28
-9755508.24 5135522.66 203.55
-9755508.55 5135522.08 203.61
-9755507.71 5135518.55 204.62
-9755507.99 5135521.00 203.59
-9755507.45 5135517.98 204.63
-9755507.38 5135518.44 204.59
-9755507.99 5135522.75 203.55
-9755508.17 5135520.00 203.69
-9755507.69 5135517.65 204.64
-9755507.66 5135522.11 203.55
-9755508.27 5135521.24 203.62
-9755507.97 5135519.73 203.69
-9755507.40 5135519.11 203.61
-9755507.64 5135522.71 203.55
-9755507.71 5135520.01 203.60
-9755508.42 5135520.94 203.99
-9755508.02 5135521.51 203.58
-9755507.75 5135520.36 203.60
-9755506.05 5135517.77 207.03
-9755506.83 5135517.97 203.60
-9755506.51 5135520.37 203.58
-9755507.08 5135521.82 203.56
-9755506.21 5135522.69 203.56
-9755506.85 5135518.61 203.60
-9755506.49 5135522.70 203.55
-9755507.36 5135517.50 203.57
-9755507.11 5135522.10 203.57
-9755505.97 5135519.49 203.60
-9755506.82 5135520.94 203.57
-9755506.26 5135517.08 207.54
-9755505.94 5135520.92 203.58
-9755505.94 5135522.15 203.56
-9755505.94 5135518.85 203.59
-9755505.93 5135520.07 203.59
-9755506.51 5135522.11 203.57
-9755506.49 5135519.14 203.59
-9755506.33 5135517.55 207.04
-9755507.09 5135520.66 203.58
-9755506.52 5135522.42 203.56
-9755505.91 5135517.94 203.59
-9755504.22 5135517.85 207.02
-9755503.27 5135521.54 203.58
-9755505.59 5135520.90 203.58
-9755504.77 5135518.84 203.61
-9755505.36 5135521.20 203.58
-9755505.62 5135517.91 203.59
-9755505.30 5135520.30 203.59
-9755504.74 5135522.68 203.57
-9755505.62 5135519.12 203.60
-9755504.45 5135519.44 203.59
-9755503.29 5135519.70 203.59
-9755504.76 5135521.49 203.56
-9755505.01 5135522.13 203.57
-9755503.28 5135520.03 203.59
-9755503.51 5135518.53 203.59
-9755504.22 5135517.57 208.73
-9755505.37 5135517.80 207.03
-9755504.13 5135519.14 203.58
-9755503.90 5135522.69 203.57
-9755505.02 5135522.70 203.57
-9755503.30 5135519.12 203.59
-9755504.22 5135517.39 208.77
-9755503.86 5135521.48 203.58
-9755503.90 5135519.46 203.59
-9755504.12 5135520.93 203.59
-9755505.02 5135520.06 203.57
-9755504.74 5135520.05 203.57
-9755504.18 5135518.29 203.59
-9755503.86 5135520.90 203.59
-9755503.87 5135518.88 203.59
-9755504.55 5135518.10 207.02
-9755504.13 5135519.71 203.59
-9755503.88 5135521.80 203.58
-9755505.06 5135517.99 203.60
-9755503.83 5135520.00 203.59
-9755503.31 5135518.53 203.58
-9755507.07 5135517.25 207.07
-9755506.27 5135513.43 207.15
-9755505.93 5135513.12 207.08
-9755505.58 5135516.17 207.93
-9755506.53 5135516.81 207.50
-9755506.38 5135514.59 207.11
-9755506.30 5135516.87 207.56
-9755506.28 5135514.24 207.09
-9755505.92 5135514.85 207.27
-9755506.53 5135515.16 207.08
-9755504.87 5135513.54 207.82
-9755504.23 5135513.23 208.08
-9755504.88 5135513.04 207.79
-9755504.10 5135512.99 208.33
-9755505.67 5135514.85 207.68
-9755503.40 5135516.96 209.20
-9755505.35 5135514.50 207.66
-9755505.04 5135515.03 208.00
-9755504.26 5135513.93 208.26
-9755503.41 5135515.00 208.82
-9755503.66 5135515.35 208.77
-9755504.54 5135514.07 208.14
-9755504.22 5135516.49 208.65
-9755504.19 5135516.21 208.65
-9755503.68 5135516.54 208.98
-9755506.02 5135512.07 207.15
-9755503.85 5135512.27 208.35
-9755503.38 5135507.16 207.84
-9755503.26 5135508.28 208.02
-9755504.80 5135510.42 207.52
-9755503.56 5135512.09 208.47
-9755504.06 5135510.65 207.97
-9755504.89 5135509.47 207.11
-9755503.69 5135505.32 207.32
-9755503.77 5135505.62 207.27
-9755503.93 5135508.89 207.79
-9755504.00 5135511.21 208.07
-9755503.39 5135505.37 207.60
-9755503.30 5135512.06 208.57
-9755504.87 5135510.10 207.43
-9755503.44 5135512.40 208.49
-9755504.73 5135510.97 207.63
-9755504.51 5135510.91 207.80
-9755503.45 5135508.84 207.97
-9755505.15 5135511.98 206.94
-9755503.74 5135507.07 207.54
-9755503.43 5135503.57 206.85
-9755503.67 5135503.60 207.26
-9755503.99 5135507.68 207.55
-9755505.10 5135510.10 207.12
-9755504.49 5135506.81 207.16
-9755521.24 5135566.94 202.36
-9755522.17 5135566.97 202.37
-9755513.87 5135566.92 202.43
-9755518.02 5135566.35 202.43
-9755516.56 5135566.35 202.45
-9755513.00 5135566.66 202.45
-9755516.55 5135566.96 202.41
-9755513.59 5135566.37 202.46
-9755507.99 5135566.35 200.76
-9755519.51 5135566.63 202.40
-9755510.69 5135566.95 202.52
-9755519.20 5135566.97 202.38
-9755513.31 5135566.36 202.46
-9755518.87 5135567.01 202.39
-9755514.50 5135566.34 202.45
-9755510.92 5135566.93 202.44
-9755507.98 5135566.67 200.78
-9755510.05 5135566.97 200.80
-9755510.04 5135566.38 200.77
-9755509.14 5135566.67 200.78
-9755507.42 5135566.06 200.74
-9755517.43 5135566.02 202.44
-9755512.05 5135566.61 202.44
-9755515.96 5135566.35 202.47
-9755515.33 5135566.33 202.45
-9755513.00 5135566.36 202.46
-9755507.09 5135566.39 200.77
-9755505.09 5135566.34 200.77
-9755522.96 5135575.28 202.07
-9755522.14 5135570.57 202.17
-9755521.52 5135571.40 202.17
-9755522.12 5135572.00 202.16
-9755521.50 5135574.44 202.07
-9755522.12 5135570.25 202.17
-9755521.50 5135574.71 202.06
-9755523.00 5135574.91 202.08
-9755520.65 5135571.74 202.17
-9755521.21 5135569.69 202.22
-9755521.57 5135569.94 202.19
-9755521.57 5135572.28 202.17
-9755521.22 5135571.70 202.18
-9755522.14 5135571.14 202.17
-9755522.91 5135574.92 202.07
-9755520.96 5135569.59 202.23
-9755522.69 5135571.39 202.18
-9755522.13 5135572.60 202.16
-9755522.47 5135569.65 202.20
-9755521.21 5135572.88 202.15
-9755522.66 5135568.05 202.93
-9755522.67 5135569.67 202.22
-9755520.63 5135570.52 202.19
-9755520.65 5135573.17 202.16
-9755520.63 5135570.83 202.18
-9755522.44 5135571.45 202.17
-9755523.24 5135573.76 202.23
-9755521.82 5135572.03 202.17
-9755520.94 5135569.04 202.25
-9755520.33 5135573.21 202.14
-9755522.93 5135572.63 202.17
-9755520.99 5135569.93 202.21
-9755522.10 5135568.75 202.25
-9755523.23 5135573.17 202.24
-9755522.40 5135573.82 202.09
-9755522.42 5135570.55 202.17
-9755522.94 5135573.39 203.02
-9755520.63 5135572.58 202.17
-9755522.77 5135570.64 202.59
-9755520.66 5135573.47 202.14
-9755522.74 5135569.03 202.35
-9755521.49 5135575.29 202.02
-9755522.43 5135568.76 202.26
-9755520.29 5135571.17 202.17
-9755523.05 5135572.17 205.67
-9755521.25 5135569.08 202.24
-9755522.12 5135571.74 202.17
-9755520.67 5135572.33 202.17
-9755520.34 5135567.85 202.32
-9755522.64 5135569.06 202.30
-9755522.95 5135570.18 203.00
-9755520.30 5135572.92 202.17
-9755520.35 5135568.75 202.28
-9755521.27 5135567.83 202.31
-9755520.93 5135575.26 202.02
-9755521.22 5135570.87 202.17
-9755522.77 5135571.45 205.73
-9755520.63 5135570.26 202.19
-9755520.06 5135571.39 202.16
-9755519.83 5135569.34 202.24
-9755509.72 5135573.78 201.07
-9755510.28 5135575.24 201.15
-9755517.08 5135571.99 202.20
-9755515.33 5135573.78 202.15
-9755520.30 5135574.07 202.10
-9755519.78 5135568.71 202.28
-9755515.37 5135567.22 202.39
-9755515.04 5135572.28 202.19
-9755516.76 5135573.80 202.13
-9755508.24 5135574.62 201.10
-9755511.27 5135569.24 202.34
-9755519.43 5135574.70 202.06
-9755510.02 5135572.88 201.05
-9755516.83 5135570.47 202.21
-9755507.69 5135570.50 201.00
-9755510.95 5135571.19 202.30
-9755515.06 5135566.63 202.45
-9755507.66 5135572.00 201.05
-9755509.48 5135568.15 200.89
-9755514.21 5135569.00 202.29
-9755508.53 5135569.64 200.96
-9755509.76 5135569.61 200.96
-9755511.21 5135570.18 202.35
-9755516.51 5135572.29 202.19
-9755520.03 5135569.92 202.21
-9755512.40 5135573.14 202.18
-9755513.91 5135567.22 202.41
-9755512.09 5135569.56 202.27
-9755518.28 5135568.14 202.33
-9755507.39 5135568.73 200.91
-9755513.88 5135570.48 202.21
-9755519.18 5135574.07 202.11
-9755516.53 5135570.50 202.20
-9755509.71 5135567.28 200.83
-9755510.63 5135567.16 202.51
-9755507.93 5135572.87 201.06
-9755518.28 5135570.22 202.20
-9755516.51 5135572.86 202.19
-9755517.98 5135569.02 202.27
-9755511.65 5135572.88 201.04
-9755509.72 5135572.86 201.05
-9755518.91 5135569.06 202.26
-9755508.26 5135572.34 201.04
-9755510.03 5135571.37 201.05
-9755518.24 5135573.20 202.17
-9755518.56 5135572.00 202.18
-9755516.24 5135569.01 202.30
-9755518.01 5135572.85 202.18
-9755510.03 5135568.14 200.89
-9755512.40 5135572.56 202.19
-9755512.39 5135570.47 202.21
-9755509.46 5135569.66 200.96
-9755515.94 5135571.40 202.20
-9755517.69 5135575.24 202.04
-9755519.44 5135575.24 202.04
-9755510.03 5135569.37 200.95
-9755511.47 5135573.46 201.12
-9755507.90 5135571.12 201.04
-9755516.48 5135574.68 202.09
-9755508.84 5135572.30 201.04
-9755508.18 5135574.96 201.13
-9755510.57 5135571.11 201.03
-9755517.12 5135567.25 202.40
-9755510.94 5135569.07 200.99
-9755509.98 5135573.79 201.07
-9755511.23 5135570.24 200.88
-9755513.00 5135567.20 202.41
-9755512.37 5135573.46 202.16
-9755510.57 5135574.10 201.10
-9755509.13 5135574.40 201.10
-9755508.85 5135569.91 200.98
-9755510.90 5135567.77 202.46
-9755512.12 5135568.39 202.34
-9755518.01 5135569.92 202.22
-9755509.12 5135570.24 200.99
-9755509.99 5135574.05 201.09
-9755507.90 5135574.03 201.07
-9755518.88 5135572.31 202.17
-9755515.61 5135571.73 202.20
-9755519.14 5135572.92 202.17
-9755513.56 5135572.27 202.18
-9755515.63 5135572.29 202.20
-9755512.98 5135571.07 202.20
-9755512.38 5135567.51 202.39
-9755517.15 5135567.82 202.34
-9755507.97 5135568.43 200.89
-9755514.12 5135573.47 202.18
-9755518.31 5135574.98 202.06
-9755511.15 5135570.77 202.31
-9755508.27 5135569.04 200.92
-9755507.40 5135569.30 200.94
-9755518.91 5135570.48 202.19
-9755519.73 5135572.62 202.18
-9755510.60 5135569.35 200.96
-9755512.96 5135575.23 202.05
-9755518.88 5135569.33 202.24
-9755519.49 5135571.42 202.17
-9755516.23 5135569.28 202.27
-9755515.34 5135572.86 202.19
-9755518.92 5135570.81 202.18
-9755511.88 5135573.23 203.03
-9755513.51 5135575.21 202.06
-9755514.73 5135571.94 202.19
-9755517.09 5135572.56 202.19
-9755517.10 5135570.80 202.20
-9755515.04 5135573.43 202.17
-9755518.30 5135572.86 202.18
-9755515.62 5135573.49 202.17
-9755509.45 5135570.51 201.00
-9755519.17 5135571.41 202.17
-9755516.81 5135568.13 202.34
-9755519.48 5135569.93 202.20
-9755517.42 5135568.48 202.31
-9755515.33 5135570.54 202.22
-9755510.87 5135574.94 201.13
-9755518.28 5135567.82 202.36
-9755510.29 5135572.32 201.05
-9755511.80 5135569.03 202.30
-9755515.92 5135575.24 202.06
-9755514.78 5135568.16 202.35
-9755508.84 5135568.74 200.92
-9755518.88 5135568.45 202.29
-9755513.88 5135569.04 202.29
-9755514.46 5135569.64 202.26
-9755515.64 5135574.04 202.13
-9755510.59 5135567.01 200.84
-9755511.17 5135569.76 201.03
-9755515.02 5135574.35 202.12
-9755512.96 5135573.11 202.17
-9755518.02 5135572.60 202.19
-9755507.41 5135569.96 200.99
-9755518.90 5135567.89 202.33
-9755514.73 5135567.87 202.37
-9755517.70 5135574.66 202.08
-9755513.30 5135569.59 202.27
-9755515.66 5135568.42 202.34
-9755519.16 5135570.82 202.18
-9755513.89 5135572.28 202.18
-9755517.69 5135572.90 202.18
-9755511.88 5135567.25 202.41
-9755512.68 5135567.84 202.38
-9755519.49 5135567.84 202.33
-9755509.99 5135574.65 201.13
-9755509.44 5135568.72 200.92
-9755507.64 5135574.65 201.11
-9755518.85 5135574.98 202.06
-9755514.19 5135571.40 202.19
-9755513.60 5135568.12 202.34
-9755519.14 5135569.93 202.20
-9755515.03 5135571.12 202.20
-9755510.96 5135571.41 201.05
-9755510.02 5135569.96 200.99
-9755509.76 5135568.44 200.90
-9755510.60 5135567.26 200.86
-9755509.39 5135572.87 201.05
-9755512.38 5135569.88 202.25
-9755512.13 5135570.77 202.19
-9755511.52 5135572.84 202.32
-9755508.25 5135569.29 200.94
-9755516.79 5135574.68 202.09
-9755510.94 5135570.83 201.04
-9755508.31 5135568.44 200.89
-9755511.76 5135574.50 202.92
-9755519.75 5135571.76 202.17
-9755516.51 5135574.09 202.13
-9755511.42 5135575.24 201.21
-9755516.23 5135571.09 202.19
-9755514.76 5135569.56 202.27
-9755508.25 5135568.14 200.87
-9755509.73 5135571.11 201.04
-9755511.46 5135575.25 202.15
-9755512.09 5135570.47 202.20
-9755514.74 5135571.68 202.20
-9755515.36 5135569.89 202.24
-9755514.16 5135568.42 202.33
-9755517.10 5135573.16 202.17
-9755507.40 5135568.47 200.89
-9755510.73 5135568.30 202.44
-9755507.36 5135573.73 201.07
-9755518.30 5135574.68 202.07
-9755519.45 5135574.40 202.09
-9755515.33 5135572.29 202.19
-9755508.27 5135569.94 200.98
-9755517.07 5135574.38 202.11
-9755519.19 5135567.26 202.36
-9755507.04 5135573.80 201.07
-9755518.55 5135573.80 202.12
-9755513.56 5135570.53 202.21
-9755509.99 5135573.21 201.05
-9755517.72 5135567.85 202.34
-9755516.21 5135573.49 202.17
-9755512.08 5135567.81 202.37
-9755510.58 5135574.98 201.14
-9755510.03 5135569.64 200.96
-9755515.64 5135567.83 202.37
-9755507.96 5135567.53 200.84
-9755518.83 5135573.51 202.13
-9755507.37 5135574.06 201.07
-9755518.31 5135575.24 202.05
-9755507.71 5135567.82 200.85
-9755511.19 5135570.33 202.36
-9755509.11 5135572.32 201.05
-9755511.18 5135571.14 202.10
-9755517.11 5135571.12 202.20
-9755510.66 5135567.05 203.28
-9755507.93 5135572.28 201.05
-9755511.47 5135574.71 201.19
-9755514.73 5135575.27 202.06
-9755517.42 5135569.91 202.23
-9755508.24 5135574.36 201.09
-9755510.04 5135571.71 201.05
-9755507.06 5135568.72 200.90
-9755512.71 5135568.99 202.29
-9755512.42 5135571.96 202.19
-9755518.28 5135574.34 202.09
-9755509.41 5135574.68 201.12
-9755514.74 5135568.71 202.31
-9755516.77 5135575.22 202.06
-9755515.59 5135574.98 202.07
-9755514.15 5135572.88 202.19
-9755514.77 5135572.83 202.18
-9755512.40 5135571.06 202.19
-9755511.22 5135568.98 202.36
-9755508.57 5135568.19 200.88
-9755507.09 5135567.29 200.82
-9755510.34 5135569.05 200.93
-9755512.38 5135574.03 202.13
-9755517.05 5135575.24 202.06
-9755517.39 5135570.18 202.21
-9755511.25 5135572.82 202.33
-9755518.25 5135569.32 202.25
-9755514.76 5135570.83 202.21
-9755508.83 5135574.06 201.08
-9755510.57 5135573.49 201.06
-9755510.00 5135574.38 201.11
-9755512.98 5135574.07 202.13
-9755511.47 5135573.42 202.29
-9755510.73 5135570.42 202.26
-9755511.49 5135572.32 202.31
-9755515.67 5135568.69 202.32
-9755513.23 5135575.25 202.05
-9755517.37 5135574.38 202.10
-9755510.89 5135570.26 201.01
-9755511.49 5135569.53 202.27
-9755514.13 5135574.65 202.09
-9755511.41 5135571.21 201.06
-9755511.44 5135570.18 201.09
-9755512.62 5135572.86 202.18
-9755518.32 5135568.72 202.30
-9755507.95 5135573.77 201.06
-9755512.94 5135568.07 202.35
-9755508.23 5135570.80 201.03
-9755518.26 5135574.06 202.12
-9755513.27 5135568.69 202.31
-9755514.45 5135568.11 202.35
-9755518.85 5135575.26 202.04
-9755519.98 5135573.80 202.11
-9755512.64 5135574.92 202.08
-9755518.56 5135569.67 202.22
-9755507.94 5135569.04 200.93
-9755518.59 5135572.32 202.18
-9755506.77 5135574.03 201.08
-9755507.06 5135572.29 201.05
-9755505.91 5135569.97 200.98
-9755505.63 5135567.23 200.82
-9755506.48 5135568.43 200.88
-9755506.50 5135571.09 201.03
-9755506.15 5135571.37 201.04
-9755505.60 5135569.91 200.97
-9755506.44 5135569.63 200.95
-9755506.16 5135572.28 201.05
-9755505.65 5135568.71 200.90
-9755506.47 5135571.69 201.05
-9755506.78 5135571.11 201.03
-9755505.32 5135573.19 201.07
-9755506.46 5135570.53 201.00
-9755505.93 5135566.97 200.81
-9755505.02 5135571.11 201.02
-9755506.80 5135571.95 201.06
-9755506.43 5135572.87 201.06
-9755506.17 5135569.66 200.96
-9755506.76 5135572.30 201.05
-9755505.28 5135574.63 201.11
-9755505.87 5135571.40 201.04
-9755505.02 5135574.93 201.13
-9755506.48 5135567.53 200.82
-9755506.46 5135573.76 201.07
-9755505.87 5135570.50 201.00
-9755505.33 5135569.62 200.95
-9755505.30 5135572.30 201.05
-9755505.86 5135574.05 201.09
-9755505.29 5135571.96 201.05
-9755505.54 5135575.25 201.15
-9755506.78 5135570.54 201.00
-9755505.60 5135567.55 200.84
-9755506.18 5135573.18 201.07
-9755503.32 5135566.06 200.73
-9755504.14 5135566.92 200.78
-9755504.72 5135566.93 200.79
-9755504.10 5135573.47 201.06
-9755504.72 5135572.25 201.04
-9755505.00 5135570.77 201.01
-9755503.53 5135571.37 201.03
-9755503.55 5135567.21 200.79
-9755503.58 5135569.58 200.92
-9755503.84 5135570.78 200.99
-9755504.39 5135571.99 201.04
-9755504.70 5135573.43 201.06
-9755504.41 5135572.89 201.05
-9755503.52 5135574.62 201.09
-9755503.54 5135572.01 201.03
-9755504.12 5135571.07 201.01
-9755504.44 5135566.65 200.78
-9755504.69 5135569.62 200.95
-9755504.70 5135571.10 201.01
-9755503.80 5135574.89 201.11
-9755503.25 5135570.18 200.95
-9755503.25 5135569.86 200.94
-9755504.16 5135568.73 200.88
-9755503.82 5135567.81 200.83
-9755504.69 5135573.18 201.05
-9755503.50 5135573.12 201.06
-9755504.70 5135574.34 201.10
-9755503.84 5135570.21 200.96
-9755504.70 5135568.70 200.87
-9755503.82 5135573.14 201.06
-9755504.73 5135572.84 201.05
-9755504.15 5135567.82 200.84
