-9755288.11 5135742.24 193.98
-9755290.12 5135744.87 194.07
-9755289.29 5135743.71 193.91
-9755290.17 5135742.84 194.00
-9755289.53 5135745.14 193.93
-9755291.34 5135741.63 194.01
-9755290.14 5135744.61 193.91
-9755289.19 5135743.41 193.97
-9755292.01 5135741.96 194.01
-9755289.30 5135741.61 193.98
-9755290.74 5135743.97 193.90
-9755291.07 5135743.42 193.89
-9755291.34 5135742.57 194.00
-9755288.97 5135743.42 193.98
-9755288.12 5135743.37 194.00
-9755289.30 5135742.21 194.01
-9755289.26 5135744.87 193.91
-9755290.76 5135743.14 193.93
-9755288.11 5135743.72 193.93
-9755288.60 5135745.96 194.16
-9755289.01 5135745.48 194.15
-9755290.20 5135745.75 194.12
-9755288.40 5135745.45 194.17
-9755287.67 5135745.76 181.80
-9755288.41 5135745.21 193.92
-9755288.00 5135745.48 194.05
-9755288.03 5135745.49 181.81
-9755290.20 5135745.95 194.11
-9755287.91 5135741.94 181.86
-9755286.91 5135743.23 186.01
-9755286.83 5135743.36 185.39
-9755286.03 5135743.37 194.17
-9755285.91 5135742.20 181.84
-9755287.09 5135743.43 184.99
-9755287.40 5135743.03 184.86
-9755287.23 5135745.02 183.22
-9755285.81 5135743.37 194.17
-9755284.74 5135744.83 181.78
-9755287.15 5135741.90 184.69
-9755280.01 5135743.04 181.72
-9755287.24 5135743.16 186.43
-9755282.99 5135742.46 181.78
-9755287.37 5135742.60 184.76
-9755287.09 5135743.59 182.72
-9755285.94 5135743.65 181.85
-9755287.42 5135744.37 186.47
-9755287.18 5135743.47 184.00
-9755286.05 5135743.11 193.90
-9755287.36 5135741.69 181.87
-9755287.16 5135743.92 186.62
-9755287.41 5135744.52 183.98
-9755287.25 5135745.02 184.70
-9755282.37 5135744.83 181.73
-9755287.37 5135742.85 184.72
-9755287.19 5135742.53 193.88
-9755285.85 5135744.57 194.14
-9755287.01 5135743.57 186.19
-9755287.08 5135743.61 181.89
-9755287.41 5135742.56 181.89
-9755286.83 5135744.03 181.85
-9755286.94 5135743.66 183.36
-9755284.16 5135743.08 181.79
-9755283.55 5135741.85 181.79
-9755286.68 5135743.62 187.19
-9755287.32 5135744.44 184.62
-9755286.98 5135743.73 187.41
-9755286.67 5135742.22 193.86
-9755286.84 5135743.44 187.24
-9755287.52 5135744.28 193.91
-9755283.31 5135744.87 181.75
-9755287.04 5135743.30 183.48
-9755282.11 5135743.36 181.76
-9755286.63 5135744.88 193.91
-9755284.18 5135743.71 181.78
-9755287.23 5135743.96 193.91
-9755284.74 5135741.93 181.83
-9755285.97 5135744.22 181.85
-9755286.11 5135741.90 194.14
-9755287.15 5135744.44 186.57
-9755287.15 5135743.47 188.11
-9755285.76 5135741.61 194.17
-9755286.20 5135745.12 181.79
-9755285.38 5135742.44 181.85
-9755287.11 5135743.23 184.19
-9755285.28 5135743.33 181.83
-9755282.48 5135741.58 181.77
-9755280.61 5135744.83 181.69
-9755287.53 5135742.51 193.95
-9755282.36 5135743.93 181.76
-9755287.05 5135742.97 183.48
-9755282.67 5135742.48 181.78
-9755287.10 5135743.57 183.38
-9755287.35 5135742.77 183.25
-9755285.65 5135744.87 181.80
-9755281.50 5135744.80 181.71
-9755283.29 5135743.38 181.78
-9755286.65 5135743.80 188.21
-9755287.19 5135743.75 186.35
-9755286.21 5135742.50 194.16
-9755283.32 5135743.98 181.76
-9755285.75 5135743.09 194.16
-9755283.25 5135743.07 181.78
-9755287.39 5135743.72 188.33
-9755287.42 5135742.81 183.69
-9755286.82 5135743.38 181.87
-9755287.20 5135744.55 186.47
-9755287.08 5135743.75 183.47
-9755280.64 5135741.24 181.73
-9755280.02 5135742.17 181.74
-9755287.11 5135744.28 181.86
-9755287.38 5135744.85 181.82
-9755286.37 5135741.68 193.85
-9755287.20 5135743.48 188.21
-9755287.17 5135744.29 183.45
-9755287.06 5135742.85 181.88
-9755287.34 5135742.11 184.58
-9755287.13 5135743.84 183.57
-9755286.38 5135745.08 193.90
-9755287.17 5135743.02 183.17
-9755286.90 5135743.00 183.35
-9755287.38 5135741.34 181.91
-9755285.14 5135741.52 193.64
-9755287.23 5135743.39 193.90
-9755280.01 5135744.79 181.66
-9755286.78 5135743.06 181.87
-9755287.42 5135742.90 186.33
-9755286.81 5135742.52 181.87
-9755287.13 5135742.37 184.90
-9755285.88 5135746.06 181.76
-9755285.64 5135745.48 181.79
-9755285.39 5135746.08 181.73
-9755287.51 5135745.46 194.11
-9755286.63 5135745.48 193.94
-9755282.67 5135745.43 181.73
-9755286.00 5135745.18 193.99
-9755279.99 5135745.46 181.64
-9755286.92 5135745.77 193.94
-9755286.08 5135745.36 194.17
-9755286.62 5135745.75 194.18
-9755286.79 5135746.01 181.78
-9755286.64 5135745.18 194.15
-9755289.60 5135738.35 193.94
-9755289.28 5135738.08 193.94
-9755291.06 5135739.28 193.98
-9755288.10 5135739.53 193.94
-9755288.21 5135733.96 193.81
-9755289.88 5135738.64 193.96
-9755292.02 5135733.64 193.76
-9755288.99 5135740.15 193.98
-9755288.08 5135741.64 193.97
-9755289.32 5135736.30 193.79
-9755291.37 5135737.51 193.96
-9755289.04 5135740.75 193.98
-9755289.88 5135740.46 193.98
-9755290.77 5135739.86 193.99
-9755289.03 5135739.51 193.96
-9755289.01 5135737.20 193.90
-9755291.63 5135739.93 194.01
-9755292.29 5135735.13 193.78
-9755292.23 5135736.59 193.90
-9755291.70 5135735.45 193.79
-9755291.40 5135733.98 193.76
-9755288.45 5135739.00 193.95
-9755289.33 5135734.26 193.79
-9755288.46 5135733.65 193.80
-9755289.92 5135735.16 193.77
-9755291.93 5135740.48 194.03
-9755289.04 5135738.98 193.94
-9755290.21 5135733.66 193.79
-9755292.29 5135734.27 193.76
-9755290.77 5135734.82 193.77
-9755290.48 5135738.68 193.96
-9755290.51 5135734.56 193.77
-9755291.94 5135741.05 194.01
-9755291.64 5135740.15 194.02
-9755290.53 5135735.11 193.77
-9755288.76 5135735.42 193.77
-9755291.67 5135738.99 194.01
-9755290.18 5135739.54 193.98
-9755287.58 5135739.02 193.92
-9755289.38 5135737.77 193.94
-9755290.81 5135736.29 193.83
-9755289.29 5135739.58 193.95
-9755290.45 5135737.48 193.94
-9755288.74 5135734.53 193.79
-9755288.18 5135734.24 193.80
-9755290.49 5135739.54 193.98
-9755291.36 5135738.04 193.97
-9755291.97 5135736.91 193.91
-9755290.21 5135736.62 193.88
-9755287.57 5135737.46 193.91
-9755285.68 5135735.70 181.87
-9755284.89 5135737.15 193.79
-9755286.94 5135738.34 193.93
-9755281.84 5135735.39 181.79
-9755286.65 5135739.69 185.09
-9755285.45 5135741.60 194.17
-9755285.82 5135736.47 185.84
-9755284.85 5135736.89 193.79
-9755286.93 5135741.62 193.85
-9755286.38 5135740.74 193.84
-9755286.31 5135736.85 185.63
-9755286.21 5135738.50 186.53
-9755287.27 5135736.90 193.79
-9755283.50 5135734.84 194.09
-9755287.21 5135740.18 193.93
-9755283.90 5135735.97 181.84
-9755287.81 5135738.64 193.93
-9755285.12 5135734.52 181.85
-9755286.58 5135739.83 181.87
-9755282.99 5135739.52 181.79
-9755285.79 5135736.57 185.92
-9755283.01 5135740.13 181.77
-9755286.71 5135740.78 185.25
-9755285.65 5135735.45 181.88
-9755286.62 5135739.81 183.44
-9755282.15 5135733.84 181.80
-9755287.26 5135737.18 193.83
-9755286.45 5135739.08 183.18
-9755282.12 5135740.05 181.76
-9755287.52 5135737.16 193.86
-9755285.98 5135737.47 181.88
-9755285.20 5135739.52 194.15
-9755286.69 5135735.42 193.80
-9755285.90 5135735.45 182.38
-9755285.75 5135735.74 184.09
-9755285.71 5135734.69 184.67
-9755286.03 5135738.32 183.50
-9755281.55 5135737.43 181.76
-9755286.74 5135739.49 184.68
-9755286.39 5135738.25 185.78
-9755285.36 5135741.02 181.85
-9755284.15 5135739.80 181.81
-9755284.55 5135734.49 194.13
-9755285.77 5135735.77 186.58
-9755285.43 5135735.93 181.86
-9755286.06 5135738.70 193.81
-9755281.83 5135738.32 181.76
-9755284.90 5135734.80 193.81
-9755283.59 5135738.39 181.81
-9755284.92 5135739.82 194.16
-9755286.74 5135738.58 181.92
-9755286.85 5135739.48 183.49
-9755286.61 5135740.63 183.76
-9755285.68 5135735.08 184.05
-9755286.47 5135738.88 185.50
-9755286.42 5135736.82 182.58
-9755286.27 5135737.10 182.49
-9755286.23 5135737.03 185.78
-9755286.66 5135737.17 193.80
-9755287.30 5135733.63 193.81
-9755286.34 5135738.97 193.82
-9755281.28 5135735.08 181.79
-9755286.50 5135738.37 181.87
-9755284.62 5135735.39 194.14
-9755286.28 5135736.86 185.59
-9755285.80 5135740.03 194.16
-9755285.66 5135735.24 184.25
-9755286.50 5135738.46 182.76
-9755281.28 5135740.38 181.75
-9755287.57 5135733.89 193.80
-9755281.45 5135736.87 181.76
-9755284.34 5135735.03 194.14
-9755284.65 5135735.96 194.15
-9755286.17 5135738.44 183.27
-9755283.88 5135736.79 181.82
-9755286.05 5135738.73 185.49
-9755287.59 5135735.40 193.78
-9755280.41 5135735.34 181.74
-9755286.43 5135738.03 183.55
-9755284.80 5135735.05 194.13
-9755285.85 5135736.69 183.13
-9755286.06 5135738.31 182.57
-9755286.09 5135735.10 193.80
-9755285.52 5135736.86 193.79
-9755283.35 5135735.10 181.82
-9755281.20 5135739.49 181.76
-9755287.54 5135738.36 193.91
-9755286.95 5135739.58 193.90
-9755286.87 5135740.25 186.13
-9755282.39 5135736.54 181.77
-9755282.43 5135740.73 181.78
-9755285.70 5135735.06 182.97
-9755280.70 5135739.18 181.75
-9755284.07 5135735.70 193.79
-9755284.34 5135737.08 194.15
-9755284.39 5135737.75 194.15
-9755282.20 5135735.10 181.80
-9755282.73 5135735.99 181.78
-9755286.30 5135737.26 185.71
-9755285.77 5135737.47 193.78
-9755286.10 5135737.96 182.52
-9755282.16 5135741.22 181.75
-9755285.98 5135736.39 185.96
-9755286.20 5135737.64 183.78
-9755286.77 5135739.31 181.85
-9755286.07 5135739.57 193.82
-9755285.96 5135736.33 186.77
-9755285.65 5135739.24 181.86
-9755285.77 5135735.53 186.53
-9755286.57 5135739.40 185.36
-9755285.88 5135734.83 185.68
-9755285.53 5135739.55 194.15
-9755286.03 5135737.66 186.10
-9755286.05 5135738.34 181.86
-9755286.65 5135736.63 193.77
-9755282.66 5135741.01 181.78
-9755286.92 5135740.48 186.56
-9755286.92 5135740.91 183.59
-9755282.10 5135736.23 181.78
-9755284.32 5135734.50 194.15
-9755287.01 5135740.32 185.62
-9755286.24 5135736.81 184.03
-9755286.63 5135739.54 193.83
-9755285.81 5135738.56 185.50
-9755284.13 5135739.49 181.81
-9755285.69 5135734.91 185.61
-9755285.91 5135737.19 186.56
-9755282.99 5135735.97 181.78
-9755286.36 5135736.28 193.78
-9755284.85 5135737.75 193.77
-9755286.30 5135737.68 184.93
-9755287.14 5135740.74 182.67
-9755286.49 5135738.08 182.52
-9755283.93 5135734.49 181.85
-9755285.26 5135740.37 193.76
-9755284.81 5135737.20 181.84
-9755286.18 5135736.34 183.29
-9755285.95 5135737.79 185.49
-9755286.64 5135740.72 184.64
-9755286.48 5135738.26 185.42
-9755284.85 5135737.45 193.77
-9755285.24 5135738.93 193.81
-9755280.96 5135735.65 181.76
-9755287.05 5135740.99 181.89
-9755286.67 5135733.92 193.82
-9755286.84 5135740.41 181.87
-9755286.37 5135739.26 193.82
-9755285.06 5135740.10 181.82
-9755287.25 5135739.26 193.93
-9755286.28 5135738.75 183.02
-9755283.97 5135735.07 194.14
-9755286.75 5135740.46 186.70
-9755286.00 5135738.05 181.86
-9755285.05 5135739.80 181.83
-9755280.62 5135740.66 181.73
-9755285.18 5135738.03 193.79
-9755286.25 5135737.84 186.10
-9755286.31 5135737.25 184.08
-9755284.25 5135733.90 194.15
-9755284.94 5135736.86 194.16
-9755285.72 5135735.98 185.16
-9755287.49 5135741.05 193.97
-9755283.89 5135733.65 181.85
-9755282.69 5135735.07 181.80
-9755286.66 5135740.05 183.31
-9755282.70 5135735.36 181.80
-9755285.89 5135735.46 184.96
-9755280.67 5135734.75 181.76
-9755286.35 5135740.44 193.84
-9755285.77 5135734.99 184.64
-9755286.87 5135740.66 182.71
-9755284.15 5135736.61 193.79
-9755286.28 5135737.43 183.31
-9755285.91 5135736.57 181.88
-9755286.52 5135738.69 186.03
-9755285.79 5135734.76 182.01
-9755284.23 5135740.69 181.82
-9755282.07 5135739.50 181.76
-9755285.73 5135735.76 185.93
-9755287.26 5135736.28 193.78
-9755286.98 5135736.00 193.78
-9755284.01 5135734.25 193.72
-9755285.04 5135735.96 181.85
-9755284.93 5135738.18 193.80
-9755285.77 5135736.33 184.87
-9755284.52 5135735.09 181.85
-9755284.90 5135738.62 194.16
-9755284.48 5135738.34 181.82
-9755283.31 5135737.13 181.80
-9755282.13 5135736.85 181.76
-9755285.75 5135735.34 182.98
-9755275.28 5135746.03 181.58
-9755279.14 5135743.91 181.67
-9755277.34 5135746.02 181.61
-9755278.23 5135741.88 181.70
-9755279.18 5135743.39 181.68
-9755279.12 5135741.89 181.72
-9755278.23 5135745.09 181.62
-9755277.67 5135745.71 181.61
-9755278.22 5135745.47 181.62
-9755272.65 5135742.70 181.64
-9755272.66 5135743.04 181.63
-9755275.00 5135742.13 181.65
-9755277.09 5135741.84 181.67
-9755277.37 5135743.61 181.65
-9755269.40 5135744.78 181.56
-9755275.01 5135743.93 181.63
-9755274.17 5135741.28 181.64
-9755269.43 5135742.42 181.58
-9755271.50 5135745.98 181.55
-9755274.43 5135742.13 181.65
-9755277.07 5135741.25 181.66
-9755268.85 5135743.57 181.58
-9755271.44 5135742.71 181.63
-9755276.20 5135741.22 181.65
-9755275.91 5135744.53 181.63
-9755275.00 5135741.53 181.64
-9755273.22 5135743.00 181.63
-9755273.28 5135741.85 181.64
-9755275.26 5135744.79 181.61
-9755272.08 5135744.19 181.59
-9755275.29 5135743.61 181.64
-9755277.35 5135743.02 181.68
-9755268.82 5135742.41 181.55
-9755269.14 5135744.47 181.58
-9755275.88 5135744.79 181.62
-9755272.60 5135745.08 181.58
-9755270.32 5135745.10 181.57
-9755276.45 5135746.00 181.59
-9755271.82 5135745.09 181.57
-9755274.42 5135745.12 181.58
-9755267.60 5135745.94 181.53
-9755267.95 5135743.61 181.55
-9755267.07 5135742.73 181.44
-9755268.24 5135742.10 181.42
-9755266.46 5135744.45 181.53
-9755267.33 5135743.60 181.53
-9755266.73 5135743.27 181.50
-9755268.23 5135741.83 181.35
-9755266.19 5135742.41 181.37
-9755260.95 5135742.88 181.22
-9755264.72 5135744.16 181.53
-9755255.29 5135741.74 181.52
-9755256.16 5135744.43 181.52
-9755261.48 5135742.69 181.33
-9755262.37 5135741.80 181.13
-9755262.34 5135744.41 181.53
-9755256.15 5135741.75 181.50
-9755256.14 5135743.82 181.53
-9755257.64 5135743.84 181.53
-9755260.86 5135743.25 181.51
-9755263.24 5135743.28 181.53
-9755259.44 5135742.33 181.31
-9755265.90 5135743.03 181.46
-9755253.22 5135741.15 181.49
-9755257.04 5135743.79 181.53
-9755254.42 5135742.92 181.54
-9755259.99 5135743.53 181.51
-9755264.41 5135743.00 181.46
-9755258.81 5135743.87 181.54
-9755255.00 5135744.38 181.53
-9755256.76 5135741.72 181.43
-9755255.54 5135742.89 181.53
-9755255.28 5135742.35 181.51
-9755260.30 5135741.49 181.08
-9755265.61 5135743.52 181.53
-9755257.89 5135743.50 181.52
-9755255.24 5135744.70 181.53
-9755262.66 5135741.50 181.05
-9755265.31 5135742.97 181.44
-9755262.63 5135743.86 181.54
-9755261.45 5135742.10 181.20
-9755257.64 5135741.20 181.18
-9755264.69 5135743.29 181.51
-9755264.98 5135744.78 181.52
-9755262.06 5135744.72 181.51
-9755262.66 5135742.98 181.47
-9755254.07 5135744.42 181.53
-9755259.42 5135741.47 181.11
-9755256.69 5135741.20 181.37
-9755266.17 5135745.64 181.52
-9755268.25 5135745.08 181.55
-9755262.02 5135745.04 181.51
-9755256.45 5135745.93 181.51
-9755254.37 5135744.72 181.52
-9755256.71 5135745.01 181.52
-9755259.38 5135745.05 181.49
-9755255.27 5135745.28 181.52
-9755259.08 5135745.90 181.50
-9755259.11 5135744.99 181.50
-9755254.70 5135745.30 181.52
-9755252.57 5135745.25 181.51
-9755258.79 5135745.02 181.51
-9755279.72 5135740.40 181.71
-9755278.61 5135735.05 181.73
-9755278.89 5135735.05 181.74
-9755278.60 5135734.16 181.75
-9755279.15 5135735.96 181.74
-9755278.29 5135733.88 181.73
-9755277.70 5135737.71 181.69
-9755277.76 5135735.91 181.71
-9755278.58 5135737.44 181.70
-9755277.65 5135739.80 181.68
-9755273.00 5135737.75 181.55
-9755270.31 5135741.23 181.52
-9755275.00 5135740.66 181.64
-9755272.67 5135739.78 181.61
-9755275.37 5135734.41 181.82
-9755273.00 5135737.98 181.58
-9755274.19 5135735.01 181.49
-9755275.35 5135733.83 181.83
-9755269.44 5135736.22 180.81
-9755271.81 5135740.66 181.65
-9755269.44 5135740.07 181.17
-9755269.52 5135735.27 180.88
-9755276.22 5135739.18 181.66
-9755275.38 5135736.80 181.65
-9755271.77 5135739.71 181.53
-9755275.06 5135735.60 181.67
-9755268.79 5135734.44 181.16
-9755272.72 5135735.62 181.13
-9755269.42 5135740.42 181.24
-9755275.93 5135738.27 181.64
-9755277.46 5135737.39 181.68
-9755270.90 5135738.00 181.04
-9755276.84 5135738.29 181.67
-9755270.02 5135738.62 180.99
-9755270.39 5135734.40 180.87
-9755271.22 5135736.83 180.94
-9755271.78 5135738.57 181.25
-9755273.26 5135735.70 181.33
-9755274.76 5135740.93 181.63
-9755277.39 5135736.85 181.70
-9755274.45 5135739.21 181.62
-9755270.28 5135740.35 181.38
-9755274.17 5135736.49 181.78
-9755271.86 5135736.78 181.06
-9755273.19 5135737.70 181.62
-9755268.55 5135740.40 181.10
-9755268.89 5135739.13 180.88
-9755273.59 5135736.79 181.53
-9755273.23 5135737.60 181.55
-9755273.36 5135737.46 181.55
-9755270.02 5135735.33 180.82
-9755276.29 5135740.06 181.65
-9755274.81 5135735.36 181.80
-9755271.51 5135737.08 181.02
-9755275.02 5135739.17 181.62
-9755271.78 5135738.27 181.21
-9755270.62 5135740.06 181.41
-9755275.02 5135734.38 181.68
-9755276.84 5135735.33 181.70
-9755270.98 5135735.68 180.84
-9755274.49 5135736.82 181.63
-9755269.45 5135740.92 181.34
-9755266.83 5135737.10 180.84
-9755266.79 5135740.36 180.91
-9755266.23 5135739.47 180.79
-9755266.17 5135737.70 180.81
-9755266.21 5135740.02 180.83
-9755267.72 5135737.69 180.79
-9755267.08 5135737.68 180.78
-9755267.41 5135736.78 180.84
-9755266.17 5135740.91 180.97
-9755266.81 5135734.06 181.57
-9755267.11 5135735.85 181.09
-9755267.35 5135740.03 180.89
-9755268.00 5135734.38 181.30
-9755266.22 5135735.26 181.38
-9755254.88 5135734.97 190.06
-9755263.42 5135733.68 183.96
-9755255.70 5135733.82 188.20
-9755254.69 5135741.70 181.49
-9755254.06 5135733.69 188.67
-9755254.54 5135737.23 187.75
-9755254.07 5135736.06 187.11
-9755254.91 5135734.97 190.58
-9755253.31 5135736.90 189.49
-9755254.74 5135733.92 189.72
-9755255.96 5135735.93 190.33
-9755254.52 5135735.67 190.27
-9755254.42 5135737.85 187.11
-9755253.11 5135736.00 187.92
-9755253.57 5135733.80 191.04
-9755253.60 5135736.41 186.90
-9755262.69 5135734.36 181.90
-9755255.48 5135735.36 190.94
-9755262.97 5135733.79 185.88
-9755264.71 5135741.29 181.04
-9755255.12 5135733.72 187.88
-9755253.17 5135734.16 191.38
-9755262.67 5135734.97 181.80
-9755254.02 5135737.10 186.91
-9755262.85 5135734.11 186.42
-9755255.42 5135734.51 189.87
-9755253.01 5135739.38 187.67
-9755255.39 5135735.42 190.57
-9755252.98 5135738.72 187.63
-9755255.67 5135734.74 189.84
-9755264.17 5135734.47 186.64
-9755253.64 5135738.92 184.08
-9755263.42 5135735.26 186.38
-9755254.20 5135737.65 187.05
-9755254.59 5135735.61 190.46
-9755262.65 5135734.38 185.63
-9755252.74 5135734.92 187.69
-9755253.67 5135736.53 189.44
-9755265.02 5135739.76 180.80
-9755254.30 5135734.73 189.18
-9755265.08 5135734.43 185.33
-9755253.06 5135736.58 187.44
-9755255.90 5135735.42 190.20
-9755255.66 5135735.45 190.18
-9755253.61 5135738.49 187.40
-9755262.52 5135733.93 185.82
-9755264.61 5135734.18 186.52
-9755253.78 5135740.25 181.50
-9755255.07 5135734.35 189.25
-9755262.82 5135733.68 183.84
-9755265.36 5135736.75 181.03
-9755252.97 5135739.25 184.47
-9755265.39 5135734.78 185.68
-9755253.86 5135739.31 188.21
-9755256.08 5135734.62 187.61
-9755253.04 5135734.43 187.73
-9755255.92 5135737.62 187.78
-9755253.58 5135735.07 189.37
-9755255.09 5135734.53 190.44
-9755261.18 5135740.02 180.84
-9755255.05 5135734.29 181.80
-9755253.07 5135737.32 186.90
-9755263.36 5135733.92 188.47
-9755254.65 5135733.81 187.50
-9755254.29 5135736.90 187.40
-9755255.15 5135735.99 188.13
-9755262.63 5135740.34 180.84
-9755260.28 5135739.12 180.79
-9755263.51 5135733.86 185.57
-9755255.88 5135739.95 181.38
-9755260.01 5135738.82 180.79
-9755253.57 5135734.80 191.18
-9755253.62 5135736.02 189.35
-9755256.24 5135735.14 190.73
-9755257.68 5135735.77 181.63
-9755256.45 5135735.70 184.97
-9755264.13 5135736.77 181.15
-9755253.58 5135736.62 187.22
-9755256.30 5135735.15 187.91
-9755265.02 5135733.95 185.89
-9755264.35 5135734.85 184.79
-9755255.45 5135733.83 189.22
-9755255.66 5135735.09 188.88
-9755254.41 5135734.63 188.47
-9755254.08 5135736.33 187.26
-9755260.66 5135734.37 181.85
-9755255.39 5135735.32 190.89
-9755253.91 5135736.62 187.29
-9755263.85 5135739.46 180.78
-9755254.41 5135736.55 189.28
-9755256.55 5135737.56 187.92
-9755262.82 5135734.10 187.44
-9755255.14 5135736.46 187.62
-9755253.94 5135736.92 188.42
-9755252.98 5135737.60 181.52
-9755254.06 5135736.93 187.22
-9755253.40 5135739.14 187.60
-9755253.59 5135736.53 187.23
-9755255.19 5135734.89 189.41
-9755263.55 5135733.77 187.68
-9755262.74 5135733.64 184.66
-9755260.35 5135735.85 181.45
-9755254.38 5135736.67 181.63
-9755254.26 5135737.88 188.47
-9755255.28 5135738.18 181.54
-9755263.01 5135733.89 184.98
-9755253.52 5135735.71 188.00
-9755255.11 5135736.64 188.35
-9755253.60 5135734.91 186.82
-9755253.68 5135736.32 189.42
-9755255.13 5135736.93 188.40
-9755263.02 5135734.48 185.85
-9755254.47 5135736.44 190.76
-9755254.39 5135735.48 188.91
-9755253.92 5135738.12 187.69
-9755256.27 5135735.45 187.60
-9755254.87 5135735.37 188.93
-9755264.44 5135735.59 181.47
-9755255.31 5135737.94 188.90
-9755256.24 5135735.32 187.03
-9755253.06 5135733.82 187.48
-9755262.06 5135736.70 181.13
-9755253.26 5135739.36 181.50
-9755255.01 5135738.06 188.85
-9755262.23 5135734.03 185.03
-9755253.43 5135735.41 189.33
-9755254.49 5135735.03 190.21
-9755254.84 5135734.18 189.24
-9755254.29 5135736.57 189.29
-9755264.92 5135733.71 184.96
-9755253.33 5135735.14 189.30
-9755254.23 5135736.64 188.40
-9755253.23 5135738.57 187.97
-9755253.70 5135737.32 188.85
-9755262.93 5135734.40 184.91
-9755265.60 5135736.78 181.04
-9755258.30 5135736.72 181.25
-9755255.57 5135734.47 185.72
-9755260.71 5135733.89 186.03
-9755252.94 5135738.10 187.22
-9755255.95 5135733.71 181.87
-9755256.38 5135737.13 187.88
-9755254.24 5135734.37 187.82
-9755256.51 5135734.46 187.70
-9755254.35 5135734.89 187.23
-9755253.15 5135740.25 181.49
-9755254.30 5135735.08 189.30
-9755252.78 5135733.77 188.76
-9755253.75 5135737.01 187.58
-9755263.89 5135734.07 186.00
-9755255.34 5135734.43 188.50
-9755253.76 5135734.47 186.73
-9755260.03 5135739.99 180.83
-9755253.82 5135737.36 187.72
-9755265.92 5135737.13 180.90
-9755264.44 5135733.64 185.35
-9755265.76 5135733.63 186.14
-9755254.20 5135735.82 189.05
-9755255.98 5135735.02 190.44
-9755257.93 5135736.74 181.26
-9755253.06 5135739.83 183.56
-9755253.57 5135734.87 181.68
-9755252.62 5135740.11 183.85
-9755254.64 5135734.19 187.50
-9755255.22 5135734.87 188.65
-9755254.21 5135736.88 189.53
-9755254.75 5135736.31 190.68
-9755254.65 5135738.72 187.51
-9755258.87 5135734.63 181.82
-9755265.02 5135737.37 180.93
-9755253.63 5135738.74 187.51
-9755254.51 5135736.13 189.17
-9755255.15 5135733.90 188.90
-9755253.09 5135738.21 187.41
-9755254.95 5135738.58 187.19
-9755262.99 5135734.25 183.38
-9755253.00 5135736.51 187.50
-9755253.89 5135735.97 190.19
-9755261.92 5135734.06 185.63
-9755253.56 5135735.50 181.66
-9755263.05 5135733.98 188.31
-9755255.89 5135737.25 188.95
-9755254.79 5135734.43 185.49
-9755253.54 5135739.43 188.20
-9755256.88 5135735.26 187.53
-9755262.95 5135733.99 186.08
-9755255.06 5135737.15 189.50
-9755254.07 5135735.25 187.03
-9755262.69 5135737.11 181.02
-9755263.83 5135735.22 184.86
-9755259.13 5135740.02 180.87
-9755255.01 5135735.14 187.92
-9755252.77 5135733.71 192.11
-9755253.83 5135736.06 187.14
-9755255.44 5135736.30 190.39
-9755258.29 5135734.37 181.86
-9755253.00 5135737.04 187.31
-9755254.46 5135737.55 188.03
-9755252.60 5135738.78 187.63
-9755253.55 5135738.77 181.52
-9755265.16 5135734.33 186.30
-9755261.18 5135734.89 181.77
-9755264.52 5135733.96 186.43
-9755255.61 5135736.98 188.30
-9755254.38 5135733.71 186.52
-9755264.42 5135733.67 183.88
-9755262.76 5135735.51 181.60
-9755254.20 5135735.26 188.51
-9755259.73 5135736.77 181.08
-9755253.52 5135739.03 187.94
-9755254.75 5135735.89 190.58
-9755254.08 5135740.00 183.79
-9755252.74 5135737.00 187.32
-9755254.42 5135735.79 181.68
-9755253.31 5135736.59 189.76
-9755265.37 5135735.91 181.30
-9755253.51 5135735.77 181.63
-9755255.12 5135735.54 188.17
-9755263.64 5135735.10 186.38
-9755262.73 5135734.51 185.85
-9755252.58 5135739.43 183.78
-9755264.28 5135734.82 185.22
-9755252.88 5135737.77 184.65
-9755254.73 5135734.89 188.50
-9755259.43 5135734.35 181.85
-9755253.78 5135738.72 187.95
-9755254.68 5135738.73 181.52
-9755259.42 5135735.81 181.48
-9755262.95 5135733.84 185.67
-9755255.11 5135737.02 186.13
-9755260.59 5135739.47 180.79
-9755253.25 5135736.67 187.22
-9755252.74 5135733.75 192.40
-9755256.59 5135735.29 184.67
-9755255.72 5135735.92 190.91
-9755252.57 5135742.00 181.51
-9755251.12 5135744.08 181.54
-9755249.66 5135743.76 181.53
-9755252.01 5135741.41 181.50
-9755250.85 5135742.59 181.50
-9755249.70 5135741.43 181.48
-9755251.98 5135743.47 181.53
-9755251.45 5135741.08 181.49
-9755252.35 5135742.60 181.51
-9755252.04 5135742.31 181.51
-9755250.84 5135744.38 181.54
-9755250.60 5135743.19 181.52
-9755249.96 5135745.84 181.51
-9755251.13 5135744.69 181.53
-9755249.35 5135744.96 181.53
-9755249.65 5135745.26 181.52
-9755248.55 5135743.80 182.37
-9755249.35 5135743.24 181.66
-9755248.74 5135743.10 182.17
-9755248.80 5135743.26 181.74
-9755248.52 5135743.95 182.37
-9755248.81 5135741.68 181.49
-9755242.02 5135742.24 181.48
-9755240.56 5135741.69 181.48
-9755242.87 5135743.72 181.52
-9755243.48 5135741.95 181.49
-9755240.52 5135743.41 181.51
-9755239.92 5135742.55 181.49
-9755242.01 5135741.65 181.49
-9755248.48 5135743.49 181.52
-9755242.58 5135742.83 181.50
-9755242.30 5135743.73 181.51
-9755247.60 5135742.54 181.51
-9755240.51 5135741.39 181.47
-9755244.97 5135742.57 181.51
-9755243.49 5135744.36 181.53
-9755243.76 5135744.05 181.53
-9755248.20 5135742.61 181.51
-9755247.63 5135743.76 181.51
-9755245.22 5135743.77 181.51
-9755240.24 5135741.33 181.48
-9755247.02 5135741.97 181.50
-9755240.47 5135743.11 181.50
-9755244.97 5135741.99 181.50
-9755248.48 5135744.09 182.46
-9755247.33 5135742.26 181.51
-9755246.41 5135744.33 181.52
-9755242.56 5135744.32 181.52
-9755241.13 5135741.67 181.49
-9755241.70 5135743.44 181.51
-9755248.76 5135741.39 181.49
-9755241.96 5135743.13 181.50
-9755245.54 5135741.35 181.49
-9755245.55 5135744.96 181.51
-9755241.95 5135744.88 181.52
-9755240.07 5135744.53 183.67
-9755246.17 5135745.82 181.51
-9755240.53 5135744.61 181.51
-9755247.29 5135744.96 181.51
-9755240.49 5135745.54 181.49
-9755240.29 5135744.82 184.27
-9755239.97 5135745.06 184.24
-9755247.60 5135744.98 181.51
-9755240.23 5135745.33 183.39
-9755242.55 5135744.92 181.51
-9755252.41 5135736.68 187.58
-9755252.45 5135738.70 187.62
-9755252.69 5135736.00 185.07
-9755252.75 5135733.95 188.56
-9755252.50 5135734.10 191.77
-9755252.81 5135738.37 181.37
-9755252.71 5135735.90 185.52
-9755252.06 5135738.00 184.91
-9755252.06 5135736.66 181.55
-9755250.36 5135739.25 184.99
-9755252.71 5135734.02 181.68
-9755252.26 5135734.40 191.45
-9755252.61 5135737.35 187.27
-9755252.11 5135736.73 187.36
-9755251.15 5135733.66 192.14
-9755250.83 5135739.40 184.88
-9755252.04 5135739.53 183.67
-9755252.01 5135739.11 183.49
-9755250.36 5135736.58 184.43
-9755249.90 5135734.51 191.73
-9755252.17 5135738.24 184.38
-9755250.87 5135739.73 185.01
-9755250.75 5135734.31 191.98
-9755249.71 5135734.61 193.01
-9755250.01 5135733.69 181.58
-9755250.56 5135740.63 185.31
-9755252.16 5135734.17 192.08
-9755250.33 5135738.25 184.54
-9755250.87 5135737.41 184.33
-9755250.72 5135734.66 187.98
-9755249.99 5135738.53 184.62
-9755249.77 5135739.83 185.07
-9755251.90 5135737.00 186.92
-9755250.30 5135739.89 181.48
-9755250.52 5135739.13 184.17
-9755251.82 5135740.62 183.56
-9755252.33 5135738.38 186.62
-9755251.18 5135738.62 184.63
-9755250.25 5135734.27 188.02
-9755250.33 5135735.50 187.37
-9755250.87 5135738.00 184.44
-9755250.93 5135738.35 184.49
-9755249.77 5135733.75 191.77
-9755251.57 5135733.71 190.26
-9755249.77 5135735.23 181.53
-9755250.55 5135738.22 184.29
-9755251.76 5135737.61 184.20
-9755251.04 5135733.64 190.50
-9755252.19 5135737.79 183.89
-9755251.39 5135737.11 186.89
-9755252.10 5135733.75 181.67
-9755250.50 5135740.06 185.37
-9755251.26 5135737.99 184.48
-9755251.09 5135738.58 183.59
-9755251.01 5135737.16 184.73
-9755250.61 5135738.47 181.48
-9755249.68 5135738.61 184.77
-9755250.29 5135740.11 185.10
-9755251.55 5135737.14 184.18
-9755249.78 5135739.24 184.13
-9755249.73 5135738.92 184.83
-9755252.06 5135734.39 187.93
-9755252.38 5135738.56 184.08
-9755251.07 5135738.65 183.94
-9755251.92 5135737.99 184.28
-9755251.12 5135734.19 190.93
-9755252.04 5135740.52 181.49
-9755250.85 5135736.00 186.87
-9755250.48 5135734.19 191.91
-9755249.38 5135737.86 183.84
-9755250.38 5135738.36 184.48
-9755251.24 5135734.48 191.72
-9755250.74 5135735.60 187.59
-9755250.82 5135735.99 184.51
-9755250.61 5135733.76 181.60
-9755250.29 5135738.00 184.49
-9755251.22 5135733.93 190.33
-9755252.67 5135738.21 181.51
-9755251.80 5135740.32 184.09
-9755252.09 5135735.62 185.37
-9755250.88 5135735.18 187.40
-9755251.69 5135735.64 185.11
-9755250.65 5135738.71 184.40
-9755250.37 5135739.01 184.90
-9755251.74 5135739.39 181.49
-9755250.68 5135733.94 191.81
-9755250.93 5135737.16 184.41
-9755252.36 5135733.69 188.50
-9755250.00 5135735.96 184.61
-9755249.41 5135739.04 183.55
-9755251.24 5135735.01 184.91
-9755252.17 5135738.63 184.40
-9755252.15 5135735.94 185.40
-9755251.19 5135740.82 181.50
-9755252.33 5135740.36 183.80
-9755249.77 5135739.09 185.28
-9755251.25 5135737.68 184.44
-9755250.90 5135740.79 184.17
-9755249.98 5135737.54 181.49
-9755250.48 5135739.22 184.99
-9755250.64 5135735.03 191.78
-9755251.17 5135737.08 185.40
-9755252.12 5135737.13 185.05
-9755252.04 5135736.27 185.30
-9755251.18 5135736.84 184.74
-9755251.30 5135738.67 184.49
-9755249.45 5135738.89 185.03
-9755251.13 5135739.93 181.49
-9755250.68 5135734.33 192.61
-9755251.84 5135738.10 186.94
-9755250.01 5135740.26 185.11
-9755251.73 5135734.28 181.63
-9755250.45 5135734.02 189.73
-9755249.59 5135733.83 191.83
-9755252.37 5135735.18 181.60
-9755250.59 5135733.87 184.69
-9755250.27 5135738.44 181.47
-9755251.98 5135734.51 191.55
-9755249.47 5135734.63 191.86
-9755248.88 5135733.77 192.47
-9755249.45 5135738.58 184.74
-9755249.73 5135737.01 184.25
-9755249.45 5135738.53 185.26
-9755249.52 5135734.96 187.16
-9755249.44 5135735.36 190.22
-9755249.16 5135735.23 187.23
-9755249.52 5135737.57 184.01
-9755248.84 5135735.23 187.31
-9755249.41 5135738.73 181.46
-9755248.83 5135734.02 192.34
-9755248.93 5135734.30 192.74
-9755248.89 5135734.28 192.22
-9755248.68 5135734.19 189.90
-9755248.79 5135739.05 181.48
-9755248.84 5135738.94 184.77
-9755248.83 5135734.60 188.91
-9755248.74 5135738.37 184.76
-9755248.81 5135733.76 192.23
-9755248.87 5135740.01 185.68
-9755248.78 5135739.71 185.10
-9755249.41 5135737.60 181.47
-9755248.68 5135735.10 191.32
-9755249.14 5135736.99 184.36
-9755249.13 5135735.95 190.03
-9755248.72 5135739.19 185.03
-9755248.77 5135739.49 185.10
-9755249.27 5135733.69 192.65
-9755249.43 5135735.25 181.53
-9755248.62 5135733.84 189.64
-9755248.81 5135735.21 181.51
-9755248.53 5135734.34 186.69
-9755247.06 5135736.67 181.47
-9755248.82 5135738.73 181.48
-9755248.66 5135733.83 191.14
-9755241.19 5135734.30 181.45
-9755246.51 5135736.91 186.42
-9755244.86 5135734.54 184.69
-9755247.73 5135735.44 191.36
-9755248.37 5135734.37 191.34
-9755247.16 5135737.12 188.41
-9755247.91 5135736.10 187.78
-9755240.54 5135736.92 181.46
-9755248.07 5135734.37 191.90
-9755241.71 5135736.08 181.44
-9755246.77 5135734.88 189.23
-9755245.59 5135735.15 181.46
-9755244.78 5135733.82 184.27
-9755239.98 5135736.01 181.45
-9755246.87 5135737.43 188.42
-9755246.86 5135735.89 187.05
-9755246.85 5135736.11 185.43
-9755246.16 5135734.00 184.12
-9755248.21 5135740.23 181.45
-9755246.27 5135735.88 186.34
-9755244.30 5135736.26 184.66
-9755244.13 5135736.96 181.45
-9755245.30 5135734.25 181.47
-9755248.08 5135736.92 188.39
-9755245.62 5135733.87 184.15
-9755247.87 5135733.70 189.58
-9755245.95 5135735.97 183.88
-9755245.51 5135735.34 184.43
-9755242.28 5135739.89 181.47
-9755246.60 5135734.97 190.07
-9755246.53 5135735.19 181.48
-9755247.19 5135733.97 189.62
-9755242.33 5135740.19 181.47
-9755245.82 5135735.17 181.47
-9755246.48 5135736.65 181.47
-9755246.82 5135735.24 186.69
-9755247.90 5135734.84 181.50
-9755243.80 5135740.14 181.46
-9755246.03 5135734.29 186.99
-9755245.51 5135735.41 184.71
-9755246.32 5135735.27 186.68
-9755244.06 5135740.20 181.48
-9755246.17 5135736.35 181.45
-9755243.78 5135736.67 181.45
-9755247.29 5135739.65 181.46
-9755248.03 5135737.20 188.33
-9755247.71 5135734.24 181.49
-9755246.53 5135734.77 188.46
-9755248.94 5135734.32 191.13
-9755246.66 5135735.23 187.26
-9755246.11 5135734.76 184.26
-9755244.11 5135735.93 184.33
-9755247.81 5135734.06 191.51
-9755246.08 5135733.74 186.14
-9755244.07 5135735.50 184.80
-9755246.20 5135737.57 181.46
-9755246.21 5135734.21 189.57
-9755242.90 5135740.17 181.48
-9755246.24 5135734.57 186.78
-9755244.96 5135739.35 181.46
-9755247.69 5135734.18 190.25
-9755246.31 5135736.24 185.89
-9755240.38 5135733.65 187.07
-9755247.10 5135736.59 188.31
-9755246.84 5135735.79 186.87
-9755247.05 5135739.05 181.45
-9755247.09 5135735.16 181.48
-9755246.27 5135735.09 189.60
-9755244.66 5135734.54 181.46
-9755243.50 5135735.48 181.45
-9755248.32 5135734.14 189.86
-9755239.80 5135734.20 186.56
-9755247.91 5135739.30 181.46
-9755247.90 5135735.22 190.60
-9755246.96 5135734.36 190.49
-9755244.41 5135737.26 181.45
-9755243.82 5135738.99 181.46
-9755245.28 5135736.20 184.80
-9755248.25 5135734.53 188.67
-9755241.23 5135734.21 188.73
-9755245.34 5135733.88 184.22
-9755242.62 5135737.54 181.45
-9755244.41 5135736.06 181.46
-9755244.39 5135735.37 184.19
-9755239.82 5135734.86 187.62
-9755245.45 5135733.83 185.95
-9755247.10 5135734.37 189.60
-9755247.39 5135735.18 191.63
-9755242.04 5135735.76 181.44
-9755246.50 5135733.86 190.97
-9755246.04 5135735.53 184.01
-9755241.17 5135737.81 181.46
-9755247.48 5135734.12 189.95
-9755245.53 5135735.98 184.58
-9755246.58 5135734.44 190.24
-9755246.25 5135734.69 189.63
-9755247.84 5135736.25 188.09
-9755248.49 5135739.90 181.46
-9755240.88 5135739.30 181.47
-9755247.30 5135735.37 190.80
-9755247.93 5135733.72 181.51
-9755244.68 5135734.74 184.67
-9755247.18 5135735.09 191.28
-9755244.69 5135735.77 181.45
-9755247.80 5135736.19 188.09
-9755248.53 5135740.80 181.47
-9755244.15 5135734.32 181.45
-9755245.88 5135734.73 184.26
-9755247.92 5135734.82 192.14
-9755242.85 5135740.48 181.47
-9755244.19 5135733.80 185.01
-9755246.38 5135735.47 186.65
-9755247.15 5135734.57 186.85
-9755244.39 5135736.64 181.46
-9755245.70 5135736.14 187.25
-9755246.28 5135736.68 185.42
-9755247.22 5135735.80 187.43
-9755245.60 5135736.92 181.45
-9755240.88 5135735.16 181.43
-9755247.72 5135736.99 188.02
-9755244.66 5135740.84 181.49
-9755247.13 5135734.52 190.65
-9755241.73 5135737.79 181.45
-9755248.02 5135734.56 189.68
-9755243.18 5135740.45 181.47
-9755246.56 5135736.04 187.31
-9755246.55 5135735.07 189.19
-9755241.15 5135736.00 181.43
-9755241.43 5135739.86 181.47
-9755247.51 5135734.43 190.17
-9755246.50 5135736.50 183.80
-9755247.84 5135734.93 188.27
-9755248.00 5135734.73 190.52
-9755248.05 5135737.00 187.29
-9755247.34 5135738.71 181.46
-9755246.79 5135735.09 190.71
-9755245.33 5135736.51 184.84
-9755240.30 5135737.52 181.46
-9755246.77 5135734.37 189.53
-9755242.90 5135734.88 181.43
-9755248.54 5135737.02 181.47
-9755247.34 5135736.49 187.76
-9755248.35 5135740.05 185.54
-9755247.73 5135736.38 187.83
-9755247.12 5135735.66 190.78
-9755245.97 5135733.73 185.96
-9755247.69 5135734.46 191.58
-9755248.09 5135733.74 192.29
-9755247.40 5135737.55 188.42
-9755246.92 5135734.38 186.87
-9755246.61 5135736.04 187.00
-9755245.57 5135740.22 181.49
-9755247.08 5135735.51 187.06
-9755248.25 5135734.31 191.94
-9755246.14 5135735.64 184.57
-9755248.04 5135734.72 188.56
-9755244.11 5135739.32 181.46
-9755246.79 5135734.60 186.96
-9755243.19 5135739.31 181.46
-9755243.24 5135734.28 181.45
-9755246.57 5135736.12 185.92
-9755240.56 5135738.37 181.46
-9755246.41 5135734.98 190.70
-9755246.07 5135734.12 184.13
-9755244.10 5135736.33 181.46
-9755247.69 5135735.79 181.48
-9755239.79 5135734.24 188.38
-9755244.17 5135733.71 181.47
-9755246.54 5135735.34 186.18
-9755248.51 5135740.19 181.46
-9755245.05 5135733.89 184.22
-9755246.55 5135735.65 184.09
-9755248.16 5135735.87 190.66
-9755246.36 5135736.43 187.03
-9755246.46 5135734.29 181.49
-9755248.30 5135734.57 192.63
-9755244.66 5135739.04 181.46
-9755246.98 5135734.86 190.15
-9755245.73 5135733.72 185.99
-9755240.34 5135735.09 187.63
-9755247.02 5135734.90 186.69
-9755247.76 5135734.64 188.56
-9755248.10 5135737.65 185.50
-9755248.53 5135735.55 188.39
-9755242.90 5135738.43 181.47
-9755244.20 5135734.44 184.22
-9755246.91 5135734.33 189.05
-9755247.13 5135734.63 181.48
-9755246.15 5135735.19 184.19
-9755241.46 5135737.50 181.46
-9755247.27 5135735.45 186.35
-9755245.00 5135738.44 181.46
-9755247.48 5135733.84 189.69
-9755247.20 5135735.03 190.14
-9755245.04 5135734.98 184.69
-9755245.03 5135734.81 184.91
-9755248.13 5135733.80 191.48
-9755243.82 5135736.39 184.62
-9755240.25 5135738.39 181.46
-9755247.23 5135737.54 187.19
-9755239.13 5135782.23 181.11
-9755238.77 5135785.20 181.09
-9755238.83 5135781.34 181.11
-9755238.79 5135785.56 181.47
-9755236.41 5135782.20 181.12
-9755233.20 5135780.09 181.16
-9755234.71 5135783.71 181.12
-9755238.31 5135780.45 181.12
-9755233.81 5135781.30 181.16
-9755238.82 5135785.63 182.72
-9755232.06 5135784.55 181.16
-9755231.69 5135783.98 181.17
-9755233.79 5135781.93 181.15
-9755235.51 5135784.23 181.10
-9755237.34 5135784.61 181.09
-9755238.55 5135785.61 181.51
-9755232.93 5135783.99 181.14
-9755234.38 5135783.10 181.12
-9755234.64 5135785.74 181.11
-9755233.52 5135779.80 181.17
-9755237.95 5135783.12 181.09
-9755233.81 5135783.64 181.12
-9755230.58 5135785.07 181.15
-9755231.72 5135781.58 181.16
-9755236.41 5135782.81 181.12
-9755236.46 5135783.69 181.11
-9755233.81 5135781.01 181.15
-9755235.28 5135782.22 181.14
-9755235.57 5135781.02 181.14
-9755232.88 5135785.22 181.12
-9755234.70 5135780.76 181.14
-9755237.02 5135784.33 181.09
-9755237.03 5135784.89 181.09
-9755234.08 5135783.15 181.12
-9755231.10 5135784.57 181.16
-9755232.92 5135783.68 181.14
-9755233.21 5135782.47 181.15
-9755238.56 5135785.56 182.44
-9755230.85 5135785.73 181.16
-9755233.49 5135786.31 181.12
-9755236.15 5135786.11 181.09
-9755226.46 5135780.34 181.19
-9755228.17 5135782.16 181.18
-9755227.34 5135782.45 181.18
-9755226.14 5135780.69 181.18
-9755225.85 5135779.80 181.18
-9755227.27 5135784.50 181.16
-9755225.87 5135781.56 181.19
-9755226.41 5135783.64 181.17
-9755228.23 5135780.12 181.18
-9755227.30 5135780.94 181.17
-9755226.10 5135783.02 181.17
-9755226.39 5135782.67 181.18
-9755227.57 5135785.40 181.17
-9755229.68 5135785.11 181.17
-9755229.65 5135784.21 181.16
-9755226.36 5135785.17 181.16
-9755225.55 5135783.30 181.19
-9755225.82 5135785.38 181.16
-9755226.67 5135784.58 181.17
-9755226.42 5135785.98 181.17
-9755227.29 5135786.32 181.16
-9755227.88 5135786.33 181.17
-9755239.43 5135779.00 181.13
-9755239.46 5135777.79 181.14
-9755239.15 5135774.83 181.17
-9755239.19 5135775.70 181.15
-9755239.41 5135777.17 181.15
-9755231.45 5135779.26 181.19
-9755236.22 5135779.62 181.16
-9755232.92 5135779.49 181.16
-9755235.93 5135778.91 181.16
-9755236.15 5135778.72 181.16
-9755234.69 5135777.49 181.19
-9755233.26 5135779.53 181.17
-9755237.41 5135774.74 181.18
-9755235.85 5135774.79 181.18
-9755234.74 5135775.39 181.20
-9755238.23 5135776.57 181.17
-9755231.82 5135776.60 181.17
-9755234.45 5135773.24 181.19
-9755236.56 5135773.36 181.20
-9755237.33 5135779.55 181.16
-9755230.94 5135775.66 181.19
-9755238.30 5135774.53 181.17
-9755238.31 5135773.37 181.17
-9755235.02 5135778.94 181.18
-9755230.63 5135774.78 181.18
-9755235.62 5135773.39 181.20
-9755237.09 5135777.80 181.17
-9755233.52 5135778.93 181.17
-9755238.26 5135778.40 181.16
-9755230.69 5135778.09 181.20
-9755235.24 5135774.80 181.20
-9755231.76 5135777.44 181.19
-9755235.35 5135774.19 181.19
-9755237.43 5135773.33 181.20
-9755234.74 5135776.60 181.19
-9755235.30 5135778.05 181.16
-9755230.86 5135776.53 181.19
-9755232.03 5135778.03 181.20
-9755232.41 5135777.43 181.20
-9755236.78 5135777.23 181.18
-9755231.47 5135776.56 181.18
-9755235.32 5135773.96 181.19
-9755235.59 5135775.42 181.18
-9755234.43 5135778.90 181.18
-9755237.40 5135775.97 181.18
-9755233.24 5135774.16 181.19
-9755226.41 5135778.03 181.18
-9755226.47 5135777.70 181.18
-9755229.08 5135778.01 181.19
-9755226.47 5135774.43 181.19
-9755227.07 5135773.27 181.18
-9755227.31 5135776.58 181.19
-9755228.19 5135779.49 181.18
-9755229.79 5135773.92 181.17
-9755225.59 5135774.79 181.18
-9755225.89 5135774.17 181.18
-9755229.11 5135775.06 181.18
-9755228.85 5135777.72 181.19
-9755225.89 5135778.85 181.17
-9755229.10 5135776.58 181.19
-9755227.37 5135776.27 181.19
-9755226.77 5135775.65 181.19
-9755226.50 5135773.24 181.17
-9755226.75 5135778.04 181.18
-9755228.18 5135777.73 181.19
-9755226.52 5135776.51 181.17
-9755228.26 5135774.14 181.19
-9755228.49 5135778.92 181.17
-9755227.06 5135778.88 181.18
-9755213.20 5135786.32 184.64
-9755211.63 5135786.30 184.59
-9755225.51 5135779.76 181.19
-9755225.54 5135781.86 181.19
-9755224.99 5135780.65 181.19
-9755225.57 5135779.49 181.18
-9755223.19 5135784.81 181.34
-9755222.02 5135781.24 181.39
-9755222.32 5135782.71 181.39
-9755222.27 5135783.57 181.39
-9755221.11 5135784.48 181.41
-9755223.17 5135785.36 181.33
-9755220.83 5135781.23 181.41
-9755222.60 5135783.29 181.38
-9755220.23 5135785.37 181.39
-9755223.16 5135780.36 181.32
-9755220.78 5135785.06 181.41
-9755220.21 5135784.48 181.41
-9755221.15 5135783.61 181.40
-9755224.38 5135782.97 181.18
-9755223.46 5135783.29 181.20
-9755222.29 5135784.17 181.38
-9755219.94 5135782.70 181.42
-9755220.91 5135780.31 181.40
-9755221.37 5135786.26 181.40
-9755223.47 5135779.73 181.21
-9755219.65 5135784.79 181.42
-9755221.73 5135780.04 181.40
-9755220.22 5135780.63 181.41
-9755220.85 5135783.55 181.41
-9755222.60 5135783.59 181.38
-9755220.83 5135782.42 181.41
-9755223.44 5135785.40 181.20
-9755224.64 5135785.40 181.19
-9755223.19 5135781.25 181.32
-9755220.31 5135779.75 181.42
-9755223.48 5135783.90 181.21
-9755220.00 5135779.45 181.41
-9755224.04 5135781.24 181.19
-9755224.92 5135785.99 181.17
-9755221.37 5135785.64 181.41
-9755223.49 5135786.29 181.22
-9755219.62 5135785.66 181.42
-9755220.85 5135785.96 181.40
-9755210.83 5135786.33 184.51
-9755213.96 5135786.17 183.86
-9755219.35 5135784.47 181.41
-9755213.49 5135785.46 184.58
-9755219.64 5135781.21 181.41
-9755211.71 5135784.04 184.25
-9755212.02 5135783.94 184.86
-9755213.56 5135783.63 184.35
-9755212.04 5135785.21 184.94
-9755213.17 5135783.96 184.30
-9755211.97 5135785.15 185.01
-9755212.93 5135782.28 184.39
-9755211.36 5135784.63 184.44
-9755213.81 5135783.14 183.87
-9755212.88 5135783.23 184.12
-9755213.47 5135784.83 183.54
-9755214.91 5135784.01 183.92
-9755214.12 5135782.88 184.78
-9755213.20 5135783.62 184.93
-9755213.72 5135783.69 184.44
-9755213.18 5135781.15 181.66
-9755213.29 5135782.78 184.50
-9755213.77 5135783.41 184.82
-9755212.02 5135783.07 184.40
-9755211.17 5135784.03 184.91
-9755211.41 5135784.23 184.92
-9755216.14 5135782.97 181.58
-9755213.44 5135783.07 185.26
-9755213.46 5135784.01 184.33
-9755212.37 5135783.68 184.59
-9755217.62 5135780.27 181.53
-9755213.20 5135784.00 184.92
-9755211.76 5135783.16 183.06
-9755212.47 5135783.15 184.84
-9755213.14 5135783.09 184.12
-9755213.46 5135783.83 183.79
-9755213.80 5135785.50 184.62
-9755215.48 5135784.80 183.31
-9755211.67 5135785.40 181.62
-9755213.22 5135782.43 184.58
-9755212.40 5135783.07 184.79
-9755214.74 5135784.91 183.87
-9755212.98 5135782.19 184.30
-9755213.43 5135783.74 184.28
-9755214.01 5135781.17 181.66
-9755211.83 5135783.61 184.88
-9755213.24 5135784.58 184.87
-9755211.53 5135784.52 184.94
-9755212.84 5135781.96 184.26
-9755216.37 5135783.88 181.56
-9755215.51 5135782.96 181.60
-9755214.64 5135783.77 184.00
-9755212.35 5135782.84 184.26
-9755211.70 5135783.16 183.45
-9755213.52 5135784.56 185.14
-9755212.28 5135782.96 183.10
-9755212.86 5135783.47 184.24
-9755214.84 5135784.28 183.09
-9755211.44 5135784.04 183.85
-9755218.17 5135784.19 181.47
-9755212.30 5135785.40 185.01
-9755211.66 5135784.58 184.40
-9755211.73 5135783.08 184.40
-9755215.25 5135783.10 184.14
-9755214.71 5135783.98 184.50
-9755216.15 5135783.90 181.57
-9755212.23 5135783.99 184.31
-9755211.95 5135782.88 183.45
-9755212.42 5135782.69 184.08
-9755213.49 5135783.96 184.34
-9755213.95 5135782.15 184.92
-9755215.23 5135785.55 183.41
-9755216.70 5135780.31 181.58
-9755211.97 5135784.62 184.73
-9755214.06 5135783.66 184.40
-9755213.17 5135785.43 184.74
-9755213.19 5135782.35 181.67
-9755212.04 5135782.58 183.29
-9755213.14 5135783.39 184.42
-9755214.37 5135783.45 184.51
-9755216.70 5135780.88 181.58
-9755212.65 5135782.03 184.62
-9755211.43 5135785.43 184.66
-9755211.75 5135784.88 185.11
-9755212.15 5135783.50 183.56
-9755214.61 5135779.68 181.64
-9755219.04 5135781.84 181.43
-9755218.50 5135783.26 181.46
-9755212.60 5135783.18 183.98
-9755214.93 5135783.09 184.13
-9755216.68 5135782.07 181.57
-9755211.81 5135783.94 183.86
-9755212.89 5135785.14 184.91
-9755211.77 5135784.01 183.77
-9755211.72 5135785.19 184.13
-9755211.90 5135784.87 184.51
-9755214.70 5135783.99 184.67
-9755211.72 5135784.26 184.34
-9755214.36 5135782.35 181.65
-9755211.34 5135784.91 184.44
-9755214.16 5135785.30 183.27
-9755213.14 5135782.92 181.70
-9755214.97 5135783.73 184.11
-9755213.47 5135783.70 185.00
-9755211.68 5135782.85 183.03
-9755213.46 5135783.06 184.33
-9755211.69 5135782.05 181.65
-9755214.68 5135782.83 183.89
-9755214.34 5135784.10 184.42
-9755213.53 5135782.53 184.80
-9755214.40 5135782.94 184.47
-9755213.15 5135782.27 184.10
-9755214.84 5135785.18 183.79
-9755212.93 5135782.47 184.81
-9755213.84 5135781.98 184.77
-9755212.58 5135784.82 184.66
-9755212.56 5135781.15 181.66
-9755212.77 5135782.94 183.11
-9755214.92 5135784.72 183.22
-9755214.63 5135783.22 181.65
-9755212.28 5135782.35 181.69
-9755213.82 5135784.89 184.41
-9755211.97 5135783.98 184.34
-9755212.81 5135782.91 181.66
-9755217.63 5135779.72 181.52
-9755213.43 5135785.15 183.71
-9755211.38 5135784.60 183.97
-9755212.89 5135782.80 184.84
-9755214.08 5135783.73 184.48
-9755214.44 5135784.13 183.71
-9755212.23 5135783.69 184.47
-9755212.89 5135783.06 185.18
-9755211.73 5135783.66 184.37
-9755213.47 5135784.19 185.08
-9755212.22 5135782.89 181.66
-9755212.03 5135783.15 183.49
-9755214.71 5135784.02 183.89
-9755212.34 5135783.13 184.22
-9755213.18 5135784.28 184.97
-9755215.22 5135783.44 184.17
-9755212.91 5135783.69 184.48
-9755213.27 5135782.80 183.90
-9755212.90 5135782.92 183.90
-9755214.06 5135784.00 184.76
-9755214.45 5135783.79 183.84
-9755214.06 5135784.57 183.64
-9755211.73 5135783.91 184.92
-9755212.91 5135784.53 184.74
-9755214.34 5135784.90 184.49
-9755214.68 5135780.59 181.64
-9755214.04 5135783.10 184.77
-9755212.28 5135782.89 184.60
-9755212.93 5135784.28 184.87
-9755211.50 5135784.19 181.79
-9755212.30 5135782.57 183.16
-9755213.22 5135784.46 184.99
-9755211.70 5135783.22 181.67
-9755213.77 5135784.12 183.73
-9755213.26 5135782.81 184.21
-9755212.29 5135783.33 184.25
-9755212.87 5135782.26 183.08
-9755213.05 5135785.55 184.41
-9755212.44 5135782.83 184.17
-9755211.40 5135784.22 183.64
-9755216.11 5135782.06 181.59
-9755213.47 5135783.98 184.99
-9755214.96 5135784.63 183.86
-9755213.21 5135779.63 181.67
-9755212.00 5135783.11 183.07
-9755218.21 5135782.07 181.49
-9755212.23 5135784.65 184.63
-9755214.33 5135783.12 183.86
-9755213.76 5135782.20 184.72
-9755212.58 5135784.61 184.56
-9755214.29 5135783.51 183.64
-9755213.78 5135784.09 184.46
-9755213.19 5135783.34 185.24
-9755211.43 5135783.68 183.85
-9755213.76 5135784.63 183.53
-9755213.43 5135783.07 185.06
-9755216.42 5135783.56 181.56
-9755211.67 5135785.13 184.64
-9755211.33 5135785.19 184.18
-9755214.99 5135784.37 183.80
-9755219.36 5135779.71 181.41
-9755214.07 5135785.21 184.49
-9755214.65 5135784.13 181.62
-9755215.49 5135784.39 183.96
-9755212.73 5135784.10 183.79
-9755212.32 5135783.38 184.87
-9755214.66 5135783.14 184.17
-9755214.04 5135784.89 184.41
-9755218.50 5135783.56 181.46
-9755214.09 5135779.38 181.65
-9755213.15 5135784.87 184.77
-9755212.85 5135784.88 184.73
-9755212.29 5135783.64 184.99
-9755214.56 5135784.65 183.16
-9755217.32 5135782.92 181.51
-9755212.32 5135779.67 181.66
-9755212.12 5135782.22 184.30
-9755213.51 5135783.43 184.37
-9755211.41 5135783.46 183.86
-9755211.07 5135783.20 181.66
-9755211.98 5135779.64 181.66
-9755211.17 5135784.44 181.72
-9755211.34 5135785.48 184.24
-9755210.87 5135784.64 183.21
-9755211.42 5135785.22 181.62
-9755211.41 5135780.55 181.64
