-9755170.39 5135349.02 193.03
-9755172.66 5135351.85 210.97
-9755172.43 5135352.14 195.89
-9755166.59 5135351.06 184.48
-9755167.98 5135356.04 213.82
-9755166.49 5135348.77 184.44
-9755171.95 5135352.06 186.35
-9755171.77 5135351.97 205.20
-9755170.43 5135351.94 203.30
-9755168.51 5135354.56 213.74
-9755171.80 5135351.78 184.51
-9755173.23 5135351.87 208.34
-9755173.72 5135349.15 191.02
-9755165.97 5135349.00 185.46
-9755166.21 5135352.10 200.11
-9755170.95 5135351.90 208.23
-9755171.71 5135352.00 202.33
-9755170.19 5135351.88 200.18
-9755172.42 5135347.93 184.44
-9755171.69 5135348.46 190.94
-9755168.57 5135354.52 212.40
-9755170.98 5135351.99 211.64
-9755171.02 5135347.94 191.78
-9755169.29 5135347.61 191.88
-9755173.51 5135352.13 209.27
-9755171.52 5135353.36 212.42
-9755173.10 5135351.97 192.06
-9755164.24 5135350.19 184.47
-9755167.56 5135352.31 201.87
-9755168.39 5135348.69 191.95
-9755172.66 5135351.88 203.13
-9755167.96 5135354.60 213.73
-9755172.26 5135352.34 195.92
-9755171.98 5135352.17 189.31
-9755172.92 5135352.00 206.06
-9755172.81 5135351.96 195.19
-9755173.59 5135352.05 192.47
-9755172.90 5135351.93 210.19
-9755173.47 5135349.09 191.70
-9755170.78 5135348.03 181.67
-9755167.89 5135349.50 189.84
-9755171.25 5135351.98 191.61
-9755168.46 5135353.69 213.74
-9755171.84 5135351.89 211.98
-9755170.67 5135352.11 195.14
-9755172.31 5135352.17 194.24
-9755173.53 5135351.93 208.01
-9755165.75 5135352.15 194.39
-9755167.46 5135347.68 190.95
-9755164.74 5135349.25 185.88
-9755173.35 5135352.00 198.07
-9755171.86 5135352.31 196.47
-9755172.06 5135351.86 199.19
-9755167.59 5135348.57 191.53
-9755171.47 5135352.01 186.79
-9755173.14 5135351.98 206.05
-9755172.24 5135351.91 208.19
-9755167.82 5135352.31 210.70
-9755168.05 5135348.51 184.46
-9755173.04 5135351.81 202.64
-9755170.59 5135352.12 189.33
-9755171.92 5135349.40 191.69
-9755172.79 5135348.20 189.22
-9755170.80 5135348.25 181.68
-9755165.11 5135348.48 181.65
-9755161.22 5135355.32 212.42
-9755164.32 5135352.18 186.04
-9755160.42 5135352.83 194.46
-9755160.91 5135353.31 212.43
-9755163.30 5135350.19 184.47
-9755160.27 5135353.56 212.48
-9755161.81 5135354.44 213.81
-9755161.96 5135352.04 213.68
-9755160.27 5135352.17 188.92
-9755163.36 5135351.06 184.47
-9755163.58 5135353.59 212.41
-9755163.33 5135351.66 184.47
-9755162.76 5135351.98 184.47
-9755163.08 5135348.01 186.36
-9755161.84 5135348.19 181.64
-9755163.36 5135352.07 212.93
-9755160.76 5135352.21 185.27
-9755160.33 5135352.65 209.21
-9755162.75 5135352.50 184.49
-9755163.97 5135352.25 184.49
-9755161.48 5135352.58 213.86
-9755161.75 5135349.84 185.77
-9755161.15 5135349.51 185.33
-9755161.53 5135349.55 185.82
-9755160.44 5135352.21 205.29
-9755160.95 5135348.24 181.65
-9755161.92 5135352.15 204.26
-9755160.31 5135349.47 185.35
-9755160.06 5135351.70 184.46
-9755161.72 5135355.31 213.81
-9755163.97 5135352.20 188.71
-9755163.98 5135352.24 191.30
-9755162.03 5135352.49 184.38
-9755160.24 5135352.20 198.22
-9755162.70 5135347.84 185.37
-9755163.48 5135352.49 191.38
-9755161.57 5135352.29 206.16
-9755160.11 5135349.29 184.43
-9755160.61 5135352.38 207.91
-9755163.33 5135352.32 209.79
-9755160.81 5135352.42 206.44
-9755162.16 5135352.18 206.67
-9755163.23 5135347.87 185.32
-9755162.34 5135352.18 199.21
-9755161.23 5135347.67 181.63
-9755161.72 5135352.38 204.41
-9755160.44 5135352.23 197.64
-9755160.38 5135348.61 181.66
-9755158.54 5135349.29 184.79
-9755158.50 5135350.14 184.46
-9755157.40 5135348.44 181.70
-9755156.83 5135351.02 184.47
-9755159.46 5135348.22 181.64
-9755157.70 5135349.25 184.71
-9755157.74 5135348.63 184.56
-9755156.96 5135349.39 184.67
-9755157.45 5135351.65 185.28
-9755157.38 5135349.86 185.39
-9755159.45 5135350.20 184.44
-9755159.06 5135352.20 185.34
-9755156.76 5135350.11 185.39
-9755157.45 5135350.17 184.46
-9755159.45 5135351.92 184.46
-9755158.58 5135348.51 181.64
-9755156.87 5135348.47 184.50
-9755157.06 5135353.60 181.66
-9755156.79 5135348.53 181.67
-9755156.92 5135348.56 185.36
-9755158.59 5135352.22 185.33
-9755159.13 5135348.06 185.42
-9755157.13 5135349.02 188.18
-9755158.55 5135347.98 181.64
-9755173.98 5135341.83 181.35
-9755174.11 5135336.99 191.13
-9755174.19 5135341.23 190.61
-9755173.94 5135345.13 181.72
-9755174.04 5135347.78 181.71
-9755173.80 5135343.65 191.86
-9755174.12 5135337.20 186.91
-9755174.31 5135337.74 181.33
-9755173.90 5135347.52 192.80
-9755174.20 5135345.55 181.76
-9755169.93 5135346.84 193.08
-9755169.93 5135343.70 191.10
-9755160.35 5135347.95 181.66
-9755167.88 5135338.54 191.38
-9755167.58 5135346.89 192.13
-9755169.27 5135344.18 191.06
-9755166.84 5135347.98 181.66
-9755168.38 5135338.69 192.06
-9755170.36 5135344.63 190.22
-9755166.62 5135338.67 190.37
-9755166.71 5135341.96 190.35
-9755171.46 5135347.67 192.35
-9755167.54 5135339.44 192.11
-9755172.51 5135341.85 191.79
-9755165.10 5135342.62 187.79
-9755171.00 5135342.01 192.70
-9755173.59 5135342.87 192.78
-9755173.28 5135341.08 190.73
-9755165.80 5135343.79 190.49
-9755165.86 5135341.13 189.49
-9755166.66 5135338.76 189.71
-9755165.17 5135341.39 187.84
-9755170.25 5135345.98 192.77
-9755172.50 5135340.51 190.38
-9755169.34 5135343.80 192.65
-9755169.47 5135344.20 192.98
-9755173.53 5135337.88 191.36
-9755167.72 5135338.80 192.08
-9755173.08 5135344.40 192.91
-9755167.47 5135344.18 190.61
-9755168.16 5135342.83 191.34
-9755169.52 5135344.41 181.58
-9755171.88 5135343.60 193.46
-9755169.29 5135340.95 192.13
-9755172.49 5135346.94 193.67
-9755169.25 5135337.81 191.95
-9755165.99 5135343.47 191.22
-9755169.20 5135337.79 192.91
-9755164.25 5135342.98 188.65
-9755168.36 5135345.11 191.92
-9755172.69 5135345.22 192.73
-9755167.55 5135346.89 192.82
-9755165.22 5135341.96 191.78
-9755166.51 5135340.46 181.44
-9755165.98 5135341.05 188.37
-9755173.57 5135339.74 188.90
-9755166.04 5135342.56 191.09
-9755172.52 5135343.27 189.79
-9755171.59 5135347.42 181.73
-9755168.45 5135345.99 191.09
-9755167.45 5135341.78 181.45
-9755173.48 5135338.60 181.39
-9755168.38 5135341.02 191.11
-9755170.00 5135343.61 181.49
-9755167.45 5135342.16 192.53
-9755173.11 5135342.74 193.49
-9755170.17 5135342.90 181.44
-9755166.95 5135338.81 188.18
-9755170.05 5135341.24 192.06
-9755170.02 5135343.43 193.01
-9755168.15 5135344.48 191.40
-9755169.21 5135347.08 181.66
-9755170.82 5135338.94 191.10
-9755172.41 5135345.38 181.76
-9755170.71 5135346.98 192.98
-9755169.15 5135339.54 191.13
-9755168.52 5135337.45 189.64
-9755171.93 5135336.98 186.80
-9755171.48 5135347.16 181.76
-9755173.63 5135337.73 181.28
-9755164.53 5135347.95 181.68
-9755170.73 5135340.00 191.89
-9755171.52 5135337.96 181.37
-9755172.18 5135338.63 191.25
-9755171.53 5135344.22 192.73
-9755173.37 5135345.06 181.73
-9755166.97 5135338.64 192.16
-9755164.32 5135340.26 188.81
-9755171.92 5135341.29 181.44
-9755165.12 5135337.66 186.41
-9755171.44 5135343.74 192.05
-9755169.30 5135343.49 191.20
-9755170.01 5135339.39 181.43
-9755168.53 5135345.98 193.30
-9755172.36 5135346.86 181.80
-9755170.91 5135339.36 181.42
-9755171.30 5135344.98 190.81
-9755170.16 5135340.36 181.41
-9755168.33 5135338.77 181.43
-9755170.86 5135345.20 192.94
-9755165.65 5135343.03 188.97
-9755170.41 5135345.15 191.03
-9755173.25 5135344.22 188.58
-9755169.08 5135343.45 181.48
-9755169.39 5135338.59 192.03
-9755170.82 5135341.53 188.79
-9755173.26 5135337.19 186.72
-9755165.08 5135346.07 189.65
-9755167.65 5135341.10 181.45
-9755169.41 5135345.04 192.92
-9755166.63 5135341.93 191.73
-9755173.30 5135342.71 181.43
-9755166.66 5135340.25 191.71
-9755170.68 5135340.47 189.70
-9755170.56 5135337.21 192.61
-9755169.99 5135337.96 190.71
-9755173.17 5135337.23 192.02
-9755171.69 5135343.02 194.44
-9755165.95 5135347.11 181.65
-9755173.54 5135345.43 184.11
-9755166.66 5135346.05 192.02
-9755167.43 5135345.80 189.72
-9755167.45 5135341.80 188.74
-9755169.79 5135341.97 181.42
-9755164.97 5135339.62 187.06
-9755167.65 5135342.64 190.11
-9755170.51 5135344.25 181.57
-9755165.13 5135339.49 181.51
-9755165.09 5135341.75 181.50
-9755165.73 5135341.28 181.46
-9755165.17 5135339.68 187.83
-9755166.68 5135342.64 185.94
-9755172.12 5135341.01 181.44
-9755173.40 5135337.30 181.35
-9755167.59 5135339.41 193.35
-9755166.81 5135339.78 192.74
-9755166.00 5135346.16 189.39
-9755170.72 5135342.58 181.46
-9755172.60 5135345.55 184.07
-9755171.92 5135343.63 181.53
-9755170.96 5135340.49 181.41
-9755171.78 5135346.24 191.94
-9755169.92 5135340.23 190.23
-9755170.18 5135346.91 190.43
-9755172.46 5135339.54 190.05
-9755166.10 5135337.11 186.37
-9755167.50 5135343.32 181.42
-9755167.09 5135346.27 181.67
-9755170.22 5135341.21 189.41
-9755169.30 5135336.87 191.18
-9755171.81 5135342.10 181.39
-9755169.97 5135336.98 190.37
-9755168.94 5135345.18 190.36
-9755168.32 5135345.05 181.64
-9755171.22 5135341.88 191.03
-9755171.72 5135337.29 192.37
-9755168.08 5135347.48 186.48
-9755169.92 5135338.73 190.66
-9755166.63 5135338.42 187.31
-9755169.81 5135345.28 181.63
-9755169.21 5135344.88 189.69
-9755171.50 5135337.05 181.35
-9755167.65 5135345.95 181.65
-9755165.01 5135340.20 181.54
-9755173.61 5135341.93 181.40
-9755166.89 5135337.18 186.74
-9755172.13 5135336.88 187.10
-9755173.67 5135343.15 190.72
-9755171.62 5135344.12 194.09
-9755170.79 5135340.15 191.20
-9755169.84 5135342.25 191.24
-9755172.04 5135341.74 189.92
-9755166.13 5135336.98 181.46
-9755168.27 5135340.35 190.60
-9755168.90 5135346.89 190.77
-9755168.38 5135346.80 181.66
-9755164.44 5135345.05 185.92
-9755171.70 5135337.01 189.43
-9755170.08 5135341.00 190.38
-9755169.72 5135346.69 191.84
-9755173.36 5135337.00 188.90
-9755171.68 5135340.99 187.89
-9755170.31 5135346.96 189.62
-9755170.78 5135341.83 181.43
-9755166.78 5135338.84 181.49
-9755166.59 5135341.75 189.02
-9755172.33 5135338.52 181.30
-9755173.50 5135345.12 184.80
-9755170.27 5135340.71 189.68
-9755169.42 5135341.05 189.66
-9755172.43 5135337.28 188.74
-9755172.48 5135341.51 189.42
-9755171.00 5135336.85 187.77
-9755170.15 5135336.77 181.40
-9755171.58 5135339.35 181.40
-9755170.65 5135345.20 190.99
-9755170.83 5135337.11 188.75
-9755168.92 5135341.82 181.49
-9755167.49 5135344.48 181.59
-9755168.35 5135337.04 181.44
-9755172.53 5135337.32 181.37
-9755173.28 5135340.41 181.37
-9755171.87 5135337.63 189.84
-9755169.49 5135341.48 188.04
-9755168.41 5135345.14 190.38
-9755172.29 5135341.56 190.01
-9755165.29 5135337.17 187.01
-9755164.91 5135339.53 186.60
-9755167.47 5135337.12 181.47
-9755167.14 5135341.19 186.34
-9755165.20 5135344.55 188.96
-9755170.99 5135341.60 188.62
-9755171.64 5135344.87 190.26
-9755168.95 5135336.98 189.14
-9755163.42 5135341.95 185.37
-9755164.10 5135341.25 187.01
-9755160.07 5135345.91 181.65
-9755161.02 5135340.29 181.55
-9755164.19 5135343.53 181.51
-9755162.90 5135340.51 187.53
-9755163.60 5135337.86 181.51
-9755162.69 5135340.25 181.50
-9755161.87 5135339.35 181.54
-9755162.80 5135336.97 181.51
-9755163.42 5135340.79 188.55
-9755161.89 5135344.42 181.67
-9755161.83 5135338.25 181.55
-9755161.28 5135338.16 181.55
-9755163.34 5135337.27 181.51
-9755161.82 5135337.96 181.54
-9755161.90 5135337.02 181.53
-9755160.40 5135343.75 181.59
-9755160.11 5135337.94 181.56
-9755157.76 5135341.88 185.47
-9755159.11 5135344.45 184.55
-9755160.08 5135339.40 181.56
-9755157.66 5135347.67 181.66
-9755158.57 5135343.56 181.66
-9755157.72 5135341.73 181.68
-9755159.18 5135345.13 185.30
-9755157.49 5135345.11 185.37
-9755159.20 5135344.96 181.66
-9755158.61 5135344.44 181.66
-9755156.91 5135346.23 185.40
-9755158.58 5135342.89 181.67
-9755158.59 5135346.78 181.65
-9755157.16 5135345.12 184.60
-9755157.68 5135345.28 181.68
-9755156.84 5135344.98 187.39
-9755157.49 5135346.18 181.67
-9755157.08 5135347.60 181.68
-9755157.05 5135347.18 184.93
-9755158.55 5135342.09 184.73
-9755157.73 5135343.44 181.68
-9755157.37 5135342.86 181.71
-9755156.76 5135344.66 181.71
-9755158.62 5135346.17 181.64
-9755158.87 5135343.62 184.80
-9755159.43 5135347.06 181.63
-9755157.39 5135344.40 181.68
-9755157.03 5135344.65 184.94
-9755156.87 5135341.99 181.70
-9755158.39 5135339.38 181.58
-9755159.47 5135343.50 181.65
-9755157.14 5135343.52 181.68
-9755158.61 5135341.46 181.64
-9755157.11 5135342.65 181.70
-9755159.45 5135342.63 181.60
-9755157.16 5135346.15 181.68
-9755158.92 5135344.43 184.55
-9755156.82 5135343.69 184.79
-9755159.46 5135347.72 181.63
-9755156.89 5135337.58 181.62
-9755156.60 5135347.66 187.98
-9755150.27 5135355.90 181.69
-9755155.90 5135351.07 184.45
-9755154.92 5135349.16 186.00
-9755156.76 5135347.75 184.80
-9755147.87 5135354.98 181.68
-9755155.32 5135348.66 185.38
-9755154.71 5135348.22 185.71
-9755155.99 5135350.12 185.41
-9755151.26 5135351.12 187.84
-9755152.02 5135350.38 186.10
-9755156.22 5135355.05 181.66
-9755150.98 5135348.31 186.34
-9755153.42 5135348.08 188.81
-9755155.40 5135350.21 185.33
-9755150.53 5135353.54 181.63
-9755153.88 5135350.89 186.86
-9755153.88 5135348.70 188.91
-9755156.26 5135349.36 188.50
-9755152.08 5135352.93 181.64
-9755156.26 5135351.93 184.45
-9755150.40 5135349.32 188.84
-9755155.36 5135350.29 187.21
-9755152.70 5135351.13 181.68
-9755152.65 5135349.33 188.92
-9755151.16 5135350.06 185.91
-9755154.13 5135348.67 187.13
-9755151.07 5135350.22 187.94
-9755155.09 5135350.25 188.53
-9755154.42 5135354.41 181.66
-9755153.82 5135351.21 181.66
-9755156.20 5135351.02 185.25
-9755147.90 5135354.44 181.66
-9755152.93 5135350.17 187.97
-9755154.27 5135348.46 189.02
-9755152.90 5135352.08 181.67
-9755151.06 5135347.80 188.92
-9755155.42 5135349.09 184.69
-9755148.51 5135352.02 181.79
-9755155.11 5135348.53 181.68
-9755150.89 5135352.67 181.66
-9755156.25 5135351.89 185.28
-9755154.45 5135350.94 186.97
-9755155.29 5135351.19 185.41
-9755150.30 5135354.40 181.67
-9755152.95 5135350.20 181.68
-9755153.90 5135348.47 181.77
-9755154.57 5135349.19 186.93
-9755153.30 5135353.49 181.64
-9755152.10 5135350.34 187.94
-9755151.23 5135347.94 187.70
-9755151.80 5135349.20 185.91
-9755155.60 5135348.43 184.51
-9755149.74 5135351.15 181.79
-9755155.99 5135348.48 188.83
-9755150.91 5135353.56 181.63
-9755151.17 5135354.42 181.67
-9755150.00 5135355.02 181.69
-9755147.63 5135353.49 181.67
-9755152.14 5135352.45 185.57
-9755152.96 5135348.63 186.77
-9755151.17 5135349.99 187.18
-9755152.75 5135349.09 181.79
-9755156.21 5135348.46 181.64
-9755153.27 5135350.11 186.20
-9755155.31 5135347.72 186.61
-9755154.53 5135350.22 187.36
-9755152.14 5135348.80 181.76
-9755151.26 5135351.49 187.85
-9755155.31 5135353.60 181.63
-9755148.53 5135351.11 181.77
-9755154.77 5135352.25 185.33
-9755153.80 5135350.09 185.31
-9755149.16 5135350.20 181.73
-9755154.33 5135348.50 186.32
-9755152.91 5135354.65 181.66
-9755151.95 5135349.44 187.60
-9755155.01 5135348.56 188.81
-9755153.92 5135350.27 187.21
-9755146.76 5135354.42 181.67
-9755148.57 5135354.40 181.66
-9755152.03 5135351.16 181.68
-9755148.55 5135349.68 181.73
-9755151.53 5135350.06 187.26
-9755155.84 5135349.52 186.94
-9755148.53 5135355.30 181.68
-9755151.71 5135347.92 181.68
-9755154.98 5135347.54 181.70
-9755153.81 5135347.77 181.78
-9755150.30 5135350.56 181.75
-9755152.53 5135347.69 186.40
-9755153.82 5135348.59 187.11
-9755151.01 5135344.74 187.75
-9755155.42 5135342.03 181.76
-9755150.80 5135343.31 189.45
-9755151.08 5135342.80 188.67
-9755151.10 5135343.46 188.67
-9755155.99 5135339.34 181.72
-9755150.29 5135344.37 186.76
-9755147.75 5135342.67 185.30
-9755149.22 5135344.93 185.41
-9755154.54 5135342.52 187.79
-9755153.63 5135346.72 188.74
-9755151.96 5135341.21 187.71
-9755149.52 5135347.82 181.67
-9755149.50 5135344.44 188.96
-9755152.13 5135342.86 188.01
-9755155.25 5135341.98 187.39
-9755155.40 5135341.37 181.76
-9755150.70 5135341.80 185.59
-9755154.41 5135346.20 186.73
-9755150.12 5135346.89 188.95
-9755148.48 5135343.47 184.52
-9755156.29 5135341.85 185.50
-9755150.14 5135342.02 187.00
-9755153.90 5135346.70 186.31
-9755147.97 5135340.19 181.80
-9755148.67 5135343.57 185.63
-9755151.90 5135345.97 185.59
-9755148.59 5135346.06 186.19
-9755155.36 5135340.20 181.74
-9755150.40 5135345.97 188.90
-9755147.70 5135342.80 186.25
-9755148.51 5135342.32 184.80
-9755151.63 5135341.71 186.15
-9755149.81 5135346.05 188.75
-9755153.93 5135341.06 181.77
-9755149.42 5135346.10 187.90
-9755148.51 5135346.51 186.33
-9755156.39 5135342.94 185.34
-9755153.69 5135341.92 188.48
-9755152.55 5135346.03 188.70
-9755151.64 5135346.51 187.36
-9755151.00 5135344.21 189.28
-9755149.51 5135345.33 187.38
-9755147.73 5135345.97 185.45
-9755154.49 5135342.86 186.97
-9755150.02 5135346.80 181.68
-9755148.61 5135344.41 185.39
-9755150.72 5135342.69 185.80
-9755149.75 5135346.08 181.70
-9755155.50 5135341.87 185.49
-9755151.14 5135342.59 188.08
-9755155.38 5135341.24 185.51
-9755154.50 5135341.17 186.28
-9755155.09 5135347.09 189.34
-9755152.64 5135344.87 181.70
-9755150.39 5135343.47 186.04
-9755154.18 5135346.84 187.92
-9755151.89 5135343.62 187.94
-9755151.18 5135346.03 185.61
-9755155.67 5135340.51 181.73
-9755153.38 5135344.27 188.94
-9755155.13 5135342.72 186.15
-9755154.40 5135342.04 186.28
-9755152.96 5135345.32 185.73
-9755152.45 5135343.81 181.73
-9755152.59 5135344.35 181.74
-9755148.68 5135346.98 188.09
-9755151.12 5135340.57 185.73
-9755149.42 5135342.39 185.34
-9755153.56 5135346.06 181.69
-9755149.77 5135342.85 181.79
-9755150.39 5135339.60 181.75
-9755151.92 5135346.96 188.52
-9755155.32 5135344.35 188.42
-9755148.52 5135346.94 181.69
-9755151.94 5135341.98 187.82
-9755154.21 5135342.23 181.79
-9755155.65 5135342.02 181.75
-9755151.64 5135346.95 187.56
-9755156.00 5135337.84 181.70
-9755153.50 5135347.07 181.75
-9755151.47 5135345.54 187.24
-9755152.59 5135346.97 181.74
-9755155.08 5135345.59 185.89
-9755147.78 5135336.91 181.82
-9755155.95 5135343.71 187.10
-9755153.21 5135343.42 181.73
-9755152.74 5135340.25 187.06
-9755152.34 5135345.67 186.84
-9755156.37 5135345.15 186.49
-9755156.30 5135341.98 181.72
-9755154.93 5135348.00 185.31
-9755156.07 5135346.80 187.06
-9755151.42 5135346.09 181.67
-9755155.96 5135336.96 181.65
-9755156.25 5135342.92 181.72
-9755153.64 5135340.46 187.81
-9755155.36 5135346.18 181.70
-9755151.90 5135346.65 189.23
-9755150.39 5135340.91 184.97
-9755155.94 5135343.71 181.72
-9755154.47 5135341.54 186.90
-9755150.40 5135344.24 185.74
-9755150.93 5135344.57 181.70
-9755152.09 5135346.04 181.71
-9755154.23 5135345.20 185.38
-9755156.30 5135344.08 187.48
-9755148.55 5135347.60 181.71
-9755148.63 5135340.15 181.82
-9755151.86 5135341.25 186.14
-9755152.13 5135343.79 181.76
-9755148.65 5135337.82 181.82
-9755155.42 5135345.88 188.80
-9755151.89 5135341.78 187.06
-9755150.56 5135340.62 184.85
-9755148.76 5135341.16 184.80
-9755154.38 5135345.04 188.03
-9755151.83 5135345.32 187.09
-9755146.80 5135345.92 184.64
-9755149.76 5135344.25 189.20
-9755150.92 5135342.25 181.72
-9755154.25 5135345.88 181.69
-9755150.14 5135346.75 187.20
-9755152.43 5135342.96 187.92
-9755149.19 5135340.45 181.83
-9755153.93 5135346.46 186.77
-9755152.74 5135342.17 186.42
-9755153.58 5135342.84 187.20
-9755153.61 5135341.71 181.76
-9755151.87 5135340.15 181.76
-9755153.35 5135337.83 181.76
-9755149.34 5135340.36 184.88
-9755153.90 5135342.10 185.46
-9755150.25 5135341.95 186.38
-9755153.90 5135345.29 188.03
-9755150.33 5135341.05 181.75
-9755152.14 5135344.68 181.71
-9755150.98 5135342.71 186.30
-9755150.08 5135340.18 181.77
-9755154.13 5135346.80 181.67
-9755154.06 5135343.98 185.34
-9755152.19 5135345.38 185.66
-9755155.65 5135342.62 181.75
-9755154.79 5135337.87 181.72
-9755150.08 5135343.25 181.73
-9755156.24 5135340.16 181.72
-9755152.75 5135343.31 187.41
-9755154.49 5135338.45 181.74
-9755155.35 5135342.60 181.76
-9755151.63 5135346.02 184.97
-9755150.06 5135341.57 184.84
-9755152.22 5135345.88 185.87
-9755155.40 5135338.76 181.73
-9755151.31 5135345.31 184.95
-9755148.68 5135343.12 187.60
-9755150.46 5135344.39 186.60
-9755153.07 5135344.40 181.72
-9755153.94 5135348.09 186.89
-9755156.21 5135344.44 181.72
-9755151.63 5135340.54 185.92
-9755149.26 5135344.02 181.73
-9755148.53 5135343.34 181.78
-9755153.56 5135347.26 185.56
-9755154.17 5135341.13 181.78
-9755151.83 5135347.27 181.75
-9755151.60 5135342.52 186.65
-9755146.76 5135344.44 184.64
-9755150.80 5135347.20 185.94
-9755154.53 5135339.31 181.75
-9755152.41 5135345.68 185.86
-9755151.11 5135343.68 181.71
-9755153.01 5135343.75 181.72
-9755147.13 5135359.82 204.52
-9755147.16 5135359.77 205.82
-9755147.01 5135356.75 181.69
-9755147.02 5135355.29 181.68
-9755146.61 5135359.87 200.04
-9755147.05 5135356.18 181.68
-9755147.39 5135359.89 196.03
-9755147.03 5135359.70 193.56
-9755147.28 5135359.64 207.72
-9755146.88 5135359.84 188.57
-9755147.35 5135359.79 192.23
-9755147.24 5135359.63 210.02
-9755142.84 5135360.03 212.44
-9755141.12 5135359.30 183.05
-9755140.46 5135359.27 182.83
-9755147.24 5135359.61 185.62
-9755146.16 5135359.35 182.26
-9755142.32 5135360.14 186.89
-9755142.05 5135358.51 182.38
-9755145.14 5135359.68 184.34
-9755143.72 5135358.44 182.40
-9755141.28 5135360.00 192.09
-9755146.39 5135360.87 212.43
-9755142.00 5135360.07 212.43
-9755143.83 5135359.06 182.73
-9755141.17 5135359.15 182.44
-9755142.20 5135359.90 196.63
-9755141.15 5135356.74 181.68
-9755137.89 5135359.37 181.70
-9755146.75 5135359.74 198.43
-9755144.17 5135359.67 212.18
-9755141.73 5135357.63 181.72
-9755141.69 5135359.84 212.06
-9755141.96 5135360.14 181.88
-9755145.72 5135359.76 190.60
-9755141.20 5135359.95 204.41
-9755143.76 5135359.97 212.43
-9755145.31 5135358.58 181.78
-9755141.45 5135359.85 184.52
-9755140.97 5135359.91 197.16
-9755141.08 5135359.92 182.93
-9755147.13 5135359.65 192.22
-9755141.10 5135360.15 188.88
-9755146.11 5135357.62 181.74
-9755139.65 5135359.34 181.76
-9755141.30 5135359.95 193.52
-9755142.88 5135359.37 182.47
-9755146.80 5135359.56 202.38
-9755144.47 5135359.73 193.82
-9755138.78 5135358.50 181.68
-9755144.17 5135359.75 192.80
-9755146.10 5135360.08 181.85
-9755143.71 5135359.96 182.31
-9755145.25 5135359.25 182.72
-9755145.97 5135359.77 206.08
-9755145.61 5135359.59 192.20
-9755145.11 5135359.81 201.75
-9755137.61 5135358.51 181.68
-9755141.31 5135360.04 192.78
-9755143.73 5135361.16 212.42
-9755146.28 5135359.75 207.27
-9755141.16 5135355.82 181.68
-9755140.28 5135356.71 181.68
-9755144.02 5135359.69 187.03
-9755140.33 5135358.53 182.37
-9755144.62 5135359.60 195.72
-9755141.68 5135359.99 182.73
-9755146.42 5135356.74 181.69
-9755142.06 5135355.84 181.69
-9755146.33 5135359.82 183.56
-9755145.19 5135359.60 193.98
-9755137.89 5135356.69 181.71
-9755145.24 5135355.85 181.67
-9755144.31 5135360.93 212.42
-9755145.95 5135359.67 182.57
-9755137.87 5135359.89 181.73
-9755143.90 5135359.86 182.73
-9755141.15 5135359.65 208.12
-9755145.83 5135359.62 210.16
-9755146.39 5135359.68 204.19
-9755144.86 5135358.46 182.29
-9755144.61 5135359.81 188.81
-9755146.68 5135359.67 194.47
-9755141.67 5135359.80 205.23
-9755145.11 5135359.69 205.34
-9755141.10 5135357.94 181.73
-9755141.80 5135359.75 192.05
-9755143.18 5135360.05 193.98
-9755141.99 5135359.78 209.26
-9755145.27 5135356.73 181.68
-9755139.65 5135357.63 181.69
-9755145.64 5135359.57 188.87
-9755143.77 5135355.85 181.67
-9755141.81 5135360.20 189.83
-9755145.01 5135359.65 195.66
-9755144.69 5135359.81 185.31
-9755145.39 5135359.89 192.20
-9755146.01 5135359.55 204.11
-9755147.13 5135359.53 212.59
-9755142.82 5135359.75 204.47
-9755145.68 5135359.94 188.58
-9755145.40 5135359.59 203.59
-9755144.30 5135359.86 182.78
-9755144.48 5135359.83 211.23
-9755138.20 5135361.78 181.77
-9755145.49 5135363.28 212.39
-9755146.09 5135361.79 212.41
-9755141.35 5135362.62 212.45
-9755143.73 5135361.48 212.42
-9755145.22 5135361.76 212.39
-9755139.57 5135362.60 183.24
-9755142.86 5135361.74 212.42
-9755145.25 5135362.63 212.39
-9755143.75 5135362.35 212.41
-9755140.80 5135362.00 212.87
-9755135.29 5135358.56 184.34
-9755136.10 5135361.11 181.67
-9755135.50 5135357.54 181.71
-9755135.51 5135359.22 184.30
-9755136.13 5135357.59 181.69
-9755135.31 5135358.57 187.14
-9755137.01 5135359.34 181.67
-9755136.36 5135357.85 183.99
-9755136.09 5135357.50 184.35
-9755137.31 5135359.97 181.69
-9755136.42 5135360.24 181.67
-9755135.57 5135358.55 181.69
-9755136.19 5135358.29 183.99
-9755136.37 5135358.17 181.69
-9755135.70 5135360.04 185.67
-9755136.22 5135359.47 185.36
-9755135.60 5135357.37 184.56
-9755135.50 5135360.76 181.67
-9755137.04 5135357.00 181.70
-9755135.59 5135358.98 184.03
-9755136.19 5135356.74 181.68
-9755137.02 5135357.53 181.68
-9755136.09 5135359.04 181.69
-9755137.00 5135358.50 181.68
-9755135.59 5135360.91 186.02
-9755135.53 5135360.01 186.08
-9755136.16 5135356.08 181.68
-9755136.11 5135356.55 185.16
-9755135.31 5135359.10 181.69
-9755135.50 5135356.11 181.70
-9755136.42 5135363.14 183.98
-9755135.57 5135361.56 186.07
-9755133.86 5135358.43 186.36
-9755134.11 5135359.12 185.23
-9755134.70 5135360.06 185.39
-9755134.68 5135360.93 186.11
-9755134.63 5135356.84 186.30
-9755132.96 5135360.80 186.16
-9755133.86 5135359.34 187.31
-9755134.69 5135359.95 186.90
-9755134.06 5135359.95 187.25
-9755133.77 5135360.88 186.84
-9755134.60 5135359.86 186.03
-9755133.56 5135356.61 184.65
-9755133.78 5135360.84 186.10
-9755134.72 5135360.88 185.44
-9755134.77 5135358.09 184.19
-9755134.41 5135358.27 184.82
-9755134.64 5135357.47 184.25
-9755134.65 5135356.77 184.68
-9755134.23 5135356.00 184.07
-9755134.11 5135357.64 181.69
-9755134.59 5135358.50 181.70
-9755133.80 5135356.71 186.97
-9755133.47 5135356.70 181.65
-9755134.67 5135357.26 187.02
-9755133.98 5135358.21 181.68
-9755132.93 5135360.93 185.37
-9755133.87 5135360.29 181.67
-9755132.91 5135359.02 181.65
-9755133.23 5135359.93 181.68
-9755132.87 5135357.70 184.74
-9755134.60 5135360.81 181.68
-9755133.02 5135357.91 181.71
-9755129.85 5135363.25 183.72
-9755128.72 5135358.29 185.67
-9755129.75 5135356.67 186.49
-9755131.40 5135358.54 187.27
-9755129.65 5135360.88 186.41
-9755130.86 5135356.74 181.63
-9755130.51 5135355.84 184.96
-9755132.12 5135358.46 186.24
-9755131.98 5135358.46 186.99
-9755132.14 5135357.51 186.74
-9755130.60 5135356.64 184.87
-9755131.50 5135355.82 185.49
-9755124.88 5135357.54 181.61
-9755132.03 5135356.77 186.43
-9755131.39 5135359.91 181.63
-9755129.82 5135359.47 185.42
-9755130.59 5135357.50 185.65
-9755125.50 5135357.51 181.62
-9755130.61 5135357.64 187.05
-9755128.80 5135357.00 186.06
-9755130.67 5135360.29 187.54
-9755132.25 5135360.01 181.66
-9755124.03 5135360.77 181.67
-9755133.27 5135355.79 187.09
-9755131.95 5135359.29 186.91
-9755124.62 5135359.29 181.64
-9755128.85 5135360.79 184.26
-9755121.39 5135356.63 181.65
-9755131.33 5135360.68 184.64
-9755128.75 5135359.82 184.98
-9755130.57 5135356.80 185.28
-9755132.18 5135360.04 185.03
-9755131.91 5135360.02 184.46
-9755130.63 5135358.76 187.01
-9755129.71 5135356.72 185.39
-9755129.95 5135356.60 181.61
-9755128.72 5135359.49 184.18
-9755132.01 5135360.89 186.01
-9755132.07 5135358.99 186.28
-9755124.61 5135356.01 181.63
-9755132.01 5135357.36 184.56
-9755125.49 5135360.78 181.67
-9755130.51 5135360.99 184.78
-9755131.24 5135356.73 185.49
-9755130.36 5135360.81 187.22
-9755126.66 5135356.68 181.59
-9755131.49 5135356.69 187.10
-9755131.31 5135356.73 181.62
-9755131.23 5135360.07 185.93
-9755121.34 5135360.71 181.67
-9755130.46 5135359.26 185.79
-9755123.11 5135357.54 181.64
-9755132.29 5135360.33 186.93
-9755127.87 5135360.78 181.67
-9755122.26 5135356.90 181.64
-9755120.50 5135356.91 181.64
-9755131.35 5135361.11 181.70
-9755123.99 5135359.90 181.64
-9755119.43 5135360.74 182.19
-9755129.57 5135356.60 187.99
-9755128.21 5135360.79 186.04
-9755122.23 5135360.75 181.67
-9755131.08 5135359.77 185.83
-9755130.62 5135356.66 187.71
-9755124.64 5135356.89 181.63
-9755131.43 5135360.25 184.63
-9755120.83 5135360.75 181.67
-9755120.77 5135360.17 181.67
-9755119.94 5135360.02 183.07
-9755132.98 5135358.39 184.88
-9755131.83 5135356.13 187.21
-9755132.01 5135357.00 187.13
-9755133.41 5135363.31 186.01
-9755132.93 5135361.59 185.50
-9755133.80 5135361.84 185.51
-9755134.60 5135361.50 186.17
-9755134.85 5135362.66 181.69
-9755133.23 5135361.74 186.43
-9755133.66 5135361.69 181.67
-9755132.99 5135363.27 186.01
-9755133.69 5135362.28 181.68
-9755133.44 5135362.44 184.86
-9755134.63 5135363.18 181.72
-9755129.13 5135363.86 184.43
-9755130.47 5135362.45 184.33
-9755124.01 5135362.85 181.68
-9755132.11 5135362.31 186.19
-9755129.65 5135363.28 184.63
-9755129.62 5135362.47 184.55
-9755129.63 5135361.94 181.67
-9755129.19 5135362.66 184.68
-9755122.24 5135361.93 181.68
-9755131.14 5135361.72 185.26
-9755131.68 5135362.42 186.19
-9755131.39 5135363.30 185.35
-9755131.17 5135361.81 186.05
-9755131.36 5135362.45 185.34
-9755130.78 5135361.70 181.68
-9755131.88 5135363.21 181.70
-9755132.03 5135361.76 186.19
-9755123.10 5135363.44 181.69
-9755129.03 5135363.37 184.65
-9755127.85 5135362.28 181.71
-9755124.00 5135361.66 181.67
-9755132.38 5135361.91 181.66
-9755123.13 5135361.66 181.68
-9755127.25 5135362.57 181.71
-9755125.46 5135362.55 181.69
-9755132.44 5135361.20 185.16
-9755126.34 5135363.45 181.72
-9755146.78 5135353.23 181.69
-9755147.07 5135351.99 181.78
-9755141.16 5135353.42 182.00
-9755142.99 5135348.62 184.82
-9755143.82 5135353.49 181.71
-9755143.56 5135351.93 183.55
-9755143.84 5135354.38 181.68
-9755144.74 5135349.33 183.68
-9755137.67 5135350.10 185.11
-9755143.49 5135353.48 181.76
-9755138.88 5135351.05 181.76
-9755139.89 5135352.68 183.18
-9755141.14 5135355.22 181.69
-9755145.59 5135350.47 182.24
-9755144.16 5135354.34 181.68
-9755144.79 5135348.55 185.11
-9755145.60 5135351.10 183.50
-9755138.82 5135355.26 181.69
-9755144.24 5135350.85 182.10
-9755142.06 5135347.65 184.82
-9755145.31 5135348.73 181.71
-9755139.72 5135349.90 181.69
-9755144.79 5135349.36 181.69
-9755144.70 5135348.31 184.53
-9755140.57 5135351.72 181.76
-9755142.92 5135355.22 181.69
-9755144.70 5135348.67 183.28
-9755141.20 5135350.80 181.72
-9755145.35 5135352.58 182.26
-9755137.92 5135352.46 183.54
-9755140.29 5135351.09 181.73
-9755138.22 5135355.21 181.70
-9755145.92 5135349.07 181.71
-9755145.28 5135347.91 181.71
-9755139.03 5135353.20 182.16
-9755138.87 5135348.59 184.74
-9755139.38 5135350.48 183.20
-9755138.03 5135348.48 184.71
-9755144.41 5135347.84 182.35
-9755143.59 5135348.29 184.83
-9755143.18 5135349.65 181.72
-9755142.44 5135349.13 184.89
-9755142.97 5135347.71 184.82
-9755140.58 5135354.03 181.80
-9755137.61 5135351.02 181.76
-9755143.55 5135349.42 185.11
-9755141.18 5135350.20 181.71
-9755138.23 5135352.80 183.36
-9755142.34 5135351.40 181.76
-9755142.60 5135353.46 181.81
-9755141.24 5135347.73 184.79
-9755144.27 5135348.69 181.73
-9755143.36 5135349.14 184.89
-9755142.07 5135354.34 181.69
-9755147.10 5135344.34 181.76
-9755146.20 5135345.94 184.29
-9755144.49 5135342.75 182.11
-9755144.41 5135344.22 183.00
-9755142.11 5135346.79 184.82
-9755144.54 5135338.39 181.83
-9755140.35 5135339.52 181.67
-9755144.77 5135345.99 184.26
-9755144.52 5135343.66 183.15
-9755139.78 5135341.91 181.65
-9755144.57 5135343.39 183.88
-9755138.56 5135341.86 181.69
-9755139.52 5135342.64 185.10
-9755138.00 5135346.54 184.78
-9755138.63 5135337.96 183.58
-9755137.98 5135340.27 182.28
-9755138.93 5135345.30 184.80
-9755143.03 5135340.13 181.78
-9755143.92 5135340.43 181.78
-9755142.10 5135336.87 181.79
-9755142.12 5135342.66 185.09
-9755138.89 5135337.04 183.59
-9755141.25 5135341.93 181.68
-9755144.38 5135345.59 182.72
-9755145.37 5135346.09 181.69
-9755145.31 5135346.70 181.69
-9755139.38 5135340.30 182.29
-9755139.71 5135337.95 182.37
-9755138.65 5135338.35 183.40
-9755142.10 5135341.91 181.68
-9755142.16 5135342.96 184.97
-9755144.50 5135346.79 185.10
-9755142.98 5135339.59 181.80
-9755139.47 5135338.91 181.66
-9755138.92 5135341.00 181.69
-9755141.24 5135345.34 184.82
-9755138.02 5135341.87 181.70
-9755144.78 5135346.86 184.55
-9755140.32 5135342.58 182.21
-9755139.50 5135337.10 183.56
-9755144.49 5135346.21 185.10
-9755140.70 5135340.44 181.70
-9755144.20 5135342.15 185.10
-9755144.47 5135341.65 181.71
-9755138.14 5135340.24 181.68
-9755140.33 5135341.32 181.65
-9755140.98 5135340.17 181.73
-9755137.75 5135338.60 189.15
-9755141.46 5135341.02 181.73
-9755139.38 5135338.31 182.23
-9755144.51 5135343.99 184.34
-9755145.37 5135336.87 181.82
-9755138.02 5135338.58 183.98
-9755141.22 5135342.95 184.86
-9755139.49 5135340.15 181.67
-9755144.41 5135343.70 181.74
-9755137.70 5135337.66 189.17
-9755138.90 5135344.43 184.79
-9755137.55 5135337.90 184.49
-9755138.94 5135343.55 184.85
-9755144.55 5135342.78 184.40
-9755146.24 5135341.92 181.78
-9755145.33 5135342.21 181.69
-9755143.60 5135342.60 181.68
-9755139.38 5135342.81 181.75
-9755139.52 5135337.90 183.56
-9755144.49 5135343.51 185.08
-9755139.40 5135339.39 183.53
-9755138.65 5135342.82 181.75
-9755139.46 5135343.58 184.82
-9755138.10 5135342.74 189.08
-9755138.34 5135339.40 183.55
-9755139.74 5135342.81 181.71
-9755139.50 5135336.76 182.87
-9755144.46 5135345.47 181.72
-9755144.42 5135345.69 184.16
-9755140.27 5135342.28 182.19
-9755138.10 5135338.48 184.47
-9755145.31 5135344.32 181.71
-9755139.56 5135343.00 184.91
-9755140.51 5135342.54 183.45
-9755139.43 5135341.03 181.67
-9755138.90 5135340.32 182.17
-9755138.64 5135339.46 182.75
-9755143.35 5135342.67 182.07
-9755139.36 5135338.62 183.79
-9755138.64 5135338.56 183.20
-9755138.06 5135338.94 183.07
-9755139.51 5135337.87 184.43
-9755139.45 5135342.35 185.09
-9755138.05 5135342.77 181.71
-9755144.88 5135346.84 184.12
-9755145.25 5135345.70 185.05
-9755139.43 5135339.47 182.42
-9755145.33 5135344.99 181.70
-9755143.58 5135341.00 181.76
-9755142.01 5135342.91 181.59
-9755138.97 5135337.83 181.68
-9755143.90 5135338.96 181.80
-9755146.50 5135345.93 185.04
-9755143.11 5135342.32 183.90
-9755143.17 5135342.41 183.90
-9755142.31 5135342.52 182.55
-9755140.88 5135342.67 182.94
-9755144.42 5135346.07 181.74
-9755140.64 5135341.89 181.66
-9755143.97 5135347.07 181.68
-9755138.59 5135342.53 181.70
-9755146.21 5135343.42 181.76
-9755137.71 5135343.63 189.18
-9755138.31 5135342.67 185.09
-9755144.44 5135345.95 182.57
-9755142.98 5135340.74 181.77
-9755137.05 5135353.72 181.73
-9755137.31 5135350.75 181.72
-9755135.32 5135355.09 184.65
-9755137.34 5135354.05 181.73
-9755136.17 5135351.97 181.79
-9755135.42 5135348.47 184.72
-9755136.23 5135348.58 184.70
-9755135.52 5135355.22 181.68
-9755137.10 5135349.14 184.73
-9755137.11 5135347.96 184.70
-9755136.18 5135350.45 181.68
-9755136.13 5135355.20 181.69
-9755137.10 5135351.84 183.47
-9755135.29 5135351.05 181.71
-9755137.30 5135354.35 181.72
-9755135.30 5135349.40 185.09
-9755135.88 5135350.09 184.66
-9755136.41 5135350.81 181.72
-9755134.40 5135350.78 181.69
-9755134.66 5135354.41 185.56
-9755135.35 5135347.65 185.06
-9755135.58 5135351.95 181.78
-9755134.67 5135351.96 181.78
-9755135.27 5135354.29 184.57
-9755133.76 5135355.30 185.10
-9755132.97 5135354.40 185.60
-9755132.98 5135355.10 184.53
-9755134.13 5135350.46 181.67
-9755132.91 5135353.40 181.73
-9755134.37 5135354.31 181.71
-9755135.30 5135351.41 181.75
-9755134.67 5135355.23 183.97
-9755134.30 5135355.10 181.70
-9755134.09 5135351.95 181.79
-9755133.82 5135349.24 181.68
-9755133.23 5135355.29 186.89
-9755126.43 5135351.90 181.68
-9755131.43 5135350.18 181.69
-9755131.21 5135354.38 186.43
-9755131.04 5135353.46 185.32
-9755130.60 5135353.48 185.34
-9755131.98 5135352.80 181.69
-9755126.43 5135355.14 181.63
-9755127.90 5135351.64 181.66
-9755132.08 5135354.46 185.54
-9755123.22 5135348.64 181.61
-9755130.29 5135349.58 181.69
-9755129.66 5135354.87 185.30
-9755130.25 5135352.80 181.69
-9755127.00 5135353.35 181.69
-9755125.57 5135354.27 181.69
-9755131.44 5135354.27 181.67
-9755130.56 5135354.54 181.67
-9755128.79 5135350.76 181.66
-9755123.16 5135352.77 181.67
-9755127.87 5135350.75 181.68
-9755122.32 5135351.59 181.64
-9755132.02 5135354.36 181.67
-9755129.69 5135353.41 181.68
-9755131.42 5135354.18 183.84
-9755120.52 5135351.86 181.69
-9755132.34 5135349.57 181.72
-9755123.82 5135347.77 181.64
-9755128.84 5135348.34 181.66
-9755129.89 5135355.18 183.71
-9755129.94 5135352.48 181.69
-9755130.47 5135353.32 183.64
-9755120.82 5135350.06 181.66
-9755129.68 5135353.76 183.90
-9755122.31 5135350.10 181.66
-9755130.27 5135348.37 181.67
-9755121.39 5135350.98 181.64
-9755131.15 5135352.52 181.71
-9755122.27 5135352.75 181.66
-9755124.70 5135347.50 181.64
-9755132.01 5135353.67 181.70
-9755131.99 5135355.11 181.66
-9755123.21 5135350.12 181.66
-9755127.35 5135350.45 181.68
-9755121.43 5135352.76 181.68
-9755123.20 5135347.75 181.62
-9755128.20 5135353.40 181.69
-9755120.48 5135354.82 181.64
-9755131.08 5135353.83 183.58
-9755127.32 5135351.63 181.67
-9755135.64 5135345.52 184.76
-9755137.87 5135341.37 182.67
-9755137.17 5135340.09 181.69
-9755137.14 5135342.42 183.18
-9755137.14 5135337.04 183.62
-9755137.13 5135338.64 183.58
-9755137.09 5135340.13 182.94
-9755137.07 5135339.43 182.31
-9755137.57 5135342.53 182.76
-9755137.21 5135343.61 189.18
-9755135.38 5135340.27 189.74
-9755136.90 5135339.50 189.35
-9755137.11 5135339.47 182.86
-9755137.21 5135340.39 189.28
-9755136.28 5135343.60 189.19
-9755135.68 5135347.01 184.74
-9755137.22 5135338.89 189.30
-9755136.27 5135342.72 189.39
-9755137.11 5135341.82 182.40
-9755136.94 5135339.83 181.66
-9755137.07 5135342.43 182.30
-9755135.40 5135344.49 188.93
-9755137.35 5135342.78 181.72
-9755137.06 5135342.62 183.53
-9755134.52 5135341.21 189.75
-9755133.87 5135342.14 189.53
-9755134.64 5135338.51 189.88
-9755135.03 5135343.53 189.07
-9755133.64 5135339.99 190.08
-9755133.71 5135336.95 190.05
-9755133.09 5135337.86 190.61
-9755133.05 5135338.78 190.34
-9755122.41 5135342.03 189.66
-9755121.41 5135347.10 181.63
-9755122.19 5135337.83 190.68
-9755132.08 5135344.43 188.96
-9755124.78 5135343.53 189.25
-9755129.79 5135342.65 189.47
-9755129.56 5135336.94 190.74
-9755124.80 5135341.04 189.86
-9755132.19 5135337.91 190.61
-9755128.84 5135346.02 181.69
-9755123.25 5135344.43 189.04
-9755127.15 5135342.62 189.48
-9755126.33 5135337.80 190.67
-9755124.79 5135339.29 190.31
-9755124.77 5135340.21 190.08
-9755125.73 5135337.87 190.64
-9755130.40 5135339.38 190.28
-9755126.53 5135343.49 189.31
-9755127.14 5135340.26 190.06
-9755123.06 5135342.02 189.66
-9755121.50 5135343.56 189.28
-9755131.52 5135342.70 189.44
-9755123.04 5135340.23 190.08
-9755123.03 5135341.11 189.87
-9755132.23 5135336.78 190.72
-9755130.29 5135346.26 181.68
-9755131.45 5135346.34 181.69
-9755127.12 5135340.95 189.88
-9755123.92 5135338.67 190.45
-9755123.85 5135341.17 189.85
-9755121.30 5135337.79 190.70
-9755123.05 5135338.69 190.45
-9755126.49 5135347.16 181.66
-9755130.41 5135338.77 190.39
-9755125.53 5135346.22 181.65
-9755129.82 5135339.37 190.26
-9755125.72 5135340.29 190.06
-9755122.47 5135340.21 190.10
-9755124.73 5135342.01 189.64
-9755124.70 5135344.50 181.65
-9755130.30 5135346.93 181.68
-9755129.24 5135340.21 190.06
-9755121.55 5135336.90 190.72
-9755123.17 5135346.85 181.64
-9755123.09 5135337.23 190.79
-9755130.37 5135341.17 189.80
-9755123.90 5135339.34 190.29
-9755122.17 5135336.95 190.70
-9755131.26 5135340.25 190.06
-9755123.07 5135336.99 190.74
-9755132.73 5135343.88 189.13
-9755129.92 5135344.36 181.63
-9755132.07 5135346.32 181.69
-9755128.86 5135347.16 181.67
-9755119.61 5135360.98 183.61
-9755119.67 5135359.29 183.04
-9755119.92 5135358.36 181.66
-9755119.01 5135357.47 181.66
-9755118.95 5135360.07 183.12
-9755119.02 5135358.64 181.65
-9755118.10 5135360.77 181.66
-9755119.03 5135356.02 181.66
-9755119.62 5135361.61 181.66
-9755114.26 5135360.12 181.64
-9755114.28 5135356.87 181.63
-9755108.10 5135358.00 181.59
-9755107.20 5135359.19 181.58
-9755115.49 5135359.82 181.66
-9755111.63 5135358.35 181.61
-9755108.99 5135357.72 181.62
-9755117.56 5135355.98 181.67
-9755115.43 5135358.35 181.64
-9755112.53 5135355.95 181.64
-9755115.79 5135360.73 181.66
-9755115.48 5135359.23 181.65
-9755108.09 5135359.20 181.59
-9755106.66 5135360.05 181.57
-9755113.14 5135355.92 181.64
-9755117.26 5135360.11 181.66
-9755110.78 5135360.71 181.60
-9755114.30 5135358.34 181.63
-9755110.82 5135355.83 182.40
-9755106.66 5135356.85 181.58
-9755106.62 5135357.73 181.56
-9755112.23 5135357.40 181.64
-9755114.92 5135357.46 181.62
-9755116.36 5135360.75 181.66
-9755114.03 5135355.97 181.63
-9755111.66 5135356.84 181.64
-9755106.63 5135356.21 181.58
-9755108.12 5135355.98 181.62
-9755107.22 5135361.57 181.56
-9755111.32 5135362.80 181.60
-9755113.98 5135362.79 181.66
-9755111.53 5135363.42 182.30
-9755112.48 5135363.40 181.62
-9755111.03 5135361.58 181.59
-9755115.77 5135361.94 181.65
-9755107.22 5135362.76 181.55
-9755116.64 5135362.49 181.66
-9755108.36 5135362.48 181.57
-9755108.95 5135362.43 181.58
-9755113.37 5135363.34 181.63
-9755117.55 5135361.63 181.67
-9755115.76 5135362.54 181.67
-9755110.74 5135363.08 181.60
-9755105.77 5135360.09 181.56
-9755106.01 5135356.82 181.58
-9755101.85 5135360.63 182.47
-9755105.77 5135355.94 181.60
-9755101.64 5135356.80 182.00
-9755102.49 5135358.53 182.49
-9755104.87 5135357.40 181.56
-9755101.62 5135361.24 181.66
-9755103.37 5135355.87 182.18
-9755103.37 5135360.03 181.56
-9755099.28 5135357.67 181.51
-9755103.43 5135356.77 182.10
-9755102.54 5135355.81 183.78
-9755101.55 5135358.28 181.67
-9755099.40 5135360.96 188.55
-9755100.75 5135360.03 182.59
-9755104.89 5135358.32 181.56
-9755102.53 5135358.26 181.64
-9755101.32 5135359.14 181.67
-9755101.76 5135355.28 182.95
-9755103.96 5135356.81 181.59
-9755102.47 5135359.95 181.64
-9755104.02 5135355.95 181.60
-9755104.21 5135360.72 181.89
-9755098.98 5135359.17 181.48
-9755103.36 5135357.63 181.57
-9755100.16 5135358.24 182.28
-9755102.28 5135355.29 183.70
-9755101.61 5135360.34 181.65
-9755103.95 5135357.68 181.91
-9755103.25 5135355.66 181.48
-9755102.61 5135359.17 181.61
-9755102.48 5135357.68 181.64
-9755100.74 5135360.62 182.47
-9755103.19 5135356.45 182.89
-9755103.36 5135360.59 181.57
-9755099.25 5135356.76 181.51
-9755099.85 5135356.82 181.54
-9755104.27 5135358.02 181.58
-9755101.05 5135357.05 182.54
-9755101.37 5135357.93 182.56
-9755104.22 5135362.80 181.87
-9755102.36 5135362.32 182.37
-9755103.47 5135363.65 181.56
-9755101.61 5135361.76 182.50
-9755101.58 5135362.51 182.13
-9755099.85 5135362.39 181.50
-9755099.90 5135361.71 190.38
-9755104.83 5135362.72 181.54
-9755101.69 5135361.57 181.66
-9755100.39 5135362.60 183.33
-9755104.01 5135362.73 181.52
-9755099.89 5135361.88 188.70
-9755101.03 5135362.70 181.64
-9755102.37 5135362.28 181.70
-9755104.29 5135361.54 181.54
-9755103.05 5135362.59 182.80
-9755103.35 5135362.42 182.00
-9755101.02 5135361.77 182.54
-9755103.67 5135362.68 181.49
-9755099.27 5135361.66 189.67
-9755099.05 5135362.31 189.00
-9755100.20 5135362.38 188.95
-9755100.10 5135361.88 181.60
-9755099.28 5135361.65 188.95
-9755104.88 5135361.57 181.56
-9755098.44 5135361.02 189.32
-9755094.48 5135358.46 187.85
-9755093.44 5135358.40 189.85
-9755095.96 5135359.18 187.02
-9755095.87 5135359.90 191.20
-9755096.60 5135358.26 181.45
-9755094.27 5135360.09 190.41
-9755095.95 5135358.53 181.44
-9755093.43 5135360.18 190.60
-9755094.26 5135359.34 188.03
-9755097.97 5135360.12 188.26
-9755094.31 5135358.27 181.37
-9755093.92 5135360.05 181.35
-9755096.01 5135359.42 187.77
-9755096.65 5135360.17 187.76
-9755098.37 5135360.67 188.30
-9755096.71 5135359.43 186.44
-9755096.69 5135361.05 190.98
-9755095.11 5135359.32 187.02
-9755093.61 5135357.64 181.37
-9755096.68 5135359.06 189.64
-9755094.29 5135357.33 181.35
-9755094.06 5135360.99 190.31
-9755097.27 5135359.23 186.82
-9755093.32 5135359.20 186.34
-9755097.47 5135359.34 185.80
-9755096.66 5135359.46 186.94
-9755094.23 5135361.02 190.96
-9755096.35 5135359.13 187.65
-9755093.23 5135359.42 188.78
-9755095.11 5135359.95 187.85
-9755093.40 5135360.98 191.22
-9755093.69 5135360.03 186.50
-9755092.59 5135358.55 188.66
-9755097.74 5135359.15 181.50
-9755097.76 5135360.06 181.50
-9755096.87 5135359.12 181.48
-9755093.19 5135359.56 191.36
-9755095.03 5135360.03 181.36
-9755098.36 5135358.27 181.49
-9755095.44 5135357.66 181.37
-9755094.00 5135359.45 190.25
-9755095.98 5135359.23 189.43
-9755095.72 5135360.02 187.71
-9755092.90 5135360.16 188.56
-9755098.65 5135359.12 181.51
-9755096.89 5135357.31 181.48
-9755096.96 5135360.03 187.32
-9755093.64 5135358.30 181.38
-9755097.02 5135360.79 188.97
-9755095.23 5135357.90 186.96
-9755094.26 5135360.30 189.93
-9755097.81 5135360.11 186.36
-9755094.01 5135360.09 186.89
-9755096.26 5135359.68 187.17
-9755096.06 5135360.28 188.83
-9755094.32 5135359.61 185.90
-9755093.07 5135360.02 186.97
-9755096.53 5135356.49 184.49
-9755093.08 5135359.69 189.13
-9755094.74 5135360.00 186.27
-9755093.11 5135359.94 188.30
-9755095.51 5135356.16 188.06
-9755095.86 5135362.43 191.85
-9755096.07 5135360.76 185.75
-9755097.74 5135362.59 190.61
-9755098.32 5135362.68 181.49
-9755096.99 5135363.41 189.85
-9755096.72 5135362.72 190.88
-9755095.12 5135362.72 181.34
-9755095.00 5135362.63 187.28
-9755097.50 5135361.47 181.52
-9755095.73 5135362.53 189.67
-9755094.83 5135360.97 181.35
-9755094.40 5135362.43 191.27
-9755094.58 5135360.93 188.29
-9755094.40 5135362.43 189.77
-9755094.18 5135362.07 188.00
-9755095.86 5135362.35 187.18
-9755093.29 5135363.25 186.65
-9755097.00 5135360.99 186.59
-9755094.45 5135363.21 181.31
-9755095.80 5135362.00 181.46
-9755095.78 5135361.61 189.33
-9755096.77 5135362.85 189.18
-9755098.29 5135361.50 181.50
-9755095.11 5135362.27 190.77
-9755097.25 5135362.53 189.66
-9755096.55 5135362.36 187.33
-9755095.33 5135362.13 189.65
-9755094.11 5135362.55 188.04
-9755094.17 5135361.65 190.29
-9755095.34 5135361.84 187.66
-9755093.04 5135361.75 189.88
-9755096.82 5135361.52 181.53
-9755092.62 5135361.51 190.38
-9755097.75 5135360.93 181.51
-9755097.47 5135362.91 188.77
-9755095.26 5135361.38 190.47
-9755094.54 5135362.02 191.14
-9755096.89 5135363.11 184.43
-9755097.78 5135362.12 188.41
-9755093.13 5135362.14 187.05
-9755119.94 5135352.75 181.68
-9755119.95 5135353.62 181.66
-9755119.09 5135355.10 181.67
-9755119.03 5135353.33 181.69
-9755118.79 5135349.51 181.64
-9755119.05 5135350.39 181.66
-9755119.75 5135344.69 188.99
-9755119.80 5135342.08 189.63
-9755119.69 5135347.12 181.61
-9755119.48 5135344.13 189.15
-9755119.11 5135340.18 190.09
-9755117.92 5135347.12 181.60
-9755118.85 5135344.38 189.03
-9755118.95 5135337.79 190.68
-9755119.17 5135342.00 189.67
-9755118.87 5135343.50 189.31
-9755119.14 5135345.67 186.25
-9755118.23 5135343.48 189.29
-9755114.29 5135355.13 181.65
-9755106.64 5135355.00 181.64
-9755111.37 5135352.45 181.69
-9755109.32 5135351.26 181.62
-9755109.06 5135349.42 181.57
-9755113.42 5135354.19 181.67
-9755116.41 5135351.87 181.67
-9755106.69 5135351.21 181.63
-9755110.52 5135353.61 181.67
-9755108.13 5135353.56 181.66
-9755107.60 5135348.53 181.57
-9755113.13 5135355.07 181.66
-9755117.29 5135350.37 181.62
-9755109.90 5135348.86 181.54
-9755113.18 5135350.94 181.64
-9755117.56 5135354.23 181.70
-9755112.27 5135351.81 181.64
-9755111.67 5135354.44 181.66
-9755116.72 5135348.58 181.58
-9755116.67 5135352.73 181.70
-9755116.40 5135354.49 181.69
-9755107.27 5135352.66 181.68
-9755114.35 5135351.23 181.63
-9755114.64 5135350.05 181.61
-9755109.35 5135351.76 181.63
-9755107.27 5135351.46 181.64
-9755112.60 5135349.15 181.55
-9755109.92 5135347.36 181.59
-9755109.95 5135351.54 181.64
-9755108.15 5135352.67 181.67
-9755109.89 5135350.07 181.61
-9755107.54 5135354.20 181.65
-9755107.52 5135353.54 181.67
-9755112.27 5135353.60 181.66
-9755109.06 5135354.20 181.66
-9755109.07 5135347.93 181.58
-9755113.14 5135352.45 181.69
-9755114.63 5135347.98 181.58
-9755108.18 5135350.29 181.62
-9755115.81 5135351.78 181.63
-9755117.25 5135353.66 181.70
-9755109.05 5135348.30 181.58
-9755114.06 5135347.70 181.58
-9755108.16 5135347.97 181.58
-9755113.12 5135353.61 181.69
-9755111.43 5135349.46 181.57
-9755108.11 5135355.08 181.65
-9755108.15 5135351.20 181.64
-9755116.67 5135350.37 181.63
-9755106.73 5135347.65 181.59
-9755105.86 5135352.07 181.97
-9755105.76 5135354.40 182.12
-9755105.61 5135353.58 181.71
-9755105.81 5135349.12 181.55
-9755105.80 5135348.86 181.55
-9755104.02 5135349.99 181.59
-9755101.66 5135354.99 182.32
-9755104.00 5135351.14 181.68
-9755102.51 5135354.22 183.66
-9755103.44 5135351.78 181.70
