-9755003.99 5135479.23 178.59
-9755003.61 5135482.57 178.38
-9755003.84 5135474.56 177.85
-9755008.27 5135473.67 177.96
-9755004.20 5135472.50 177.86
-9755003.51 5135472.70 178.49
-9755002.65 5135479.25 177.94
-9755003.27 5135480.48 178.42
-9755003.01 5135474.20 178.88
-9755006.19 5135477.50 177.86
-9755004.16 5135478.07 177.78
-9755003.56 5135479.87 177.89
-9755003.29 5135475.63 178.37
-9755002.81 5135474.87 178.88
-9755004.77 5135477.22 177.81
-9755003.57 5135482.18 178.34
-9755003.54 5135482.90 178.55
-9755009.17 5135479.29 177.89
-9755003.57 5135479.26 178.78
-9755003.30 5135478.63 178.82
-9755006.49 5135482.85 177.79
-9755007.40 5135472.79 177.95
-9755005.88 5135482.84 177.77
-9755005.08 5135480.75 177.77
-9755003.93 5135472.47 177.86
-9755003.56 5135477.60 178.00
-9755003.06 5135477.52 178.85
-9755003.61 5135472.43 177.92
-9755008.26 5135479.60 177.87
-9755007.43 5135475.70 177.92
-9755008.02 5135479.87 177.86
-9755003.28 5135474.10 178.55
-9755003.74 5135474.30 178.57
-9755008.32 5135474.87 177.94
-9755003.27 5135482.53 178.76
-9755009.23 5135473.09 177.98
-9755003.83 5135482.85 178.73
-9755005.63 5135481.96 177.77
-9755003.29 5135477.73 178.84
-9755003.44 5135472.81 178.48
-9755008.51 5135481.40 177.84
-9755003.56 5135478.37 178.82
-9755006.54 5135480.51 177.82
-9755004.77 5135475.13 177.84
-9755007.65 5135474.90 177.93
-9755003.02 5135475.97 178.87
-9755003.92 5135480.44 178.44
-9755003.79 5135481.06 178.77
-9755006.25 5135474.01 177.92
-9755003.06 5135478.68 178.83
-9755008.90 5135480.53 177.85
-9755003.01 5135476.49 178.86
-9755005.12 5135473.40 177.88
-9755003.64 5135473.29 178.86
-9755004.51 5135473.36 177.87
-9755004.70 5135479.29 177.77
-9755002.99 5135479.86 178.81
-9755003.88 5135475.04 178.71
-9755007.10 5135480.18 177.85
-9755008.87 5135478.13 177.89
-9755005.65 5135477.19 177.84
-9755008.89 5135479.87 177.88
-9755007.16 5135473.38 177.95
-9755007.41 5135480.50 177.84
-9755004.17 5135480.81 177.73
-9755003.24 5135473.22 178.44
-9755007.10 5135478.12 177.88
-9755006.49 5135479.89 177.84
-9755003.04 5135476.86 178.84
-9755003.71 5135478.33 177.84
-9755007.92 5135483.12 177.82
-9755003.57 5135480.79 178.42
-9755004.78 5135478.10 177.81
-9755003.86 5135477.48 177.80
-9755003.62 5135475.30 178.56
-9755003.24 5135477.15 179.41
-9755003.13 5135479.32 179.36
-9755010.63 5135485.24 177.83
-9755010.58 5135486.42 177.81
-9755010.57 5135488.48 177.78
-9755009.45 5135485.81 177.80
-9755010.32 5135486.70 177.80
-9755003.82 5135488.22 177.79
-9755009.39 5135488.20 177.76
-9755003.95 5135488.75 177.64
-9755008.25 5135484.37 177.80
-9755009.13 5135485.49 177.80
-9755003.84 5135486.58 177.70
-9755008.27 5135486.39 177.76
-9755007.37 5135486.71 177.75
-9755008.86 5135484.62 177.80
-9755008.82 5135487.86 177.75
-9755007.64 5135487.30 177.75
-9755007.93 5135489.07 177.72
-9755006.55 5135483.47 177.79
-9755004.73 5135483.15 177.73
-9755006.47 5135486.72 177.71
-9755004.41 5135487.34 177.65
-9755007.03 5135488.18 177.72
-9755003.86 5135483.17 177.70
-9755007.09 5135485.85 177.76
-9755004.97 5135486.73 177.68
-9755005.63 5135485.81 177.73
-9755003.87 5135487.92 177.66
-9755003.56 5135487.14 177.84
-9755003.27 5135483.66 178.76
-9755004.16 5135483.73 177.70
-9755007.03 5135489.09 177.71
-9755003.28 5135485.48 178.71
-9755005.03 5135483.72 177.73
-9755009.14 5135487.32 177.78
-9755003.11 5135487.61 177.79
-9755008.25 5135487.59 177.75
-9755006.76 5135486.41 177.74
-9755002.93 5135487.65 178.52
-9755003.82 5135485.05 178.18
-9755003.57 5135485.77 177.83
-9755008.22 5135486.71 177.76
-9755003.56 5135483.35 178.44
-9755005.90 5135483.72 177.76
-9755002.37 5135477.49 177.98
-9754999.15 5135475.71 177.98
-9755002.43 5135471.85 178.01
-9755002.38 5135478.38 177.95
-9755000.31 5135477.46 177.94
-9755000.63 5135476.85 177.96
-9754998.29 5135476.87 177.95
-9755000.05 5135476.62 177.95
-9754995.97 5135472.41 178.05
-9754998.91 5135474.83 177.97
-9754996.87 5135475.70 178.29
-9755000.63 5135480.75 177.89
-9754999.18 5135474.79 177.98
-9754996.99 5135480.34 178.24
-9754998.00 5135472.42 178.01
-9754999.45 5135478.36 177.94
-9755001.53 5135480.47 177.92
-9755002.40 5135479.53 177.92
-9754999.15 5135482.52 177.87
-9754999.78 5135473.33 177.99
-9754997.63 5135481.90 177.92
-9754998.86 5135473.33 178.00
-9754996.83 5135476.61 177.97
-9755001.59 5135473.67 178.03
-9754996.01 5135472.73 178.05
-9754995.89 5135482.85 177.92
-9755000.89 5135479.55 177.92
-9755001.51 5135479.59 177.92
-9754999.13 5135482.79 177.89
-9754996.81 5135476.44 178.27
-9755001.46 5135482.56 177.86
-9755000.97 5135476.05 177.99
-9754995.91 5135477.18 178.00
-9754998.55 5135475.93 177.97
-9754996.81 5135472.82 178.01
-9754998.00 5135474.21 177.99
-9754999.77 5135472.44 178.02
-9754999.98 5135479.81 177.91
-9755000.36 5135478.98 177.94
-9754997.12 5135472.45 178.02
-9754997.73 5135477.46 177.96
-9754997.12 5135474.18 178.00
-9754998.87 5135478.06 177.94
-9754999.13 5135481.63 177.90
-9755000.28 5135482.46 177.88
-9754996.57 5135473.98 178.28
-9754995.99 5135471.84 178.04
-9754995.95 5135478.03 177.98
-9755000.68 5135473.05 178.02
-9754998.31 5135475.05 177.98
-9755002.13 5135475.73 177.99
-9754989.37 5135481.87 177.96
-9754994.12 5135479.53 177.96
-9754992.44 5135471.50 178.08
-9754992.71 5135474.20 178.02
-9754990.06 5135474.47 178.11
-9754994.32 5135482.48 177.95
-9754993.83 5135476.54 177.99
-9754992.34 5135483.00 177.91
-9754993.58 5135475.66 177.99
-9754992.71 5135481.02 177.93
-9754995.32 5135473.56 178.04
-9754995.34 5135474.79 178.03
-9754992.36 5135478.01 177.98
-9754995.65 5135478.34 177.98
-9754993.84 5135481.63 177.92
-9754993.57 5135474.77 178.03
-9754994.74 5135476.56 178.00
-9754992.09 5135478.03 178.00
-9754995.61 5135476.56 177.99
-9754993.87 5135475.92 178.00
-9754991.49 5135472.70 178.05
-9754993.25 5135480.44 177.95
-9754994.40 5135481.25 177.94
-9754994.77 5135478.12 177.98
-9754993.25 5135476.80 178.00
-9754991.16 5135481.55 177.94
-9754997.67 5135489.33 177.78
-9755000.87 5135489.33 177.78
-9754998.83 5135483.10 177.88
-9754999.97 5135489.61 177.79
-9754999.43 5135483.13 177.87
-9754998.55 5135488.16 177.81
-9754996.95 5135488.99 177.80
-9754999.44 5135484.02 177.86
-9754995.88 5135483.98 177.91
-9755002.32 5135487.54 177.80
-9755000.28 5135487.24 177.82
-9754997.65 5135483.44 177.87
-9755000.89 5135485.21 177.84
-9754995.90 5135484.87 177.90
-9754996.44 5135485.44 177.90
-9754997.98 5135484.92 177.86
-9754996.88 5135483.86 178.17
-9755000.86 5135485.48 177.84
-9754995.86 5135483.09 177.92
-9755000.90 5135486.33 177.85
-9754997.06 5135487.26 177.83
-9755002.36 5135484.31 177.81
-9754999.36 5135486.63 177.81
-9754991.45 5135483.04 177.90
-9754993.52 5135485.15 177.89
-9754995.02 5135485.14 177.91
-9754990.88 5135487.76 177.85
-9754992.59 5135485.70 177.88
-9754995.27 5135486.69 177.86
-9754989.40 5135483.91 177.93
-9754995.56 5135486.61 177.86
-9754990.61 5135484.86 177.90
-9754990.53 5135483.36 177.94
-9754994.07 5135487.52 177.86
-9754991.80 5135486.31 177.86
-9754995.29 5135487.57 177.85
-9754994.67 5135486.66 177.85
-9754989.08 5135480.14 177.98
-9754989.16 5135477.45 178.02
-9754988.62 5135478.60 178.04
-9754987.88 5135476.95 178.81
-9754988.54 5135474.11 178.57
-9754985.03 5135472.66 177.97
-9754988.34 5135476.44 178.21
-9754988.57 5135477.74 178.03
-9754988.26 5135473.62 177.63
-9754988.29 5135474.33 178.16
-9754988.56 5135477.08 178.06
-9754986.21 5135475.95 177.88
-9754984.15 5135472.37 177.98
-9754985.67 5135471.75 177.97
-9754987.32 5135482.46 177.74
-9754986.47 5135476.79 177.86
-9754984.98 5135479.76 177.86
-9754987.68 5135474.50 177.85
-9754988.49 5135481.53 178.79
-9754987.73 5135480.08 178.75
-9754988.35 5135471.74 178.13
-9754987.98 5135472.56 178.92
-9754988.15 5135474.88 177.70
-9754988.55 5135480.28 178.32
-9754988.53 5135477.43 178.86
-9754988.07 5135475.86 178.90
-9754984.42 5135474.43 177.96
-9754988.24 5135471.68 178.58
-9754985.96 5135473.83 177.92
-9754987.76 5135471.55 178.94
-9754988.29 5135475.31 178.09
-9754986.42 5135489.57 177.70
-9754988.48 5135488.05 177.86
-9754988.47 5135488.62 178.71
-9754988.54 5135486.66 178.22
-9754988.48 5135487.68 178.71
-9754987.60 5135485.11 177.70
-9754988.41 5135484.50 178.10
-9754983.25 5135472.00 178.01
-9754981.78 5135477.07 177.95
-9755025.71 5135471.70 177.95
-9755024.56 5135471.71 178.00
-9755025.41 5135470.81 177.99
-9755024.25 5135470.76 178.01
-9755026.93 5135470.82 177.96
-9755028.73 5135471.41 177.91
-9755027.81 5135470.82 177.95
-9755027.83 5135470.53 177.95
-9755022.53 5135470.16 178.04
-9755021.92 5135471.67 178.04
-9755018.07 5135471.41 178.09
-9755022.16 5135471.40 178.04
-9755021.62 5135470.79 178.06
-9755021.04 5135471.68 178.04
-9755018.07 5135470.17 178.11
-9755016.29 5135470.48 178.10
-9755017.48 5135471.64 178.09
-9755014.28 5135470.75 178.09
-9755014.54 5135471.62 178.07
-9755013.37 5135470.13 178.07
-9755009.55 5135470.15 178.02
-9755009.84 5135471.62 178.00
-9755003.32 5135470.67 178.07
-9755006.27 5135471.62 177.94
-9755003.53 5135471.22 178.61
-9755004.44 5135471.64 177.88
-9755003.37 5135470.05 178.93
-9755005.96 5135470.10 177.95
-9755003.31 5135470.59 178.93
-9755003.92 5135470.10 177.89
-9755003.28 5135471.23 178.91
-9755006.57 5135470.12 177.97
-9755003.52 5135470.14 178.93
-9755003.56 5135470.71 177.90
-9755001.57 5135471.55 178.02
-9754995.98 5135470.94 178.07
-9754997.68 5135470.96 178.06
-9754998.30 5135470.33 178.03
-9754999.80 5135471.52 178.03
-9755001.56 5135470.08 178.04
-9755001.55 5135470.42 178.05
-9754992.41 5135470.62 178.07
-9754991.23 5135470.89 178.06
-9754988.33 5135470.55 178.95
-9754984.13 5135471.47 178.00
-9754983.89 5135470.82 178.00
-9754979.43 5135470.82 178.07
-9755081.48 5135567.87 179.93
-9755080.62 5135567.60 179.76
-9755080.00 5135572.93 179.71
-9755079.14 5135572.27 179.86
-9755079.71 5135567.59 179.57
-9755080.58 5135573.52 179.75
-9755080.00 5135572.02 179.76
-9755079.95 5135571.14 179.69
-9755081.50 5135566.69 180.10
-9755081.46 5135567.81 180.29
-9755079.10 5135572.38 179.68
-9755078.72 5135572.38 179.52
-9755080.53 5135575.31 179.83
-9755079.04 5135575.25 179.56
-9755080.55 5135571.73 179.79
-9755078.79 5135573.17 179.74
-9755079.09 5135572.31 179.71
-9755080.89 5135568.76 179.77
-9755080.57 5135574.99 179.81
-9755080.98 5135567.25 180.25
-9755079.07 5135572.54 179.66
-9755079.11 5135573.50 179.56
-9755081.42 5135570.56 179.88
-9755078.53 5135567.92 179.31
-9755079.11 5135567.61 179.48
-9755081.45 5135571.45 179.89
-9755080.56 5135568.44 179.73
-9755079.72 5135573.47 179.66
-9755079.11 5135566.96 179.47
-9755080.85 5135567.02 180.12
-9755078.19 5135571.98 179.65
-9755076.70 5135575.37 178.97
-9755079.12 5135566.69 179.57
-9755077.06 5135570.56 178.96
-9755077.91 5135572.72 179.31
-9755076.82 5135572.72 179.02
-9755078.19 5135571.13 179.31
-9755076.73 5135570.84 178.88
-9755078.24 5135569.08 179.31
-9755077.98 5135572.89 179.57
-9755077.91 5135567.32 179.14
-9755077.89 5135574.69 179.23
-9755077.31 5135567.02 179.04
-9755077.94 5135572.60 179.60
-9755077.35 5135568.79 179.05
-9755078.22 5135573.52 179.30
-9755076.77 5135572.31 178.94
-9755076.77 5135568.14 178.91
-9755075.84 5135572.64 178.80
-9755077.03 5135566.67 179.17
-9755076.40 5135575.32 178.88
-9755075.89 5135574.41 178.79
-9755075.85 5135572.03 178.80
-9755075.85 5135573.53 178.72
-9755075.89 5135567.91 178.66
-9755076.36 5135571.48 179.03
-9755075.82 5135571.73 178.77
-9755076.45 5135566.70 178.80
-9755075.54 5135567.61 178.58
-9755075.85 5135570.02 178.66
-9755074.93 5135568.00 178.65
-9755065.49 5135569.66 177.09
-9755075.28 5135575.29 178.65
-9755069.96 5135568.53 177.58
-9755072.59 5135567.31 178.03
-9755065.53 5135570.33 177.06
-9755071.43 5135567.62 177.86
-9755075.30 5135567.35 178.57
-9755071.99 5135571.46 177.88
-9755069.10 5135575.32 177.43
-9755067.57 5135572.07 177.11
-9755066.39 5135571.49 176.93
-9755071.65 5135575.02 177.85
-9755071.15 5135567.96 177.94
-9755065.46 5135574.46 177.03
-9755071.37 5135568.80 177.86
-9755073.82 5135568.82 178.27
-9755068.47 5135575.35 177.33
-9755072.33 5135567.36 177.94
-9755066.97 5135572.10 176.98
-9755070.83 5135573.56 177.83
-9755072.91 5135567.60 178.36
-9755074.05 5135574.40 178.25
-9755071.41 5135572.66 177.74
-9755075.58 5135572.98 178.62
-9755065.22 5135567.37 176.31
-9755072.86 5135572.96 178.00
-9755069.93 5135571.16 177.63
-9755074.38 5135566.97 178.45
-9755071.73 5135567.35 177.86
-9755073.55 5135566.99 178.33
-9755064.62 5135569.12 176.28
-9755074.41 5135567.90 178.47
-9755075.29 5135571.16 178.59
-9755068.13 5135572.95 177.16
-9755069.93 5135572.06 177.60
-9755067.85 5135572.97 177.12
-9755073.25 5135566.98 178.10
-9755068.46 5135571.49 177.22
-9755069.31 5135574.41 177.45
-9755066.68 5135573.54 176.93
-9755069.36 5135567.34 177.36
-9755073.58 5135568.76 178.26
-9755074.38 5135572.33 178.34
-9755070.54 5135569.95 177.61
-9755068.14 5135573.82 177.28
-9755068.17 5135573.59 177.22
-9755074.92 5135570.28 178.50
-9755070.61 5135567.32 177.68
-9755066.72 5135567.32 176.95
-9755074.39 5135569.65 178.32
-9755073.77 5135570.33 178.36
-9755073.45 5135573.56 178.11
-9755065.83 5135570.60 177.06
-9755071.47 5135569.73 177.79
-9755064.28 5135574.18 176.24
-9755071.50 5135568.48 177.95
-9755066.97 5135574.70 176.99
-9755064.59 5135568.24 176.29
-9755070.47 5135574.11 177.68
-9755065.23 5135567.97 176.29
-9755071.14 5135570.64 177.73
-9755075.32 5135573.83 179.05
-9755075.29 5135574.76 178.82
-9755068.46 5135568.53 177.20
-9755064.36 5135569.13 176.29
-9755073.78 5135575.34 178.22
-9755067.87 5135573.87 177.15
-9755071.19 5135567.89 177.78
-9755070.23 5135567.32 177.54
-9755073.23 5135570.23 178.07
-9755065.58 5135568.82 177.07
-9755071.44 5135567.32 177.86
-9755074.70 5135566.67 178.52
-9755066.44 5135569.71 176.94
-9755070.20 5135570.55 177.55
-9755069.63 5135568.20 177.43
-9755066.51 5135567.40 176.99
-9755072.55 5135574.14 177.93
-9755074.01 5135572.65 178.21
-9755064.63 5135570.60 176.27
-9755070.83 5135569.96 177.78
-9755074.40 5135568.82 178.37
-9755072.87 5135573.86 178.04
-9755074.08 5135567.35 178.60
-9755066.69 5135570.58 176.93
-9755074.69 5135567.08 178.48
-9755068.76 5135573.00 177.32
-9755074.38 5135571.45 178.45
-9755066.42 5135568.81 176.97
-9755070.18 5135572.63 177.68
-9755064.90 5135572.38 176.25
-9755065.80 5135572.68 177.04
-9755071.09 5135569.77 177.67
-9755065.43 5135567.44 177.11
-9755070.25 5135568.21 177.57
-9755071.69 5135569.10 177.88
-9755066.35 5135575.38 176.88
-9755074.36 5135572.12 178.28
-9755065.67 5135573.57 176.46
-9755074.06 5135567.60 178.45
-9755066.41 5135572.39 176.94
-9755069.05 5135573.54 177.42
-9755075.38 5135572.07 178.70
-9755067.00 5135569.16 176.97
-9755064.58 5135567.34 176.31
-9755074.41 5135571.17 178.53
-9755066.37 5135570.59 176.95
-9755065.36 5135573.00 176.25
-9755074.97 5135574.41 178.52
-9755074.13 5135568.74 178.55
-9755073.50 5135571.15 178.13
-9755072.54 5135570.34 177.95
-9755072.29 5135574.12 177.88
-9755073.48 5135574.43 178.13
-9755078.92 5135564.58 181.71
-9755078.91 5135563.41 180.13
-9755078.88 5135564.02 181.17
-9755079.76 5135563.41 179.45
-9755079.22 5135563.64 179.85
-9755079.75 5135557.79 179.51
-9755078.87 5135556.91 180.42
-9755080.90 5135565.51 180.15
-9755079.53 5135562.41 181.74
-9755078.95 5135557.70 181.66
-9755079.76 5135556.35 179.61
-9755078.61 5135556.51 181.67
-9755078.48 5135563.97 181.70
-9755079.39 5135564.03 180.98
-9755079.75 5135558.13 179.52
-9755079.99 5135565.53 179.61
-9755080.06 5135560.75 179.66
-9755079.55 5135563.68 180.97
-9755078.61 5135555.98 181.53
-9755079.06 5135563.07 180.15
-9755079.48 5135555.76 179.54
-9755081.49 5135564.63 179.93
-9755078.62 5135562.83 181.99
-9755078.97 5135555.43 179.47
-9755079.35 5135562.86 180.15
-9755078.56 5135556.59 179.36
-9755080.96 5135559.89 179.73
-9755078.82 5135556.90 179.40
-9755078.91 5135556.79 181.53
-9755078.91 5135555.77 180.47
-9755080.64 5135557.53 179.73
-9755078.78 5135564.02 180.29
-9755080.03 5135563.13 179.62
-9755081.30 5135554.88 179.77
-9755078.88 5135562.43 181.79
-9755079.73 5135564.90 179.55
-9755078.94 5135553.98 179.35
-9755078.52 5135562.33 181.29
-9755079.60 5135563.70 180.92
-9755079.10 5135562.43 181.76
-9755080.63 5135563.74 179.78
-9755080.94 5135558.44 179.71
-9755078.89 5135563.31 181.67
-9755079.42 5135564.62 179.45
-9755080.63 5135556.05 179.66
-9755078.77 5135563.40 180.30
-9755079.76 5135555.70 179.54
-9755079.17 5135563.93 181.81
-9755079.24 5135555.78 179.53
-9755079.11 5135564.34 179.42
-9755078.78 5135556.83 180.95
-9755079.15 5135563.03 181.79
-9755079.20 5135562.74 180.82
-9755080.67 5135557.23 179.71
-9755079.12 5135561.68 179.37
-9755081.45 5135564.94 180.09
-9755078.56 5135556.03 179.32
-9755079.82 5135564.18 179.98
-9755078.65 5135563.20 181.13
-9755080.34 5135565.47 179.68
-9755079.23 5135557.80 181.01
-9755078.78 5135563.73 180.31
-9755080.61 5135555.20 179.62
-9755080.96 5135560.78 179.76
-9755080.04 5135564.04 179.60
-9755078.85 5135561.73 179.30
-9755078.67 5135564.00 180.75
-9755079.99 5135565.18 180.07
-9755080.92 5135564.92 179.83
-9755079.13 5135564.92 179.43
-9755078.64 5135554.82 178.98
-9755079.75 5135559.85 179.48
-9755079.50 5135554.83 179.47
-9755079.23 5135556.96 182.09
-9755078.85 5135562.43 180.72
-9755081.14 5135564.91 179.84
-9755079.49 5135557.19 179.46
-9755078.93 5135563.45 180.97
-9755078.53 5135564.32 181.01
-9755078.64 5135564.57 181.00
-9755079.74 5135555.75 179.59
-9755078.63 5135555.88 180.57
-9755081.49 5135566.05 180.13
-9755081.22 5135566.42 180.08
-9755081.36 5135565.83 179.81
-9755080.58 5135565.83 179.74
-9755079.09 5135566.75 179.43
-9755081.21 5135566.11 179.95
-9755078.28 5135555.43 179.29
-9755078.24 5135563.44 180.87
-9755078.61 5135559.01 179.26
-9755078.25 5135560.22 179.10
-9755078.01 5135558.06 181.37
-9755077.82 5135556.79 181.67
-9755078.52 5135560.77 179.23
-9755078.30 5135563.96 181.02
-9755077.93 5135564.47 181.71
-9755078.26 5135556.25 180.85
-9755078.42 5135556.20 181.62
-9755078.19 5135561.91 179.17
-9755077.69 5135562.70 181.46
-9755077.51 5135557.71 181.17
-9755077.39 5135555.74 179.18
-9755076.78 5135565.53 178.89
-9755077.42 5135563.21 180.35
-9755078.24 5135563.73 181.71
-9755078.30 5135564.55 181.69
-9755077.97 5135561.66 179.17
-9755078.26 5135564.05 179.23
-9755078.26 5135563.91 181.71
-9755077.11 5135563.93 180.73
-9755078.32 5135556.20 181.90
-9755078.28 5135561.69 179.46
-9755077.41 5135558.53 181.14
-9755078.34 5135555.80 181.43
-9755077.06 5135561.36 179.04
-9755078.04 5135555.46 179.25
-9755077.13 5135556.26 179.22
-9755077.72 5135558.30 181.17
-9755077.72 5135556.38 179.15
-9755077.36 5135557.78 180.60
-9755077.45 5135554.55 179.47
-9755077.66 5135562.88 180.88
-9755077.30 5135557.68 181.23
-9755077.55 5135556.61 181.51
-9755077.47 5135558.09 181.37
-9755078.22 5135562.55 180.42
-9755077.16 5135555.50 179.31
-9755077.46 5135557.25 181.87
-9755077.39 5135555.41 179.31
-9755077.10 5135556.30 178.98
-9755078.04 5135558.05 180.53
-9755077.98 5135554.34 179.08
-9755077.75 5135554.32 179.12
-9755077.98 5135556.99 179.83
-9755077.07 5135554.50 179.03
-9755077.40 5135563.92 181.73
-9755077.12 5135559.91 178.87
-9755077.71 5135561.36 179.12
-9755078.01 5135562.79 182.46
-9755077.47 5135557.30 180.34
-9755077.97 5135555.11 179.04
-9755078.29 5135562.76 181.99
-9755078.00 5135558.20 180.68
-9755078.36 5135563.17 180.50
-9755076.84 5135554.25 178.87
-9755077.60 5135555.91 180.44
-9755077.44 5135556.18 181.07
-9755078.30 5135554.89 179.38
-9755078.05 5135556.36 179.19
-9755077.51 5135564.45 181.27
-9755076.91 5135557.69 181.44
-9755077.21 5135557.99 181.82
-9755077.07 5135557.39 181.21
-9755077.68 5135557.39 181.80
-9755078.15 5135557.99 181.08
-9755077.51 5135556.19 181.40
-9755077.78 5135555.96 181.49
-9755077.02 5135563.92 181.18
-9755078.28 5135563.01 181.98
-9755078.31 5135564.27 181.54
-9755077.93 5135564.54 182.06
-9755077.65 5135557.59 180.02
-9755077.07 5135554.85 178.90
-9755078.28 5135557.97 181.49
-9755077.40 5135559.62 178.97
-9755077.31 5135563.63 180.70
-9755077.67 5135556.62 180.24
-9755077.37 5135557.53 179.03
-9755077.09 5135557.12 180.95
-9755078.05 5135564.09 182.22
-9755077.72 5135555.15 179.12
-9755078.30 5135556.07 179.23
-9755078.27 5135562.86 181.03
-9755078.03 5135564.23 181.65
-9755077.70 5135557.48 181.52
-9755071.16 5135567.01 177.70
-9755075.57 5135564.98 178.61
-9755076.49 5135559.89 178.76
-9755075.89 5135564.05 178.70
-9755076.49 5135560.19 178.77
-9755075.91 5135554.92 178.77
-9755075.97 5135555.39 179.05
-9755076.22 5135555.44 179.09
-9755075.71 5135559.77 180.12
-9755075.62 5135560.68 180.52
-9755076.25 5135559.04 178.78
-9755075.84 5135565.54 178.72
-9755076.78 5135556.39 178.91
-9755075.54 5135565.02 178.88
-9755076.74 5135564.36 178.88
-9755075.73 5135560.39 179.66
-9755075.77 5135560.19 180.70
-9755075.93 5135560.40 179.54
-9755075.61 5135558.16 178.61
-9755075.95 5135556.36 178.77
-9755075.70 5135559.30 180.12
-9755076.52 5135560.72 180.17
-9755076.17 5135561.67 178.65
-9755076.78 5135554.49 178.53
-9755076.27 5135555.71 179.23
-9755076.54 5135561.06 178.88
-9755075.94 5135560.09 180.16
-9755075.96 5135556.05 178.83
-9755077.08 5135560.55 178.87
-9755076.10 5135561.29 178.87
-9755076.22 5135556.08 178.99
-9755075.83 5135562.27 178.62
-9755076.50 5135554.86 178.86
-9755076.77 5135562.29 178.81
-9755075.86 5135563.13 178.66
-9755075.90 5135561.12 178.60
-9755076.21 5135560.48 180.23
-9755076.24 5135555.78 178.84
-9755075.60 5135564.65 178.70
-9755076.23 5135554.91 178.72
-9755076.78 5135554.20 178.78
-9755076.51 5135556.02 179.22
-9755076.52 5135555.71 179.24
-9755075.63 5135559.27 178.56
-9755075.68 5135560.33 181.18
-9755075.86 5135560.14 180.20
-9755075.58 5135561.04 181.14
-9755076.99 5135566.45 179.12
-9755077.65 5135565.78 179.15
-9755076.44 5135566.14 178.75
-9755075.65 5135560.31 181.50
-9755075.38 5135555.14 178.49
-9755066.67 5135564.11 177.08
-9755067.63 5135559.33 176.99
-9755074.98 5135563.44 178.72
-9755075.05 5135555.73 178.82
-9755074.68 5135562.34 178.53
-9755069.95 5135562.56 177.47
-9755070.84 5135564.09 177.72
-9755074.54 5135560.78 180.67
-9755072.05 5135561.71 177.92
-9755074.39 5135558.77 178.52
-9755074.71 5135562.80 178.56
-9755075.06 5135554.34 178.49
-9755074.12 5135562.28 178.49
-9755075.01 5135555.48 178.46
-9755074.79 5135561.48 180.62
-9755073.23 5135562.96 178.03
-9755073.15 5135562.84 177.88
-9755074.48 5135560.62 180.01
-9755066.46 5135564.34 177.11
-9755068.85 5135560.55 177.24
-9755072.29 5135564.35 178.06
-9755072.92 5135563.40 178.46
-9755075.03 5135561.57 179.96
-9755075.31 5135560.46 178.48
-9755075.08 5135564.65 178.92
-9755071.18 5135564.65 177.79
-9755068.21 5135563.22 177.06
-9755064.98 5135564.14 176.33
-9755071.48 5135563.49 178.08
-9755075.01 5135557.28 178.45
-9755072.61 5135565.53 177.99
-9755065.04 5135555.20 176.45
-9755075.06 5135560.02 181.07
-9755067.66 5135556.66 177.06
-9755075.05 5135561.25 181.27
-9755074.48 5135561.37 179.94
-9755073.23 5135562.29 178.10
-9755075.02 5135561.35 179.96
-9755066.81 5135555.73 177.20
-9755068.26 5135554.95 177.20
-9755075.60 5135561.98 178.56
-9755073.86 5135559.37 178.56
-9755074.14 5135559.36 178.34
-9755075.61 5135558.97 178.92
-9755071.82 5135556.94 177.85
-9755067.31 5135564.40 176.94
-9755066.79 5135554.28 177.24
-9755072.63 5135563.16 178.25
-9755067.66 5135555.48 177.07
-9755064.65 5135562.96 176.35
-9755065.86 5135557.24 176.38
-9755073.73 5135564.07 178.19
-9755066.64 5135557.62 176.53
-9755070.30 5135557.22 177.62
-9755068.17 5135565.56 177.13
-9755065.29 5135561.43 176.35
-9755065.56 5135559.95 176.35
-9755066.78 5135558.68 177.19
-9755074.10 5135557.83 178.41
-9755072.92 5135563.23 178.07
-9755068.22 5135563.51 177.07
-9755075.07 5135554.55 178.51
-9755066.77 5135558.46 177.18
-9755065.58 5135560.91 176.64
-9755075.60 5135557.59 178.94
-9755075.29 5135562.21 180.41
-9755074.75 5135561.24 180.60
-9755071.75 5135559.30 177.86
-9755075.32 5135564.03 178.62
-9755070.62 5135563.78 177.67
-9755072.08 5135559.30 178.22
-9755074.48 5135555.51 178.39
-9755066.50 5135560.55 176.85
-9755072.90 5135562.87 178.00
-9755074.68 5135561.69 178.56
-9755071.75 5135558.69 177.84
-9755075.06 5135559.88 178.46
-9755075.04 5135563.18 178.51
-9755072.34 5135564.62 177.95
-9755073.91 5135560.78 178.27
-9755074.75 5135557.28 178.40
-9755067.64 5135559.03 177.00
-9755071.79 5135560.81 177.89
-9755075.14 5135556.07 178.90
-9755074.62 5135563.49 178.54
-9755066.73 5135565.28 176.94
-9755073.28 5135554.31 178.13
-9755074.71 5135565.00 178.43
-9755065.26 5135560.78 176.36
-9755074.76 5135554.78 178.68
-9755072.64 5135562.90 178.35
-9755075.05 5135557.01 178.63
-9755071.81 5135556.42 177.87
-9755064.64 5135562.29 176.35
-9755072.37 5135563.74 178.06
-9755070.85 5135564.97 177.67
-9755075.04 5135558.39 178.48
-9755069.75 5135558.16 177.47
-9755074.48 5135559.89 178.37
-9755069.46 5135562.30 177.38
-9755068.51 5135562.61 177.11
-9755065.90 5135555.25 176.42
-9755067.36 5135556.36 177.06
-9755074.83 5135561.86 179.95
-9755074.99 5135565.52 178.49
-9755075.08 5135559.79 181.09
-9755073.65 5135554.92 178.19
-9755074.38 5135563.51 178.50
-9755066.74 5135563.16 177.10
-9755070.02 5135564.97 177.52
-9755064.72 5135555.51 176.46
-9755073.83 5135555.72 178.56
-9755073.55 5135555.48 178.24
-9755074.79 5135559.89 180.80
-9755075.20 5135560.15 181.07
-9755074.08 5135564.10 178.58
-9755075.13 5135559.85 179.92
-9755068.80 5135564.96 177.20
-9755067.93 5135561.76 176.99
-9755066.59 5135554.92 176.52
-9755066.79 5135555.49 177.21
-9755067.07 5135559.67 177.07
-9755073.79 5135565.56 178.22
-9755074.42 5135565.52 178.40
-9755071.24 5135558.12 177.77
-9755072.38 5135561.13 177.95
-9755071.79 5135559.93 177.92
-9755072.02 5135559.62 177.97
-9755072.96 5135563.42 178.14
-9755074.23 5135554.57 178.31
-9755074.42 5135560.97 180.60
-9755071.14 5135562.56 178.08
-9755074.72 5135560.45 180.11
-9755072.07 5135563.46 178.16
-9755072.38 5135563.50 178.11
-9755064.38 5135560.82 176.39
-9755067.94 5135557.25 177.10
-9755073.56 5135557.24 178.16
-9755069.16 5135559.38 177.32
-9755075.41 5135559.26 180.00
-9755075.08 5135559.87 180.66
-9755065.89 5135557.89 176.37
-9755069.98 5135562.59 177.92
-9755073.30 5135561.96 178.40
-9755066.58 5135554.96 177.22
-9755070.89 5135562.60 177.69
-9755072.34 5135561.71 178.10
-9755065.02 5135554.31 176.46
-9755069.41 5135559.64 177.39
-9755074.16 5135559.83 180.12
-9755075.34 5135556.31 179.04
-9755071.79 5135561.41 177.86
-9755067.33 5135564.99 176.95
-9755073.01 5135564.05 178.30
-9755074.77 5135560.90 181.56
-9755066.72 5135564.15 176.98
-9755073.87 5135558.98 178.32
-9755067.07 5135557.52 177.17
-9755069.70 5135561.69 177.46
-9755074.21 5135555.74 178.32
-9755069.06 5135565.52 177.28
-9755064.99 5135558.48 176.40
-9755074.16 5135556.95 178.27
-9755073.81 5135563.47 178.49
-9755075.01 5135564.67 178.58
-9755074.07 5135565.20 178.33
-9755074.12 5135563.45 178.82
-9755067.09 5135560.19 177.00
-9755068.24 5135564.10 177.09
-9755072.64 5135557.58 177.97
-9755072.72 5135560.20 178.03
-9755074.02 5135560.69 177.95
-9755071.99 5135564.07 178.20
-9755072.38 5135557.27 178.17
-9755071.23 5135560.48 177.78
-9755067.03 5135559.92 177.12
-9755067.69 5135554.58 177.08
-9755066.80 5135559.33 177.17
-9755071.82 5135563.73 178.08
-9755074.98 5135563.21 178.74
-9755068.89 5135558.15 177.27
-9755075.02 5135558.77 178.44
-9755069.11 5135557.60 177.28
-9755074.07 5135566.37 178.66
-9755075.31 5135566.44 178.69
-9755071.81 5135565.85 177.85
-9755074.63 5135565.59 178.15
-9755064.97 5135566.50 176.31
-9755074.44 5135566.19 178.44
-9755064.39 5135565.92 176.33
-9755065.84 5135565.87 176.32
-9755069.96 5135566.45 177.47
-9755066.13 5135566.46 177.09
-9755072.62 5135566.38 177.97
-9755075.54 5135565.86 178.78
-9755074.10 5135565.89 178.31
-9755074.66 5135566.18 178.44
-9755074.36 5135566.16 178.63
-9755067.91 5135565.85 177.10
-9755064.10 5135567.67 176.31
-9755063.75 5135571.48 176.28
-9755064.02 5135573.54 176.25
-9755063.43 5135575.06 176.24
-9755063.11 5135570.60 176.29
-9755062.57 5135574.09 176.26
-9755062.85 5135571.53 176.28
-9755063.14 5135572.97 176.28
-9755059.92 5135568.26 176.36
-9755060.82 5135570.00 176.33
-9755060.19 5135571.51 176.32
-9755062.23 5135572.97 176.27
-9755059.93 5135570.27 176.32
-9755061.43 5135567.35 176.35
-9755061.37 5135572.94 176.28
-9755059.81 5135572.91 176.31
-9755061.09 5135570.58 176.33
-9755059.86 5135575.30 176.28
-9755059.32 5135572.36 176.33
-9755057.52 5135571.79 176.39
-9755052.85 5135571.43 176.44
-9755053.43 5135568.21 176.45
-9755055.22 5135573.81 176.37
-9755054.02 5135572.99 176.39
-9755058.47 5135573.82 176.33
-9755054.60 5135570.53 176.42
-9755058.46 5135573.53 176.33
-9755052.80 5135575.28 176.39
-9755050.77 5135567.25 176.50
-9755058.13 5135569.08 176.38
-9755055.22 5135567.32 176.42
-9755055.18 5135574.15 176.37
-9755058.42 5135570.56 176.36
-9755051.59 5135573.79 176.43
-9755049.57 5135573.83 176.44
-9755051.68 5135568.17 176.47
-9755055.23 5135569.69 176.39
-9755056.66 5135571.18 176.39
-9755059.00 5135573.84 176.31
-9755055.21 5135568.80 176.41
-9755050.13 5135569.94 176.48
-9755050.19 5135572.02 176.46
-9755056.08 5135567.64 176.42
-9755054.35 5135567.88 176.44
-9755056.70 5135572.66 176.38
-9755055.83 5135566.99 176.42
-9755058.12 5135568.79 176.40
-9755058.50 5135566.70 176.41
-9755053.43 5135569.05 176.44
-9755059.05 5135569.12 176.37
-9755049.65 5135566.94 176.52
-9755049.64 5135566.72 176.51
-9755048.69 5135573.15 176.46
-9755048.72 5135567.27 176.52
-9755047.25 5135571.38 176.48
-9755048.66 5135572.04 176.47
-9755047.81 5135573.80 176.46
-9755047.87 5135567.55 176.53
-9755046.62 5135571.11 176.50
-9755047.20 5135568.99 176.51
-9755046.94 5135574.36 176.47
-9755048.42 5135571.15 176.49
-9755049.31 5135572.29 176.46
-9755048.37 5135571.38 176.48
-9755046.39 5135570.53 176.51
-9755049.03 5135570.52 176.47
-9755046.95 5135566.65 176.54
-9755064.73 5135554.30 176.47
-9755045.19 5135569.03 176.51
-9755045.18 5135569.26 176.50
-9755044.87 5135572.24 176.47
-9755041.94 5135571.96 176.44
-9755045.13 5135574.02 176.45
-9755043.44 5135569.59 176.47
-9755046.37 5135569.64 176.52
-9755044.25 5135574.96 176.43
-9755044.02 5135567.25 176.51
-9755043.11 5135566.62 176.50
-9755041.03 5135571.73 176.43
-9755045.48 5135569.91 176.51
-9755041.92 5135571.07 176.45
-9755037.81 5135568.95 176.41
-9755039.89 5135571.35 176.40
-9755038.71 5135568.97 176.41
-9755040.14 5135571.62 176.40
-9755039.57 5135567.51 176.43
-9755038.70 5135568.38 176.42
-9755064.12 5135557.01 176.44
-9755064.15 5135555.47 176.45
-9755064.09 5135557.86 176.42
-9755063.87 5135554.02 176.47
-9755059.96 5135562.60 176.43
-9755060.25 5135561.42 176.44
-9755059.96 5135561.40 176.46
-9755062.59 5135560.84 176.39
-9755062.32 5135554.31 176.49
-9755063.25 5135559.38 176.42
-9755062.62 5135557.86 176.43
-9755061.50 5135557.55 176.46
-9755061.48 5135559.69 176.42
-9755063.24 5135560.23 176.40
-9755061.18 5135557.57 176.46
-9755059.40 5135565.55 176.40
-9755061.12 5135564.33 176.40
-9755060.84 5135561.13 176.44
-9755060.50 5135565.53 176.39
-9755063.22 5135557.58 176.43
-9755061.46 5135558.79 176.44
-9755063.23 5135554.93 176.47
-9755061.17 5135556.36 176.47
-9755062.97 5135554.02 176.48
-9755060.57 5135556.39 176.48
-9755061.40 5135564.99 176.38
-9755061.75 5135559.34 176.42
-9755061.78 5135560.51 176.41
-9755061.99 5135563.47 176.38
-9755062.01 5135563.83 176.38
-9755059.98 5135559.87 176.44
-9755062.91 5135564.69 176.36
-9755062.41 5135554.02 176.48
-9755060.77 5135566.74 176.36
-9755061.64 5135565.87 176.36
-9755062.32 5135566.50 176.33
-9755056.66 5135562.26 176.47
-9755059.96 5135560.22 176.45
-9755058.72 5135566.46 176.41
-9755051.99 5135562.50 176.53
-9755058.46 5135564.70 176.43
-9755052.87 5135561.94 176.53
-9755051.98 5135564.29 176.52
-9755051.69 5135560.50 176.55
-9755051.96 5135561.09 176.55
-9755052.32 5135557.18 176.59
-9755054.98 5135559.00 176.52
-9755051.72 5135562.82 176.54
-9755054.96 5135558.11 176.52
-9755057.67 5135555.44 176.53
-9755053.85 5135553.99 176.58
-9755051.18 5135555.70 176.61
-9755055.24 5135561.07 176.49
-9755055.62 5135554.87 176.55
-9755049.66 5135558.97 176.57
-9755051.09 5135563.73 176.52
-9755056.75 5135558.46 176.52
-9755055.23 5135554.29 176.56
-9755058.17 5135562.26 176.48
-9755055.88 5135558.43 176.51
-9755057.57 5135564.35 176.45
-9755050.19 5135562.26 176.56
-9755055.26 5135561.67 176.48
-9755055.27 5135559.58 176.51
-9755056.68 5135564.33 176.46
-9755057.28 5135558.14 176.51
-9755054.93 5135564.66 176.46
-9755056.16 5135559.01 176.50
-9755057.31 5135560.80 176.51
-9755054.37 5135561.10 176.51
-9755052.08 5135557.50 176.58
-9755055.25 5135556.38 176.53
-9755052.00 5135561.67 176.54
-9755058.17 5135560.82 176.49
-9755059.12 5135562.58 176.45
-9755049.92 5135561.04 176.58
-9755058.26 5135555.17 176.55
-9755055.00 5135559.90 176.51
-9755054.35 5135557.22 176.54
-9755055.89 5135559.62 176.50
-9755050.80 5135558.39 176.59
-9755054.65 5135561.62 176.50
-9755052.92 5135555.43 176.59
-9755058.47 5135564.38 176.44
-9755059.06 5135561.98 176.45
-9755051.09 5135563.43 176.53
-9755055.26 5135558.69 176.51
-9755057.30 5135563.20 176.46
-9755059.07 5135557.52 176.49
-9755055.87 5135557.53 176.53
-9755055.26 5135557.86 176.52
-9755052.33 5135560.48 176.54
-9755052.05 5135555.44 176.59
-9755054.12 5135555.75 176.57
-9755056.71 5135565.51 176.45
-9755051.14 5135556.90 176.59
-9755056.12 5135560.81 176.49
-9755052.58 5135557.77 176.56
-9755055.23 5135555.49 176.55
-9755052.93 5135564.92 176.49
-9755052.01 5135564.04 176.52
-9755051.81 5135553.94 176.63
-9755056.76 5135558.68 176.51
-9755051.11 5135564.32 176.53
-9755049.06 5135562.49 176.56
-9755048.78 5135558.07 176.60
-9755049.41 5135556.01 176.63
-9755047.92 5135559.23 176.61
-9755049.34 5135563.99 176.54
-9755049.68 5135556.28 176.62
-9755049.15 5135554.55 176.64
-9755046.66 5135565.16 176.55
-9755046.74 5135556.27 176.64
-9755048.45 5135565.50 176.54
-9755049.39 5135557.20 176.61
-9755048.48 5135557.48 176.61
-9755048.46 5135563.73 176.55
-9755048.79 5135561.04 176.57
-9755048.54 5135555.45 176.63
-9755047.01 5135559.24 176.61
-9755056.75 5135565.83 176.44
-9755051.13 5135565.82 176.51
-9755049.61 5135565.53 176.53
-9755056.71 5135566.42 176.44
-9755054.29 5135565.81 176.46
-9755046.07 5135566.91 176.54
-9755043.79 5135555.64 176.63
-9755041.92 5135562.17 176.54
-9755046.46 5135554.81 176.67
-9755044.95 5135558.33 176.61
-9755044.93 5135557.44 176.63
-9755046.11 5135558.95 176.61
-9755044.71 5135554.47 176.66
-9755044.33 5135559.27 176.60
-9755043.71 5135563.39 176.54
-9755044.07 5135557.42 176.60
-9755045.25 5135562.18 176.58
-9755044.34 5135560.40 176.57
-9755044.35 5135561.03 176.58
-9755045.82 5135553.96 176.68
-9755041.09 5135565.11 176.49
-9755041.11 5135556.23 176.60
-9755045.52 5135564.25 176.56
-9755041.12 5135553.84 176.63
-9755043.19 5135557.17 176.60
-9755044.90 5135564.59 176.54
-9755045.53 5135561.58 176.59
-9755040.89 5135553.87 176.63
-9755042.83 5135561.96 176.55
-9755043.80 5135556.82 176.62
-9755040.81 5135564.00 176.51
-9755041.78 5135554.76 176.63
-9755041.96 5135564.60 176.52
-9755042.23 5135565.72 176.52
-9755040.28 5135558.31 176.57
-9755040.24 5135556.52 176.59
-9755039.02 5135562.48 176.50
-9755038.73 5135559.82 176.51
-9755037.24 5135563.03 176.46
-9755040.25 5135556.22 176.59
-9755037.82 5135559.19 176.51
-9755037.58 5135558.90 176.51
-9755039.95 5135555.94 176.58
-9755040.26 5135553.58 176.62
-9755038.14 5135562.44 176.49
-9755037.88 5135561.87 176.48
-9755038.75 5135559.21 176.51
-9755037.86 5135559.48 176.51
-9755039.37 5135557.69 176.55
-9755034.00 5135558.88 176.43
-9755033.19 5135556.24 176.85
-9755035.20 5135562.17 176.42
-9755032.62 5135554.68 177.47
-9755036.05 5135560.64 176.46
-9755033.67 5135554.60 177.14
-9755033.16 5135560.63 177.39
-9755033.76 5135559.45 176.41
-9755033.20 5135560.92 176.57
-9755032.51 5135560.88 177.38
-9755032.89 5135557.66 177.43
-9755033.28 5135558.29 177.11
-9755033.06 5135557.55 176.35
-9755033.26 5135554.15 176.55
-9755032.23 5135557.11 176.63
-9755033.15 5135565.18 176.92
-9755032.37 5135564.23 177.39
-9755032.00 5135553.80 176.66
-9755030.24 5135556.21 176.69
-9755033.68 5135565.10 176.38
-9755033.43 5135562.10 177.37
-9755032.87 5135556.76 177.44
-9755032.11 5135554.54 177.25
-9755032.52 5135561.56 177.39
-9755033.24 5135562.77 176.59
-9755031.11 5135553.84 176.69
-9755033.13 5135555.84 176.65
-9755029.94 5135553.85 176.74
-9755033.39 5135559.50 176.46
-9755033.15 5135557.78 176.68
-9755033.17 5135554.07 177.08
-9755077.52 5135553.98 179.04
-9755079.77 5135551.81 179.84
-9755079.20 5135551.90 179.32
-9755080.10 5135551.91 179.50
-9755081.27 5135552.50 179.74
-9755081.02 5135553.35 179.71
-9755080.09 5135553.36 179.50
-9755080.12 5135552.77 179.50
-9755079.21 5135552.49 179.67
-9755079.20 5135553.08 179.31
-9755079.81 5135551.61 179.46
-9755080.99 5135550.71 179.75
-9755079.77 5135548.64 179.44
-9755079.79 5135548.07 179.42
-9755078.87 5135549.52 179.28
-9755080.72 5135548.93 179.65
-9755079.52 5135548.36 179.35
-9755080.99 5135549.79 179.73
-9755079.80 5135550.41 179.47
-9755079.80 5135549.86 179.45
-9755079.96 5135548.55 179.77
-9755078.91 5135548.06 179.28
-9755080.67 5135547.77 179.61
-9755080.70 5135548.05 179.62
-9755078.88 5135550.19 179.29
-9755077.35 5135551.85 179.26
-9755078.37 5135553.64 179.72
-9755078.00 5135553.70 179.17
-9755077.18 5135553.98 179.38
-9755076.84 5135553.99 178.76
-9755078.27 5135553.03 179.34
-9755077.64 5135553.37 179.51
-9755075.65 5135553.43 178.53
-9755076.57 5135552.88 178.84
-9755076.53 5135553.70 178.74
-9755076.84 5135553.08 178.84
-9755076.54 5135552.51 178.73
-9755076.02 5135553.09 178.59
-9755076.50 5135553.13 178.67
-9755075.62 5135553.70 178.57
-9755069.19 5135551.69 180.09
-9755069.77 5135551.64 177.47
-9755072.16 5135551.66 178.10
-9755068.24 5135551.39 177.17
-9755067.99 5135551.63 177.13
-9755067.18 5135552.24 177.26
-9755065.62 5135552.25 176.46
-9755067.42 5135553.70 177.19
-9755074.19 5135553.94 178.37
-9755073.63 5135552.24 178.18
-9755070.97 5135552.20 177.74
-9755073.63 5135554.03 178.19
-9755073.27 5135553.69 178.16
-9755065.34 5135552.27 176.48
-9755073.01 5135552.77 178.15
-9755066.81 5135553.72 177.23
-9755070.00 5135553.08 177.51
-9755066.50 5135553.18 176.44
-9755074.83 5135551.64 178.39
-9755075.34 5135552.50 178.54
-9755065.89 5135554.02 176.42
-9755068.32 5135553.42 177.22
-9755067.07 5135553.39 177.25
-9755071.58 5135552.79 177.84
-9755070.05 5135553.40 177.50
-9755074.18 5135554.03 178.25
-9755073.59 5135552.48 178.59
-9755072.69 5135553.43 178.10
-9755078.62 5135547.73 179.30
-9755078.42 5135549.84 179.36
-9755077.42 5135548.08 178.97
-9755077.47 5135548.72 179.08
-9755078.33 5135548.35 179.13
-9755078.32 5135549.23 179.13
-9755077.18 5135547.49 179.08
-9755075.73 5135548.06 178.61
-9755075.97 5135549.23 178.58
-9755075.67 5135548.12 178.99
-9755076.28 5135547.71 178.92
-9755076.82 5135550.77 178.87
-9755076.27 5135551.27 178.75
-9755075.09 5135551.31 178.50
-9755075.08 5135550.13 178.47
-9755067.51 5135549.22 176.85
-9755071.81 5135550.46 177.92
-9755068.03 5135547.51 177.18
-9755075.08 5135548.97 178.50
-9755069.45 5135551.66 177.42
-9755072.43 5135547.50 178.08
-9755070.90 5135550.45 177.73
-9755072.12 5135549.90 178.18
-9755072.73 5135548.97 178.13
-9755074.22 5135548.73 178.41
-9755074.21 5135549.89 178.38
-9755073.64 5135549.00 178.25
-9755075.03 5135548.35 178.47
-9755066.21 5135548.96 176.50
-9755074.15 5135551.61 178.29
-9755072.45 5135549.58 178.08
-9755073.02 5135550.74 178.16
-9755068.02 5135550.15 177.14
-9755074.25 5135548.91 178.50
-9755072.15 5135550.68 177.98
-9755066.87 5135548.69 177.32
-9755073.88 5135551.05 178.20
-9755064.21 5135548.98 176.53
-9755070.65 5135549.56 177.65
-9755073.28 5135550.44 178.19
-9755066.22 5135547.52 176.51
-9755071.83 5135549.00 177.93
-9755067.98 5135548.36 177.18
-9755071.81 5135549.25 177.93
-9755067.17 5135548.96 177.30
-9755070.64 5135550.13 177.75
-9755074.81 5135549.55 178.39
-9755074.76 5135551.03 178.37
-9755075.05 5135550.42 178.47
-9755069.89 5135549.50 178.07
-9755064.75 5135549.91 176.52
-9755073.30 5135549.52 178.45
-9755067.42 5135550.77 177.27
-9755065.37 5135550.72 176.50
-9755069.80 5135548.36 177.48
-9755068.28 5135549.56 177.19
-9755073.28 5135551.33 178.14
-9755069.19 5135550.79 177.35
-9755066.94 5135550.18 177.29
-9755074.86 5135549.23 178.53
-9755064.48 5135549.57 176.52
-9755067.43 5135547.79 177.33
-9755074.19 5135550.14 178.31
-9755072.78 5135547.50 178.13
-9755068.00 5135549.26 177.16
-9755066.75 5135551.27 177.26
-9755066.76 5135550.75 177.19
-9755068.90 5135549.02 177.33
-9755074.77 5135547.48 178.42
-9755071.29 5135550.81 177.78
-9755070.40 5135547.51 177.61
-9755079.88 5135536.21 179.55
-9755080.80 5135536.14 179.70
-9755080.19 5135536.78 179.60
-9755080.54 5135529.69 179.84
-9755080.85 5135531.13 179.77
-9755081.36 5135535.34 179.96
-9755079.04 5135536.20 179.49
-9755081.04 5135535.28 180.00
-9755078.98 5135537.46 179.38
-9755079.33 5135536.16 179.40
-9755081.43 5135534.40 179.92
-9755081.07 5135535.92 179.88
-9755078.72 5135533.51 179.23
-9755080.45 5135533.71 179.89
-9755079.83 5135532.38 179.55
-9755079.56 5135536.14 179.46
-9755079.64 5135535.33 179.59
-9755080.14 5135537.67 179.53
-9755080.48 5135533.80 179.76
-9755079.36 5135532.65 179.46
-9755080.85 5135533.82 179.86
-9755081.40 5135533.79 179.94
-9755080.84 5135533.55 179.82
-9755079.93 5135535.26 179.64
-9755080.49 5135536.80 179.68
-9755079.65 5135528.50 179.52
-9755080.54 5135534.42 179.73
-9755081.41 5135528.75 179.88
-9755079.62 5135535.86 179.61
-9755079.62 5135536.76 179.43
-9755081.12 5135534.37 179.89
-9755081.10 5135533.28 179.97
-9755080.21 5135528.44 179.90
-9755080.21 5135533.23 179.70
-9755079.07 5135528.80 179.38
-9755079.86 5135531.16 179.58
-9755080.86 5135536.84 179.97
-9755079.67 5135537.41 179.47
-9755081.09 5135537.71 179.78
-9755080.48 5135534.71 179.69
-9755079.37 5135533.56 179.40
-9755080.80 5135537.39 179.74
-9755080.78 5135532.97 179.74
-9755081.41 5135528.52 179.88
-9755081.09 5135533.22 179.90
-9755081.36 5135532.92 179.91
-9755081.39 5135535.09 179.59
-9755079.66 5135529.42 179.48
-9755081.27 5135537.98 179.79
-9755079.88 5135530.86 179.57
-9755075.66 5135547.41 178.86
-9755080.98 5135538.56 180.06
-9755079.02 5135538.03 179.30
-9755080.42 5135546.26 179.58
-9755079.86 5135542.10 179.45
-9755081.31 5135539.13 179.85
-9755080.15 5135542.41 179.55
-9755081.34 5135542.67 180.02
-9755079.25 5135544.78 179.51
-9755079.80 5135546.27 179.47
-9755079.56 5135546.00 179.44
-9755079.54 5135544.48 179.57
-9755079.27 5135546.31 179.45
-9755078.70 5135544.20 179.19
-9755078.99 5135543.02 179.22
-9755080.41 5135545.68 179.65
-9755081.28 5135541.51 179.80
-9755081.34 5135538.88 179.96
-9755079.32 5135543.52 179.45
-9755079.86 5135543.30 179.48
-9755080.45 5135543.31 179.64
-9755079.61 5135540.99 179.42
-9755079.18 5135543.22 179.20
-9755078.68 5135542.43 179.20
-9755081.00 5135543.60 180.06
-9755079.84 5135543.91 179.68
-9755079.85 5135540.03 179.49
-9755080.14 5135544.50 179.55
-9755081.01 5135546.80 179.88
-9755080.99 5135544.56 179.85
-9755080.70 5135543.87 179.72
-9755080.78 5135541.57 179.65
-9755079.28 5135543.72 179.79
-9755078.61 5135546.56 179.16
-9755081.31 5135543.92 179.82
-9755079.87 5135538.84 179.49
-9755078.71 5135544.85 179.19
-9755081.38 5135540.37 179.81
-9755081.40 5135542.70 179.98
-9755081.08 5135539.16 179.90
-9755079.20 5135543.29 179.39
-9755078.57 5135546.28 179.33
-9755079.26 5135544.73 179.59
-9755078.73 5135540.96 179.18
-9755081.37 5135538.56 179.91
-9755078.90 5135545.11 179.52
-9755080.76 5135539.77 179.74
-9755079.55 5135544.18 179.59
-9755079.02 5135543.91 179.45
-9755079.24 5135543.61 179.38
-9755078.44 5135533.87 179.38
-9755078.46 5135529.40 179.26
-9755078.40 5135534.13 179.27
-9755077.56 5135534.10 179.20
-9755078.45 5135535.36 179.27
-9755078.44 5135532.36 179.24
-9755077.61 5135529.42 179.09
-9755077.57 5135535.03 179.20
-9755077.88 5135531.18 179.19
-9755077.32 5135529.48 179.07
-9755077.29 5135532.99 179.16
-9755078.76 5135528.26 179.29
-9755078.15 5135532.94 179.19
-9755077.54 5135537.67 179.20
-9755077.64 5135534.17 178.69
-9755077.54 5135532.95 179.22
-9755077.83 5135535.90 179.44
-9755078.14 5135534.68 179.26
-9755078.15 5135531.74 179.13
-9755078.46 5135533.50 179.23
-9755077.25 5135533.90 179.11
-9755077.26 5135533.21 179.20
-9755077.55 5135530.02 178.99
-9755077.79 5135536.22 179.27
-9755077.21 5135535.89 179.09
-9755078.03 5135534.03 179.14
-9755077.26 5135534.44 179.15
-9755077.27 5135535.62 179.09
-9755077.55 5135533.54 179.14
-9755078.43 5135535.01 179.27
-9755078.36 5135534.32 178.88
-9755077.85 5135531.04 179.50
-9755077.27 5135532.61 179.13
-9755078.45 5135533.80 179.24
-9755077.52 5135537.40 179.00
-9755077.76 5135537.38 179.23
-9755077.59 5135528.53 179.09
-9755077.30 5135530.86 178.96
-9755077.15 5135534.73 178.58
-9755076.36 5135536.52 178.68
-9755075.80 5135534.14 178.71
-9755076.89 5135536.81 179.11
-9755076.61 5135534.44 178.97
-9755076.05 5135533.20 178.72
-9755077.22 5135528.81 178.99
-9755076.72 5135528.48 179.05
-9755075.79 5135530.59 178.76
-9755076.35 5135537.72 178.72
-9755077.28 5135532.08 178.99
-9755077.26 5135536.25 178.96
-9755076.05 5135538.30 178.65
-9755076.32 5135534.43 178.85
-9755076.67 5135532.08 178.84
-9755076.95 5135534.12 179.08
-9755076.28 5135538.30 178.80
-9755076.32 5135535.03 178.93
-9755076.65 5135531.46 178.86
-9755076.35 5135531.76 179.34
-9755075.75 5135531.45 178.78
-9755076.07 5135535.28 178.74
-9755075.77 5135535.06 178.57
-9755076.65 5135536.22 178.98
-9755076.64 5135534.12 179.24
-9755076.31 5135533.60 178.81
-9755076.64 5135533.21 179.01
-9755076.34 5135533.30 178.91
-9755076.08 5135534.76 178.69
-9755076.68 5135529.73 178.89
-9755075.78 5135529.09 178.68
-9755076.42 5135535.03 179.19
-9755076.05 5135535.92 178.65
-9755076.97 5135528.54 179.03
-9755076.68 5135537.18 178.76
-9755076.69 5135528.82 178.87
-9755076.61 5135537.91 178.87
-9755076.07 5135530.03 178.75
-9755078.68 5135543.31 179.17
-9755078.35 5135545.96 179.14
-9755077.51 5135542.49 178.90
-9755078.03 5135544.73 179.05
-9755078.43 5135543.35 179.11
-9755078.05 5135545.68 179.14
-9755077.21 5135544.24 179.07
-9755078.35 5135545.08 179.13
-9755078.08 5135545.95 179.07
-9755077.48 5135538.61 178.97
-9755078.07 5135547.15 179.05
-9755076.06 5135542.47 178.60
-9755076.24 5135546.55 178.65
-9755076.89 5135546.59 178.88
-9755075.76 5135538.85 178.54
-9755076.62 5135545.73 178.74
-9755076.66 5135540.38 178.81
-9755076.57 5135547.22 178.95
-9755076.31 5135540.07 178.62
-9755076.07 5135539.19 178.66
-9755076.34 5135541.89 178.66
-9755075.69 5135547.24 178.59
-9755076.00 5135542.50 178.74
-9755075.72 5135544.82 178.52
-9755075.67 5135545.69 178.59
-9755076.36 5135538.90 178.85
-9755075.94 5135542.75 178.81
-9755075.69 5135535.04 178.66
-9755071.94 5135529.43 177.86
-9755072.53 5135529.07 177.97
-9755069.28 5135533.02 177.41
-9755074.62 5135531.75 178.51
-9755074.36 5135532.94 178.49
-9755066.92 5135531.81 176.77
-9755074.91 5135533.27 178.60
-9755069.02 5135529.39 177.58
-9755075.19 5135535.95 178.51
-9755075.17 5135536.18 178.44
-9755074.86 5135534.46 178.49
-9755069.23 5135537.73 177.42
-9755074.89 5135532.39 178.81
-9755069.56 5135535.38 177.52
-9755074.86 5135537.75 178.39
-9755068.44 5135533.27 177.54
-9755075.17 5135532.94 178.56
-9755075.17 5135532.64 178.68
-9755068.12 5135532.76 176.59
-9755074.88 5135530.67 178.24
-9755069.58 5135537.71 177.53
-9755074.89 5135529.68 178.55
-9755070.23 5135528.79 177.70
-9755065.13 5135531.24 176.81
-9755066.64 5135532.40 176.77
-9755075.21 5135528.25 178.62
-9755074.65 5135535.65 178.49
-9755069.04 5135528.84 177.59
-9755068.03 5135536.88 176.73
-9755074.90 5135529.98 178.61
-9755075.24 5135528.53 178.63
-9755068.35 5135538.00 177.44
-9755069.90 5135529.78 177.60
-9755075.17 5135537.68 178.44
-9755068.44 5135530.02 177.60
-9755075.17 5135530.67 178.74
-9755069.28 5135535.95 177.40
-9755075.27 5135529.41 178.65
-9755066.66 5135533.28 176.75
-9755074.64 5135535.06 178.45
-9755073.16 5135533.28 178.11
-9755068.69 5135534.13 177.51
-9755069.59 5135532.43 177.48
-9755072.51 5135535.35 177.97
-9755066.92 5135532.65 176.75
-9755069.26 5135534.46 177.41
-9755066.65 5135535.63 176.70
