-9755213.32 5135808.92 183.92
-9755215.15 5135808.25 185.00
-9755213.21 5135809.65 186.28
-9755215.39 5135807.85 185.84
-9755218.37 5135808.55 184.82
-9755215.85 5135811.82 183.91
-9755216.83 5135808.70 184.57
-9755213.36 5135807.85 183.26
-9755216.08 5135809.71 184.21
-9755214.28 5135807.90 185.41
-9755211.53 5135808.93 183.74
-9755218.39 5135812.14 184.29
-9755215.64 5135811.20 184.59
-9755214.88 5135809.26 184.03
-9755214.19 5135809.37 185.86
-9755215.78 5135808.78 185.06
-9755213.07 5135809.24 183.58
-9755213.84 5135809.04 185.05
-9755212.22 5135806.86 184.44
-9755211.85 5135809.12 184.30
-9755215.43 5135806.61 184.06
-9755213.66 5135806.21 184.30
-9755217.72 5135810.74 184.20
-9755214.93 5135809.76 184.11
-9755211.64 5135807.34 183.70
-9755218.08 5135809.22 183.55
-9755213.29 5135810.29 185.24
-9755216.03 5135801.63 181.45
-9755217.17 5135809.26 184.44
-9755213.11 5135807.41 183.27
-9755215.16 5135810.56 185.90
-9755213.31 5135809.04 184.76
-9755211.78 5135808.61 183.68
-9755217.50 5135803.41 181.44
-9755218.63 5135806.33 181.47
-9755214.85 5135805.87 184.39
-9755214.25 5135807.81 183.37
-9755218.60 5135808.44 183.37
-9755215.93 5135808.35 183.36
-9755212.08 5135811.90 183.54
-9755216.36 5135809.07 184.29
-9755216.92 5135810.02 185.47
-9755211.90 5135806.05 181.64
-9755213.58 5135810.65 184.79
-9755213.95 5135811.86 184.26
-9755211.92 5135809.35 184.59
-9755217.60 5135808.03 186.16
-9755214.20 5135805.96 184.21
-9755212.80 5135809.57 183.49
-9755216.01 5135808.87 185.89
-9755218.66 5135808.31 184.85
-9755213.87 5135811.21 184.95
-9755218.57 5135809.60 183.60
-9755216.96 5135810.28 185.18
-9755214.24 5135808.20 184.38
-9755213.10 5135806.18 184.33
-9755212.67 5135809.64 184.75
-9755216.51 5135809.44 185.16
-9755213.05 5135801.01 181.47
-9755213.28 5135808.45 185.38
-9755213.59 5135807.96 184.09
-9755216.84 5135806.26 185.04
-9755216.92 5135807.00 184.23
-9755218.04 5135807.46 183.40
-9755211.95 5135807.56 185.72
-9755216.77 5135811.33 184.22
-9755215.41 5135808.20 185.03
-9755214.55 5135811.22 184.40
-9755213.33 5135807.69 184.03
-9755217.87 5135806.80 185.66
-9755214.23 5135806.62 181.63
-9755216.05 5135810.05 184.32
-9755213.33 5135803.94 181.48
-9755216.55 5135812.04 181.63
-9755211.88 5135807.65 183.12
-9755218.89 5135812.87 181.51
-9755214.52 5135809.54 185.05
-9755216.64 5135807.92 186.63
-9755214.77 5135812.40 184.41
-9755217.46 5135806.88 184.00
-9755217.52 5135808.69 183.76
-9755217.45 5135811.96 184.33
-9755212.15 5135806.92 181.67
-9755214.25 5135810.92 184.91
-9755216.01 5135811.74 184.14
-9755212.73 5135807.94 185.22
-9755217.71 5135807.97 183.70
-9755214.72 5135808.74 184.16
-9755216.82 5135810.64 183.81
-9755213.14 5135807.65 183.26
-9755213.07 5135808.25 184.05
-9755218.36 5135804.90 181.43
-9755217.41 5135809.01 181.55
-9755215.29 5135808.60 183.10
-9755216.23 5135810.33 184.29
-9755217.81 5135807.52 184.33
-9755216.53 5135808.94 183.65
-9755218.04 5135807.97 184.63
-9755217.97 5135810.91 183.92
-9755218.72 5135810.40 184.67
-9755212.15 5135810.14 183.14
-9755216.39 5135810.37 183.59
-9755217.22 5135810.16 183.85
-9755214.43 5135808.16 184.50
-9755217.45 5135809.21 185.81
-9755217.21 5135806.24 184.74
-9755215.34 5135810.61 185.18
-9755217.37 5135811.42 181.63
-9755217.47 5135812.12 185.42
-9755218.04 5135806.99 181.50
-9755212.15 5135808.00 183.48
-9755214.14 5135808.69 184.29
-9755216.85 5135806.50 183.48
-9755212.11 5135810.92 183.37
-9755215.69 5135810.61 186.11
-9755214.72 5135809.92 184.90
-9755216.51 5135811.53 181.57
-9755215.65 5135811.63 184.29
-9755218.63 5135811.83 185.00
-9755213.05 5135810.89 184.58
-9755213.72 5135808.88 184.99
-9755217.50 5135808.00 183.91
-9755217.24 5135808.26 185.29
-9755212.74 5135803.07 181.49
-9755216.91 5135807.71 184.77
-9755215.67 5135812.11 184.96
-9755212.60 5135807.21 182.86
-9755218.27 5135812.57 181.58
-9755216.91 5135812.11 185.18
-9755214.28 5135808.19 184.97
-9755217.40 5135809.56 184.82
-9755217.93 5135812.66 184.81
-9755212.71 5135810.33 184.15
-9755217.77 5135810.47 183.91
-9755212.44 5135806.68 181.67
-9755216.31 5135806.93 181.58
-9755216.14 5135809.27 183.65
-9755217.17 5135808.91 185.54
-9755216.25 5135807.34 185.21
-9755218.40 5135806.28 183.30
-9755212.99 5135809.49 185.57
-9755215.48 5135809.44 184.46
-9755214.28 5135809.68 185.97
-9755218.08 5135807.56 186.11
-9755211.00 5135808.24 183.51
-9755217.16 5135807.66 183.63
-9755216.83 5135806.30 183.22
-9755214.88 5135810.33 186.12
-9755217.47 5135805.91 184.73
-9755212.78 5135811.12 185.00
-9755213.12 5135811.48 183.97
-9755217.46 5135810.07 185.28
-9755213.97 5135807.14 184.22
-9755214.79 5135805.30 184.27
-9755215.14 5135810.31 185.52
-9755215.40 5135810.72 185.25
-9755213.35 5135810.77 184.23
-9755212.88 5135807.73 183.13
-9755213.95 5135808.85 185.04
-9755215.92 5135812.72 183.81
-9755217.72 5135810.69 184.84
-9755216.74 5135811.81 183.33
-9755217.44 5135807.40 185.06
-9755216.37 5135811.80 183.89
-9755216.30 5135810.89 185.25
-9755216.84 5135809.52 183.77
-9755213.86 5135809.90 186.29
-9755216.53 5135808.23 184.82
-9755217.20 5135800.75 181.43
-9755211.85 5135809.85 183.62
-9755217.55 5135809.44 183.49
-9755218.65 5135804.31 181.43
-9755217.44 5135804.34 181.44
-9755214.81 5135811.48 185.29
-9755212.46 5135809.73 184.57
-9755214.82 5135800.68 181.45
-9755216.35 5135809.14 184.93
-9755217.83 5135807.79 185.94
-9755217.17 5135808.87 185.83
-9755214.01 5135806.50 184.51
-9755214.86 5135810.61 185.10
-9755213.66 5135807.70 183.65
-9755213.25 5135811.24 184.61
-9755218.78 5135809.91 183.52
-9755218.05 5135812.52 184.36
-9755214.76 5135807.38 185.22
-9755212.22 5135807.99 183.17
-9755217.15 5135807.65 185.09
-9755215.10 5135809.69 186.27
-9755214.06 5135809.41 185.92
-9755213.26 5135811.18 184.25
-9755217.83 5135807.41 185.04
-9755215.67 5135808.90 183.10
-9755217.25 5135810.44 183.67
-9755213.07 5135809.23 184.92
-9755216.64 5135810.77 183.99
-9755214.20 5135806.57 184.13
-9755215.44 5135807.70 184.62
-9755212.56 5135806.73 184.65
-9755212.01 5135809.54 181.64
-9755211.87 5135812.39 183.84
-9755214.29 5135806.56 183.68
-9755217.74 5135809.13 185.13
-9755216.67 5135809.65 185.20
-9755215.09 5135810.18 186.13
-9755217.21 5135810.61 184.55
-9755216.81 5135805.63 184.09
-9755218.05 5135810.77 181.55
-9755218.68 5135801.04 181.43
-9755214.96 5135807.40 185.14
-9755214.81 5135810.28 184.80
-9755215.15 5135805.63 184.01
-9755212.12 5135809.13 183.85
-9755217.77 5135810.94 183.39
-9755213.50 5135809.19 184.94
-9755213.59 5135810.90 185.22
-9755211.62 5135808.28 183.72
-9755213.34 5135808.88 183.70
-9755213.40 5135810.12 185.50
-9755218.31 5135807.49 183.01
-9755217.49 5135806.77 184.62
-9755216.01 5135809.25 185.00
-9755218.87 5135810.18 183.60
-9755214.22 5135807.67 183.89
-9755213.51 5135810.01 185.32
-9755215.35 5135807.72 184.11
-9755215.15 5135805.87 183.98
-9755216.43 5135810.98 185.30
-9755217.69 5135810.35 184.75
-9755216.05 5135811.82 185.50
-9755216.63 5135808.52 185.43
-9755214.68 5135811.62 183.48
-9755218.04 5135806.53 183.20
-9755218.65 5135806.98 181.48
-9755217.49 5135807.43 183.45
-9755212.18 5135808.14 184.16
-9755213.21 5135807.90 183.29
-9755215.95 5135810.73 183.62
-9755218.11 5135807.11 183.94
-9755213.21 5135812.74 183.79
-9755214.26 5135807.35 185.56
-9755216.53 5135807.47 183.64
-9755215.68 5135811.80 184.93
-9755215.11 5135807.72 184.13
-9755214.27 5135807.90 184.81
-9755215.70 5135808.98 183.44
-9755214.50 5135805.30 183.94
-9755213.90 5135808.29 185.77
-9755218.01 5135806.76 184.14
-9755213.99 5135809.68 186.21
-9755215.08 5135808.75 186.53
-9755213.58 5135807.11 183.36
-9755217.87 5135811.28 185.64
-9755212.83 5135810.86 183.65
-9755213.10 5135809.39 184.49
-9755215.29 5135808.20 184.40
-9755213.53 5135811.08 183.55
-9755216.31 5135807.75 183.87
-9755215.37 5135808.87 186.60
-9755213.74 5135807.74 184.99
-9755212.76 5135808.65 183.64
-9755214.00 5135807.23 183.51
-9755214.19 5135805.74 181.58
-9755214.84 5135809.05 184.69
-9755213.87 5135808.50 184.13
-9755215.36 5135806.24 184.71
-9755213.32 5135807.15 184.16
-9755217.79 5135810.41 184.54
-9755214.03 5135806.33 183.84
-9755214.55 5135809.64 185.96
-9755215.73 5135806.59 183.62
-9755215.99 5135810.30 185.12
-9755211.55 5135810.14 183.16
-9755217.15 5135811.84 185.19
-9755216.59 5135809.29 185.19
-9755216.82 5135811.77 185.89
-9755215.72 5135808.22 185.50
-9755211.18 5135807.77 183.90
-9755217.46 5135811.23 184.29
-9755215.48 5135805.39 183.28
-9755212.15 5135810.48 183.25
-9755213.23 5135807.23 181.69
-9755212.73 5135807.93 184.00
-9755214.18 5135806.41 183.93
-9755215.48 5135808.24 184.15
-9755216.76 5135807.17 184.34
-9755216.54 5135811.51 185.81
-9755217.51 5135807.20 183.41
-9755216.30 5135806.85 183.72
-9755214.22 5135812.10 184.90
-9755215.72 5135808.15 185.39
-9755215.96 5135809.16 185.99
-9755214.83 5135807.57 184.29
-9755216.64 5135809.42 184.77
-9755215.30 5135807.13 183.83
-9755215.54 5135810.11 184.57
-9755214.53 5135809.24 184.14
-9755214.47 5135807.62 184.63
-9755214.43 5135807.31 184.27
-9755216.74 5135806.19 184.13
-9755213.98 5135809.83 184.11
-9755212.45 5135811.86 183.61
-9755216.46 5135812.51 183.74
-9755212.14 5135811.85 184.05
-9755211.47 5135809.70 184.23
-9755215.48 5135807.79 183.81
-9755212.39 5135810.43 183.17
-9755218.92 5135804.27 181.42
-9755213.35 5135806.66 181.66
-9755215.04 5135810.22 186.36
-9755215.39 5135810.07 184.30
-9755215.34 5135809.41 185.22
-9755212.16 5135807.66 183.83
-9755216.87 5135809.64 183.41
-9755213.66 5135809.64 184.87
-9755212.21 5135808.00 185.58
-9755216.85 5135808.85 184.73
-9755215.03 5135809.20 183.34
-9755217.42 5135806.58 183.97
-9755215.32 5135809.69 184.73
-9755215.48 5135809.30 184.20
-9755214.24 5135805.00 183.97
-9755215.39 5135802.80 181.46
-9755218.65 5135807.77 184.08
-9755213.67 5135805.65 184.25
-9755212.18 5135807.17 184.06
-9755218.34 5135807.77 183.43
-9755212.39 5135808.39 181.63
-9755214.78 5135807.75 183.90
-9755215.40 5135811.44 184.26
-9755213.07 5135807.63 185.45
-9755215.67 5135810.65 185.17
-9755217.16 5135807.27 183.43
-9755217.28 5135806.52 183.42
-9755214.85 5135806.40 184.99
-9755212.53 5135812.35 183.49
-9755217.41 5135810.40 183.88
-9755213.31 5135810.27 185.52
-9755213.89 5135809.42 184.93
-9755215.77 5135809.86 185.14
-9755217.24 5135809.79 183.85
-9755217.45 5135807.67 185.09
-9755215.36 5135811.91 184.59
-9755216.07 5135808.45 185.93
-9755216.70 5135807.14 184.80
-9755212.18 5135809.19 184.56
-9755212.11 5135810.29 183.33
-9755218.57 5135809.50 183.51
-9755218.62 5135810.92 183.40
-9755213.51 5135810.48 184.23
-9755214.16 5135806.08 184.21
-9755215.35 5135808.33 183.96
-9755212.79 5135808.63 185.06
-9755217.15 5135806.67 185.48
-9755211.56 5135804.23 181.51
-9755214.79 5135807.58 181.65
-9755217.53 5135807.63 185.01
-9755217.06 5135811.16 181.60
-9755215.11 5135806.34 181.63
-9755216.94 5135809.72 184.16
-9755217.98 5135808.55 181.50
-9755217.99 5135811.30 183.99
-9755215.11 5135808.26 185.89
-9755211.84 5135811.89 183.36
-9755218.63 5135808.60 184.87
-9755211.58 5135809.55 181.63
-9755217.84 5135806.54 184.04
-9755216.28 5135809.52 183.55
-9755215.96 5135806.58 183.59
-9755212.70 5135807.08 184.58
-9755216.56 5135807.27 186.33
-9755212.96 5135808.90 183.59
-9755216.86 5135808.05 186.57
-9755213.93 5135809.98 186.41
-9755213.93 5135808.54 184.64
-9755212.21 5135807.05 183.15
-9755212.38 5135811.33 181.63
-9755213.97 5135809.99 186.99
-9755216.93 5135808.84 184.37
-9755214.01 5135806.74 184.83
-9755214.57 5135809.16 185.68
-9755218.48 5135810.28 183.60
-9755214.18 5135810.29 186.68
-9755213.65 5135806.72 184.16
-9755216.86 5135809.47 184.82
-9755216.91 5135808.71 183.77
-9755213.70 5135808.31 185.19
-9755215.07 5135810.33 184.45
-9755213.11 5135811.86 184.30
-9755212.43 5135808.21 185.23
-9755218.73 5135807.45 184.02
-9755216.60 5135810.35 184.32
-9755211.52 5135805.44 181.59
-9755211.56 5135802.21 181.49
-9755210.87 5135808.60 183.51
-9755211.54 5135806.62 181.65
-9755210.99 5135809.44 183.60
-9755210.91 5135811.08 181.59
-9755210.95 5135807.24 181.64
-9755210.69 5135807.26 181.63
-9755210.95 5135806.34 181.63
-9755211.01 5135800.68 181.50
-9755211.78 5135815.51 181.67
-9755218.28 5135813.18 181.56
-9755214.73 5135815.22 181.68
-9755217.95 5135815.85 181.60
-9755216.53 5135814.96 181.64
-9755214.22 5135812.85 183.12
-9755212.98 5135813.43 181.68
-9755218.58 5135814.34 181.55
-9755213.28 5135815.21 181.68
-9755216.81 5135814.35 181.63
-9755215.35 5135812.90 181.66
-9755218.88 5135813.77 181.51
-9755212.41 5135813.13 181.67
-9755217.67 5135814.38 181.61
-9755218.32 5135813.76 181.57
-9755214.18 5135812.83 181.68
-9755215.67 5135814.04 181.66
-9755214.20 5135814.60 181.68
-9755213.88 5135814.06 181.67
-9755211.51 5135812.84 181.62
-9755213.14 5135813.24 183.32
-9755211.53 5135814.93 181.66
-9755216.20 5135815.85 181.68
-9755216.79 5135813.46 181.64
-9755216.27 5135814.93 181.66
-9755216.55 5135813.76 181.65
-9755214.75 5135813.73 181.67
-9755216.22 5135813.75 181.64
-9755215.28 5135813.01 184.09
-9755211.81 5135814.28 181.66
-9755211.16 5135815.21 181.64
-9755210.90 5135814.02 181.62
-9755209.99 5135817.00 181.60
-9755205.89 5135817.56 181.47
-9755200.60 5135816.65 181.29
-9755205.01 5135817.26 181.42
-9755205.92 5135816.65 181.48
-9755200.59 5135816.06 181.28
-9755209.70 5135816.10 181.59
-9755208.21 5135816.69 181.50
-9755210.02 5135816.41 181.59
-9755201.18 5135817.53 181.29
-9755202.65 5135816.32 181.30
-9755203.57 5135815.46 181.31
-9755197.93 5135816.89 181.25
-9755205.02 5135815.73 181.44
-9755207.06 5135816.95 181.49
-9755209.45 5135817.57 181.55
-9755204.96 5135816.66 181.42
-9755197.91 5135816.03 181.26
-9755210.02 5135815.76 181.60
-9755204.95 5135816.36 181.43
-9755203.24 5135815.47 181.31
-9755206.77 5135816.96 181.49
-9755204.42 5135816.61 181.31
-9755200.01 5135815.47 181.27
-9755208.26 5135815.78 181.51
-9755206.78 5135815.48 181.49
-9755207.99 5135816.95 181.50
-9755200.87 5135817.20 181.28
-9755209.14 5135816.12 181.52
-9755204.11 5135816.04 181.31
-9755204.70 5135816.99 181.33
-9755203.53 5135816.36 181.30
-9755207.32 5135816.08 181.49
-9755202.05 5135816.67 181.29
-9755210.72 5135801.02 181.50
-9755210.65 5135806.01 181.60
-9755210.08 5135809.58 181.59
-9755210.07 5135806.06 181.59
-9755210.43 5135801.91 181.51
-9755209.19 5135809.60 181.55
-9755210.62 5135809.86 181.59
-9755202.42 5135806.01 181.30
-9755210.01 5135808.07 181.59
-9755209.22 5135805.91 182.32
-9755200.34 5135807.76 181.29
-9755202.08 5135811.88 181.29
-9755208.27 5135811.95 181.50
-9755202.68 5135804.77 181.29
-9755207.17 5135800.36 181.48
-9755209.79 5135803.66 181.51
-9755208.27 5135810.18 181.51
-9755207.11 5135811.03 181.49
-9755200.00 5135812.19 181.29
-9755209.81 5135800.39 181.51
-9755209.38 5135805.97 182.37
-9755198.29 5135806.82 181.28
-9755203.35 5135805.10 181.30
-9755210.69 5135802.75 181.51
-9755207.67 5135810.13 181.50
-9755210.37 5135808.45 181.59
-9755199.44 5135810.73 181.29
-9755208.91 5135800.96 181.51
-9755208.31 5135803.03 181.50
-9755205.04 5135802.76 181.44
-9755209.50 5135806.91 181.59
-9755202.70 5135807.48 181.28
-9755203.89 5135811.05 181.30
-9755210.72 5135808.28 183.74
-9755199.16 5135809.23 181.27
-9755207.41 5135802.49 181.48
-9755202.40 5135804.20 181.29
-9755200.63 5135809.28 181.29
-9755205.96 5135804.28 181.47
-9755197.74 5135804.18 181.28
-9755208.28 5135807.22 181.51
-9755209.49 5135801.88 181.51
-9755208.64 5135801.33 181.51
-9755200.63 5135805.13 181.29
-9755206.85 5135802.78 181.48
-9755200.97 5135801.30 181.30
-9755205.05 5135806.59 181.45
-9755209.23 5135801.57 181.51
-9755210.05 5135812.27 181.59
-9755203.29 5135805.97 181.29
-9755199.75 5135811.90 181.28
-9755210.07 5135812.51 181.59
-9755199.48 5135803.02 181.29
-9755206.28 5135803.62 181.48
-9755199.48 5135805.97 181.29
-9755209.14 5135811.38 181.53
-9755209.83 5135805.10 181.53
-9755202.73 5135803.31 181.29
-9755209.20 5135806.66 181.55
-9755198.89 5135800.34 181.30
-9755205.07 5135809.88 181.45
-9755203.89 5135808.64 181.30
-9755203.84 5135811.88 181.30
-9755205.05 5135808.94 181.45
-9755208.27 5135809.22 181.50
-9755210.07 5135807.49 181.59
-9755198.30 5135801.84 181.29
-9755205.10 5135800.03 181.46
-9755201.22 5135810.43 181.30
-9755203.01 5135807.20 181.30
-9755201.83 5135802.70 181.31
-9755198.31 5135800.61 181.29
-9755207.44 5135803.06 181.49
-9755208.34 5135806.60 181.51
-9755207.45 5135801.30 181.48
-9755206.80 5135806.28 181.48
-9755200.37 5135805.40 181.30
-9755210.68 5135802.47 181.51
-9755208.89 5135806.05 181.52
-9755204.23 5135803.33 181.29
-9755197.67 5135811.03 181.27
-9755200.35 5135806.90 181.29
-9755202.69 5135809.52 181.29
-9755206.80 5135808.37 181.48
-9755207.42 5135805.10 181.50
-9755203.23 5135811.93 181.30
-9755198.85 5135811.89 181.27
-9755205.93 5135805.72 181.45
-9755200.08 5135804.50 181.30
-9755204.23 5135800.99 181.30
-9755209.47 5135811.97 181.57
-9755205.09 5135803.64 181.43
-9755205.94 5135807.46 181.47
-9755208.60 5135801.86 181.50
-9755207.12 5135803.88 181.49
-9755203.58 5135807.20 181.30
-9755205.42 5135800.39 181.45
-9755206.21 5135810.47 181.48
-9755204.20 5135806.59 181.30
-9755204.73 5135802.77 181.37
-9755206.80 5135810.41 181.48
-9755204.16 5135812.51 181.31
-9755200.68 5135801.85 181.30
-9755200.38 5135803.89 181.30
-9755198.30 5135800.35 181.30
-9755204.16 5135808.94 181.30
-9755206.26 5135807.78 181.47
-9755200.28 5135812.46 181.29
-9755208.36 5135802.13 181.51
-9755202.40 5135801.88 181.30
-9755202.42 5135805.10 181.30
-9755198.27 5135809.54 181.27
-9755208.29 5135802.76 181.49
-9755205.95 5135809.85 181.47
-9755201.26 5135801.25 181.30
-9755203.59 5135800.36 181.30
-9755209.81 5135801.86 181.51
-9755201.51 5135809.23 181.29
-9755200.59 5135811.01 181.29
-9755205.61 5135809.54 181.47
-9755205.69 5135802.74 181.45
-9755209.17 5135802.73 181.52
-9755201.00 5135802.70 181.29
-9755203.60 5135804.49 181.29
-9755198.33 5135803.01 181.29
-9755197.97 5135810.41 181.27
-9755201.79 5135805.13 181.28
-9755199.73 5135804.50 181.30
-9755203.61 5135804.20 181.29
-9755203.57 5135812.49 181.30
-9755198.30 5135808.33 181.27
-9755198.86 5135806.89 181.28
-9755205.10 5135802.11 181.44
-9755201.82 5135806.25 181.29
-9755202.09 5135806.90 181.28
-9755210.40 5135802.72 181.51
-9755202.70 5135805.98 181.30
-9755208.89 5135808.38 181.52
-9755199.19 5135801.22 181.30
-9755203.63 5135803.91 181.29
-9755204.21 5135800.09 181.30
-9755200.33 5135806.23 181.29
-9755201.85 5135801.88 181.30
-9755209.74 5135812.26 181.59
-9755200.05 5135807.45 181.29
-9755208.55 5135811.37 181.51
-9755204.14 5135807.81 181.29
-9755207.45 5135800.12 181.48
-9755203.28 5135804.21 181.29
-9755209.18 5135804.55 181.52
-9755208.88 5135807.17 181.51
-9755206.49 5135809.28 181.48
-9755205.35 5135806.88 181.46
-9755199.75 5135802.71 181.29
-9755198.02 5135801.79 181.29
-9755200.37 5135801.84 181.31
-9755205.02 5135812.26 181.44
-9755203.64 5135801.80 181.29
-9755205.92 5135811.61 181.47
-9755207.75 5135800.41 181.49
-9755198.82 5135810.15 181.28
-9755198.87 5135803.62 181.29
-9755208.28 5135808.10 181.50
-9755199.46 5135808.02 181.28
-9755202.99 5135810.12 181.29
-9755199.69 5135810.12 181.28
-9755201.28 5135800.39 181.31
-9755206.86 5135807.15 181.49
-9755209.18 5135805.78 181.54
-9755198.89 5135811.00 181.28
-9755202.10 5135802.75 181.30
-9755208.30 5135808.99 181.51
-9755202.74 5135803.95 181.28
-9755200.94 5135806.26 181.30
-9755203.59 5135802.15 181.29
-9755200.33 5135808.62 181.27
-9755203.59 5135807.50 181.29
-9755204.09 5135812.21 181.31
-9755208.61 5135802.79 181.50
-9755210.39 5135808.40 183.61
-9755198.02 5135805.05 181.29
-9755201.49 5135810.12 181.29
-9755200.34 5135806.61 181.29
-9755198.50 5135810.69 181.27
-9755200.04 5135809.23 181.28
-9755208.02 5135804.50 181.50
-9755205.05 5135810.43 181.45
-9755200.06 5135804.22 181.29
-9755206.54 5135801.27 181.47
-9755210.06 5135804.83 181.51
-9755201.53 5135805.38 181.29
-9755205.98 5135802.16 181.47
-9755199.12 5135808.00 181.28
-9755198.27 5135809.85 181.26
-9755203.58 5135805.70 181.30
-9755206.84 5135801.87 181.48
-9755205.09 5135801.84 181.45
-9755202.09 5135810.16 181.29
-9755205.04 5135808.36 181.45
-9755200.36 5135802.75 181.29
-9755205.92 5135806.63 181.45
-9755199.74 5135809.56 181.27
-9755209.19 5135812.55 181.51
-9755202.66 5135811.03 181.29
-9755206.84 5135809.81 181.49
-9755209.50 5135806.32 181.58
-9755204.19 5135811.31 181.31
-9755205.01 5135809.55 181.44
-9755207.73 5135807.49 181.49
-9755203.27 5135812.55 181.30
-9755198.04 5135802.68 181.29
-9755197.96 5135811.32 181.27
-9755207.41 5135807.48 181.48
-9755199.48 5135800.92 181.29
-9755200.35 5135804.21 181.30
-9755202.43 5135800.40 181.30
-9755197.68 5135812.47 181.26
-9755205.13 5135803.36 181.44
-9755197.66 5135810.68 181.27
-9755201.81 5135808.97 181.29
-9755201.15 5135812.22 181.28
-9755200.10 5135801.78 181.30
-9755197.69 5135808.32 181.28
-9755199.20 5135805.67 181.28
-9755205.13 5135804.24 181.44
-9755209.45 5135809.58 181.59
-9755206.84 5135808.08 181.48
-9755200.65 5135807.16 181.28
-9755205.98 5135800.64 181.46
-9755201.81 5135800.07 181.30
-9755202.65 5135810.74 181.29
-9755202.42 5135811.64 181.29
-9755198.51 5135815.77 181.27
-9755205.30 5135815.77 181.47
-9755199.39 5135815.45 181.26
-9755202.38 5135812.80 181.30
-9755208.24 5135814.87 181.51
-9755198.25 5135813.69 181.26
-9755206.19 5135812.85 181.48
-9755201.73 5135815.48 181.29
-9755205.33 5135814.27 181.45
-9755207.64 5135813.10 181.51
-9755200.30 5135813.99 181.28
-9755199.11 5135814.27 181.27
-9755198.27 5135814.87 181.26
-9755205.90 5135814.61 181.47
-9755201.52 5135815.18 181.29
-9755206.52 5135814.61 181.48
-9755205.00 5135813.41 181.44
-9755206.77 5135814.28 181.48
-9755202.07 5135813.42 181.29
-9755200.32 5135813.40 181.27
-9755209.12 5135814.61 181.52
-9755206.51 5135814.31 181.48
-9755203.53 5135813.98 181.30
-9755203.52 5135814.87 181.31
-9755207.68 5135815.75 181.49
-9755205.61 5135815.16 181.46
-9755204.40 5135814.34 181.32
-9755209.42 5135814.59 181.54
-9755200.30 5135813.07 181.29
-9755197.94 5135814.26 181.26
-9755198.25 5135812.79 181.27
-9755198.20 5135813.99 181.26
-9755201.48 5135813.39 181.29
-9755199.74 5135813.69 181.28
-9755204.44 5135815.46 181.32
-9755208.57 5135814.61 181.51
-9755202.92 5135813.42 181.29
-9755199.15 5135814.85 181.27
-9755205.91 5135813.11 181.48
-9755206.79 5135814.58 181.48
-9755210.03 5135814.61 181.60
-9755209.12 5135814.02 181.53
-9755210.05 5135814.02 181.61
-9755202.06 5135814.59 181.30
-9755203.52 5135813.70 181.30
-9755207.66 5135814.00 181.49
-9755197.96 5135813.65 181.26
-9755202.62 5135815.46 181.31
-9755202.38 5135814.55 181.30
-9755203.82 5135814.57 181.31
-9755201.49 5135812.84 181.29
-9755204.12 5135813.10 181.31
-9755202.37 5135813.10 181.29
-9755202.38 5135814.01 181.30
-9755199.44 5135813.07 181.27
-9755197.59 5135825.23 181.27
-9755197.59 5135824.30 181.26
-9755197.62 5135818.68 181.25
-9755197.60 5135822.57 181.26
-9755197.28 5135823.43 181.27
-9755196.38 5135825.78 181.26
-9755193.81 5135824.30 181.23
-9755193.76 5135824.01 181.23
-9755194.38 5135818.72 181.22
-9755196.47 5135818.69 181.24
-9755192.89 5135821.05 181.23
-9755194.10 5135818.40 181.22
-9755193.50 5135819.87 181.23
-9755192.87 5135822.56 181.23
-9755193.77 5135818.39 181.23
-9755196.66 5135825.50 181.26
-9755193.49 5135824.87 181.24
-9755191.43 5135821.06 181.21
-9755194.61 5135826.07 181.25
-9755197.01 5135818.41 181.25
-9755192.88 5135824.30 181.23
-9755193.42 5135825.21 181.24
-9755192.32 5135819.28 181.21
-9755196.41 5135823.42 181.26
-9755196.44 5135821.70 181.25
-9755194.32 5135825.82 181.24
-9755196.72 5135821.35 181.25
-9755191.75 5135819.26 181.20
-9755195.83 5135818.99 181.24
-9755193.16 5135825.78 181.24
-9755192.00 5135819.83 181.21
-9755194.06 5135821.00 181.23
-9755193.48 5135821.04 181.24
-9755195.26 5135824.57 181.25
-9755191.44 5135818.66 181.21
-9755192.91 5135820.47 181.23
-9755192.29 5135821.02 181.22
-9755195.24 5135821.94 181.25
-9755191.70 5135818.67 181.21
-9755194.66 5135819.24 181.23
-9755196.68 5135817.77 181.25
-9755197.01 5135822.24 181.26
-9755194.94 5135819.90 181.23
-9755195.50 5135823.39 181.25
-9755192.62 5135818.09 181.22
-9755193.18 5135822.54 181.23
-9755196.12 5135822.53 181.26
-9755197.02 5135821.06 181.25
-9755194.98 5135818.68 181.23
-9755194.35 5135821.99 181.24
-9755194.89 5135825.80 181.25
-9755192.86 5135823.14 181.23
-9755193.46 5135821.35 181.23
-9755194.06 5135823.46 181.24
-9755194.03 5135824.29 181.24
-9755193.50 5135817.81 181.23
-9755196.12 5135826.14 181.26
-9755193.72 5135821.92 181.24
-9755195.83 5135826.36 181.27
-9755194.94 5135823.40 181.24
-9755195.52 5135824.96 181.25
-9755192.29 5135819.88 181.21
-9755196.11 5135820.74 181.25
-9755194.09 5135822.22 181.23
-9755192.55 5135825.78 181.24
-9755193.16 5135825.18 181.24
-9755194.62 5135822.84 181.25
-9755194.05 5135820.17 181.23
-9755192.87 5135817.80 181.21
-9755197.59 5135822.85 181.26
-9755196.71 5135823.71 181.27
-9755191.69 5135826.07 181.23
-9755195.52 5135818.37 181.23
-9755195.86 5135822.83 181.26
-9755191.73 5135819.56 181.20
-9755194.36 5135820.77 181.23
-9755195.51 5135825.77 181.26
-9755193.75 5135822.83 181.23
-9755196.99 5135818.68 181.24
-9755191.72 5135821.59 181.23
-9755193.42 5135826.67 181.24
-9755192.51 5135827.23 181.24
-9755191.98 5135826.63 181.24
-9755192.87 5135826.93 181.24
-9755194.05 5135826.69 181.26
-9755191.72 5135820.44 181.21
-9755190.85 5135820.44 181.20
-9755191.40 5135818.43 181.21
-9755190.56 5135820.12 181.21
-9755190.84 5135819.84 181.19
-9755190.22 5135823.36 181.21
-9755191.14 5135821.33 181.21
-9755190.25 5135818.65 181.19
-9755190.24 5135818.08 181.19
-9755189.94 5135825.15 181.22
-9755190.84 5135817.77 181.21
-9755190.26 5135818.93 181.19
-9755190.76 5135825.77 181.23
-9755190.23 5135821.89 181.21
-9755191.39 5135823.39 181.22
-9755191.11 5135823.11 181.21
-9755189.95 5135819.53 181.19
-9755190.17 5135826.92 181.23
-9755190.23 5135826.05 181.23
-9755191.38 5135826.63 181.23
-9755190.23 5135819.29 181.19
-9755190.22 5135824.90 181.22
-9755189.96 5135820.13 181.19
-9755189.66 5135818.64 181.19
-9755188.75 5135820.99 181.20
-9755187.26 5135824.28 181.20
-9755188.44 5135820.12 181.20
-9755187.90 5135822.53 181.19
-9755187.01 5135822.18 181.19
-9755188.22 5135817.76 181.19
-9755189.37 5135821.33 181.20
-9755189.90 5135824.27 181.21
-9755188.49 5135821.91 181.21
-9755189.28 5135825.76 181.21
-9755188.47 5135820.71 181.20
-9755187.28 5135822.48 181.19
-9755187.87 5135819.53 181.18
-9755186.97 5135826.02 181.22
-9755188.79 5135822.48 181.20
-9755188.49 5135821.60 181.21
-9755186.97 5135823.40 181.19
-9755189.88 5135824.86 181.21
-9755189.33 5135823.98 181.22
-9755187.02 5135819.55 181.18
-9755186.99 5135825.14 181.21
-9755189.69 5135818.35 181.19
-9755187.82 5135825.78 181.22
-9755189.36 5135818.97 181.19
-9755189.65 5135819.25 181.19
-9755189.31 5135824.28 181.22
-9755188.70 5135824.55 181.22
-9755186.98 5135817.74 181.19
-9755187.01 5135821.01 181.19
-9755187.82 5135825.43 181.22
-9755187.85 5135824.27 181.20
-9755188.50 5135818.65 181.19
-9755188.18 5135820.15 181.19
-9755187.57 5135825.72 181.21
-9755187.30 5135818.33 181.18
-9755189.86 5135826.90 181.23
-9755186.95 5135826.94 181.22
-9755188.40 5135826.04 181.22
-9755189.03 5135826.62 181.22
-9755189.28 5135826.95 181.23
-9755188.42 5135826.63 181.22
-9755187.86 5135827.25 181.22
-9755197.62 5135816.06 181.25
-9755195.27 5135816.91 181.24
-9755195.84 5135817.49 181.23
-9755197.33 5135817.51 181.25
-9755190.25 5135817.49 181.20
-9755196.42 5135816.92 181.24
-9755193.77 5135816.87 181.23
-9755194.70 5135817.50 181.24
-9755194.11 5135816.00 181.23
-9755192.61 5135816.01 181.22
-9755195.24 5135815.76 181.24
-9755193.79 5135817.49 181.23
-9755191.75 5135816.02 181.22
-9755196.77 5135815.44 181.25
-9755196.18 5135816.03 181.25
-9755193.51 5135816.31 181.23
-9755194.40 5135815.72 181.24
-9755193.23 5135815.97 181.23
-9755192.03 5135816.89 181.22
-9755196.45 5135815.74 181.25
-9755192.64 5135816.27 181.23
-9755191.11 5135817.49 181.21
-9755192.04 5135815.70 181.22
-9755196.14 5135816.32 181.25
-9755191.73 5135816.90 181.21
-9755193.18 5135816.60 181.23
-9755194.40 5135816.58 181.24
-9755197.72 5135801.25 181.29
-9755197.69 5135809.55 181.27
-9755197.98 5135812.45 181.26
-9755197.71 5135805.95 181.29
-9755198.04 5135803.59 181.29
-9755197.75 5135803.01 181.30
-9755197.37 5135809.22 181.27
-9755197.38 5135809.54 181.27
-9755198.00 5135800.33 181.30
-9755195.02 5135809.48 181.26
-9755196.55 5135800.35 181.30
-9755197.13 5135807.12 181.28
-9755196.80 5135808.01 181.28
-9755192.71 5135802.98 181.28
-9755192.66 5135810.67 181.25
-9755194.71 5135808.61 181.26
-9755195.02 5135802.72 181.28
-9755194.40 5135811.54 181.25
-9755196.81 5135809.81 181.27
-9755195.96 5135800.04 181.30
-9755193.54 5135811.26 181.25
-9755196.82 5135806.52 181.28
-9755192.99 5135802.69 181.28
-9755194.13 5135808.30 181.26
-9755197.11 5135804.48 181.30
-9755192.95 5135810.98 181.24
-9755195.03 5135812.16 181.24
-9755192.12 5135803.59 181.27
-9755193.61 5135800.88 181.28
-9755192.66 5135809.49 181.26
-9755194.43 5135809.80 181.26
-9755195.03 5135803.27 181.29
-9755192.10 5135802.98 181.27
-9755195.94 5135803.90 181.28
-9755192.69 5135805.94 181.26
-9755195.63 5135801.20 181.30
-9755195.91 5135806.55 181.28
-9755191.54 5135801.19 181.27
-9755196.26 5135802.41 181.29
-9755193.27 5135805.33 181.26
-9755196.47 5135806.88 181.28
-9755196.49 5135810.39 181.28
-9755196.80 5135810.69 181.26
-9755192.08 5135804.75 181.26
-9755195.05 5135802.06 181.29
-9755195.05 5135805.62 181.27
-9755192.08 5135805.94 181.26
-9755195.96 5135802.69 181.29
-9755192.68 5135807.97 181.26
-9755193.29 5135806.23 181.25
-9755192.34 5135807.11 181.26
-9755192.41 5135808.00 181.25
-9755194.50 5135804.48 181.27
-9755192.65 5135812.43 181.23
-9755193.27 5135800.29 181.28
-9755195.37 5135800.04 181.29
-9755197.10 5135806.23 181.28
-9755191.81 5135805.64 181.25
-9755193.53 5135805.61 181.27
-9755191.52 5135807.75 181.25
-9755197.13 5135805.09 181.28
-9755193.88 5135800.30 181.28
-9755193.23 5135809.49 181.26
-9755192.74 5135801.48 181.28
-9755197.04 5135810.99 181.26
-9755195.65 5135804.47 181.29
-9755195.95 5135803.30 181.28
-9755192.05 5135812.45 181.24
-9755193.29 5135804.73 181.26
-9755195.35 5135806.83 181.27
-9755197.39 5135807.77 181.29
-9755194.44 5135808.27 181.26
-9755196.23 5135801.20 181.29
-9755192.43 5135800.30 181.29
-9755192.08 5135806.27 181.25
-9755193.56 5135810.65 181.24
-9755193.25 5135808.59 181.26
-9755192.69 5135804.44 181.26
-9755195.66 5135805.97 181.28
-9755193.59 5135808.29 181.25
-9755192.95 5135811.58 181.24
-9755196.79 5135808.92 181.28
-9755196.44 5135811.83 181.25
-9755193.02 5135802.10 181.27
-9755196.83 5135803.58 181.28
-9755194.44 5135801.54 181.27
-9755194.43 5135809.18 181.26
-9755192.08 5135809.19 181.25
-9755193.57 5135809.76 181.25
-9755197.09 5135809.23 181.27
-9755193.88 5135806.81 181.26
-9755196.49 5135809.50 181.27
-9755197.40 5135807.43 181.28
-9755194.99 5135812.47 181.24
-9755192.40 5135805.05 181.27
-9755195.63 5135802.71 181.29
-9755192.10 5135799.98 181.29
-9755197.44 5135802.67 181.29
-9755195.33 5135807.45 181.27
-9755196.21 5135811.56 181.26
-9755191.49 5135804.45 181.26
-9755191.82 5135800.91 181.27
-9755194.14 5135805.93 181.26
-9755197.31 5135814.56 181.26
-9755197.01 5135812.75 181.26
-9755195.29 5135815.43 181.25
-9755193.51 5135813.37 181.25
-9755192.65 5135813.03 181.24
-9755196.75 5135814.27 181.25
-9755196.73 5135813.07 181.26
-9755195.00 5135814.51 181.25
-9755195.90 5135812.80 181.26
-9755192.35 5135813.66 181.23
-9755195.24 5135813.32 181.25
-9755195.30 5135813.94 181.26
-9755196.74 5135813.98 181.25
-9755193.23 5135812.75 181.24
-9755193.50 5135814.25 181.24
-9755195.56 5135815.15 181.25
-9755195.59 5135813.37 181.26
-9755196.48 5135814.22 181.25
-9755196.19 5135814.55 181.25
-9755197.37 5135813.07 181.27
-9755195.28 5135813.05 181.24
-9755196.47 5135814.55 181.24
-9755194.72 5135813.64 181.24
-9755194.08 5135814.20 181.24
-9755192.01 5135813.60 181.23
-9755192.08 5135814.54 181.23
-9755194.09 5135814.56 181.25
-9755194.98 5135814.82 181.24
-9755191.41 5135816.00 181.21
-9755191.72 5135816.29 181.22
-9755190.25 5135816.27 181.19
-9755190.54 5135817.47 181.20
-9755190.87 5135816.28 181.20
-9755188.79 5135816.89 181.19
-9755189.96 5135815.99 181.19
-9755187.58 5135816.86 181.18
-9755187.30 5135816.58 181.17
-9755187.01 5135816.56 181.18
-9755188.46 5135815.72 181.19
-9755187.61 5135815.97 181.19
-9755187.01 5135816.84 181.17
-9755188.48 5135816.28 181.19
-9755191.83 5135800.32 181.28
-9755191.78 5135810.35 181.24
-9755191.53 5135805.96 181.24
-9755190.32 5135805.60 181.26
-9755190.92 5135804.42 181.27
-9755191.78 5135808.33 181.24
-9755191.16 5135812.72 181.24
-9755190.91 5135802.41 181.28
-9755191.49 5135806.84 181.26
-9755191.77 5135810.67 181.24
-9755190.61 5135804.42 181.27
-9755190.87 5135808.03 181.25
-9755190.31 5135802.34 181.28
-9755191.53 5135803.59 181.27
-9755190.35 5135801.50 181.28
-9755190.59 5135812.44 181.23
-9755190.88 5135809.77 181.25
-9755190.59 5135811.82 181.24
-9755191.20 5135809.47 181.25
-9755190.34 5135807.40 181.25
-9755190.37 5135803.55 181.27
-9755190.89 5135810.94 181.24
-9755190.95 5135801.49 181.28
-9755190.02 5135809.19 181.25
-9755190.04 5135805.04 181.26
-9755190.94 5135801.19 181.28
-9755190.90 5135808.26 181.26
-9755190.31 5135808.29 181.26
-9755191.15 5135813.02 181.23
-9755191.72 5135813.02 181.25
-9755190.26 5135813.02 181.23
-9755190.87 5135815.40 181.20
-9755190.27 5135813.30 181.23
-9755191.76 5135815.11 181.22
-9755190.71 5135800.29 181.29
-9755190.06 5135801.19 181.28
-9755189.41 5135810.97 181.23
-9755188.52 5135811.53 181.24
-9755190.01 5135805.34 181.27
-9755189.46 5135802.69 181.28
-9755189.42 5135804.74 181.27
-9755189.71 5135810.96 181.23
-9755189.98 5135812.13 181.23
-9755190.01 5135808.92 181.25
-9755187.70 5135804.13 181.27
-9755190.00 5135811.52 181.23
-9755190.06 5135801.47 181.27
-9755187.96 5135807.07 181.26
-9755187.61 5135810.96 181.23
-9755188.52 5135807.11 181.26
-9755187.06 5135811.24 181.23
-9755188.86 5135800.28 181.29
-9755187.68 5135805.00 181.28
-9755187.70 5135800.88 181.28
-9755187.60 5135812.70 181.22
-9755189.16 5135805.96 181.25
-9755188.00 5135804.70 181.27
-9755190.04 5135803.56 181.28
-9755189.12 5135809.17 181.25
-9755187.71 5135801.17 181.28
-9755190.01 5135810.64 181.24
-9755187.62 5135810.63 181.23
-9755188.53 5135806.52 181.26
-9755188.28 5135802.05 181.29
-9755187.41 5135802.06 181.28
-9755187.92 5135809.48 181.24
-9755188.56 5135805.00 181.28
-9755188.29 5135807.65 181.25
-9755188.54 5135808.26 181.25
-9755188.60 5135803.86 181.27
-9755187.06 5135805.00 181.27
-9755188.24 5135811.84 181.23
-9755187.95 5135811.80 181.23
-9755188.59 5135799.98 181.28
-9755189.45 5135800.57 181.28
-9755187.42 5135800.32 181.28
-9755187.69 5135803.24 181.29
-9755187.08 5135806.80 181.26
-9755187.05 5135805.91 181.26
-9755187.65 5135812.11 181.22
-9755188.82 5135810.33 181.24
-9755188.59 5135801.73 181.28
-9755188.24 5135801.18 181.28
-9755188.55 5135810.05 181.25
-9755188.55 5135805.91 181.26
-9755188.23 5135808.55 181.25
-9755187.97 5135805.91 181.26
-9755188.57 5135806.81 181.26
-9755188.56 5135800.87 181.28
-9755187.67 5135805.91 181.26
-9755188.82 5135810.95 181.23
-9755189.45 5135801.14 181.28
-9755188.89 5135802.09 181.27
-9755188.56 5135803.56 181.27
-9755189.40 5135807.40 181.25
-9755188.48 5135815.38 181.20
-9755190.00 5135813.59 181.21
-9755189.40 5135813.92 181.21
-9755187.33 5135813.64 181.20
-9755187.96 5135813.32 181.22
-9755189.68 5135814.20 181.21
-9755187.04 5135813.01 181.21
-9755188.15 5135814.52 181.21
-9755188.51 5135814.79 181.21
-9755187.01 5135814.53 181.20
-9755189.07 5135812.72 181.23
-9755188.50 5135813.62 181.21
-9755187.61 5135813.90 181.21
-9755189.41 5135813.01 181.22
-9755187.65 5135814.50 181.21
-9755187.73 5135799.94 181.29
-9755239.61 5135798.79 181.13
-9755239.29 5135798.79 181.14
-9755238.43 5135798.82 181.15
-9755233.10 5135799.06 181.13
-9755231.05 5135798.80 181.16
-9755236.95 5135799.08 181.15
-9755230.49 5135799.05 181.16
-9755238.15 5135799.35 181.15
-9755233.70 5135799.38 181.15
-9755234.58 5135799.12 181.15
-9755236.13 5135798.80 181.13
-9755238.39 5135800.23 181.16
-9755239.23 5135800.32 181.15
-9755235.18 5135800.25 181.14
-9755236.66 5135800.24 181.17
-9755231.37 5135799.62 181.16
-9755237.50 5135800.29 181.16
-9755232.86 5135800.25 181.15
-9755232.80 5135799.65 181.15
-9755226.64 5135798.73 181.17
-9755226.95 5135798.73 181.17
-9755228.11 5135799.87 181.19
-9755225.77 5135799.30 181.16
-9755229.54 5135800.21 181.17
-9755226.31 5135800.19 181.17
-9755225.15 5135800.22 181.17
-9755227.76 5135799.62 181.17
-9755225.75 5135799.58 181.17
-9755237.82 5135798.85 181.15
-9755239.61 5135788.72 181.08
-9755239.61 5135790.54 181.08
-9755239.33 5135797.89 181.12
-9755239.08 5135788.20 181.06
-9755238.77 5135797.91 181.11
-9755238.77 5135789.97 181.07
-9755239.05 5135789.03 181.06
-9755239.64 5135787.87 181.07
-9755238.75 5135795.85 181.11
-9755239.05 5135789.31 181.05
-9755238.47 5135789.07 181.08
-9755238.44 5135794.68 181.10
-9755238.49 5135790.20 181.07
-9755238.43 5135796.50 181.11
-9755233.10 5135798.51 181.15
-9755237.84 5135794.03 181.10
-9755238.43 5135797.93 181.14
-9755232.86 5135794.28 181.13
-9755233.77 5135788.14 181.11
-9755232.52 5135792.83 181.12
-9755232.87 5135794.02 181.13
-9755235.52 5135794.38 181.11
-9755231.38 5135792.26 181.13
-9755234.04 5135798.13 181.14
-9755232.87 5135796.11 181.15
-9755231.36 5135790.45 181.13
-9755229.90 5135797.27 181.15
-9755236.43 5135790.21 181.08
-9755231.09 5135794.61 181.15
-9755231.33 5135795.49 181.14
-9755231.42 5135789.31 181.12
-9755235.82 5135789.63 181.08
-9755235.50 5135791.40 181.08
-9755233.71 5135794.66 181.12
-9755233.71 5135793.13 181.11
-9755231.38 5135797.28 181.15
-9755235.22 5135795.55 181.12
-9755230.49 5135794.33 181.14
-9755231.38 5135787.19 181.13
-9755237.90 5135788.40 181.08
-9755230.47 5135797.87 181.16
-9755231.94 5135794.03 181.12
-9755231.11 5135793.14 181.12
-9755230.46 5135796.36 181.14
-9755231.43 5135788.43 181.13
-9755236.12 5135793.45 181.09
-9755232.86 5135797.00 181.15
-9755234.92 5135797.61 181.13
-9755230.57 5135788.08 181.15
-9755229.93 5135789.00 181.16
-9755237.28 5135793.16 181.10
-9755232.22 5135796.66 181.15
-9755233.46 5135792.25 181.11
-9755231.39 5135795.18 181.13
-9755233.46 5135794.33 181.13
-9755232.85 5135791.98 181.12
-9755237.04 5135789.60 181.08
-9755231.64 5135794.06 181.12
-9755235.80 5135792.59 181.09
-9755231.66 5135796.13 181.15
-9755235.49 5135794.90 181.11
-9755232.57 5135788.66 181.12
-9755236.67 5135795.23 181.11
-9755234.66 5135790.51 181.09
-9755238.13 5135787.56 181.08
-9755232.85 5135788.73 181.12
-9755233.18 5135789.28 181.10
-9755231.37 5135798.18 181.16
-9755232.52 5135794.32 181.12
-9755233.20 5135791.07 181.12
-9755230.83 5135792.25 181.12
-9755230.52 5135789.34 181.12
-9755233.48 5135789.89 181.09
-9755232.25 5135789.31 181.13
-9755233.76 5135788.37 181.10
-9755232.92 5135786.94 181.13
-9755233.39 5135797.00 181.13
-9755231.40 5135789.57 181.12
-9755234.04 5135794.38 181.11
-9755232.26 5135791.04 181.12
-9755238.14 5135789.34 181.07
-9755232.26 5135794.94 181.12
-9755229.92 5135792.21 181.15
-9755236.38 5135792.81 181.09
-9755233.71 5135797.60 181.13
-9755234.08 5135788.97 181.10
-9755229.96 5135794.35 181.15
-9755233.13 5135796.07 181.14
-9755233.42 5135795.28 181.14
-9755231.32 5135794.31 181.13
-9755226.36 5135797.85 181.17
-9755228.12 5135786.95 181.16
-9755228.16 5135792.50 181.16
-9755228.13 5135786.56 181.17
-9755226.64 5135790.76 181.16
-9755226.93 5135792.80 181.16
-9755229.58 5135792.82 181.14
-9755227.56 5135788.99 181.17
-9755229.04 5135791.08 181.15
-9755229.30 5135789.52 181.16
-9755225.81 5135788.07 181.17
-9755227.58 5135787.22 181.16
-9755226.05 5135794.58 181.16
-9755229.00 5135796.35 181.16
-9755226.32 5135796.97 181.17
-9755228.46 5135789.90 181.16
-9755229.64 5135788.70 181.16
-9755227.27 5135792.53 181.17
-9755227.28 5135793.42 181.18
-9755225.82 5135793.36 181.18
-9755226.37 5135798.14 181.17
-9755226.68 5135795.52 181.17
-9755229.69 5135788.34 181.15
-9755227.52 5135798.47 181.18
-9755228.18 5135789.88 181.16
-9755226.68 5135794.00 181.18
-9755228.96 5135797.85 181.18
-9755226.63 5135794.86 181.17
-9755225.58 5135788.07 181.17
-9755226.98 5135789.57 181.18
-9755226.41 5135794.87 181.17
-9755226.38 5135792.80 181.18
-9755227.30 5135790.71 181.17
-9755226.96 5135796.08 181.16
-9755225.81 5135789.91 181.17
-9755226.69 5135787.76 181.17
-9755226.68 5135796.66 181.18
-9755226.96 5135793.10 181.16
-9755227.22 5135796.37 181.17
-9755225.82 5135790.71 181.17
-9755228.18 5135787.18 181.17
-9755229.36 5135790.52 181.16
-9755226.36 5135788.34 181.16
-9755228.16 5135790.12 181.16
-9755225.84 5135786.58 181.18
-9755226.96 5135792.23 181.17
-9755226.38 5135794.00 181.17
-9755228.13 5135790.73 181.16
-9755225.73 5135794.88 181.17
-9755228.96 5135798.43 181.16
-9755226.40 5135789.52 181.17
-9755228.73 5135791.91 181.16
-9755227.55 5135796.97 181.17
-9755228.22 5135789.24 181.16
-9755225.17 5135792.26 181.18
-9755225.69 5135797.26 181.17
-9755226.71 5135786.58 181.16
-9755226.67 5135789.56 181.19
-9755229.11 5135791.65 181.17
-9755220.74 5135798.97 181.37
-9755223.38 5135798.69 181.22
-9755223.07 5135799.30 181.24
-9755220.15 5135798.71 181.39
-9755220.99 5135798.72 181.37
-9755223.97 5135799.57 181.19
-9755222.53 5135799.60 181.28
-9755224.26 5135799.56 181.19
-9755223.06 5135799.59 181.25
-9755223.38 5135799.60 181.22
-9755220.11 5135799.60 181.39
-9755218.98 5135799.81 181.41
-9755220.78 5135799.56 181.36
-9755217.19 5135799.27 181.43
-9755213.92 5135798.62 181.47
-9755212.48 5135798.34 181.50
-9755211.29 5135799.52 181.50
-9755214.57 5135799.58 181.45
-9755215.43 5135799.54 181.45
-9755213.04 5135799.55 181.48
-9755211.57 5135799.79 181.49
-9755218.13 5135799.56 181.43
-9755211.60 5135799.51 181.48
-9755218.35 5135799.82 181.43
-9755214.83 5135799.58 181.45
-9755211.90 5135799.53 181.48
-9755211.60 5135798.63 181.50
-9755210.12 5135798.62 181.50
-9755204.24 5135798.92 181.30
-9755206.90 5135798.87 181.49
-9755206.87 5135798.59 181.48
-9755207.48 5135798.93 181.48
-9755209.83 5135798.90 181.51
-9755201.57 5135799.46 181.31
-9755208.31 5135798.89 181.50
-9755201.24 5135799.47 181.31
-9755198.28 5135799.73 181.30
-9755200.93 5135799.78 181.31
-9755206.31 5135799.46 181.47
-9755200.08 5135800.06 181.31
-9755203.96 5135799.47 181.30
-9755210.74 5135799.53 181.50
-9755207.76 5135799.47 181.48
-9755200.99 5135799.48 181.31
-9755202.14 5135799.51 181.31
-9755206.01 5135799.50 181.46
-9755208.91 5135799.48 181.51
-9755203.62 5135799.49 181.31
-9755206.60 5135799.21 181.47
-9755199.19 5135799.15 181.31
-9755209.82 5135800.08 181.50
-9755198.89 5135799.45 181.30
-9755204.19 5135799.19 181.30
-9755198.35 5135799.42 181.30
-9755203.36 5135799.44 181.30
-9755206.86 5135799.51 181.48
-9755225.48 5135796.09 181.17
-9755224.88 5135795.17 181.18
-9755225.45 5135791.33 181.19
-9755225.20 5135789.54 181.18
-9755224.94 5135786.61 181.17
-9755224.94 5135789.21 181.17
-9755225.49 5135787.50 181.17
-9755224.83 5135796.34 181.18
-9755223.46 5135787.78 181.23
-9755223.42 5135786.87 181.03
-9755221.92 5135796.32 181.39
-9755224.65 5135786.58 181.19
-9755224.81 5135797.25 181.17
-9755221.63 5135798.43 181.34
-9755223.39 5135790.38 181.28
-9755220.19 5135788.59 181.41
-9755221.66 5135788.36 181.40
-9755219.27 5135798.06 181.41
-9755221.08 5135790.40 181.40
-9755219.88 5135788.65 181.42
-9755220.46 5135791.28 181.41
-9755219.88 5135793.65 181.41
-9755219.35 5135789.49 181.42
-9755220.13 5135797.77 181.39
-9755223.41 5135795.19 181.31
-9755219.27 5135796.07 181.43
-9755222.29 5135789.51 181.38
-9755220.77 5135791.00 181.41
-9755219.37 5135786.54 181.41
-9755223.13 5135792.74 181.36
-9755221.63 5135791.86 181.40
-9755224.28 5135797.24 181.16
-9755223.05 5135798.08 181.26
-9755219.63 5135788.01 181.41
-9755224.00 5135795.74 181.19
-9755223.11 5135793.66 181.36
-9755219.59 5135795.42 181.41
-9755224.61 5135792.86 181.18
-9755224.03 5135789.24 181.18
-9755222.28 5135789.27 181.38
-9755223.98 5135794.55 181.19
-9755222.53 5135794.84 181.38
-9755219.85 5135796.29 181.41
-9755220.79 5135792.75 181.40
-9755220.16 5135796.30 181.41
-9755224.25 5135794.00 181.18
-9755222.27 5135786.83 181.38
-9755223.77 5135786.58 181.18
-9755222.86 5135788.61 181.36
-9755224.04 5135793.37 181.19
-9755223.43 5135793.08 181.28
-9755221.29 5135796.32 181.40
-9755221.66 5135786.53 181.39
-9755224.63 5135788.10 181.17
-9755222.56 5135790.07 181.37
-9755222.81 5135793.08 181.37
-9755222.52 5135795.44 181.37
-9755221.33 5135796.91 181.39
-9755220.13 5135792.78 181.40
-9755222.24 5135790.72 181.38
-9755222.20 5135796.04 181.38
-9755224.02 5135791.62 181.19
-9755220.75 5135798.13 181.38
-9755219.54 5135797.80 181.41
-9755223.40 5135789.82 181.23
-9755220.18 5135794.54 181.41
-9755223.14 5135788.07 181.34
-9755224.00 5135796.36 181.18
-9755221.05 5135797.77 181.38
-9755223.41 5135794.55 181.30
-9755224.30 5135790.69 181.19
-9755223.16 5135786.87 181.32
-9755223.11 5135794.57 181.36
-9755221.36 5135790.41 181.40
-9755223.74 5135788.35 181.20
-9755222.25 5135788.00 181.38
-9755220.19 5135792.14 181.40
-9755223.72 5135797.01 181.21
-9755222.55 5135789.23 181.38
-9755223.38 5135797.79 181.25
-9755221.38 5135791.60 181.40
-9755209.57 5135798.62 181.51
-9755216.57 5135798.66 181.44
-9755211.62 5135798.31 181.52
-9755212.62 5135787.25 184.75
-9755212.06 5135786.43 183.40
-9755214.86 5135795.36 181.65
-9755215.11 5135797.16 181.59
-9755212.55 5135786.36 184.43
-9755215.75 5135788.29 181.62
-9755214.57 5135786.68 183.26
-9755211.16 5135787.10 183.61
-9755215.73 5135797.77 181.53
-9755212.52 5135791.20 181.72
-9755212.88 5135787.89 184.88
-9755213.09 5135792.99 181.72
-9755212.21 5135786.92 184.13
-9755212.51 5135793.00 181.72
-9755213.41 5135790.34 181.70
-9755212.22 5135789.72 181.69
-9755215.46 5135797.18 181.58
-9755212.89 5135786.88 183.59
-9755217.50 5135796.34 181.53
-9755213.11 5135787.79 184.83
-9755218.12 5135789.18 181.49
-9755211.70 5135786.67 184.94
-9755217.79 5135798.12 181.43
-9755211.38 5135786.60 184.62
-9755218.08 5135796.91 181.49
-9755216.39 5135788.61 181.61
-9755215.18 5135790.38 181.66
-9755212.58 5135787.78 184.00
-9755216.96 5135789.79 181.57
-9755217.55 5135788.03 181.52
-9755211.65 5135786.39 184.61
-9755213.03 5135797.16 181.62
-9755214.91 5135787.40 181.64
-9755218.04 5135796.03 181.49
-9755216.65 5135789.49 181.58
-9755213.98 5135792.69 181.71
-9755212.45 5135797.78 181.58
-9755213.15 5135786.39 183.44
-9755211.67 5135790.05 181.69
-9755211.69 5135786.35 183.77
-9755216.10 5135786.51 181.59
-9755211.61 5135786.73 183.87
-9755211.89 5135797.15 181.62
-9755215.21 5135789.18 181.66
-9755211.69 5135786.66 184.65
-9755215.20 5135788.59 181.66
-9755213.99 5135793.60 181.68
-9755213.48 5135787.28 183.25
-9755212.36 5135786.78 183.69
-9755214.23 5135794.82 181.67
-9755212.14 5135787.01 183.69
-9755211.63 5135791.47 181.72
-9755211.65 5135786.62 184.46
-9755217.82 5135795.44 181.50
-9755214.04 5135787.50 183.39
-9755215.79 5135790.09 181.62
-9755214.63 5135788.24 181.66
-9755212.91 5135786.64 184.45
-9755216.04 5135795.73 181.62
-9755215.46 5135791.20 181.63
-9755213.15 5135791.23 181.72
-9755214.58 5135792.15 181.68
-9755211.52 5135786.51 183.74
-9755212.26 5135792.39 181.72
-9755218.41 5135795.11 181.48
-9755215.15 5135793.60 181.66
-9755211.40 5135787.09 184.01
-9755218.09 5135793.93 181.49
-9755214.36 5135787.02 183.24
-9755214.57 5135796.29 181.67
-9755213.44 5135789.50 181.71
-9755216.65 5135789.18 181.59
-9755213.38 5135795.99 181.68
-9755217.29 5135789.49 181.55
-9755213.23 5135786.76 183.71
-9755216.38 5135786.78 181.58
-9755212.81 5135787.22 183.90
-9755212.20 5135794.81 181.72
-9755216.06 5135787.38 181.61
-9755213.97 5135790.64 181.70
-9755217.86 5135787.11 181.48
-9755216.94 5135797.20 181.52
-9755212.30 5135786.37 184.47
-9755213.10 5135794.78 181.70
-9755216.37 5135791.58 181.61
-9755214.30 5135790.36 181.70
-9755216.01 5135794.51 181.62
-9755212.53 5135792.71 181.72
-9755211.90 5135795.99 181.69
-9755218.69 5135794.57 181.46
-9755216.36 5135791.83 181.59
-9755211.93 5135786.95 183.99
-9755214.31 5135786.54 181.65
