-9755628.65 5135280.01 185.31
-9755633.89 5135287.50 185.18
-9755628.63 5135288.65 185.27
-9755632.19 5135288.31 185.30
-9755638.04 5135288.31 185.10
-9755621.51 5135283.24 185.32
-9755623.03 5135280.89 185.32
-9755628.30 5135284.45 185.23
-9755628.30 5135283.54 185.22
-9755626.28 5135283.24 185.36
-9755628.26 5135286.50 185.21
-9755623.91 5135283.50 185.34
-9755625.08 5135286.84 185.34
-9755626.88 5135282.67 185.33
-9755622.13 5135286.20 185.27
-9755620.66 5135280.26 185.32
-9755622.17 5135284.42 185.25
-9755628.29 5135285.38 185.22
-9755627.74 5135285.91 185.13
-9755626.26 5135284.20 185.36
-9755623.09 5135284.39 185.33
-9755620.65 5135284.12 185.32
-9755624.51 5135287.40 185.36
-9755626.58 5135282.40 185.35
-9755626.23 5135285.95 185.36
-9755627.12 5135287.44 185.31
-9755625.69 5135279.95 185.35
-9755627.14 5135283.26 185.29
-9755623.94 5135288.27 185.34
-9755628.00 5135282.72 185.15
-9755623.90 5135287.69 185.33
-9755625.43 5135284.42 185.34
-9755623.65 5135279.99 185.36
-9755628.10 5135280.35 185.21
-9755623.94 5135280.85 185.36
-9755624.47 5135288.28 185.36
-9755624.81 5135280.90 185.36
-9755629.71 5135295.97 185.31
-9755632.10 5135299.25 185.29
-9755632.08 5135295.13 185.30
-9755635.34 5135291.64 185.11
-9755633.01 5135289.81 185.29
-9755635.32 5135289.82 185.11
-9755630.63 5135291.57 185.27
-9755628.86 5135294.46 185.26
-9755637.89 5135299.86 185.00
-9755629.74 5135291.56 185.29
-9755632.38 5135298.29 185.29
-9755629.21 5135290.14 185.30
-9755629.07 5135298.97 185.27
-9755630.66 5135293.35 185.28
-9755630.64 5135294.28 185.28
-9755636.28 5135293.40 185.08
-9755637.10 5135295.79 185.06
-9755632.97 5135295.49 185.27
-9755629.51 5135290.93 185.30
-9755635.35 5135292.52 185.10
-9755631.18 5135299.00 185.29
-9755636.56 5135292.47 185.10
-9755631.53 5135293.33 185.29
-9755638.01 5135291.01 185.07
-9755635.32 5135298.40 185.08
-9755639.42 5135293.39 185.18
-9755634.73 5135296.62 185.10
-9755630.33 5135291.00 185.27
-9755632.97 5135298.96 185.27
-9755632.13 5135290.98 185.30
-9755637.45 5135297.21 185.01
-9755629.44 5135293.39 185.29
-9755632.11 5135293.37 185.29
-9755633.00 5135296.60 185.27
-9755638.84 5135295.22 185.05
-9755637.11 5135292.23 185.08
-9755638.04 5135290.15 185.08
-9755638.05 5135297.56 185.00
-9755633.86 5135292.43 185.13
-9755637.47 5135298.71 185.01
-9755633.56 5135299.91 185.19
-9755638.91 5135292.79 185.06
-9755631.22 5135290.10 185.28
-9755637.13 5135291.01 185.10
-9755629.15 5135295.11 185.28
-9755637.94 5135298.39 185.01
-9755638.60 5135291.64 185.07
-9755634.77 5135295.68 185.10
-9755628.57 5135292.49 185.25
-9755630.36 5135296.88 185.27
-9755639.81 5135291.94 185.26
-9755629.71 5135297.51 185.31
-9755638.91 5135297.55 185.05
-9755637.98 5135296.73 184.97
-9755636.19 5135299.34 185.07
-9755628.60 5135293.39 185.24
-9755635.65 5135295.78 185.07
-9755637.11 5135290.10 185.09
-9755637.11 5135296.70 185.04
-9755634.86 5135288.97 185.12
-9755637.11 5135288.98 185.10
-9755639.50 5135294.05 185.18
-9755633.89 5135294.00 185.12
-9755638.87 5135295.74 185.06
-9755639.73 5135297.58 185.20
-9755621.45 5135299.78 185.30
-9755622.93 5135295.67 185.29
-9755621.14 5135298.93 185.28
-9755626.21 5135291.81 185.33
-9755626.52 5135295.71 185.33
-9755624.72 5135297.48 185.33
-9755623.86 5135297.51 185.34
-9755620.55 5135298.32 185.29
-9755620.66 5135290.62 185.31
-9755626.24 5135290.02 185.36
-9755624.74 5135292.71 185.34
-9755628.30 5135290.09 185.16
-9755625.65 5135294.19 185.34
-9755626.53 5135296.64 185.32
-9755622.34 5135295.05 185.26
-9755622.11 5135296.57 185.28
-9755622.99 5135297.47 185.31
-9755624.66 5135298.32 185.33
-9755628.30 5135294.21 185.12
-9755624.17 5135290.94 185.36
-9755623.29 5135289.11 185.32
-9755624.80 5135289.48 185.34
-9755628.28 5135291.54 185.14
-9755620.61 5135293.90 185.29
-9755626.50 5135294.19 185.35
-9755623.02 5135290.67 185.31
-9755628.26 5135295.13 185.12
-9755623.29 5135298.92 185.32
-9755627.12 5135295.42 185.30
-9755622.93 5135299.80 185.26
-9755622.02 5135298.31 185.30
-9755626.21 5135299.79 185.35
-9755622.97 5135292.44 185.30
-9755622.96 5135298.59 185.29
-9755622.97 5135288.57 185.30
-9755627.36 5135293.63 185.29
-9755622.04 5135295.97 185.30
-9755624.43 5135298.92 185.31
-9755617.37 5135300.70 184.92
-9755615.31 5135300.22 181.21
-9755615.31 5135300.87 183.66
-9755614.91 5135300.66 181.29
-9755614.63 5135301.66 183.27
-9755614.87 5135301.44 181.29
-9755615.21 5135301.25 182.49
-9755614.95 5135300.19 183.58
-9755614.77 5135300.72 183.72
-9755614.76 5135299.83 184.64
-9755614.98 5135300.91 182.27
-9755614.93 5135299.98 181.29
-9755614.83 5135299.88 182.04
-9755616.43 5135303.41 184.88
-9755616.42 5135304.25 184.87
-9755616.37 5135306.37 184.86
-9755615.00 5135309.02 182.33
-9755618.68 5135303.91 185.27
-9755616.41 5135304.84 184.89
-9755618.16 5135302.49 185.18
-9755617.31 5135302.47 184.93
-9755618.20 5135303.10 185.19
-9755619.06 5135308.72 185.27
-9755619.11 5135306.60 185.28
-9755618.23 5135304.79 185.20
-9755615.55 5135305.71 184.75
-9755614.91 5135309.10 181.30
-9755614.95 5135303.95 184.61
-9755615.03 5135305.62 181.90
-9755615.00 5135308.18 182.33
-9755619.70 5135303.31 185.30
-9755614.95 5135305.73 184.63
-9755615.30 5135309.17 182.25
-9755614.88 5135304.93 182.14
-9755614.94 5135307.40 182.23
-9755614.66 5135302.55 181.79
-9755614.97 5135303.98 182.22
-9755614.93 5135307.07 181.29
-9755614.97 5135306.54 182.13
-9755614.86 5135305.52 182.69
-9755614.72 5135302.33 182.88
-9755614.90 5135308.19 181.30
-9755615.14 5135308.16 182.96
-9755614.01 5135304.98 181.20
-9755614.00 5135309.15 181.30
-9755614.06 5135306.54 181.23
-9755613.99 5135308.23 181.26
-9755609.04 5135300.50 181.09
-9755609.09 5135301.38 181.07
-9755610.79 5135300.56 181.07
-9755609.87 5135300.79 181.09
-9755613.14 5135299.97 181.25
-9755612.54 5135305.60 181.19
-9755609.21 5135307.36 181.09
-9755613.39 5135309.04 182.59
-9755610.20 5135304.72 181.06
-9755612.28 5135309.11 182.64
-9755612.59 5135307.08 182.60
-9755611.65 5135304.70 181.22
-9755610.76 5135302.61 181.08
-9755610.59 5135309.15 181.46
-9755613.08 5135306.16 181.18
-9755611.65 5135308.31 181.96
-9755612.57 5135302.64 181.26
-9755613.48 5135302.59 181.26
-9755611.39 5135305.86 181.20
-9755612.81 5135308.42 182.61
-9755612.28 5135301.69 181.28
-9755609.89 5135306.76 181.07
-9755613.08 5135305.88 181.18
-9755616.78 5135286.78 184.89
-9755618.36 5135280.90 185.30
-9755618.87 5135285.85 185.32
-9755618.33 5135287.36 185.27
-9755619.73 5135286.19 185.30
-9755615.69 5135280.22 184.84
-9755615.71 5135284.44 184.80
-9755617.44 5135282.60 185.03
-9755618.93 5135279.93 185.34
-9755617.35 5135284.39 185.00
-9755618.88 5135282.60 185.32
-9755617.43 5135280.88 185.07
-9755619.83 5135281.12 185.31
-9755618.34 5135281.72 185.30
-9755616.31 5135283.23 184.87
-9755618.92 5135281.47 185.31
-9755617.44 5135283.53 185.04
-9755617.45 5135287.61 184.97
-9755617.68 5135285.02 185.08
-9755617.14 5135281.25 184.96
-9755615.07 5135286.77 184.68
-9755614.81 5135288.32 183.60
-9755614.15 5135283.53 184.52
-9755614.16 5135282.81 181.30
-9755614.79 5135282.64 184.68
-9755614.24 5135280.49 183.15
-9755614.71 5135282.71 181.34
-9755614.69 5135285.94 183.08
-9755614.67 5135284.19 182.83
-9755614.58 5135287.61 182.06
-9755614.70 5135286.75 183.08
-9755614.34 5135283.45 181.94
-9755614.81 5135279.94 183.09
-9755615.00 5135286.68 181.36
-9755614.17 5135283.72 181.29
-9755614.80 5135284.79 182.15
-9755614.38 5135284.10 182.67
-9755614.13 5135280.81 184.49
-9755614.16 5135287.57 181.25
-9755614.29 5135282.10 182.03
-9755614.42 5135284.49 182.14
-9755614.21 5135283.26 183.34
-9755614.98 5135282.09 181.35
-9755614.53 5135282.63 182.97
-9755614.09 5135286.88 181.25
-9755614.29 5135280.93 182.16
-9755614.30 5135285.16 183.15
-9755614.14 5135285.23 181.28
-9755614.70 5135281.91 182.84
-9755614.11 5135280.16 181.29
-9755614.05 5135288.18 181.25
-9755614.23 5135280.44 181.96
-9755614.15 5135282.65 184.57
-9755614.44 5135286.24 182.11
-9755614.42 5135282.78 182.49
-9755614.29 5135285.62 182.55
-9755613.89 5135284.30 181.29
-9755614.69 5135283.59 182.00
-9755614.41 5135282.51 182.68
-9755619.12 5135294.19 185.31
-9755617.36 5135296.53 184.93
-9755616.46 5135296.56 184.83
-9755617.34 5135295.94 184.93
-9755618.23 5135298.91 185.22
-9755618.27 5135294.18 185.25
-9755616.52 5135293.28 184.87
-9755617.44 5135289.44 184.97
-9755615.60 5135291.79 184.71
-9755615.86 5135290.84 184.78
-9755615.61 5135298.34 184.73
-9755619.10 5135297.44 185.29
-9755616.50 5135289.16 184.86
-9755616.21 5135297.45 184.84
-9755617.36 5135290.07 184.94
-9755618.23 5135295.62 185.21
-9755618.29 5135290.58 185.25
-9755618.21 5135297.42 185.22
-9755615.90 5135294.16 184.77
-9755619.14 5135295.10 185.31
-9755616.21 5135293.89 184.82
-9755615.30 5135298.03 181.30
-9755614.99 5135299.40 182.93
-9755614.89 5135294.30 182.19
-9755614.39 5135291.40 183.22
-9755614.01 5135299.32 181.28
-9755614.92 5135293.35 181.93
-9755614.64 5135288.36 181.28
-9755614.87 5135299.04 181.28
-9755614.44 5135296.87 183.21
-9755615.00 5135297.46 184.65
-9755614.96 5135298.29 184.64
-9755614.92 5135294.98 181.34
-9755614.08 5135293.49 181.27
-9755614.97 5135299.21 184.64
-9755614.77 5135299.01 182.23
-9755614.98 5135296.08 181.35
-9755614.37 5135289.31 182.49
-9755614.82 5135290.73 183.40
-9755614.70 5135290.15 182.97
-9755614.43 5135293.42 183.96
-9755614.97 5135293.36 182.85
-9755614.73 5135294.36 181.33
-9755614.72 5135292.50 181.29
-9755614.42 5135288.66 182.69
-9755614.14 5135292.53 181.30
-9755614.11 5135294.07 181.27
-9755614.98 5135293.26 181.33
-9755614.42 5135293.27 184.42
-9755614.14 5135295.10 184.37
-9755614.73 5135291.50 183.65
-9755614.39 5135294.83 182.17
-9755614.42 5135294.25 181.79
-9755614.15 5135294.36 184.44
-9755614.12 5135295.90 181.32
-9755614.33 5135297.32 184.47
-9755614.20 5135291.15 184.58
-9755614.40 5135292.37 184.49
-9755610.92 5135286.90 181.16
-9755609.20 5135283.78 181.07
-9755610.06 5135281.94 181.07
-9755612.69 5135284.30 181.23
-9755612.41 5135283.37 181.23
-9755613.21 5135280.11 181.25
-9755609.76 5135284.51 181.06
-9755609.13 5135281.26 181.10
-9755609.97 5135286.93 181.03
-9755611.48 5135284.01 181.24
-9755611.51 5135281.57 181.24
-9755610.83 5135287.51 181.10
-9755609.96 5135288.41 181.05
-9755610.87 5135288.39 181.12
-9755609.34 5135290.86 181.07
-9755611.77 5135289.27 181.23
-9755612.94 5135292.57 181.24
-9755610.81 5135299.07 181.06
-9755609.05 5135298.46 181.10
-9755612.63 5135291.71 181.23
-9755610.03 5135289.86 181.05
-9755612.89 5135299.09 181.25
-9755613.19 5135293.19 181.25
-9755610.87 5135289.30 181.10
-9755610.85 5135289.92 181.10
-9755609.05 5135293.23 181.09
-9755609.06 5135297.27 181.09
-9755709.45 5135275.39 185.80
-9755711.22 5135274.29 185.81
-9755713.87 5135274.23 185.82
-9755712.98 5135275.18 185.82
-9755712.13 5135274.25 185.80
-9755712.72 5135274.27 185.82
-9755710.34 5135276.92 185.79
-9755709.43 5135278.37 185.78
-9755710.59 5135280.20 185.77
-9755712.10 5135279.58 185.77
-9755710.93 5135279.29 185.78
-9755710.32 5135276.00 185.79
-9755711.80 5135278.68 185.79
-9755713.61 5135277.84 185.81
-9755709.44 5135279.29 185.76
-9755713.68 5135260.97 185.93
-9755712.79 5135260.93 185.92
-9755711.95 5135260.34 185.92
-9755711.91 5135259.45 185.92
-9755713.08 5135261.84 185.91
-9755712.69 5135272.79 185.83
-9755713.61 5135270.70 185.85
-9755711.91 5135265.08 185.87
-9755709.76 5135274.53 185.78
-9755713.02 5135268.91 185.85
-9755711.25 5135268.03 185.85
-9755713.66 5135262.99 185.91
-9755709.77 5135265.62 185.86
-9755710.06 5135272.14 185.82
-9755713.92 5135266.27 185.87
-9755710.73 5135262.08 185.89
-9755710.43 5135268.88 185.83
-9755711.02 5135265.95 185.86
-9755712.70 5135270.73 185.83
-9755710.98 5135273.66 185.81
-9755713.63 5135271.95 185.83
-9755709.82 5135262.99 185.88
-9755711.34 5135263.61 185.88
-9755712.77 5135265.37 185.87
-9755713.62 5135269.26 185.85
-9755712.72 5135270.41 185.83
-9755713.96 5135267.76 185.87
-9755713.05 5135269.22 185.84
-9755709.75 5135268.63 185.83
-9755713.06 5135263.87 185.88
-9755711.91 5135263.02 185.89
-9755709.52 5135263.59 185.87
-9755710.38 5135268.04 185.84
-9755713.95 5135270.14 185.85
-9755712.49 5135269.25 185.85
-9755710.41 5135262.70 185.88
-9755709.78 5135266.54 185.85
-9755708.60 5135274.55 185.79
-9755695.29 5135275.31 185.46
-9755694.75 5135274.48 185.43
-9755695.30 5135274.45 185.43
-9755699.76 5135275.12 185.57
-9755701.50 5135275.35 185.66
-9755696.51 5135275.11 185.44
-9755698.84 5135274.49 185.54
-9755698.86 5135275.39 185.53
-9755705.36 5135274.55 185.77
-9755703.83 5135275.13 185.76
-9755700.60 5135273.61 185.61
-9755703.00 5135274.49 185.73
-9755708.53 5135279.25 185.76
-9755708.85 5135280.44 185.74
-9755708.84 5135276.00 185.79
-9755708.87 5135278.68 185.76
-9755701.81 5135279.25 185.62
-9755707.99 5135275.97 185.78
-9755705.30 5135278.33 185.75
-9755702.04 5135280.13 185.60
-9755705.29 5135279.26 185.74
-9755704.47 5135276.85 185.75
-9755697.10 5135277.73 185.43
-9755706.23 5135279.27 185.77
-9755702.94 5135279.25 185.67
-9755695.60 5135276.24 185.43
-9755695.58 5135277.80 185.43
-9755698.26 5135277.72 185.48
-9755695.60 5135278.33 185.44
-9755699.10 5135276.82 185.54
-9755703.82 5135275.98 185.74
-9755697.93 5135279.48 185.44
-9755699.73 5135278.32 185.56
-9755696.50 5135278.68 185.46
-9755706.80 5135277.81 185.77
-9755699.11 5135277.73 185.55
-9755697.37 5135276.83 185.44
-9755696.25 5135276.82 185.46
-9755698.24 5135276.83 185.49
-9755702.11 5135277.44 185.66
-9755697.36 5135275.99 185.45
-9755703.81 5135276.90 185.73
-9755694.72 5135277.70 185.44
-9755694.10 5135276.85 185.46
-9755685.85 5135274.47 185.31
-9755682.30 5135275.18 186.55
-9755682.97 5135275.55 186.59
-9755682.59 5135274.32 186.55
-9755682.93 5135274.40 186.60
-9755691.49 5135274.49 185.39
-9755686.77 5135275.30 185.34
-9755692.39 5135274.46 185.38
-9755685.54 5135275.29 185.37
-9755687.94 5135275.31 185.36
-9755684.95 5135275.38 185.32
-9755684.72 5135273.54 185.32
-9755681.49 5135274.29 186.57
-9755681.51 5135275.19 186.59
-9755680.03 5135275.18 186.59
-9755680.03 5135274.36 185.38
-9755681.46 5135273.70 186.59
-9755684.69 5135280.06 185.33
-9755687.36 5135276.80 185.34
-9755686.41 5135279.98 185.33
-9755684.08 5135276.78 185.28
-9755682.33 5135278.54 186.56
-9755682.39 5135276.95 186.54
-9755683.20 5135280.10 186.65
-9755684.09 5135280.10 185.32
-9755681.48 5135277.69 186.54
-9755687.32 5135277.92 185.35
-9755689.69 5135276.83 185.41
-9755690.87 5135279.12 185.38
-9755686.47 5135278.56 185.32
-9755682.32 5135277.60 186.52
-9755683.18 5135276.87 186.50
-9755684.09 5135277.69 185.29
-9755683.08 5135279.63 186.55
-9755688.19 5135280.37 185.35
-9755685.87 5135279.41 185.33
-9755679.98 5135278.50 186.57
-9755679.92 5135277.81 186.56
-9755680.63 5135276.13 186.57
-9755680.01 5135276.09 186.58
-9755680.00 5135279.41 186.53
-9755681.51 5135276.78 186.53
-9755680.47 5135279.37 186.45
-9755709.56 5135260.31 185.89
-9755708.67 5135260.29 185.88
-9755707.75 5135261.81 185.85
-9755703.06 5135259.65 185.78
-9755700.42 5135259.70 185.68
-9755701.61 5135262.05 185.72
-9755706.90 5135259.41 185.86
-9755697.06 5135261.32 185.90
-9755703.08 5135262.00 185.76
-9755707.75 5135259.42 185.88
-9755706.89 5135262.35 185.85
-9755705.38 5135259.71 185.83
-9755700.72 5135260.59 185.69
-9755701.32 5135259.66 185.72
-9755696.61 5135262.05 185.49
-9755698.92 5135259.38 185.64
-9755702.17 5135260.58 185.74
-9755695.38 5135259.36 185.50
-9755698.91 5135260.58 185.60
-9755707.77 5135261.47 185.86
-9755698.93 5135262.02 185.66
-9755695.69 5135262.07 185.46
-9755708.63 5135268.63 185.82
-9755708.94 5135269.49 185.82
-9755708.63 5135270.97 185.79
-9755709.23 5135265.68 185.84
-9755708.86 5135270.11 185.80
-9755708.92 5135266.24 185.83
-9755708.92 5135271.89 185.81
-9755704.77 5135271.25 185.78
-9755699.76 5135273.59 185.55
-9755695.61 5135273.57 185.46
-9755698.06 5135264.40 185.57
-9755704.77 5135271.84 185.78
-9755700.65 5135267.69 185.67
-9755707.45 5135266.22 185.82
-9755697.99 5135267.66 185.49
-9755707.11 5135271.29 185.79
-9755703.66 5135265.92 185.78
-9755695.42 5135262.91 185.45
-9755697.38 5135270.35 185.46
-9755700.64 5135272.66 185.61
-9755708.06 5135262.94 185.86
-9755702.16 5135265.60 185.74
-9755704.47 5135270.39 185.78
-9755698.91 5135265.90 185.57
-9755705.39 5135265.94 185.80
-9755704.53 5135265.94 185.79
-9755708.01 5135271.91 185.80
-9755703.03 5135268.56 185.75
-9755697.44 5135262.90 185.56
-9755701.25 5135265.04 185.72
-9755698.88 5135271.23 185.52
-9755703.03 5135267.98 185.75
-9755696.54 5135264.12 185.47
-9755698.90 5135265.61 185.57
-9755707.12 5135273.62 185.78
-9755705.65 5135270.35 185.79
-9755704.44 5135272.76 185.78
-9755706.25 5135264.76 185.82
-9755698.88 5135266.78 185.55
-9755697.97 5135271.79 185.48
-9755703.07 5135262.94 185.77
-9755695.70 5135264.47 185.46
-9755703.65 5135265.33 185.79
-9755695.67 5135267.97 185.47
-9755703.04 5135267.07 185.76
-9755704.52 5135265.04 185.79
-9755696.25 5135263.54 185.45
-9755701.55 5135269.16 185.72
-9755702.43 5135271.26 185.74
-9755706.29 5135265.91 185.82
-9755705.38 5135264.44 185.81
-9755705.39 5135271.26 185.79
-9755699.77 5135265.30 185.62
-9755706.32 5135263.89 185.82
-9755700.69 5135266.19 185.68
-9755705.36 5135267.07 185.79
-9755698.60 5135272.69 185.53
-9755698.02 5135270.05 185.49
-9755706.51 5135269.44 185.79
-9755708.64 5135268.04 185.82
-9755699.78 5135271.80 185.57
-9755699.75 5135272.68 185.56
-9755696.55 5135267.97 185.48
-9755696.53 5135272.67 185.44
-9755696.54 5135262.93 185.49
-9755699.77 5135264.41 185.63
-9755696.56 5135265.26 185.46
-9755699.80 5135262.64 185.67
-9755706.25 5135270.34 185.80
-9755699.82 5135263.84 185.64
-9755698.90 5135272.06 185.54
-9755694.72 5135272.07 185.45
-9755702.09 5135273.01 185.71
-9755708.67 5135263.58 185.85
-9755707.73 5135265.36 185.85
-9755703.03 5135263.57 185.77
-9755694.20 5135267.68 185.50
-9755694.75 5135266.41 185.41
-9755694.73 5135269.69 185.50
-9755694.78 5135264.70 185.44
-9755694.77 5135269.99 185.48
-9755694.16 5135269.74 185.47
-9755694.24 5135263.47 185.44
-9755693.90 5135262.89 185.42
-9755693.05 5135259.39 185.47
-9755691.54 5135260.53 185.48
-9755684.76 5135259.61 185.42
-9755693.06 5135261.06 185.48
-9755685.71 5135259.36 185.42
-9755692.21 5135259.36 185.48
-9755689.79 5135262.03 185.45
-9755682.44 5135260.46 185.35
-9755688.95 5135261.13 185.49
-9755691.27 5135259.64 185.48
-9755689.78 5135261.12 185.45
-9755690.43 5135260.53 185.48
-9755683.88 5135259.60 185.39
-9755688.93 5135260.22 185.49
-9755688.03 5135260.53 185.47
-9755688.02 5135261.08 185.46
-9755685.95 5135261.39 185.40
-9755693.33 5135260.57 185.47
-9755682.42 5135261.10 185.34
-9755684.76 5135262.26 185.40
-9755686.54 5135260.20 185.42
-9755685.93 5135261.93 185.41
-9755687.15 5135261.99 185.41
-9755682.10 5135260.48 186.59
-9755683.93 5135260.21 185.39
-9755681.56 5135259.24 186.22
-9755680.38 5135259.35 186.52
-9755680.10 5135261.05 185.35
-9755681.23 5135261.30 186.68
-9755680.64 5135261.86 186.71
-9755691.54 5135270.37 185.40
-9755693.02 5135271.19 185.46
-9755688.27 5135266.18 185.40
-9755682.38 5135268.71 186.59
-9755691.52 5135271.80 185.40
-9755693.31 5135266.20 185.44
-9755687.37 5135270.25 185.38
-9755688.53 5135269.40 185.41
-9755682.38 5135272.01 186.57
-9755688.29 5135263.76 185.45
-9755687.41 5135271.22 185.37
-9755686.54 5135266.43 185.41
-9755685.92 5135265.29 185.38
-9755682.38 5135262.88 185.35
-9755685.63 5135262.62 185.42
-9755691.25 5135273.55 185.40
-9755681.51 5135268.70 186.58
-9755682.43 5135271.11 186.58
-9755687.63 5135269.64 185.39
-9755689.20 5135263.72 185.44
-9755691.55 5135269.42 185.42
-9755684.14 5135270.25 185.34
-9755684.69 5135272.65 185.32
-9755692.09 5135266.43 185.43
-9755693.04 5135265.27 185.42
-9755690.64 5135269.35 185.42
-9755689.76 5135264.35 185.43
-9755692.15 5135267.90 185.42
-9755682.66 5135266.14 185.34
-9755689.75 5135270.30 185.40
-9755685.64 5135268.80 185.37
-9755692.39 5135273.55 185.38
-9755684.99 5135267.59 185.39
-9755685.65 5135266.71 185.38
-9755683.81 5135273.58 185.31
-9755682.30 5135269.32 186.59
-9755688.25 5135272.93 185.36
-9755684.75 5135265.50 185.39
-9755691.51 5135272.71 185.39
-9755687.16 5135262.89 185.43
-9755686.52 5135263.77 185.40
-9755690.88 5135271.22 185.42
-9755683.26 5135271.43 185.34
-9755684.79 5135266.46 185.36
-9755683.88 5135264.64 185.36
-9755687.40 5135267.87 185.39
-9755682.10 5135267.92 186.61
-9755684.15 5135268.48 185.34
-9755692.11 5135270.31 185.41
-9755691.29 5135266.41 185.42
-9755685.63 5135267.90 185.39
-9755683.88 5135269.34 185.33
-9755688.91 5135263.15 185.46
-9755684.70 5135268.79 185.36
-9755684.20 5135263.16 185.38
-9755681.55 5135269.62 186.59
-9755692.13 5135266.78 185.43
-9755685.64 5135264.32 185.40
-9755685.62 5135270.58 185.35
-9755681.48 5135267.81 186.61
-9755679.97 5135271.98 186.60
-9755680.01 5135270.42 186.61
-9755680.63 5135268.72 186.59
-9755681.56 5135267.22 186.58
-9755679.99 5135263.15 186.60
-9755679.80 5135272.82 186.59
-9755680.95 5135273.10 186.59
-9755680.56 5135265.15 186.59
-9755680.89 5135269.30 186.60
-9755679.95 5135269.53 186.63
-9755680.68 5135263.01 186.63
-9755680.06 5135266.97 185.38
-9755680.23 5135265.49 186.49
-9755681.46 5135264.53 186.62
-9755680.89 5135267.90 186.60
-9755680.34 5135261.88 186.71
-9755680.91 5135267.22 186.59
-9755679.93 5135266.09 185.38
-9755681.44 5135270.22 186.58
-9755679.98 5135268.71 186.61
-9755680.29 5135266.39 186.57
-9755668.21 5135274.34 185.28
-9755675.27 5135275.07 185.28
-9755671.46 5135275.42 187.27
-9755672.34 5135274.39 185.25
-9755671.70 5135274.33 185.22
-9755669.42 5135275.08 186.52
-9755675.99 5135275.33 185.32
-9755669.04 5135275.23 185.27
-9755672.39 5135275.16 186.72
-9755675.62 5135274.65 185.33
-9755674.13 5135275.25 185.27
-9755670.91 5135275.23 187.22
-9755679.37 5135275.22 186.63
-9755670.26 5135273.70 185.29
-9755668.47 5135273.77 185.28
-9755672.59 5135275.00 185.27
-9755677.35 5135273.78 185.21
-9755669.36 5135273.74 185.26
-9755676.73 5135274.92 186.68
-9755678.81 5135274.42 185.31
-9755679.13 5135275.20 186.71
-9755674.37 5135273.44 185.27
-9755679.09 5135274.32 186.68
-9755667.05 5135274.59 186.98
-9755673.20 5135278.52 185.29
-9755675.05 5135276.12 185.29
-9755669.91 5135279.26 187.04
-9755670.89 5135277.85 187.20
-9755669.96 5135276.11 185.27
-9755679.08 5135276.94 186.61
-9755678.43 5135278.52 185.22
-9755676.43 5135276.11 186.66
-9755677.20 5135280.50 186.84
-9755670.86 5135278.73 186.33
-9755679.43 5135279.96 186.57
-9755675.81 5135277.92 185.30
-9755677.55 5135280.01 185.22
-9755679.22 5135277.79 186.55
-9755676.71 5135279.31 185.99
-9755679.28 5135278.48 186.58
-9755672.31 5135278.53 185.24
-9755670.84 5135277.66 185.28
-9755674.67 5135276.98 185.30
-9755676.55 5135277.01 185.85
-9755669.30 5135278.48 186.52
-9755675.85 5135278.54 185.30
-9755676.47 5135278.44 186.87
-9755674.13 5135276.97 185.27
-9755669.99 5135277.00 185.26
-9755672.65 5135276.76 185.28
-9755671.12 5135276.00 187.25
-9755679.07 5135280.01 185.28
-9755677.29 5135277.61 185.23
-9755672.62 5135276.12 185.29
-9755671.45 5135278.37 187.27
-9755672.42 5135279.28 186.89
-9755678.48 5135277.64 185.24
-9755669.96 5135278.59 185.24
-9755669.31 5135277.63 185.26
-9755669.06 5135278.70 185.25
-9755668.27 5135278.43 187.24
-9755677.62 5135277.03 185.21
-9755677.05 5135278.94 186.85
-9755671.44 5135276.90 187.24
-9755677.56 5135279.18 185.20
-9755671.51 5135275.92 186.94
-9755676.74 5135278.00 185.94
-9755672.61 5135278.42 186.89
-9755670.90 5135276.79 187.24
-9755678.49 5135280.03 185.24
-9755677.28 5135278.68 186.85
-9755666.81 5135279.40 186.96
-9755667.06 5135278.70 187.20
-9755667.54 5135277.79 187.18
-9755667.58 5135279.30 185.22
-9755667.61 5135278.37 187.21
-9755667.60 5135277.51 186.63
-9755667.00 5135278.41 185.18
-9755668.08 5135279.01 185.24
-9755667.28 5135276.87 187.21
-9755666.97 5135277.55 186.43
-9755666.97 5135276.98 185.17
-9755667.00 5135277.77 187.20
-9755666.71 5135276.09 185.16
-9755666.86 5135273.61 186.95
-9755665.62 5135274.54 185.23
-9755665.25 5135275.22 185.65
-9755661.72 5135274.31 185.22
-9755663.44 5135275.21 185.20
-9755665.84 5135274.48 186.94
-9755660.20 5135274.55 185.25
-9755656.08 5135274.28 185.29
-9755667.05 5135273.75 185.18
-9755664.34 5135275.18 185.22
-9755663.31 5135273.44 185.64
-9755659.35 5135273.70 185.29
-9755660.83 5135274.30 185.26
-9755657.02 5135273.67 185.31
-9755665.39 5135274.00 186.97
-9755665.85 5135273.70 186.94
-9755657.01 5135275.15 185.30
-9755657.58 5135275.15 185.32
-9755652.51 5135273.64 185.26
-9755654.31 5135274.29 185.28
-9755655.23 5135275.16 185.28
-9755654.32 5135273.65 185.26
-9755650.82 5135273.65 185.36
-9755662.49 5135275.42 186.92
-9755664.33 5135276.85 185.68
-9755664.95 5135276.98 185.68
-9755665.81 5135277.74 185.65
-9755665.27 5135276.04 185.23
-9755655.18 5135277.79 185.27
-9755660.21 5135276.93 185.27
-9755657.81 5135277.57 185.30
-9755660.78 5135278.40 185.24
-9755665.38 5135279.35 186.71
-9755661.67 5135279.34 185.20
-9755654.89 5135276.03 185.26
-9755661.09 5135277.54 185.22
-9755666.68 5135279.60 186.65
-9755665.79 5135279.30 186.10
-9755658.39 5135276.89 185.29
-9755664.95 5135279.38 185.23
-9755658.42 5135279.28 185.29
-9755656.07 5135279.24 185.30
-9755656.93 5135279.31 185.30
-9755655.16 5135279.27 185.28
-9755659.30 5135277.52 185.28
-9755651.11 5135278.66 185.34
-9755650.12 5135277.63 186.03
-9755651.07 5135275.94 185.33
-9755651.90 5135280.11 185.28
-9755654.56 5135278.38 185.25
-9755652.57 5135277.83 185.25
-9755653.47 5135276.88 185.24
-9755650.06 5135276.73 185.92
-9755650.45 5135278.66 185.33
-9755651.98 5135276.01 185.28
-9755652.87 5135276.91 185.23
-9755654.60 5135277.80 185.25
-9755650.44 5135277.74 185.34
-9755651.96 5135276.94 185.27
-9755650.08 5135275.93 186.97
-9755653.45 5135279.28 185.25
-9755674.13 5135260.20 185.32
-9755676.21 5135262.04 186.50
-9755679.47 5135261.22 186.61
-9755675.64 5135260.51 185.32
-9755674.76 5135261.01 185.32
-9755677.41 5135260.47 185.28
-9755675.02 5135260.49 185.76
-9755672.42 5135260.13 185.35
-9755669.45 5135260.40 185.29
-9755670.96 5135259.41 187.02
-9755671.77 5135260.44 185.29
-9755670.85 5135260.33 185.79
-9755670.29 5135260.48 185.30
-9755676.50 5135260.40 186.89
-9755676.59 5135259.79 186.90
-9755678.29 5135260.46 185.31
-9755671.93 5135259.88 186.96
-9755672.42 5135261.23 186.93
-9755672.74 5135262.20 185.34
-9755672.41 5135260.31 186.96
-9755676.40 5135262.10 186.73
-9755675.12 5135261.94 185.32
-9755671.50 5135261.29 185.29
-9755679.19 5135260.43 185.37
-9755680.15 5135260.90 186.74
-9755676.22 5135261.25 186.87
-9755679.70 5135261.00 186.61
-9755679.34 5135259.19 186.28
-9755676.05 5135259.50 186.50
-9755675.99 5135260.30 186.89
-9755668.56 5135261.25 185.75
-9755675.97 5135260.07 186.43
-9755668.25 5135261.91 185.29
-9755667.69 5135259.76 185.30
-9755667.70 5135261.35 185.29
-9755666.47 5135261.29 185.20
-9755667.30 5135260.85 187.03
-9755670.88 5135270.25 185.73
-9755670.08 5135272.79 186.50
-9755678.56 5135272.02 185.26
-9755670.01 5135266.35 185.31
-9755672.34 5135265.21 185.32
-9755670.61 5135269.63 185.29
-9755674.73 5135264.32 185.32
-9755676.14 5135270.96 186.65
-9755672.36 5135271.99 185.25
-9755679.19 5135266.10 185.34
-9755679.12 5135264.31 185.34
-9755671.77 5135264.31 185.27
-9755676.16 5135263.00 186.69
-9755675.95 5135267.10 185.31
-9755674.09 5135264.63 185.32
-9755673.52 5135268.73 185.32
-9755672.40 5135262.79 185.32
-9755675.02 5135269.35 185.29
-9755676.04 5135264.30 186.71
-9755670.90 5135267.15 186.99
-9755670.03 5135266.90 185.28
-9755669.32 5135272.85 185.26
-9755679.15 5135268.96 186.64
-9755679.11 5135269.53 186.64
-9755674.38 5135271.97 185.29
-9755670.03 5135264.31 185.29
-9755675.15 5135272.93 185.29
-9755670.04 5135263.96 185.29
-9755674.15 5135265.14 185.31
-9755671.43 5135266.08 186.99
-9755674.75 5135266.97 185.29
-9755675.01 5135265.14 185.30
-9755670.88 5135266.25 187.01
-9755672.34 5135269.61 185.26
-9755670.01 5135272.77 185.28
-9755678.26 5135271.11 185.22
-9755678.28 5135269.96 185.24
-9755670.88 5135263.90 185.54
-9755676.45 5135263.80 186.03
-9755679.35 5135271.02 186.61
-9755674.74 5135262.87 185.86
-9755670.69 5135264.52 187.00
-9755668.18 5135269.32 185.27
-9755672.28 5135268.77 186.08
-9755672.41 5135267.00 185.28
-9755670.95 5135271.34 187.00
-9755676.84 5135263.70 185.28
-9755676.04 5135263.80 186.61
-9755677.34 5135264.65 185.26
-9755668.19 5135272.83 185.28
-9755676.77 5135262.83 185.27
-9755669.14 5135263.98 185.29
-9755679.08 5135268.74 185.33
-9755676.50 5135266.80 186.68
-9755672.37 5135269.95 185.26
-9755672.59 5135273.48 185.28
-9755675.87 5135266.16 185.32
-9755677.69 5135263.77 185.25
-9755677.42 5135265.48 185.26
-9755677.33 5135272.87 185.22
-9755677.37 5135266.38 185.27
-9755672.41 5135264.24 185.33
-9755679.11 5135271.12 185.32
-9755679.40 5135270.51 186.66
-9755670.88 5135268.62 187.00
-9755674.40 5135272.88 185.28
-9755678.25 5135266.16 185.25
-9755670.94 5135269.51 187.03
-9755670.83 5135266.98 186.34
-9755676.12 5135268.73 186.66
-9755671.76 5135267.23 185.25
-9755672.57 5135272.59 185.29
-9755671.51 5135265.49 185.28
-9755679.16 5135270.49 186.75
-9755675.96 5135266.61 186.68
-9755672.65 5135266.41 185.28
-9755671.77 5135262.83 185.27
-9755679.03 5135273.42 186.72
-9755679.13 5135269.34 186.72
-9755676.40 5135262.62 185.86
-9755676.15 5135268.94 186.70
-9755678.59 5135272.97 186.51
-9755668.22 5135266.95 185.29
-9755667.33 5135272.74 186.53
-9755667.67 5135267.70 185.71
-9755667.36 5135272.74 187.01
-9755666.87 5135271.17 185.52
-9755668.53 5135265.10 185.29
-9755666.50 5135268.42 185.17
-9755666.72 5135270.16 185.20
-9755667.29 5135269.14 187.03
-9755666.45 5135261.86 185.20
-9755667.40 5135264.27 187.01
-9755667.04 5135271.30 187.00
-9755666.79 5135264.84 187.01
-9755666.79 5135263.57 187.00
-9755667.02 5135271.85 186.99
-9755661.74 5135259.76 185.25
-9755662.70 5135259.51 185.25
-9755661.79 5135261.20 185.25
-9755666.77 5135261.19 187.03
-9755660.87 5135261.24 185.28
-9755666.78 5135262.04 187.02
-9755663.54 5135259.51 185.25
-9755664.18 5135260.38 185.25
-9755659.42 5135261.24 185.29
-9755661.22 5135260.35 185.25
-9755664.45 5135259.48 185.27
-9755656.17 5135260.97 185.30
-9755665.82 5135261.20 185.78
-9755661.83 5135260.24 186.98
-9755660.93 5135259.44 185.29
-9755657.39 5135260.37 185.34
-9755665.04 5135261.84 185.28
-9755665.38 5135261.67 185.96
-9755661.22 5135259.28 186.98
-9755654.11 5135260.32 185.31
-9755655.28 5135261.18 185.32
-9755651.15 5135260.58 185.36
-9755651.11 5135261.50 185.35
-9755652.08 5135261.78 185.30
-9755650.36 5135259.40 185.39
-9755655.01 5135261.81 185.33
-9755662.65 5135265.42 185.24
-9755661.74 5135269.30 185.22
-9755661.74 5135266.89 185.23
-9755663.23 5135268.73 185.70
-9755661.72 5135271.91 185.22
-9755665.00 5135266.85 185.63
-9755666.93 5135262.16 186.46
-9755657.63 5135265.36 185.32
-9755661.72 5135272.80 185.21
-9755665.03 5135262.78 185.27
-9755662.65 5135263.02 185.25
-9755656.71 5135265.08 185.32
-9755665.04 5135265.33 185.26
-9755654.95 5135271.88 185.28
-9755665.03 5135263.87 185.26
-9755664.13 5135270.18 185.24
-9755663.52 5135265.39 185.21
-9755665.30 5135263.62 186.99
-9755664.97 5135266.30 185.25
-9755661.73 5135262.97 186.96
-9755665.22 5135270.18 185.26
-9755661.22 5135264.49 185.24
-9755665.40 5135263.09 186.05
-9755662.60 5135264.17 185.27
-9755659.34 5135263.87 185.32
-9755664.44 5135268.66 185.23
-9755658.53 5135265.11 185.31
-9755661.76 5135267.82 185.23
-9755660.57 5135264.18 185.30
-9755657.02 5135267.76 185.32
-9755664.44 5135266.27 185.25
-9755661.80 5135268.67 185.23
-9755662.62 5135269.28 185.24
-9755658.54 5135269.53 185.32
-9755661.69 5135271.02 185.22
-9755658.82 5135267.73 185.32
-9755656.08 5135269.48 185.30
-9755659.41 5135269.55 185.31
-9755660.03 5135263.61 185.31
-9755661.74 5135263.06 185.24
-9755665.90 5135265.41 186.94
-9755665.88 5135268.56 186.98
-9755665.24 5135267.79 185.64
-9755663.53 5135266.08 185.23
-9755665.02 5135264.61 185.27
-9755656.16 5135270.37 185.29
-9755656.12 5135264.49 185.32
-9755657.03 5135268.61 185.33
-9755657.03 5135269.22 185.32
-9755657.61 5135264.45 185.32
-9755660.85 5135268.61 185.29
-9755661.71 5135269.44 186.96
-9755666.84 5135265.36 187.00
-9755656.17 5135262.11 185.31
-9755665.94 5135266.84 186.98
-9755658.47 5135268.67 185.31
-9755662.60 5135270.43 185.22
-9755661.75 5135264.44 186.96
-9755655.25 5135270.41 185.29
-9755661.76 5135265.34 186.95
-9755665.88 5135271.08 185.70
-9755659.38 5135268.63 185.32
-9755665.91 5135272.75 186.95
-9755663.53 5135263.01 185.24
-9755664.44 5135263.70 185.26
-9755655.87 5135265.38 185.32
-9755656.13 5135267.09 185.31
-9755656.12 5135272.19 185.29
-9755656.99 5135272.79 185.32
-9755657.61 5135271.61 185.32
-9755656.17 5135263.00 185.31
-9755665.42 5135271.05 186.94
-9755665.17 5135263.14 186.98
-9755661.15 5135271.91 185.24
-9755657.63 5135266.27 185.32
-9755660.26 5135265.12 185.32
-9755666.77 5135267.98 187.01
-9755665.60 5135263.00 186.15
-9755655.00 5135266.83 185.32
-9755665.40 5135272.15 186.93
-9755661.19 5135264.61 186.96
-9755660.31 5135262.71 185.32
-9755655.52 5135271.23 185.31
-9755652.00 5135265.32 185.31
-9755651.17 5135263.84 185.36
-9755652.88 5135266.20 185.29
-9755654.63 5135270.96 185.27
-9755654.37 5135268.01 185.29
-9755651.11 5135268.86 185.35
-9755650.80 5135272.74 185.36
-9755650.81 5135267.74 185.36
-9755653.43 5135272.14 185.28
-9755654.14 5135263.57 185.31
-9755651.11 5135265.38 185.36
-9755651.71 5135268.01 185.33
-9755651.98 5135265.92 185.31
-9755650.88 5135262.67 185.36
-9755652.57 5135271.01 185.29
-9755652.64 5135265.65 185.30
-9755653.46 5135270.07 185.29
-9755652.00 5135266.83 185.30
-9755654.37 5135270.43 185.26
-9755652.31 5135269.16 185.30
-9755652.64 5135262.71 185.29
-9755649.97 5135262.99 185.36
-9755651.15 5135266.54 185.35
-9755649.97 5135269.40 187.10
-9755654.66 5135268.60 185.30
-9755650.31 5135265.64 185.37
-9755651.94 5135271.26 185.31
-9755652.85 5135269.20 185.30
-9755648.44 5135274.45 185.35
-9755649.36 5135274.48 185.38
-9755646.01 5135275.35 185.40
-9755649.57 5135274.18 185.85
-9755646.06 5135274.60 187.03
-9755649.89 5135273.38 186.29
-9755642.79 5135275.06 185.59
-9755645.59 5135275.09 186.94
-9755647.80 5135273.61 185.85
-9755649.69 5135273.66 185.86
-9755646.09 5135273.48 187.03
-9755645.64 5135273.77 187.07
-9755649.36 5135273.76 187.05
-9755641.09 5135273.56 185.60
-9755646.04 5135278.03 185.42
-9755645.46 5135277.73 185.40
-9755645.61 5135275.22 186.47
-9755642.80 5135275.95 185.57
-9755646.09 5135277.70 187.05
-9755646.05 5135276.85 185.39
-9755646.33 5135276.00 185.42
-9755644.31 5135278.61 185.57
-9755646.08 5135276.79 186.98
-9755646.70 5135278.78 187.22
-9755649.83 5135280.00 185.85
-9755643.73 5135276.28 185.59
-9755649.29 5135277.50 185.39
-9755647.79 5135279.45 185.35
-9755644.29 5135277.70 185.58
-9755643.71 5135277.99 185.58
-9755649.59 5135278.37 185.38
-9755645.20 5135275.99 185.45
-9755643.39 5135279.24 185.57
-9755649.60 5135276.00 185.87
-9755645.44 5135276.82 185.40
-9755645.63 5135276.90 186.14
-9755642.81 5135279.20 185.57
-9755645.73 5135277.27 186.96
-9755648.64 5135276.25 185.86
-9755647.51 5135279.29 185.85
-9755649.62 5135278.00 187.08
-9755641.09 5135275.90 185.58
-9755641.07 5135277.09 185.57
-9755631.96 5135274.42 185.28
-9755635.47 5135275.36 185.09
-9755629.01 5135274.38 185.31
-9755638.13 5135273.64 185.06
-9755633.08 5135273.52 185.25
-9755631.94 5135273.53 185.29
-9755630.71 5135275.26 185.30
-9755634.89 5135273.53 185.09
-9755640.51 5135273.52 185.56
-9755631.89 5135275.04 185.29
-9755629.90 5135273.56 185.30
-9755637.18 5135275.33 185.04
-9755628.36 5135274.38 185.29
-9755625.43 5135274.39 185.36
-9755626.57 5135274.40 185.34
-9755624.21 5135273.75 185.37
-9755620.73 5135274.30 185.31
-9755634.56 5135279.19 185.11
-9755638.97 5135277.70 185.19
-9755633.69 5135276.80 185.15
-9755638.68 5135278.91 185.11
-9755634.61 5135276.75 185.11
-9755628.95 5135276.75 185.31
-9755631.91 5135278.53 185.31
-9755629.60 5135275.90 185.29
-9755638.11 5135279.46 185.06
-9755631.31 5135278.29 185.29
-9755629.86 5135277.64 185.30
-9755638.11 5135278.62 185.06
-9755637.27 5135277.98 185.06
-9755639.34 5135275.91 185.25
-9755630.49 5135275.93 185.29
-9755632.79 5135277.69 185.27
-9755633.99 5135277.72 185.15
-9755635.46 5135275.93 185.09
-9755634.88 5135278.54 185.13
-9755633.06 5135279.42 185.25
-9755637.15 5135278.54 185.06
-9755630.45 5135277.06 185.29
-9755638.13 5135276.25 185.05
-9755638.67 5135275.68 185.12
-9755639.53 5135278.60 185.28
-9755631.07 5135276.17 185.30
-9755621.85 5135279.13 185.29
-9755628.07 5135277.68 185.18
-9755622.99 5135277.57 185.33
-9755620.66 5135279.34 185.31
-9755624.54 5135278.25 185.37
-9755621.28 5135277.66 185.32
-9755624.55 5135279.18 185.37
-9755628.17 5135275.23 185.25
-9755627.18 5135277.65 185.29
-9755620.40 5135276.11 185.31
-9755626.35 5135276.11 185.35
-9755623.37 5135278.49 185.35
-9755624.88 5135275.84 185.36
-9755628.28 5135278.79 185.23
-9755626.90 5135276.79 185.33
-9755646.21 5135259.44 185.40
-9755645.51 5135259.43 186.12
-9755645.61 5135260.53 186.12
-9755649.40 5135259.59 187.07
-9755648.54 5135260.59 185.40
-9755645.54 5135260.26 185.41
-9755642.01 5135260.23 185.61
-9755649.43 5135260.19 185.88
-9755649.31 5135261.32 186.32
-9755647.86 5135262.05 186.68
-9755648.31 5135260.10 186.76
-9755647.01 5135259.33 185.38
-9755649.43 5135261.45 186.74
-9755647.61 5135261.93 186.39
-9755648.48 5135261.87 187.83
-9755647.32 5135261.82 186.39
-9755645.86 5135262.05 185.41
-9755645.93 5135259.59 187.21
-9755647.06 5135260.25 186.72
-9755643.78 5135260.85 185.62
-9755647.66 5135259.30 186.81
-9755648.41 5135259.61 185.98
-9755648.87 5135261.18 186.76
-9755646.16 5135260.24 186.42
-9755646.18 5135260.91 185.41
-9755645.31 5135261.42 185.39
-9755642.03 5135259.65 185.62
-9755646.98 5135262.05 186.74
-9755646.16 5135261.99 186.75
-9755642.06 5135261.47 185.61
-9755649.88 5135259.82 186.64
-9755642.93 5135262.05 185.61
-9755647.31 5135261.15 186.36
-9755642.05 5135262.04 185.60
-9755640.23 5135259.62 185.58
-9755649.93 5135264.40 187.14
-9755648.55 5135264.34 187.16
-9755649.41 5135272.76 186.12
-9755648.12 5135268.62 185.87
-9755648.80 5135268.53 185.41
-9755649.62 5135267.00 185.92
-9755649.60 5135268.58 185.86
-9755650.17 5135267.54 186.96
-9755644.67 5135269.75 185.54
-9755645.50 5135271.22 185.39
-9755644.35 5135265.55 185.58
-9755646.09 5135266.73 185.39
-9755648.43 5135262.47 187.75
-9755646.12 5135267.95 185.40
-9755646.79 5135262.89 187.06
-9755649.43 5135263.79 187.14
-9755649.51 5135264.38 186.31
-9755649.43 5135268.01 185.42
-9755645.86 5135267.07 186.59
-9755648.50 5135266.23 185.38
-9755648.24 5135265.19 186.18
-9755646.27 5135264.36 187.14
-9755645.24 5135270.29 185.42
-9755647.87 5135263.71 187.00
-9755645.51 5135267.72 185.41
-9755642.01 5135271.81 185.60
-9755646.71 5135270.31 185.38
-9755648.20 5135262.22 187.75
-9755646.71 5135271.24 185.38
-9755642.86 5135270.36 185.59
-9755648.56 5135271.82 185.87
-9755648.54 5135265.23 186.82
-9755646.10 5135270.08 185.40
-9755645.51 5135261.87 186.59
-9755647.05 5135264.42 187.11
-9755646.09 5135265.47 187.19
-9755648.45 5135268.78 185.89
-9755645.25 5135266.78 185.42
-9755642.91 5135267.00 185.59
-9755646.39 5135262.69 186.27
-9755647.08 5135263.83 187.10
-9755646.42 5135272.09 185.39
-9755649.40 5135268.60 187.10
-9755644.67 5135264.41 185.54
-9755649.44 5135270.40 187.10
-9755649.62 5135271.19 187.02
-9755647.85 5135271.22 185.37
-9755642.07 5135262.61 185.61
-9755647.83 5135265.48 185.92
-9755643.46 5135269.42 185.60
-9755648.80 5135267.98 185.43
-9755644.37 5135262.87 185.58
-9755648.45 5135269.49 185.36
-9755645.58 5135269.59 187.05
-9755649.62 5135272.93 187.07
-9755642.90 5135264.39 185.61
-9755649.87 5135265.47 185.93
-9755648.50 5135265.88 185.86
-9755647.88 5135262.94 187.07
-9755648.80 5135262.32 185.90
-9755645.52 5135269.44 185.39
-9755649.44 5135267.04 187.12
-9755647.66 5135267.93 185.85
-9755647.65 5135267.07 185.39
-9755647.00 5135269.71 185.87
-9755642.88 5135263.48 185.61
-9755643.44 5135268.52 185.61
-9755647.86 5135267.07 185.85
-9755648.87 5135271.25 185.89
-9755645.29 5135264.57 187.10
-9755647.10 5135266.46 185.87
-9755644.70 5135267.12 185.53
-9755647.55 5135271.75 185.85
-9755641.97 5135271.19 185.59
-9755645.55 5135266.42 187.01
-9755645.58 5135270.14 187.04
-9755645.65 5135267.89 187.01
-9755641.98 5135266.15 185.60
-9755640.51 5135272.68 185.56
-9755641.12 5135266.16 185.59
-9755641.13 5135263.17 185.62
-9755641.16 5135267.67 185.61
-9755640.22 5135266.18 185.54
-9755640.52 5135269.45 185.58
-9755641.08 5135272.06 185.59
-9755640.57 5135262.30 185.61
-9755638.78 5135261.45 185.20
-9755631.50 5135259.59 185.31
-9755631.39 5135260.17 185.32
-9755632.00 5135259.35 185.30
-9755630.46 5135261.36 185.30
-9755630.52 5135259.30 185.29
-9755631.12 5135262.28 185.31
-9755629.91 5135259.59 185.32
-9755631.16 5135260.99 185.32
-9755639.66 5135259.33 185.43
-9755632.04 5135260.22 185.32
-9755637.31 5135259.30 185.10
-9755637.99 5135262.02 185.10
-9755630.28 5135260.15 185.29
-9755637.91 5135261.49 185.09
-9755629.58 5135261.38 185.30
-9755629.71 5135260.47 185.34
-9755634.41 5135262.00 185.13
-9755632.93 5135260.50 185.22
-9755632.00 5135262.29 185.31
-9755637.91 5135259.34 185.11
-9755629.04 5135259.60 185.34
-9755628.80 5135260.51 185.34
-9755627.88 5135259.62 185.27
-9755625.81 5135260.43 185.38
-9755623.18 5135260.12 185.37
-9755622.28 5135259.55 185.34
-9755627.01 5135259.64 185.29
-9755620.54 5135259.19 185.35
-9755622.33 5135261.34 185.33
-9755626.44 5135260.18 185.34
-9755623.77 5135259.87 185.38
-9755638.78 5135272.68 185.16
-9755628.20 5135262.00 185.31
-9755633.71 5135272.92 185.14
-9755631.40 5135264.42 185.31
-9755631.07 5135269.70 185.30
-9755630.49 5135266.95 185.29
-9755635.49 5135270.32 185.07
-9755629.74 5135265.23 185.71
-9755630.24 5135266.14 185.29
-9755628.81 5135264.37 185.34
-9755638.71 5135267.03 185.16
-9755632.88 5135268.79 185.24
-9755634.60 5135264.36 185.13
-9755631.99 5135264.59 185.30
-9755632.01 5135271.17 185.29
-9755632.86 5135262.92 185.25
-9755634.93 5135263.48 185.12
-9755634.66 5135268.82 185.09
-9755631.07 5135263.45 185.31
-9755629.90 5135267.89 185.29
-9755630.75 5135267.88 185.29
-9755629.93 5135272.57 185.29
-9755638.75 5135268.85 185.15
-9755629.94 5135263.72 185.30
-9755631.32 5135270.27 185.30
-9755631.98 5135269.75 185.29
-9755637.87 5135268.77 185.02
-9755637.01 5135266.77 185.04
-9755634.86 5135271.17 185.10
-9755629.02 5135268.51 185.32
-9755639.63 5135263.81 185.35
-9755631.66 5135272.07 185.31
-9755629.60 5135266.97 185.30
-9755638.14 5135267.70 185.07
-9755638.77 5135264.71 185.17
-9755632.57 5135272.63 185.28
-9755635.78 5135266.16 185.11
-9755634.89 5135271.79 185.08
-9755633.15 5135264.67 185.21
-9755636.13 5135265.30 185.11
-9755631.96 5135267.91 185.32
-9755630.50 5135264.36 185.29
-9755634.04 5135265.55 185.14
-9755636.39 5135264.42 185.10
-9755628.70 5135271.96 185.29
-9755630.52 5135268.77 185.29
-9755639.58 5135272.10 185.29
-9755633.17 5135265.58 185.20
-9755636.37 5135268.54 185.08
-9755633.74 5135269.68 185.14
-9755628.96 5135271.06 185.32
-9755633.76 5135262.89 185.17
-9755637.87 5135270.87 185.04
-9755637.88 5135272.63 185.01
-9755634.87 5135267.02 185.10
-9755632.07 5135269.96 185.29
-9755632.83 5135270.57 185.26
-9755633.73 5135271.17 185.14
-9755636.92 5135270.03 185.03
-9755637.04 5135266.18 185.05
-9755635.22 5135269.40 185.08
-9755637.03 5135262.54 185.09
-9755639.54 5135272.71 185.29
-9755629.89 5135268.78 185.29
-9755633.74 5135264.00 185.16
-9755629.65 5135262.85 185.30
-9755638.74 5135263.82 185.19
-9755628.78 5135263.48 185.33
-9755632.28 5135263.16 185.29
-9755639.68 5135264.68 185.38
-9755638.71 5135267.95 185.14
-9755630.25 5135265.53 185.30
-9755636.99 5135271.53 185.04
-9755631.95 5135268.77 185.29
-9755636.43 5135263.79 185.11
-9755633.16 5135271.16 185.20
-9755624.05 5135261.95 185.37
-9755627.92 5135269.64 185.18
-9755628.18 5135265.27 185.32
-9755624.92 5135262.78 185.39
-9755621.32 5135269.64 185.32
-9755626.93 5135269.92 185.32
-9755627.88 5135268.80 185.20
-9755622.35 5135262.25 185.32
-9755622.27 5135265.47 185.29
-9755623.12 5135272.63 185.36
-9755624.87 5135261.94 185.38
-9755624.59 5135271.13 185.36
-9755623.65 5135271.32 185.37
-9755624.87 5135268.75 185.38
-9755622.33 5135264.28 185.33
-9755625.51 5135272.00 185.37
-9755626.97 5135264.62 185.29
-9755624.62 5135271.98 185.37
-9755625.47 5135264.27 185.39
-9755624.02 5135263.06 185.36
-9755623.64 5135266.37 185.39
-9755628.19 5135267.32 185.28
-9755624.64 5135266.12 185.36
-9755626.35 5135269.63 185.37
-9755621.39 5135263.42 185.33
-9755621.37 5135265.49 185.33
-9755622.83 5135266.02 185.33
-9755620.74 5135270.20 185.32
-9755626.29 5135272.59 185.34
-9755622.23 5135266.94 185.30
-9755627.01 5135263.67 185.27
-9755625.50 5135265.20 185.39
-9755627.87 5135267.88 185.20
-9755627.85 5135266.08 185.22
-9755623.14 5135268.71 185.36
-9755625.71 5135271.13 185.36
-9755623.13 5135269.64 185.36
-9755627.82 5135272.89 185.17
-9755621.38 5135264.56 185.32
-9755622.16 5135271.95 185.28
-9755626.35 5135267.59 185.34
-9755620.48 5135263.68 185.34
-9755617.46 5135274.33 185.14
-9755617.56 5135273.44 185.15
-9755619.81 5135274.35 185.31
-9755619.81 5135275.19 185.30
-9755619.81 5135273.42 185.31
-9755616.61 5135275.24 184.92
-9755618.92 5135274.36 185.32
-9755614.03 5135273.79 183.08
-9755614.83 5135274.36 184.69
-9755614.82 5135273.70 181.43
-9755613.87 5135274.45 181.28
-9755614.50 5135273.57 182.19
-9755614.31 5135274.43 182.15
-9755614.30 5135273.72 183.42
-9755614.69 5135275.10 181.83
-9755617.49 5135278.77 185.09
-9755616.31 5135279.37 184.88
-9755618.93 5135278.54 185.33
-9755618.91 5135277.63 185.32
-9755617.15 5135279.36 184.96
-9755619.82 5135277.60 185.32
-9755617.47 5135277.58 185.10
-9755618.33 5135277.58 185.31
-9755618.35 5135279.09 185.32
-9755617.19 5135276.08 184.99
-9755614.72 5135279.47 182.14
-9755614.73 5135275.89 182.80
-9755614.32 5135277.77 182.72
-9755614.25 5135278.67 182.11
-9755614.78 5135278.51 182.19
-9755614.71 5135277.80 182.20
-9755614.84 5135274.96 184.68
-9755614.66 5135276.58 182.86
-9755614.34 5135276.56 182.16
-9755614.28 5135278.59 183.07
-9755614.21 5135276.99 184.34
-9755614.67 5135278.62 181.33
-9755614.31 5135277.69 182.19
-9755614.19 5135275.26 183.03
-9755614.01 5135276.15 184.47
-9755614.64 5135275.50 182.95
-9755614.04 5135279.51 184.51
-9755614.78 5135275.33 181.33
-9755613.92 5135277.76 181.27
-9755613.89 5135276.86 181.29
-9755613.88 5135279.20 181.27
-9755614.29 5135275.55 182.08
-9755611.53 5135273.61 181.22
-9755610.92 5135274.20 181.21
-9755610.93 5135273.58 181.20
-9755613.33 5135274.47 181.23
-9755608.89 5135275.31 181.08
-9755613.33 5135277.41 181.25
-9755610.09 5135275.07 181.04
-9755611.83 5135278.63 181.22
-9755613.37 5135276.00 181.22
-9755610.93 5135277.43 181.19
-9755612.42 5135276.85 181.23
-9755613.34 5135278.63 181.25
-9755610.66 5135279.54 181.09
-9755617.35 5135260.37 185.22
-9755615.76 5135259.56 184.93
-9755614.06 5135260.50 183.21
-9755614.07 5135259.82 184.01
-9755614.03 5135259.77 182.18
-9755613.87 5135259.46 184.65
-9755614.91 5135259.54 184.84
-9755614.27 5135261.20 181.34
-9755614.69 5135259.54 182.15
-9755614.56 5135261.41 181.97
-9755613.95 5135260.53 181.30
-9755618.06 5135266.33 185.30
-9755616.38 5135266.07 184.93
-9755619.04 5135261.86 185.34
-9755617.25 5135267.00 185.08
-9755619.05 5135263.70 185.31
-9755617.59 5135265.49 185.22
-9755618.11 5135263.93 185.31
-9755616.34 5135261.89 184.94
-9755615.79 5135263.70 184.92
-9755617.21 5135270.18 185.07
-9755618.94 5135270.19 185.32
-9755615.53 5135262.82 184.92
-9755616.39 5135262.82 184.94
-9755615.78 5135261.91 184.92
-9755618.41 5135269.61 185.31
-9755618.11 5135268.41 185.29
-9755618.98 5135271.99 185.34
-9755619.01 5135272.89 185.33
-9755617.52 5135268.06 185.21
-9755616.40 5135263.90 184.96
-9755619.04 5135267.81 185.33
-9755617.45 5135271.10 185.15
-9755619.89 5135267.18 185.34
-9755615.76 5135266.06 184.91
-9755619.08 5135269.62 185.34
-9755619.58 5135263.69 185.33
-9755620.17 5135261.86 185.33
-9755614.24 5135272.75 181.33
-9755614.56 5135266.93 183.12
-9755614.00 5135266.26 182.82
