-9755104.68 5135881.32 188.88
-9755106.89 5135880.76 188.74
-9755107.30 5135883.10 186.99
-9755110.86 5135884.22 181.45
-9755107.60 5135880.56 189.68
-9755109.37 5135890.45 181.25
-9755107.48 5135880.53 185.60
-9755109.40 5135886.47 186.64
-9755109.96 5135891.60 187.83
-9755109.65 5135889.47 190.27
-9755102.11 5135888.32 186.89
-9755104.41 5135891.60 191.80
-9755105.53 5135883.82 187.51
-9755106.80 5135881.52 181.21
-9755113.16 5135881.58 186.73
-9755104.08 5135888.38 181.03
-9755110.56 5135886.95 188.64
-9755107.60 5135883.29 181.23
-9755110.49 5135888.07 187.21
-9755109.92 5135885.62 188.93
-9755105.76 5135890.70 187.02
-9755113.82 5135884.63 184.14
-9755106.44 5135889.91 191.61
-9755101.75 5135886.67 189.63
-9755107.35 5135882.84 185.75
-9755106.76 5135883.32 184.45
-9755108.79 5135890.00 191.05
-9755108.23 5135884.22 187.55
-9755109.03 5135886.58 181.25
-9755102.79 5135882.73 186.71
-9755110.48 5135886.57 188.22
-9755103.35 5135880.69 190.11
-9755102.64 5135880.80 190.00
-9755109.64 5135885.76 186.37
-9755110.49 5135890.00 189.27
-9755101.62 5135882.01 188.58
-9755101.68 5135882.78 184.93
-9755101.81 5135880.60 189.42
-9755101.04 5135887.15 181.12
-9755100.05 5135890.50 189.40
-9755095.80 5135886.21 181.19
-9755100.93 5135881.29 186.55
-9755096.71 5135885.09 181.19
-9755096.68 5135882.36 181.19
-9755096.70 5135891.22 181.15
-9755095.25 5135882.34 181.21
-9755100.38 5135889.94 190.07
-9755100.05 5135888.01 188.77
-9755101.22 5135887.87 190.81
-9755096.04 5135890.61 181.18
-9755101.10 5135888.20 187.19
-9755094.99 5135880.62 181.21
-9755101.22 5135887.71 189.47
-9755100.97 5135881.18 189.61
-9755101.17 5135887.88 190.54
-9755100.06 5135883.17 190.21
-9755095.88 5135880.59 181.20
-9755089.29 5135890.65 181.26
-9755092.55 5135889.45 181.24
-9755091.68 5135883.22 181.26
-9755089.30 5135881.43 181.27
-9755090.18 5135887.96 181.28
-9755091.70 5135882.06 181.25
-9755090.17 5135884.72 181.29
-9755091.64 5135889.78 181.24
-9755093.43 5135889.15 181.22
-9755094.30 5135889.77 181.21
-9755092.59 5135881.47 181.24
-9755090.82 5135883.22 181.26
-9755091.12 5135882.34 181.25
-9755091.62 5135885.01 181.24
-9755090.18 5135888.85 181.27
-9755088.69 5135886.42 181.29
-9755088.43 5135882.91 181.28
-9755088.43 5135884.73 181.30
-9755087.82 5135888.18 181.30
-9755087.75 5135889.65 181.30
-9755087.81 5135886.72 181.30
-9755083.76 5135881.38 181.36
-9755081.94 5135888.78 181.46
-9755081.99 5135883.70 182.33
-9755082.78 5135889.37 181.35
-9755086.89 5135889.73 181.30
-9755085.20 5135884.69 181.34
-9755086.07 5135885.00 181.33
-9755084.64 5135881.68 181.35
-9755086.01 5135884.03 181.33
-9755081.85 5135889.67 182.31
-9755086.96 5135888.20 181.30
-9755081.89 5135886.63 182.31
-9755083.69 5135883.76 181.35
-9755086.92 5135890.59 181.29
-9755081.98 5135883.09 182.35
-9755087.00 5135882.88 181.32
-9755083.72 5135884.68 181.35
-9755081.65 5135890.50 182.30
-9755082.43 5135881.66 182.31
-9755085.19 5135887.90 181.33
-9755086.90 5135888.85 181.30
-9755084.52 5135891.23 181.30
-9755083.06 5135891.49 181.33
-9755083.72 5135886.13 181.34
-9755082.84 5135881.39 181.44
-9755081.59 5135880.35 184.00
-9755186.37 5135881.41 181.26
-9755185.23 5135875.76 181.23
-9755185.13 5135877.26 181.25
-9755183.39 5135880.76 181.26
-9755178.95 5135881.11 181.26
-9755181.62 5135878.98 181.26
-9755175.76 5135877.24 181.23
-9755175.75 5135875.45 181.22
-9755178.10 5135875.46 181.22
-9755176.04 5135878.98 181.22
-9755172.55 5135879.59 181.25
-9755180.75 5135875.47 181.23
-9755180.77 5135876.30 181.23
-9755176.58 5135878.97 181.23
-9755177.54 5135879.89 181.23
-9755174.84 5135876.01 181.22
-9755180.15 5135878.10 181.25
-9755171.64 5135877.50 181.24
-9755181.65 5135879.93 181.26
-9755173.99 5135877.77 181.24
-9755178.13 5135875.15 181.22
-9755171.59 5135875.69 181.23
-9755173.39 5135878.36 181.25
-9755175.77 5135874.77 181.19
-9755179.01 5135877.86 181.25
-9755169.86 5135875.73 181.24
-9755169.89 5135878.68 181.26
-9755184.89 5135873.96 181.20
-9755183.19 5135873.96 181.21
-9755179.90 5135873.91 181.22
-9755180.80 5135873.99 181.19
-9755178.12 5135873.07 181.19
-9755171.65 5135873.91 181.22
-9755176.67 5135873.37 181.19
-9755184.96 5135860.70 181.11
-9755186.79 5135858.36 181.11
-9755184.69 5135863.03 181.15
-9755184.11 5135861.55 181.12
-9755185.56 5135861.58 181.12
-9755184.70 5135857.72 181.14
-9755185.82 5135859.24 181.12
-9755183.52 5135864.23 181.15
-9755183.82 5135858.26 181.14
-9755183.44 5135863.35 181.15
-9755183.48 5135861.86 181.12
-9755182.60 5135860.93 181.11
-9755179.34 5135865.67 181.16
-9755178.84 5135860.06 181.14
-9755180.59 5135863.36 181.15
-9755178.49 5135860.04 181.13
-9755180.83 5135862.42 181.13
-9755181.75 5135856.80 181.14
-9755176.68 5135860.04 181.15
-9755175.27 5135857.67 181.14
-9755177.31 5135860.01 181.15
-9755176.14 5135857.69 181.16
-9755183.46 5135867.47 181.15
-9755174.36 5135865.99 181.16
-9755181.75 5135855.93 181.15
-9755180.23 5135862.41 181.14
-9755172.35 5135858.51 181.16
-9755179.10 5135862.40 181.14
-9755181.70 5135866.51 181.16
-9755181.50 5135863.56 181.15
-9755182.31 5135866.01 181.16
-9755172.56 5135859.14 181.15
-9755177.58 5135864.15 181.16
-9755137.45 5135881.09 182.05
-9755176.47 5135858.27 181.14
-9755174.08 5135866.57 181.18
-9755174.37 5135867.44 181.17
-9755176.42 5135863.30 181.15
-9755173.26 5135859.18 181.15
-9755174.89 5135866.53 181.17
-9755178.22 5135858.53 181.15
-9755178.24 5135864.23 181.14
-9755174.96 5135862.41 181.15
-9755172.02 5135862.00 181.16
-9755178.22 5135865.98 181.16
-9755178.18 5135867.47 181.17
-9755186.67 5135870.17 181.18
-9755184.04 5135871.07 181.18
-9755185.15 5135870.71 181.18
-9755186.38 5135873.41 181.19
-9755182.53 5135867.20 181.14
-9755183.18 5135870.96 181.19
-9755174.28 5135872.11 181.20
-9755179.01 5135868.09 181.17
-9755183.42 5135871.63 181.19
-9755174.91 5135872.19 181.19
-9755183.18 5135868.37 181.16
-9755181.73 5135873.05 181.20
-9755174.07 5135870.05 181.17
-9755180.84 5135869.23 181.16
-9755172.51 5135868.28 181.19
-9755173.43 5135873.35 181.18
-9755181.45 5135869.80 181.16
-9755177.31 5135869.23 181.17
-9755177.29 5135868.31 181.17
-9755171.65 5135873.31 181.22
-9755181.67 5135868.07 181.16
-9755177.21 5135870.96 181.19
-9755175.85 5135869.25 181.16
-9755171.15 5135859.05 181.16
-9755171.67 5135864.79 181.19
-9755171.18 5135856.79 181.17
-9755169.96 5135857.65 181.16
-9755170.00 5135856.74 181.18
-9755171.09 5135872.46 181.20
-9755181.50 5135855.36 181.16
-9755173.85 5135855.29 181.19
-9755172.59 5135854.42 181.18
-9755171.70 5135855.27 181.17
-9755161.87 5135877.44 181.26
-9755167.79 5135879.22 181.26
-9755167.77 5135879.80 181.25
-9755163.39 5135878.01 181.27
-9755162.78 5135878.08 181.28
-9755164.25 5135877.40 181.26
-9755164.20 5135879.80 181.29
-9755167.48 5135874.79 181.22
-9755169.17 5135878.96 181.27
-9755166.04 5135880.11 181.28
-9755168.42 5135878.08 181.26
-9755165.14 5135875.06 181.26
-9755166.92 5135875.12 181.26
-9755162.82 5135875.11 181.25
-9755163.38 5135875.04 181.28
-9755160.15 5135877.94 181.27
-9755159.87 5135876.53 181.29
-9755158.57 5135875.96 181.27
-9755158.34 5135877.43 181.27
-9755159.17 5135875.91 181.28
-9755156.88 5135876.53 181.28
-9755156.24 5135878.25 181.24
-9755160.12 5135878.90 181.28
-9755157.74 5135880.70 181.27
-9755159.54 5135877.35 181.28
-9755156.00 5135877.32 181.28
-9755157.45 5135878.32 181.27
-9755159.30 5135874.80 181.27
-9755159.46 5135880.66 181.29
-9755153.92 5135879.11 181.27
-9755152.75 5135879.74 181.29
-9755155.15 5135875.03 181.26
-9755155.14 5135875.84 181.26
-9755152.73 5135874.71 181.25
-9755151.84 5135875.60 181.24
-9755149.49 5135877.32 181.26
-9755148.61 5135875.51 181.23
-9755147.18 5135878.25 181.27
-9755148.62 5135878.24 181.28
-9755146.77 5135879.99 181.26
-9755144.77 5135878.20 181.25
-9755147.13 5135874.97 181.22
-9755151.04 5135874.97 181.24
-9755145.95 5135874.94 181.23
-9755169.26 5135874.22 181.22
-9755164.55 5135873.01 181.25
-9755162.78 5135873.85 181.26
-9755168.43 5135874.19 181.24
-9755157.49 5135873.20 181.27
-9755159.51 5135873.87 181.26
-9755159.30 5135873.28 181.26
-9755156.60 5135873.49 181.26
-9755155.09 5135873.19 181.25
-9755152.78 5135873.50 181.24
-9755154.53 5135873.19 181.25
-9755169.94 5135866.56 181.19
-9755169.66 5135862.28 181.16
-9755166.73 5135862.06 181.21
-9755165.23 5135858.17 181.24
-9755164.36 5135857.65 181.26
-9755163.78 5135858.47 181.25
-9755167.31 5135857.60 181.20
-9755165.20 5135866.82 181.23
-9755164.94 5135857.58 181.24
-9755168.40 5135863.50 181.19
-9755161.72 5135855.81 181.27
-9755166.70 5135863.24 181.20
-9755167.61 5135860.30 181.19
-9755161.45 5135858.42 181.26
-9755167.64 5135862.38 181.20
-9755161.05 5135861.73 181.24
-9755163.47 5135857.56 181.26
-9755168.47 5135864.10 181.19
-9755164.40 5135855.82 181.28
-9755160.83 5135858.74 181.27
-9755163.16 5135859.92 181.25
-9755167.59 5135856.18 181.20
-9755164.36 5135859.05 181.26
-9755163.74 5135864.39 181.25
-9755165.23 5135863.49 181.22
-9755169.31 5135871.84 181.21
-9755161.62 5135867.36 181.25
-9755168.42 5135869.44 181.20
-9755163.74 5135870.03 181.25
-9755167.52 5135869.15 181.21
-9755166.64 5135871.60 181.23
-9755167.25 5135867.41 181.22
-9755160.13 5135872.67 181.27
-9755167.53 5135869.73 181.21
-9755163.74 5135868.89 181.25
-9755165.17 5135872.35 181.25
-9755162.56 5135870.93 181.26
-9755163.42 5135871.48 181.26
-9755165.26 5135867.35 181.25
-9755169.28 5135869.76 181.19
-9755169.37 5135868.56 181.19
-9755168.43 5135868.31 181.21
-9755159.92 5135868.50 181.26
-9755160.26 5135859.05 181.27
-9755159.95 5135862.32 181.26
-9755156.70 5135865.82 181.25
-9755159.32 5135857.83 181.28
-9755157.54 5135865.23 181.26
-9755158.39 5135860.83 181.29
-9755155.71 5135864.93 181.25
-9755158.71 5135866.42 181.26
-9755159.31 5135860.78 181.27
-9755159.07 5135859.92 181.28
-9755154.30 5135860.19 181.25
-9755154.30 5135859.05 181.26
-9755152.80 5135865.27 181.22
-9755153.46 5135864.31 181.24
-9755153.76 5135860.18 181.24
-9755155.21 5135858.43 181.26
-9755153.45 5135863.41 181.23
-9755154.34 5135856.06 181.24
-9755155.22 5135860.80 181.25
-9755153.69 5135865.82 181.23
-9755152.81 5135862.26 181.22
-9755155.26 5135856.98 181.26
-9755153.66 5135866.44 181.23
-9755153.15 5135856.03 181.25
-9755154.29 5135866.41 181.24
-9755156.56 5135870.88 181.24
-9755159.35 5135869.99 181.26
-9755157.80 5135872.63 181.28
-9755159.60 5135867.35 181.26
-9755159.54 5135872.67 181.27
-9755156.03 5135867.31 181.25
-9755153.65 5135867.59 181.23
-9755153.65 5135872.35 181.23
-9755152.77 5135869.39 181.23
-9755155.41 5135868.22 181.23
-9755155.44 5135869.14 181.24
-9755152.82 5135869.75 181.22
-9755151.89 5135873.80 181.23
-9755148.37 5135874.92 181.23
-9755150.43 5135873.81 181.22
-9755147.72 5135874.13 181.22
-9755146.82 5135873.21 181.22
-9755148.08 5135873.17 181.22
-9755149.56 5135873.79 181.21
-9755150.19 5135864.01 181.19
-9755151.95 5135863.41 181.22
-9755151.08 5135866.13 181.20
-9755143.68 5135859.24 181.16
-9755151.90 5135861.67 181.23
-9755144.36 5135856.59 181.17
-9755150.12 5135866.12 181.18
-9755147.90 5135856.10 181.21
-9755144.59 5135857.78 181.18
-9755149.33 5135859.30 181.19
-9755151.04 5135861.64 181.20
-9755146.37 5135858.40 181.18
-9755145.45 5135866.67 181.15
-9755143.71 5135862.52 181.14
-9755143.72 5135861.68 181.13
-9755148.69 5135865.18 181.16
-9755151.66 5135856.04 181.23
-9755151.07 5135866.38 181.22
-9755143.65 5135863.98 181.14
-9755144.60 5135866.06 181.14
-9755143.99 5135863.42 181.13
-9755148.74 5135861.92 181.19
-9755145.21 5135856.63 181.19
-9755147.82 5135862.80 181.17
-9755150.21 5135857.81 181.22
-9755145.53 5135859.30 181.16
-9755144.60 5135859.85 181.14
-9755148.72 5135857.79 181.20
-9755149.63 5135858.47 181.21
-9755146.07 5135864.87 181.15
-9755147.89 5135859.31 181.20
-9755142.75 5135863.98 181.13
-9755147.19 5135872.57 181.21
-9755143.65 5135870.20 181.19
-9755149.54 5135869.94 181.21
-9755148.38 5135868.49 181.19
-9755148.66 5135870.55 181.19
-9755143.69 5135871.10 181.20
-9755142.72 5135869.00 181.18
-9755147.21 5135870.55 181.22
-9755145.14 5135869.95 181.18
-9755148.68 5135870.16 181.19
-9755151.91 5135867.27 181.21
-9755150.77 5135868.44 181.20
-9755146.01 5135872.58 181.22
-9755148.35 5135867.57 181.19
-9755170.01 5135854.42 181.18
-9755164.08 5135855.21 181.26
-9755167.60 5135854.34 181.22
-9755168.53 5135855.24 181.21
-9755159.30 5135855.20 181.27
-9755156.10 5135855.16 181.28
-9755150.54 5135854.27 181.24
-9755143.74 5135854.51 181.20
-9755152.01 5135855.18 181.24
-9755145.52 5135855.13 181.20
-9755144.63 5135854.29 181.20
-9755142.13 5135875.80 181.24
-9755134.71 5135880.53 181.27
-9755136.19 5135875.83 181.24
-9755139.75 5135879.60 182.09
-9755138.90 5135877.58 181.26
-9755140.34 5135879.01 181.99
-9755141.89 5135877.03 181.27
-9755137.07 5135879.90 182.04
-9755135.32 5135878.42 181.26
-9755136.87 5135880.46 182.03
-9755137.17 5135878.12 182.05
-9755137.20 5135875.75 182.00
-9755140.27 5135878.21 182.02
-9755135.41 5135874.89 181.24
-9755140.40 5135877.35 181.99
-9755138.91 5135876.38 181.25
-9755136.88 5135879.03 181.29
-9755140.38 5135876.58 181.97
-9755140.40 5135879.78 182.08
-9755140.41 5135880.02 181.54
-9755139.90 5135874.91 182.05
-9755134.12 5135880.78 181.27
-9755139.81 5135878.34 182.03
-9755132.96 5135880.50 181.26
-9755134.75 5135875.75 181.23
-9755138.01 5135876.36 181.26
-9755142.10 5135880.56 181.28
-9755139.46 5135880.56 181.30
-9755135.33 5135880.82 181.27
-9755134.42 5135877.28 181.25
-9755133.55 5135876.67 181.24
-9755132.12 5135878.96 181.23
-9755133.03 5135875.78 181.23
-9755132.13 5135878.13 181.25
-9755131.21 5135879.03 181.24
-9755132.08 5135875.77 181.24
-9755131.30 5135878.12 181.23
-9755131.49 5135877.24 181.23
-9755128.90 5135876.59 181.21
-9755128.86 5135879.89 181.21
-9755128.24 5135880.48 181.23
-9755117.09 5135878.90 181.46
-9755116.46 5135880.71 181.52
-9755123.26 5135876.60 181.24
-9755125.02 5135877.20 181.23
-9755127.10 5135875.68 181.22
-9755127.06 5135879.00 181.21
-9755125.64 5135875.74 181.23
-9755117.96 5135878.98 181.29
-9755126.52 5135878.10 181.22
-9755118.88 5135874.82 181.29
-9755124.49 5135874.81 181.23
-9755127.12 5135874.83 181.21
-9755118.22 5135879.83 181.27
-9755120.01 5135879.82 181.26
-9755119.72 5135878.96 181.27
-9755119.15 5135875.69 181.28
-9755117.99 5135876.57 181.30
-9755127.64 5135877.52 181.21
-9755121.53 5135874.84 181.24
-9755115.86 5135877.42 181.57
-9755127.08 5135876.62 181.21
-9755127.39 5135878.41 181.21
-9755117.95 5135875.65 181.28
-9755121.23 5135880.78 181.26
-9755117.45 5135875.42 181.35
-9755123.88 5135873.87 181.23
-9755125.60 5135880.48 181.23
-9755135.37 5135873.97 181.23
-9755137.16 5135874.09 182.02
-9755136.23 5135874.31 181.22
-9755140.41 5135873.16 181.88
-9755137.07 5135873.38 181.99
-9755143.11 5135859.25 181.17
-9755142.19 5135866.08 181.13
-9755134.54 5135863.94 181.16
-9755134.57 5135861.57 181.14
-9755140.44 5135861.61 181.12
-9755136.98 5135857.69 181.35
-9755140.37 5135863.44 181.41
-9755137.07 5135861.85 181.37
-9755134.54 5135865.92 181.16
-9755136.99 5135855.88 181.92
-9755137.85 5135863.37 181.15
-9755137.14 5135861.58 181.91
-9755137.12 5135856.50 181.91
-9755140.13 5135864.30 181.92
-9755138.97 5135855.96 181.16
-9755137.12 5135859.23 181.90
-9755134.53 5135866.56 181.15
-9755139.58 5135860.95 181.48
-9755137.16 5135858.35 181.87
-9755135.70 5135866.05 181.17
-9755137.19 5135866.53 181.91
-9755134.52 5135865.08 181.16
-9755136.37 5135861.04 181.15
-9755140.42 5135862.57 181.83
-9755136.95 5135860.93 181.88
-9755137.18 5135865.75 181.89
-9755136.94 5135858.34 181.33
-9755140.16 5135864.84 181.94
-9755136.08 5135857.48 181.16
-9755141.32 5135866.63 181.16
-9755135.53 5135856.86 181.16
-9755133.64 5135862.46 181.15
-9755139.58 5135861.14 181.87
-9755139.60 5135862.39 181.95
-9755133.70 5135861.54 181.15
-9755136.28 5135866.92 181.17
-9755136.95 5135860.08 181.92
-9755138.67 5135860.99 181.12
-9755133.72 5135855.95 181.17
-9755136.31 5135864.47 181.15
-9755139.61 5135865.48 181.91
-9755140.50 5135859.98 181.80
-9755139.63 5135863.21 181.90
-9755137.19 5135865.18 181.17
-9755137.82 5135856.85 181.14
-9755142.18 5135872.54 181.21
-9755140.67 5135871.69 181.23
-9755136.27 5135872.22 181.21
-9755136.24 5135871.67 181.19
-9755135.39 5135871.69 181.19
-9755133.92 5135867.77 181.15
-9755133.65 5135868.07 181.16
-9755138.64 5135868.99 181.19
-9755141.30 5135871.07 181.21
-9755140.18 5135870.82 181.87
-9755138.10 5135869.23 181.18
-9755136.94 5135867.44 181.96
-9755139.51 5135872.59 181.23
-9755140.61 5135867.46 181.51
-9755133.92 5135871.93 181.20
-9755141.31 5135868.14 181.17
-9755135.45 5135869.89 181.19
-9755139.67 5135869.28 181.97
-9755139.85 5135871.56 181.96
-9755137.18 5135871.62 182.00
-9755137.20 5135869.23 181.94
-9755140.27 5135871.50 181.91
-9755135.42 5135870.75 181.21
-9755139.84 5135870.47 181.93
-9755133.89 5135869.86 181.18
-9755137.16 5135869.83 181.99
-9755137.70 5135870.12 181.19
-9755141.90 5135870.50 181.20
-9755139.80 5135869.85 181.97
-9755138.08 5135872.53 181.22
-9755140.33 5135869.33 181.94
-9755141.91 5135867.22 181.17
-9755132.13 5135873.38 181.22
-9755117.97 5135874.19 181.29
-9755122.12 5135873.36 181.26
-9755117.41 5135873.01 181.34
-9755124.52 5135874.24 181.23
-9755115.75 5135873.86 182.94
-9755126.52 5135873.32 181.22
-9755115.65 5135873.12 184.77
-9755115.64 5135873.20 182.08
-9755132.81 5135865.08 181.15
-9755132.18 5135866.61 181.17
-9755133.09 5135862.46 181.15
-9755132.23 5135864.78 181.17
-9755133.70 5135866.30 181.13
-9755131.35 5135858.27 181.17
-9755132.24 5135857.67 181.15
-9755133.05 5135861.87 181.16
-9755132.17 5135868.94 181.18
-9755132.11 5135871.33 181.19
-9755133.06 5135867.48 181.17
-9755128.97 5135860.64 181.18
-9755130.43 5135858.26 181.18
-9755130.71 5135865.13 181.17
-9755128.95 5135866.57 181.18
-9755115.89 5135873.27 181.55
-9755117.48 5135857.65 186.21
-9755118.05 5135865.15 184.67
-9755127.83 5135856.82 181.20
-9755116.37 5135856.72 186.48
-9755117.25 5135863.36 185.50
-9755118.35 5135856.14 181.30
-9755116.64 5135855.99 185.40
-9755128.09 5135865.96 181.19
-9755117.22 5135859.19 186.35
-9755116.35 5135859.14 185.70
-9755128.04 5135864.22 181.17
-9755118.29 5135856.77 181.30
-9755117.25 5135859.24 185.37
-9755119.56 5135859.83 186.10
-9755117.17 5135864.81 185.41
-9755121.57 5135860.29 181.26
-9755125.71 5135862.44 181.22
-9755117.14 5135865.84 181.33
-9755119.26 5135856.75 181.30
-9755120.48 5135858.55 181.26
-9755116.56 5135865.95 181.45
-9755118.07 5135858.21 186.14
-9755118.02 5135861.61 183.51
-9755118.93 5135864.17 181.28
-9755116.68 5135866.66 185.36
-9755127.26 5135858.29 181.21
-9755118.07 5135860.71 183.62
-9755117.22 5135856.81 184.70
-9755118.00 5135859.03 181.36
-9755117.96 5135865.57 181.30
-9755119.87 5135856.70 181.26
-9755117.54 5135859.52 184.50
-9755125.71 5135860.92 181.21
-9755118.99 5135861.10 181.26
-9755117.49 5135860.88 181.34
-9755118.88 5135866.60 184.90
-9755126.29 5135864.77 181.20
-9755118.36 5135857.67 184.64
-9755116.33 5135865.61 184.14
-9755118.84 5135860.02 181.27
-9755120.44 5135862.31 181.26
-9755117.42 5135863.06 184.33
-9755116.49 5135864.78 181.47
-9755118.37 5135860.73 181.29
-9755118.34 5135866.75 185.25
-9755117.43 5135861.68 181.32
-9755126.29 5135861.52 181.21
-9755116.49 5135862.26 181.44
-9755115.80 5135865.87 186.36
-9755124.81 5135856.76 181.24
-9755119.64 5135857.48 184.47
-9755117.03 5135865.77 184.13
-9755127.48 5135866.86 181.17
-9755127.45 5135865.95 181.19
-9755117.15 5135862.63 181.31
-9755116.47 5135863.19 181.46
-9755116.67 5135862.59 186.42
-9755118.73 5135860.68 185.51
-9755125.68 5135863.26 181.22
-9755125.45 5135859.20 181.22
-9755115.56 5135856.52 187.23
-9755118.03 5135862.03 181.29
-9755125.65 5135866.59 181.20
-9755117.97 5135864.45 181.30
-9755119.53 5135860.66 184.66
-9755120.76 5135859.99 181.27
-9755118.92 5135860.77 183.58
-9755119.75 5135861.15 181.26
-9755118.99 5135866.48 181.29
-9755119.51 5135858.02 183.93
-9755117.18 5135866.54 181.33
-9755120.69 5135857.35 181.27
-9755117.55 5135864.60 183.84
-9755116.50 5135861.67 181.49
-9755122.18 5135860.06 181.25
-9755118.07 5135866.73 181.28
-9755117.80 5135863.02 185.48
-9755119.83 5135860.24 185.80
-9755116.76 5135864.37 181.48
-9755128.12 5135858.27 181.20
-9755118.54 5135857.25 183.89
-9755123.36 5135864.44 181.25
-9755121.55 5135866.82 181.25
-9755116.82 5135862.16 183.87
-9755116.36 5135859.37 181.45
-9755119.55 5135860.63 185.83
-9755125.73 5135858.22 181.22
-9755130.66 5135872.48 181.22
-9755129.79 5135868.96 181.19
-9755130.70 5135869.84 181.19
-9755130.47 5135868.09 181.19
-9755130.41 5135871.60 181.19
-9755128.90 5135867.74 181.19
-9755117.45 5135869.12 181.30
-9755123.03 5135871.26 181.25
-9755126.25 5135869.25 181.20
-9755119.18 5135871.57 181.29
-9755117.42 5135870.61 181.31
-9755117.17 5135867.48 184.90
-9755116.34 5135867.99 184.43
-9755118.10 5135868.26 181.28
-9755117.95 5135871.52 181.29
-9755127.12 5135870.10 181.20
-9755123.29 5135868.35 181.23
-9755119.15 5135867.66 181.28
-9755116.59 5135868.41 183.89
-9755116.59 5135868.98 183.90
-9755115.65 5135867.46 186.31
-9755116.80 5135868.88 184.42
-9755120.68 5135872.13 181.25
-9755125.69 5135869.22 181.22
-9755118.90 5135868.98 181.28
-9755117.40 5135869.79 181.32
-9755125.67 5135871.86 181.21
-9755116.27 5135869.75 186.33
-9755122.12 5135870.03 181.24
-9755116.84 5135871.50 181.47
-9755117.97 5135872.68 181.30
-9755116.02 5135869.32 184.17
-9755128.01 5135871.55 181.20
-9755116.75 5135868.27 181.42
-9755126.27 5135867.70 181.20
-9755117.46 5135868.55 181.32
-9755124.80 5135869.83 181.22
-9755120.64 5135869.84 181.27
-9755125.37 5135869.86 181.21
-9755116.35 5135869.50 183.35
-9755115.71 5135869.94 184.31
-9755117.85 5135868.07 184.69
-9755116.04 5135869.15 181.55
-9755141.05 5135854.51 181.20
-9755137.01 5135855.17 181.55
-9755132.88 5135855.03 181.16
-9755134.56 5135854.45 181.17
-9755134.57 5135855.07 181.16
-9755138.74 5135853.57 181.19
-9755140.10 5135853.92 181.88
-9755133.10 5135854.44 181.17
-9755129.60 5135854.12 181.20
-9755127.83 5135854.47 181.22
-9755126.66 5135854.39 181.21
-9755125.50 5135854.97 181.23
-9755116.93 5135854.59 185.05
-9755115.63 5135876.53 181.58
-9755115.63 5135874.04 183.58
-9755115.60 5135879.76 181.58
-9755114.99 5135874.01 183.72
-9755115.04 5135874.72 183.68
-9755114.48 5135874.42 183.36
-9755105.65 5135878.26 191.16
-9755109.25 5135879.02 189.63
-9755107.44 5135879.01 190.24
-9755104.87 5135878.99 188.96
-9755104.22 5135876.57 191.35
-9755108.93 5135874.86 188.75
-9755102.40 5135876.58 190.36
-9755108.30 5135878.17 190.59
-9755110.89 5135876.68 188.15
-9755107.43 5135875.51 189.41
-9755104.26 5135879.11 189.55
-9755105.75 5135879.69 188.88
-9755105.63 5135878.70 191.28
-9755106.51 5135875.78 190.55
-9755108.89 5135877.24 191.26
-9755108.06 5135877.54 190.35
-9755102.62 5135875.70 190.55
-9755107.57 5135879.92 189.63
-9755103.28 5135876.49 190.42
-9755108.31 5135879.44 189.67
-9755112.35 5135879.17 188.69
-9755111.49 5135879.72 188.76
-9755104.95 5135879.88 190.63
-9755105.03 5135874.05 189.71
-9755102.68 5135878.89 191.03
-9755104.85 5135877.15 191.13
-9755104.98 5135878.36 186.91
-9755104.16 5135879.94 190.23
-9755111.77 5135877.44 181.50
-9755112.41 5135874.74 186.53
-9755108.28 5135876.51 188.62
-9755109.24 5135877.22 190.56
-9755104.12 5135874.82 191.08
-9755109.21 5135876.42 190.42
-9755102.44 5135876.58 190.99
-9755105.65 5135878.03 188.82
-9755113.28 5135877.44 186.84
-9755109.76 5135876.66 190.36
-9755108.04 5135875.73 189.64
-9755110.68 5135879.13 188.70
-9755108.26 5135880.01 188.78
-9755103.17 5135878.06 190.38
-9755112.32 5135879.24 188.26
-9755109.78 5135877.28 190.50
-9755112.69 5135878.91 187.28
-9755102.44 5135874.93 190.31
-9755113.34 5135878.35 187.37
-9755103.26 5135877.56 191.16
-9755107.19 5135876.01 190.80
-9755110.70 5135874.03 189.54
-9755105.62 5135875.07 190.23
-9755107.76 5135877.35 181.26
-9755113.31 5135877.37 189.00
-9755108.27 5135876.65 191.16
-9755110.09 5135879.10 188.03
-9755110.64 5135879.70 188.79
-9755104.15 5135878.95 191.31
-9755105.95 5135879.02 190.57
-9755109.11 5135877.36 188.55
-9755111.39 5135877.38 189.33
-9755109.16 5135880.72 181.24
-9755103.57 5135879.86 191.01
-9755107.46 5135879.75 187.10
-9755108.44 5135874.99 190.36
-9755102.67 5135875.74 189.63
-9755109.42 5135879.70 188.55
-9755112.16 5135879.78 188.21
-9755103.88 5135877.49 191.66
-9755110.08 5135880.32 187.40
-9755105.11 5135877.48 187.92
-9755109.88 5135874.00 188.73
-9755106.81 5135880.65 187.47
-9755108.96 5135876.20 188.92
-9755114.16 5135875.04 181.55
-9755109.90 5135875.58 190.43
-9755104.76 5135874.78 191.14
-9755113.32 5135876.44 189.46
-9755102.09 5135877.77 190.12
-9755111.57 5135879.80 188.23
-9755105.30 5135878.45 188.88
-9755110.05 5135875.28 185.41
-9755104.24 5135876.54 191.62
-9755109.10 5135879.02 188.74
-9755103.37 5135874.85 191.09
-9755114.12 5135874.04 184.03
-9755112.35 5135879.81 181.53
-9755108.48 5135879.82 181.24
-9755107.75 5135879.04 187.07
-9755111.45 5135874.19 186.39
-9755110.73 5135874.16 187.04
-9755112.35 5135873.90 186.99
-9755108.40 5135879.18 187.62
-9755111.95 5135877.56 185.77
-9755108.84 5135880.57 188.41
-9755113.27 5135877.03 188.18
-9755112.34 5135875.04 181.58
-9755112.40 5135878.99 189.42
-9755112.10 5135875.29 188.31
-9755113.01 5135875.99 185.28
-9755112.41 5135878.05 187.27
-9755113.27 5135875.37 186.79
-9755112.67 5135877.73 187.50
-9755106.61 5135879.68 190.59
-9755112.09 5135875.05 188.69
-9755112.42 5135877.42 181.50
-9755112.21 5135874.84 185.75
-9755108.28 5135873.97 190.59
-9755112.54 5135878.35 185.54
-9755110.02 5135878.20 190.25
-9755108.03 5135880.30 189.50
-9755105.04 5135878.34 191.41
-9755113.87 5135876.37 188.82
-9755110.59 5135878.98 181.43
-9755111.56 5135875.73 185.70
-9755111.19 5135874.03 189.33
-9755113.01 5135877.47 185.47
-9755113.06 5135876.63 185.29
-9755110.61 5135876.68 189.99
-9755111.49 5135875.62 181.54
-9755105.88 5135880.64 189.61
-9755111.45 5135874.73 181.54
-9755113.24 5135876.67 188.89
-9755113.07 5135878.44 189.14
-9755111.16 5135879.96 186.61
-9755111.82 5135878.90 186.21
-9755110.68 5135876.10 190.65
-9755105.39 5135879.77 185.41
-9755103.35 5135878.24 191.66
-9755109.96 5135875.26 190.39
-9755111.23 5135880.34 188.63
-9755110.92 5135876.50 181.46
-9755111.51 5135879.17 181.47
-9755112.94 5135878.61 187.21
-9755107.17 5135874.19 190.33
-9755103.30 5135873.96 191.03
-9755101.51 5135879.09 189.77
-9755112.37 5135878.95 181.48
-9755111.85 5135880.28 188.24
-9755112.93 5135878.43 186.02
-9755110.89 5135880.10 186.53
-9755110.92 5135874.20 186.06
-9755102.45 5135874.45 191.30
-9755107.45 5135879.59 190.46
-9755104.70 5135880.56 188.91
-9755101.54 5135878.44 190.83
-9755101.59 5135876.51 191.16
-9755101.82 5135876.71 181.12
-9755101.57 5135879.13 190.79
-9755101.63 5135876.60 189.92
-9755100.03 5135876.52 187.10
-9755099.96 5135877.24 188.76
-9755099.08 5135878.19 189.47
-9755100.92 5135879.81 187.75
-9755100.24 5135880.85 188.44
-9755099.79 5135879.06 189.21
-9755100.10 5135876.49 188.81
-9755100.72 5135879.84 189.48
-9755099.36 5135879.63 188.79
-9755099.59 5135879.24 189.35
-9755099.94 5135877.38 187.72
-9755100.92 5135875.70 191.13
-9755100.10 5135876.46 187.95
-9755100.07 5135878.14 189.25
-9755099.36 5135877.26 189.34
-9755098.79 5135876.14 188.22
-9755099.35 5135875.02 181.16
-9755101.17 5135877.53 189.32
-9755098.61 5135879.05 187.30
-9755101.24 5135878.38 190.79
-9755091.73 5135874.93 181.24
-9755091.71 5135875.82 181.26
-9755089.35 5135876.43 181.29
-9755088.46 5135878.17 181.29
-9755089.37 5135874.87 181.30
-9755091.17 5135879.97 181.25
-9755090.80 5135880.58 181.26
-9755115.89 5135873.90 182.44
-9755115.28 5135874.03 185.20
-9755115.73 5135872.29 182.33
-9755114.16 5135873.91 184.54
-9755114.76 5135873.22 185.60
-9755115.59 5135866.50 186.82
-9755115.90 5135865.57 181.54
-9755114.88 5135861.75 187.11
-9755114.90 5135860.87 186.16
-9755115.63 5135862.06 181.56
-9755115.45 5135858.40 188.55
-9755114.85 5135863.98 184.80
-9755114.84 5135855.86 184.84
-9755113.89 5135859.22 187.71
-9755114.84 5135864.21 181.57
-9755115.11 5135855.73 183.26
-9755113.98 5135861.78 186.92
-9755114.00 5135860.04 187.27
-9755114.00 5135865.04 186.77
-9755114.98 5135864.77 181.58
-9755114.83 5135864.87 185.66
-9755113.99 5135857.86 187.09
-9755115.56 5135870.05 186.33
-9755115.20 5135867.60 185.33
-9755115.62 5135871.83 181.56
-9755115.36 5135866.83 185.17
-9755114.76 5135871.40 184.53
-9755115.12 5135870.95 183.81
-9755114.78 5135872.56 184.75
-9755115.96 5135869.82 181.58
-9755114.74 5135871.83 182.13
-9755114.91 5135870.97 181.58
-9755113.94 5135867.38 187.09
-9755114.98 5135871.52 182.93
-9755114.15 5135871.40 185.48
-9755113.94 5135870.79 184.65
-9755114.48 5135870.03 186.71
-9755104.22 5135873.09 188.90
-9755107.56 5135873.23 189.45
-9755104.38 5135873.44 191.20
-9755111.77 5135873.20 187.15
-9755110.78 5135874.22 185.75
-9755109.12 5135873.42 190.29
-9755109.78 5135873.34 187.03
-9755105.75 5135873.34 189.72
-9755104.09 5135873.23 190.44
-9755110.68 5135873.17 187.72
-9755111.80 5135873.25 181.56
-9755104.19 5135873.92 191.19
-9755105.84 5135874.01 190.42
-9755110.89 5135873.23 187.34
-9755107.74 5135873.38 190.05
-9755109.83 5135873.16 189.77
-9755106.64 5135873.86 190.00
-9755105.86 5135873.96 191.02
-9755111.35 5135873.43 185.53
-9755113.20 5135874.14 181.57
-9755110.65 5135874.12 188.22
-9755102.39 5135873.37 190.51
-9755104.69 5135873.93 185.46
-9755108.86 5135873.42 185.57
-9755112.36 5135873.95 185.41
-9755105.42 5135873.21 191.37
-9755105.62 5135873.48 190.19
-9755105.04 5135873.32 190.72
-9755112.71 5135873.65 186.61
-9755113.22 5135874.27 186.43
-9755109.78 5135873.13 190.22
-9755101.48 5135873.06 186.68
-9755099.17 5135873.89 187.77
-9755094.93 5135873.18 181.21
-9755110.78 5135863.16 187.69
-9755113.03 5135862.61 187.07
-9755114.25 5135868.82 187.18
-9755109.23 5135861.84 190.55
-9755105.80 5135862.68 188.71
-9755113.21 5135859.34 186.21
-9755113.17 5135859.40 188.12
-9755104.05 5135856.06 191.02
-9755111.59 5135860.16 186.89
-9755113.95 5135858.62 185.39
-9755104.33 5135858.46 191.86
-9755108.31 5135864.03 188.90
-9755108.06 5135862.61 188.73
-9755110.65 5135859.27 188.83
-9755102.99 5135860.08 190.06
-9755107.55 5135865.83 190.16
-9755105.79 5135864.09 187.87
-9755104.90 5135860.08 188.73
-9755106.66 5135863.43 189.49
-9755113.09 5135866.51 187.16
-9755104.32 5135856.86 191.04
-9755103.36 5135864.30 189.50
-9755112.45 5135862.37 187.06
-9755102.53 5135856.92 189.56
-9755109.34 5135861.83 189.78
-9755110.81 5135860.08 190.30
-9755111.61 5135861.74 187.75
-9755105.66 5135863.39 188.77
-9755102.50 5135860.11 191.28
-9755110.69 5135865.02 185.70
-9755112.46 5135859.46 188.51
-9755110.71 5135864.80 186.18
-9755107.29 5135861.93 190.43
-9755107.25 5135855.82 191.05
-9755112.49 5135856.84 184.55
-9755105.00 5135860.87 191.09
-9755107.32 5135864.33 188.63
-9755106.63 5135857.58 189.38
-9755107.31 5135855.12 189.55
-9755104.54 5135859.16 190.35
-9755110.63 5135866.63 187.91
-9755107.29 5135855.87 190.51
-9755106.75 5135856.64 190.23
-9755103.14 5135856.97 191.97
-9755112.54 5135866.73 187.05
-9755108.13 5135856.80 190.99
-9755103.28 5135860.00 191.14
-9755110.77 5135859.15 190.36
-9755109.93 5135859.18 191.22
-9755110.49 5135860.61 184.97
-9755110.65 5135865.66 187.75
-9755111.54 5135863.55 186.13
-9755113.32 5135862.25 181.58
-9755105.01 5135865.70 190.21
-9755111.74 5135859.71 185.75
-9755108.28 5135864.89 188.56
-9755107.52 5135862.98 191.44
-9755107.57 5135859.14 191.95
-9755106.09 5135865.88 191.18
-9755104.17 5135863.35 189.02
-9755108.27 5135862.68 181.25
-9755105.75 5135857.55 191.74
-9755106.66 5135855.23 191.75
-9755102.76 5135858.49 191.97
-9755106.00 5135862.66 191.05
-9755110.87 5135859.15 191.18
-9755113.17 5135860.94 186.38
-9755104.30 5135857.64 189.74
-9755111.69 5135866.21 188.15
-9755111.52 5135863.58 181.47
-9755107.50 5135862.28 192.05
-9755107.26 5135861.60 189.55
-9755102.53 5135865.88 189.60
-9755107.44 5135863.35 190.15
-9755110.76 5135855.96 190.39
-9755105.65 5135864.23 189.65
-9755108.98 5135862.48 189.79
-9755109.18 5135861.00 191.31
-9755110.44 5135857.64 188.10
-9755109.06 5135855.30 191.03
-9755112.53 5135861.69 186.97
-9755105.79 5135859.09 190.63
-9755109.86 5135864.79 188.10
-9755112.55 5135856.79 185.37
-9755113.09 5135866.76 187.82
-9755105.48 5135862.57 187.94
-9755103.46 5135860.93 190.15
-9755110.20 5135856.73 187.11
-9755114.07 5135861.59 185.40
-9755104.17 5135860.11 190.38
-9755110.71 5135856.39 187.07
-9755111.34 5135858.74 188.54
-9755108.97 5135860.71 189.95
-9755104.86 5135860.01 191.10
-9755109.82 5135862.65 181.34
-9755110.23 5135857.80 189.69
-9755106.58 5135864.81 188.64
-9755109.26 5135863.33 188.52
-9755109.82 5135856.69 189.10
-9755104.27 5135865.74 190.21
-9755104.93 5135864.26 188.66
-9755106.61 5135856.66 189.47
-9755112.97 5135858.21 187.89
-9755104.89 5135862.51 189.23
-9755109.81 5135859.94 191.42
-9755110.48 5135861.66 184.57
-9755108.46 5135860.05 191.23
-9755109.90 5135857.70 191.40
-9755109.78 5135856.71 187.98
-9755105.98 5135859.32 189.55
-9755103.13 5135858.42 191.84
-9755109.07 5135856.77 189.12
-9755111.88 5135864.20 188.09
-9755109.01 5135860.42 188.90
-9755109.05 5135860.01 191.41
-9755105.76 5135866.89 189.78
-9755110.72 5135858.58 189.83
-9755111.65 5135860.90 187.99
-9755102.83 5135855.86 191.48
-9755106.64 5135859.20 190.46
-9755111.49 5135866.79 186.56
-9755109.07 5135855.09 190.49
-9755102.54 5135855.07 189.63
-9755105.11 5135857.40 191.77
-9755106.64 5135860.94 192.09
-9755106.69 5135856.92 188.74
-9755110.59 5135857.48 191.29
-9755111.58 5135855.16 184.23
-9755109.84 5135865.81 188.12
-9755109.69 5135856.86 186.00
-9755111.41 5135859.22 184.72
-9755108.14 5135860.35 191.97
-9755111.27 5135863.16 187.85
-9755113.45 5135861.74 186.58
-9755110.71 5135855.77 187.96
-9755113.27 5135864.06 181.56
-9755108.94 5135855.22 181.26
-9755106.53 5135861.83 188.22
-9755111.39 5135856.80 190.14
-9755113.03 5135865.95 187.90
-9755111.60 5135860.12 190.38
-9755110.80 5135856.87 190.27
-9755111.27 5135858.18 187.19
-9755107.72 5135863.43 181.25
-9755108.84 5135864.44 186.53
-9755108.30 5135855.31 189.62
-9755105.02 5135866.58 190.42
-9755106.74 5135859.34 188.67
-9755103.98 5135861.55 190.21
-9755105.06 5135859.35 190.23
-9755109.85 5135857.54 188.40
-9755108.29 5135861.03 189.69
-9755108.34 5135866.89 190.23
-9755109.27 5135858.36 190.28
-9755113.29 5135863.39 181.59
-9755105.67 5135861.01 190.52
-9755109.02 5135858.57 191.70
-9755106.67 5135864.36 188.64
-9755103.95 5135857.65 190.43
-9755102.46 5135861.85 190.01
-9755105.88 5135860.03 190.16
-9755110.75 5135856.17 187.05
-9755110.79 5135860.19 187.79
-9755104.00 5135857.71 191.30
-9755107.00 5135863.24 190.42
-9755109.40 5135859.46 188.88
-9755112.44 5135857.98 188.02
-9755111.62 5135857.52 184.74
-9755106.57 5135863.08 189.05
-9755111.32 5135855.63 190.46
-9755103.36 5135865.99 190.43
-9755110.62 5135860.85 189.40
-9755103.63 5135857.50 181.06
-9755109.76 5135864.79 185.73
-9755110.59 5135858.97 187.16
-9755112.27 5135864.05 187.88
-9755107.36 5135862.59 181.22
-9755105.77 5135857.44 188.08
-9755105.66 5135856.68 181.24
-9755109.05 5135860.91 191.80
-9755110.78 5135854.95 190.36
-9755109.24 5135866.67 189.46
-9755110.71 5135862.74 184.69
-9755112.63 5135863.18 185.51
-9755104.25 5135858.43 181.06
-9755105.01 5135862.54 191.88
-9755110.83 5135860.77 181.43
-9755109.82 5135863.11 188.46
-9755106.63 5135864.03 188.00
-9755111.67 5135857.81 187.30
-9755113.15 5135864.87 186.40
-9755105.63 5135855.08 191.96
-9755110.78 5135866.66 189.62
-9755103.91 5135855.22 181.05
-9755103.42 5135866.67 188.62
-9755105.17 5135866.68 188.43
-9755108.95 5135863.12 189.59
-9755113.08 5135861.68 187.72
-9755110.05 5135864.88 184.15
-9755102.47 5135860.88 190.42
-9755107.65 5135863.43 188.83
-9755108.49 5135861.91 188.43
-9755106.70 5135859.08 189.58
-9755102.46 5135862.60 187.64
-9755109.89 5135866.65 187.14
-9755107.46 5135866.53 190.94
-9755104.30 5135864.30 188.95
-9755110.41 5135862.63 186.64
-9755105.71 5135860.58 185.71
-9755105.66 5135860.57 187.36
-9755112.52 5135856.61 184.14
-9755105.07 5135862.90 181.14
-9755105.15 5135863.47 188.06
-9755105.16 5135861.76 191.88
-9755106.63 5135862.31 191.74
-9755105.89 5135865.52 186.44
-9755103.19 5135862.27 187.03
-9755107.23 5135857.99 191.90
-9755109.34 5135860.29 191.61
-9755110.49 5135855.17 188.14
-9755103.54 5135859.11 191.91
-9755113.30 5135856.85 181.68
-9755104.87 5135858.93 188.63
-9755111.39 5135859.52 190.26
-9755105.72 5135862.63 191.65
-9755104.98 5135859.74 191.87
-9755109.90 5135866.09 185.73
-9755111.28 5135859.57 189.17
-9755109.83 5135863.78 187.04
-9755110.81 5135856.95 187.61
-9755110.97 5135860.19 187.48
-9755111.36 5135859.89 189.17
-9755111.17 5135863.08 184.68
-9755109.61 5135859.13 191.71
-9755113.34 5135866.50 185.93
-9755104.05 5135855.03 191.95
-9755104.44 5135872.40 187.99
-9755106.34 5135871.62 188.70
-9755108.25 5135870.96 187.82
-9755107.47 5135867.10 190.83
-9755104.82 5135872.29 189.37
-9755109.20 5135867.54 190.41
-9755103.38 5135871.64 189.61
-9755110.68 5135872.41 187.25
-9755110.66 5135870.58 186.57
-9755110.01 5135872.41 181.40
-9755108.21 5135868.17 189.69
-9755107.36 5135869.08 189.64
-9755109.90 5135871.45 186.37
-9755111.48 5135867.44 186.09
-9755110.76 5135869.22 186.49
-9755106.55 5135871.69 189.23
-9755106.01 5135869.11 189.66
-9755105.96 5135872.30 189.75
-9755106.73 5135870.01 188.13
-9755111.21 5135867.37 186.94
-9755103.32 5135868.31 190.42
-9755104.75 5135870.01 188.91
-9755113.85 5135869.70 181.61
-9755109.80 5135869.13 186.91
-9755102.38 5135868.91 188.82
-9755106.78 5135868.16 188.80
-9755102.46 5135870.74 189.49
-9755110.62 5135870.30 181.45
-9755113.31 5135869.22 186.17
-9755111.29 5135870.02 186.41
-9755102.35 5135870.74 188.70
-9755111.59 5135872.48 186.94
-9755103.32 5135868.42 189.58
-9755110.28 5135869.17 186.09
-9755103.47 5135871.71 187.67
-9755107.71 5135870.18 185.42
-9755110.08 5135871.50 185.61
-9755103.96 5135870.17 188.88
-9755109.73 5135868.32 189.53
-9755112.55 5135867.63 187.97
-9755110.71 5135869.77 186.54
-9755109.31 5135871.40 187.99
-9755108.25 5135870.74 189.78
-9755103.60 5135871.69 188.90
-9755106.55 5135869.00 189.46
-9755112.41 5135870.77 184.93
-9755102.50 5135867.41 190.23
-9755107.50 5135868.09 190.60
-9755109.87 5135869.74 187.00
-9755108.38 5135868.58 187.88
-9755105.75 5135868.12 190.44
-9755105.74 5135867.54 190.45
-9755109.17 5135869.95 188.88
-9755108.51 5135870.83 188.89
-9755109.41 5135868.13 187.85
-9755110.98 5135867.47 186.53
-9755113.23 5135869.22 181.60
-9755103.42 5135867.43 190.24
-9755107.57 5135871.74 189.74
-9755111.07 5135868.17 186.56
-9755107.36 5135871.61 188.86
-9755106.68 5135870.76 189.42
-9755112.46 5135871.60 184.93
-9755104.18 5135869.36 188.72
-9755101.86 5135870.78 189.05
-9755110.63 5135871.42 188.55
-9755109.04 5135868.34 189.38
-9755106.04 5135869.74 187.94
-9755102.27 5135869.79 189.53
-9755110.88 5135867.60 185.49
-9755102.70 5135871.63 188.58
-9755109.62 5135869.34 189.44
-9755113.98 5135867.64 186.26
-9755110.70 5135868.08 189.66
-9755112.49 5135869.05 187.22
-9755112.42 5135869.10 187.57
-9755110.72 5135870.88 185.54
-9755110.68 5135872.60 185.89
-9755110.53 5135871.44 187.06
-9755111.46 5135871.92 186.95
-9755103.96 5135867.63 185.78
-9755108.90 5135871.98 189.29
-9755105.03 5135868.30 190.41
-9755108.95 5135868.29 184.99
-9755109.30 5135869.21 184.80
-9755110.05 5135869.78 185.66
-9755110.68 5135871.01 183.23
-9755112.52 5135870.11 181.57
-9755108.67 5135869.15 185.45
-9755109.85 5135870.91 181.39
-9755108.63 5135869.15 186.07
-9755109.26 5135869.03 189.58
-9755107.46 5135872.51 190.05
-9755111.50 5135871.65 184.44
-9755113.30 5135870.75 181.58
-9755104.92 5135868.34 188.31
-9755103.08 5135868.85 188.08
-9755111.63 5135871.76 181.48
-9755102.46 5135867.45 188.64
-9755103.62 5135872.58 190.06
-9755109.14 5135871.76 181.26
-9755101.89 5135870.15 189.38
-9755111.42 5135869.24 186.70
-9755108.97 5135868.91 187.75
-9755110.87 5135871.50 181.48
-9755111.40 5135870.61 186.85
-9755113.08 5135871.49 181.60
-9755112.67 5135871.70 183.33
-9755106.63 5135869.78 185.19
-9755112.41 5135870.65 181.58
-9755111.29 5135872.02 188.60
-9755111.27 5135869.19 185.08
-9755102.38 5135868.84 190.80
-9755110.38 5135871.43 188.10
-9755109.76 5135871.29 183.64
-9755104.37 5135870.86 181.06
-9755111.23 5135870.06 185.75
-9755110.13 5135871.10 185.63
-9755108.44 5135867.33 188.43
-9755106.32 5135869.33 190.22
-9755109.78 5135868.30 187.07
-9755109.70 5135867.85 190.58
-9755103.61 5135869.81 190.79
-9755103.83 5135867.32 187.85
-9755104.95 5135868.53 185.89
-9755111.21 5135872.59 188.31
-9755110.91 5135872.39 181.50
-9755109.85 5135867.60 187.85
-9755110.59 5135868.87 189.23
-9755101.87 5135856.82 190.36
-9755101.64 5135865.18 189.45
-9755101.60 5135863.96 189.70
-9755102.04 5135856.83 191.27
-9755101.99 5135857.99 191.87
-9755101.65 5135859.99 191.04
-9755101.40 5135861.79 190.31
-9755101.69 5135855.94 189.75
-9755101.58 5135858.31 190.99
-9755101.65 5135862.56 187.34
-9755101.98 5135866.66 188.78
-9755099.41 5135855.90 188.70
-9755099.02 5135855.70 188.09
-9755100.18 5135855.90 189.75
-9755100.57 5135860.10 191.00
-9755100.80 5135855.82 190.40
-9755098.35 5135857.51 187.01
-9755099.36 5135860.30 190.45
-9755100.02 5135856.93 189.56
-9755100.80 5135855.00 189.68
-9755095.91 5135861.07 181.23
-9755100.71 5135857.88 189.69
-9755099.96 5135855.13 188.05
-9755098.46 5135856.89 187.07
-9755096.52 5135861.89 181.22
-9755098.42 5135858.38 186.34
-9755100.77 5135862.48 189.35
-9755095.32 5135859.22 181.22
-9755101.04 5135866.54 189.64
-9755099.85 5135859.02 187.00
-9755100.74 5135862.45 188.07
-9755096.80 5135866.36 181.19
-9755099.06 5135855.12 187.96
-9755095.66 5135857.46 181.24
-9755100.73 5135866.01 189.54
-9755097.79 5135856.90 187.07
-9755100.84 5135860.96 188.38
-9755095.33 5135857.49 181.24
-9755099.55 5135855.41 188.65
-9755099.34 5135859.15 190.42
-9755100.10 5135861.55 190.45
-9755095.05 5135860.70 181.25
-9755100.64 5135862.99 188.17
-9755097.78 5135858.51 186.76
-9755100.20 5135855.67 190.06
-9755101.61 5135868.97 188.89
-9755101.68 5135870.67 190.06
-9755101.04 5135872.32 187.93
-9755100.13 5135872.45 187.90
-9755100.10 5135871.71 189.59
-9755099.46 5135869.02 188.62
-9755100.09 5135869.30 189.40
-9755100.18 5135870.06 189.60
-9755095.05 5135866.36 181.25
-9755094.08 5135874.08 181.22
-9755092.59 5135874.04 181.25
-9755089.33 5135874.36 181.31
-9755094.17 5135855.97 181.26
-9755090.00 5135864.87 181.33
-9755094.18 5135858.98 181.26
-9755091.84 5135858.34 181.31
-9755093.53 5135860.74 181.26
-9755090.97 5135855.98 181.30
-9755090.39 5135861.92 181.31
-9755094.20 5135856.89 181.25
-9755094.20 5135855.15 181.27
-9755094.18 5135862.76 181.25
-9755089.44 5135863.37 181.32
-9755091.78 5135862.50 181.30
-9755093.56 5135859.86 181.26
-9755093.25 5135861.63 181.26
-9755091.56 5135859.25 181.30
-9755094.19 5135858.33 181.25
-9755088.31 5135855.93 181.37
-9755094.11 5135872.26 181.23
-9755092.93 5135868.41 181.26
-9755094.09 5135871.67 181.22
-9755092.66 5135867.57 181.25
-9755093.49 5135869.02 181.24
-9755094.11 5135869.05 181.22
-9755090.61 5135868.13 181.29
-9755114.86 5135854.31 181.61
-9755113.14 5135854.36 183.50
-9755108.24 5135854.27 189.23
-9755109.36 5135853.39 188.84
-9755108.28 5135854.22 188.60
-9755111.38 5135855.21 188.73
-9755108.16 5135853.52 191.00
-9755105.66 5135853.38 188.78
-9755110.83 5135854.72 190.82
-9755104.97 5135854.40 191.07
-9755110.13 5135854.33 181.40
-9755109.01 5135854.18 190.58
-9755105.56 5135853.45 190.34
-9755105.77 5135853.57 189.60
-9755109.85 5135853.23 190.17
-9755109.90 5135853.53 187.90
-9755109.17 5135853.72 187.60
-9755109.84 5135853.50 188.69
-9755107.34 5135853.44 187.85
-9755107.23 5135854.91 188.24
-9755109.53 5135853.61 187.44
-9755101.89 5135853.41 185.68
-9755100.74 5135853.37 187.19
-9755099.93 5135854.36 187.29
-9755100.79 5135853.36 188.68
-9755099.90 5135853.64 187.00
-9755090.12 5135854.24 181.32
-9755087.89 5135879.06 181.32
-9755087.61 5135878.14 181.33
-9755084.29 5135875.84 181.37
-9755085.83 5135876.41 181.36
-9755081.77 5135880.12 183.11
-9755082.62 5135875.72 182.36
-9755086.97 5135875.78 181.34
-9755081.95 5135876.58 182.37
-9755081.73 5135874.86 181.53
-9755086.98 5135879.67 181.33
-9755084.39 5135874.89 181.39
-9755083.47 5135874.28 181.44
-9755082.83 5135880.79 181.44
-9755087.36 5135874.04 181.34
-9755082.61 5135873.13 181.52
-9755083.51 5135872.49 181.46
-9755087.69 5135862.45 181.37
-9755084.46 5135856.83 181.48
-9755083.59 5135858.54 182.39
-9755084.23 5135855.85 182.36
-9755087.68 5135863.40 181.37
-9755083.47 5135864.10 181.97
-9755082.71 5135855.91 181.46
-9755081.80 5135859.21 181.25
-9755085.34 5135858.28 181.41
-9755083.65 5135860.17 181.98
-9755082.02 5135864.18 181.39
-9755081.53 5135856.27 182.62
-9755084.10 5135857.40 181.97
-9755083.20 5135864.78 181.53
-9755081.80 5135858.72 182.91
-9755081.80 5135859.51 182.84
-9755083.53 5135862.44 181.52
-9755085.34 5135855.08 181.41
-9755083.49 5135860.84 182.02
-9755087.97 5135870.19 181.34
-9755081.77 5135871.55 183.06
-9755082.07 5135869.18 181.96
-9755082.95 5135871.60 181.52
-9755084.67 5135871.63 181.39
-9755086.14 5135869.28 181.38
-9755083.47 5135867.44 181.50
-9755086.76 5135866.60 181.38
-9755085.25 5135869.90 181.38
-9755086.13 5135871.08 181.38
-9755083.24 5135869.23 182.39
-9755083.23 5135870.06 182.39
-9755082.05 5135870.09 183.38
-9755084.44 5135854.16 181.50
-9755083.90 5135853.53 181.56
-9755087.45 5135853.60 181.38
-9755086.21 5135853.60 181.41
-9755081.94 5135854.14 182.14
-9755087.15 5135853.58 181.39
-9755186.86 5135848.56 181.21
-9755186.52 5135853.29 181.17
-9755186.76 5135852.70 181.16
-9755184.19 5135848.25 181.21
-9755184.19 5135850.30 181.18
-9755185.94 5135852.37 181.17
-9755185.06 5135845.88 181.23
-9755185.70 5135844.37 181.23
-9755184.74 5135850.32 181.19
-9755185.60 5135847.65 181.22
-9755184.22 5135846.72 181.23
-9755185.05 5135847.02 181.23
-9755186.54 5135846.20 181.21
-9755183.30 5135846.11 181.25
-9755185.02 5135849.47 181.20
-9755177.37 5135851.13 181.18
-9755181.83 5135849.11 181.21
-9755180.61 5135848.49 181.22
-9755180.68 5135847.93 181.23
-9755180.65 5135850.87 181.18
-9755173.24 5135851.11 181.19
-9755174.18 5135848.78 181.23
-9755174.16 5135846.64 181.25
-9755183.29 5135851.50 181.19
-9755181.83 5135845.85 181.24
-9755182.42 5135852.07 181.18
-9755182.32 5135850.26 181.19
-9755173.27 5135844.33 181.29
-9755178.85 5135845.20 181.25
-9755180.94 5135850.30 181.21
-9755173.29 5135853.52 181.18
-9755175.04 5135845.18 181.24
-9755176.56 5135847.03 181.24
-9755176.50 5135847.60 181.24
-9755182.62 5135851.19 181.18
-9755176.54 5135848.77 181.22
-9755175.01 5135851.73 181.18
-9755179.72 5135852.07 181.19
-9755177.38 5135853.49 181.19
-9755179.10 5135847.31 181.25
-9755173.22 5135849.05 181.23
-9755180.67 5135846.74 181.23
-9755177.36 5135848.81 181.21
-9755175.02 5135844.60 181.26
-9755178.24 5135844.66 181.27
-9755181.79 5135844.64 181.26
-9755182.18 5135846.14 181.25
-9755175.93 5135847.01 181.24
-9755171.78 5135852.00 181.21
-9755177.39 5135847.92 181.23
-9755185.42 5135837.01 181.29
-9755185.70 5135839.37 181.30
-9755176.57 5135837.80 181.29
-9755177.41 5135838.69 181.30
-9755177.44 5135839.61 181.31
-9755173.29 5135837.80 181.29
-9755174.21 5135839.60 181.31
-9755175.10 5135837.84 181.29
-9755179.78 5135838.73 181.30
-9755179.82 5135836.94 181.28
-9755173.34 5135839.29 181.30
-9755182.49 5135837.85 181.29
-9755178.04 5135837.83 181.29
-9755172.73 5135837.78 181.30
-9755185.98 5135842.64 181.26
-9755185.67 5135840.56 181.29
-9755185.68 5135840.85 181.28
-9755183.91 5135843.76 181.24
-9755183.07 5135840.49 181.28
-9755178.03 5135842.24 181.29
-9755179.24 5135841.39 181.27
-9755172.71 5135842.84 181.29
-9755172.39 5135844.28 181.27
-9755175.72 5135842.86 181.27
-9755182.12 5135842.88 181.26
-9755175.05 5135843.96 181.27
-9755178.31 5135843.82 181.27
-9755175.31 5135842.56 181.28
-9755170.88 5135852.04 181.21
-9755171.48 5135846.09 181.26
-9755170.93 5135845.43 181.26
-9755171.80 5135846.90 181.24
-9755171.81 5135847.58 181.25
-9755170.65 5135844.59 181.26
-9755171.84 5135838.39 181.30
-9755172.46 5135836.90 181.29
