-9755707.66 5135719.02 184.91
-9755713.61 5135723.43 186.65
-9755713.61 5135718.37 186.66
-9755712.99 5135725.88 184.95
-9755713.58 5135725.88 184.97
-9755706.26 5135719.04 185.00
-9755710.28 5135721.68 186.22
-9755709.69 5135720.87 184.95
-9755712.18 5135720.81 184.96
-9755713.68 5135716.45 184.95
-9755713.57 5135719.09 184.94
-9755712.09 5135724.95 184.98
-9755713.62 5135717.52 186.68
-9755712.15 5135721.42 184.95
-9755706.17 5135722.94 184.91
-9755712.08 5135724.08 184.96
-9755708.61 5135719.90 184.95
-9755707.15 5135721.59 186.33
-9755713.89 5135724.05 185.42
-9755713.16 5135717.53 186.63
-9755713.61 5135724.95 184.97
-9755709.70 5135718.78 185.41
-9755713.35 5135717.61 184.95
-9755712.08 5135722.63 184.97
-9755710.38 5135720.70 186.19
-9755709.49 5135724.92 184.96
-9755712.14 5135719.28 184.96
-9755708.95 5135699.18 184.98
-9755712.85 5135698.02 184.97
-9755713.72 5135699.51 184.97
-9755709.54 5135699.52 185.39
-9755713.63 5135700.30 186.73
-9755712.81 5135698.86 184.97
-9755707.22 5135699.42 184.95
-9755707.22 5135697.74 184.92
-9755710.39 5135698.85 186.17
-9755712.83 5135699.49 184.98
-9755711.33 5135697.99 184.97
-9755709.56 5135700.41 184.97
-9755709.59 5135697.69 184.98
-9755709.93 5135700.20 185.40
-9755706.44 5135699.70 186.29
-9755710.25 5135699.40 186.20
-9755712.97 5135697.86 185.43
-9755709.32 5135698.58 184.96
-9755710.41 5135696.81 186.22
-9755713.51 5135697.95 186.72
-9755705.46 5135701.99 186.27
-9755701.06 5135700.94 185.49
-9755703.97 5135701.15 186.25
-9755693.57 5135701.14 185.44
-9755697.15 5135701.16 184.97
-9755693.04 5135701.18 185.48
-9755695.65 5135701.21 185.48
-9755703.05 5135701.20 185.05
-9755701.40 5135702.17 185.52
-9755701.30 5135701.20 186.26
-9755696.13 5135701.07 186.84
-9755703.12 5135702.06 186.26
-9755698.98 5135701.79 185.04
-9755703.09 5135701.55 185.04
-9755690.63 5135700.87 185.54
-9755692.19 5135701.08 186.82
-9755690.75 5135701.14 186.74
-9755705.44 5135709.25 186.25
-9755705.37 5135715.14 186.26
-9755705.39 5135712.71 186.27
-9755705.08 5135710.15 185.59
-9755705.40 5135702.64 186.28
-9755704.49 5135710.92 186.28
-9755705.65 5135703.59 185.14
-9755704.55 5135702.01 186.27
-9755704.78 5135711.83 186.28
-9755704.68 5135714.14 185.10
-9755697.19 5135702.07 184.99
-9755697.66 5135701.14 186.78
-9755704.75 5135713.42 185.06
-9755698.94 5135705.93 186.26
-9755703.10 5135703.53 186.25
-9755695.68 5135710.97 185.54
-9755700.51 5135710.23 185.46
-9755701.52 5135705.45 185.48
-9755700.73 5135713.56 185.50
-9755700.35 5135703.55 185.55
-9755698.06 5135702.96 185.51
-9755700.73 5135708.74 186.67
-9755703.96 5135705.30 186.29
-9755693.97 5135711.52 185.54
-9755695.65 5135707.72 185.50
-9755693.92 5135711.24 185.53
-9755697.98 5135709.48 186.42
-9755699.73 5135710.73 185.48
-9755694.79 5135709.09 185.55
-9755700.43 5135708.51 186.04
-9755703.72 5135702.66 186.26
-9755702.48 5135711.56 185.02
-9755695.64 5135701.76 185.52
-9755701.37 5135704.25 185.42
-9755694.55 5135705.29 185.53
-9755695.66 5135709.38 185.50
-9755694.79 5135705.92 185.52
-9755694.73 5135708.20 185.50
-9755695.33 5135708.55 185.54
-9755703.05 5135713.36 185.06
-9755697.20 5135709.47 184.96
-9755700.33 5135710.85 185.42
-9755694.21 5135704.98 185.52
-9755700.40 5135706.16 186.28
-9755699.81 5135706.20 186.31
-9755700.94 5135706.87 186.50
-9755701.29 5135711.80 185.45
-9755693.29 5135711.78 185.53
-9755695.63 5135710.06 185.52
-9755693.33 5135705.63 185.01
-9755702.99 5135709.14 186.30
-9755699.81 5135706.72 186.86
-9755698.88 5135714.20 185.50
-9755695.03 5135713.54 185.47
-9755704.71 5135712.74 185.03
-9755698.95 5135712.60 186.42
-9755693.07 5135703.48 185.53
-9755701.22 5135714.83 185.45
-9755695.70 5135706.74 185.47
-9755695.75 5135705.30 186.12
-9755703.87 5135711.85 186.29
-9755698.95 5135705.88 185.47
-9755702.75 5135710.13 185.03
-9755699.79 5135709.43 186.36
-9755697.81 5135704.16 185.50
-9755697.98 5135713.39 185.52
-9755692.38 5135713.31 186.76
-9755695.53 5135714.14 185.50
-9755699.52 5135703.60 185.54
-9755692.15 5135712.65 186.71
-9755692.16 5135707.64 186.75
-9755701.82 5135708.88 186.57
-9755701.11 5135711.21 185.46
-9755703.63 5135714.87 185.03
-9755696.15 5135707.85 186.77
-9755699.51 5135704.48 185.54
-9755701.30 5135707.02 186.87
-9755698.15 5135708.58 186.67
-9755698.05 5135707.66 186.72
-9755695.51 5135705.30 185.49
-9755694.54 5135714.16 185.51
-9755695.90 5135713.62 185.47
-9755696.23 5135702.17 186.81
-9755691.59 5135708.99 186.74
-9755694.06 5135712.87 185.49
-9755691.58 5135705.19 186.74
-9755695.65 5135712.77 185.48
-9755693.92 5135704.44 185.02
-9755694.72 5135711.80 185.57
-9755695.71 5135703.55 185.49
-9755692.46 5135710.95 185.01
-9755701.00 5135712.52 185.45
-9755700.37 5135705.25 185.48
-9755694.78 5135712.76 185.04
-9755700.68 5135709.40 186.36
-9755701.56 5135712.73 186.80
-9755701.32 5135710.96 186.74
-9755696.01 5135705.12 185.57
-9755699.45 5135710.74 185.01
-9755699.85 5135710.32 186.36
-9755698.96 5135710.07 186.37
-9755703.08 5135707.68 186.30
-9755697.24 5135705.32 184.96
-9755698.82 5135713.58 185.50
-9755694.79 5135710.32 185.45
-9755701.06 5135709.93 186.35
-9755703.05 5135710.90 186.28
-9755695.66 5135711.79 185.56
-9755701.09 5135709.92 186.90
-9755692.16 5135709.91 186.76
-9755695.63 5135704.49 185.47
-9755693.97 5135710.26 185.52
-9755697.43 5135713.92 185.02
-9755692.39 5135711.86 186.78
-9755691.87 5135708.81 186.74
-9755692.10 5135705.25 186.72
-9755693.95 5135708.30 185.49
-9755694.00 5135703.52 185.54
-9755698.83 5135707.25 185.51
-9755699.80 5135712.76 185.48
-9755701.49 5135709.49 186.53
-9755698.89 5135707.57 186.71
-9755694.55 5135707.36 185.52
-9755695.72 5135709.07 186.81
-9755701.06 5135703.55 185.50
-9755692.97 5135714.20 185.00
-9755695.66 5135702.66 185.50
-9755696.19 5135708.73 186.80
-9755702.71 5135711.58 185.03
-9755694.46 5135715.43 185.45
-9755701.43 5135702.97 185.50
-9755696.09 5135714.19 185.56
-9755691.84 5135705.31 185.03
-9755701.26 5135713.39 185.49
-9755698.11 5135707.08 186.92
-9755691.54 5135713.31 186.86
-9755699.00 5135706.97 186.88
-9755695.99 5135708.52 186.80
-9755697.79 5135705.52 186.82
-9755697.98 5135709.20 185.04
-9755695.79 5135710.19 186.81
-9755697.17 5135704.46 184.95
-9755698.77 5135710.37 185.45
-9755701.82 5135711.84 186.72
-9755703.04 5135705.95 185.03
-9755697.15 5135705.92 184.93
-9755703.62 5135713.66 185.05
-9755697.52 5135711.97 186.78
-9755697.72 5135710.97 186.75
-9755697.45 5135704.34 186.36
-9755697.74 5135709.42 185.01
-9755698.90 5135705.60 185.45
-9755701.30 5135705.24 186.75
-9755692.39 5135704.45 186.73
-9755697.17 5135702.96 184.97
-9755695.69 5135715.12 185.51
-9755692.21 5135708.31 186.75
-9755703.94 5135709.50 186.29
-9755695.67 5135712.62 186.81
-9755691.71 5135707.00 186.75
-9755696.23 5135714.17 186.78
-9755693.32 5135715.08 185.01
-9755696.03 5135702.84 186.84
-9755697.40 5135701.99 186.76
-9755695.69 5135714.13 186.81
-9755697.73 5135701.84 186.73
-9755699.02 5135709.53 186.93
-9755702.49 5135702.71 185.03
-9755701.36 5135703.46 186.79
-9755697.15 5135713.31 184.97
-9755695.69 5135712.00 186.78
-9755696.20 5135712.75 186.77
-9755692.14 5135710.92 185.44
-9755703.02 5135702.72 185.05
-9755697.49 5135710.96 186.76
-9755693.10 5135705.84 185.48
-9755695.76 5135702.56 186.82
-9755700.71 5135715.07 185.45
-9755697.09 5135714.52 185.00
-9755693.04 5135710.02 185.01
-9755691.31 5135701.72 184.97
-9755703.91 5135710.11 186.27
-9755691.92 5135701.89 186.77
-9755696.21 5135710.01 186.82
-9755695.81 5135705.86 186.78
-9755692.47 5135712.88 186.66
-9755701.57 5135705.91 186.78
-9755699.91 5135702.90 185.50
-9755697.65 5135704.55 186.81
-9755701.54 5135707.64 186.70
-9755691.63 5135712.64 186.78
-9755692.15 5135703.79 186.76
-9755691.28 5135714.00 186.83
-9755703.51 5135711.47 185.03
-9755696.02 5135703.68 186.80
-9755691.90 5135705.86 186.61
-9755695.95 5135713.59 186.78
-9755697.76 5135713.55 186.76
-9755697.81 5135703.85 186.81
-9755700.39 5135705.82 185.01
-9755691.52 5135709.11 184.98
-9755693.01 5135705.35 185.02
-9755697.89 5135714.07 186.75
-9755697.70 5135712.64 186.78
-9755697.51 5135710.06 186.77
-9755702.16 5135709.18 184.98
-9755701.82 5135706.83 186.83
-9755690.70 5135702.00 185.55
-9755689.78 5135710.91 185.48
-9755690.60 5135705.91 185.46
-9755690.67 5135710.22 185.42
-9755690.37 5135707.64 185.46
-9755690.81 5135713.43 185.50
-9755690.65 5135711.70 185.45
-9755690.61 5135709.52 185.47
-9755690.76 5135708.42 185.56
-9755690.70 5135707.09 185.48
-9755690.53 5135703.42 186.72
-9755690.11 5135705.93 185.44
-9755690.60 5135705.30 185.47
-9755690.71 5135708.40 186.69
-9755690.83 5135710.64 186.67
-9755689.43 5135712.69 184.97
-9755690.84 5135709.98 186.67
-9755689.89 5135703.58 185.51
-9755691.31 5135705.31 184.97
-9755690.74 5135702.87 185.48
-9755690.43 5135706.06 186.69
-9755690.39 5135704.29 185.49
-9755689.86 5135711.82 185.47
-9755690.60 5135713.87 185.03
-9755690.30 5135714.12 185.00
-9755690.58 5135711.18 185.48
-9755690.39 5135709.11 185.00
-9755690.70 5135705.46 186.68
-9755689.48 5135707.65 184.94
-9755689.83 5135709.08 186.20
-9755691.54 5135703.48 186.80
-9755690.72 5135704.60 186.71
-9755690.05 5135710.03 184.99
-9755690.16 5135705.32 185.00
-9755689.85 5135703.78 184.99
-9755690.04 5135705.00 185.46
-9755704.53 5135716.00 185.03
-9755704.76 5135723.04 186.32
-9755704.45 5135725.24 185.05
-9755704.83 5135718.37 185.04
-9755704.43 5135726.14 185.41
-9755704.75 5135716.90 186.25
-9755704.45 5135719.01 185.00
-9755705.42 5135720.73 187.19
-9755705.27 5135722.59 185.06
-9755697.97 5135726.86 186.77
-9755691.41 5135726.91 186.71
-9755703.81 5135722.55 185.06
-9755704.80 5135717.49 185.03
-9755698.93 5135716.78 185.47
-9755704.72 5135717.50 186.26
-9755702.01 5135726.89 186.73
-9755693.78 5135716.78 185.46
-9755704.25 5135715.07 185.03
-9755698.83 5135723.98 185.51
-9755693.83 5135722.42 185.45
-9755692.97 5135716.83 185.47
-9755695.58 5135722.54 186.42
-9755701.95 5135721.51 185.48
-9755694.11 5135720.96 185.49
-9755693.21 5135719.86 185.51
-9755702.36 5135720.80 184.99
-9755701.26 5135717.49 185.43
-9755703.86 5135721.57 186.25
-9755701.50 5135722.61 185.46
-9755701.25 5135721.51 185.53
-9755701.40 5135723.32 185.48
-9755700.33 5135723.44 185.52
-9755694.08 5135721.83 185.46
-9755692.87 5135719.19 185.45
-9755700.62 5135719.24 186.15
-9755692.45 5135715.16 186.79
-9755694.07 5135723.83 186.88
-9755692.37 5135719.82 185.52
-9755698.27 5135715.94 185.52
-9755700.34 5135717.49 185.48
-9755695.61 5135720.03 185.55
-9755694.44 5135721.48 185.49
-9755692.89 5135725.07 186.71
-9755694.92 5135720.04 185.55
-9755701.16 5135719.22 185.42
-9755696.16 5135715.41 185.47
-9755692.34 5135720.04 186.79
-9755697.96 5135715.95 186.73
-9755697.39 5135717.45 185.02
-9755700.38 5135718.38 185.53
-9755692.05 5135726.64 185.00
-9755694.78 5135724.18 186.74
-9755692.33 5135718.38 185.44
-9755699.80 5135721.02 185.52
-9755699.69 5135724.95 185.48
-9755704.49 5135716.36 185.03
-9755693.95 5135725.09 186.24
-9755702.71 5135716.05 185.02
-9755698.16 5135717.52 185.49
-9755693.83 5135719.53 185.50
-9755702.12 5135721.65 185.00
-9755695.55 5135725.09 186.68
-9755699.67 5135723.55 185.55
-9755696.51 5135725.38 186.77
-9755695.65 5135716.86 185.49
-9755693.15 5135723.32 186.37
-9755697.41 5135720.75 185.02
-9755698.78 5135723.58 185.53
-9755699.14 5135722.56 185.50
-9755693.26 5135724.88 186.10
-9755693.88 5135725.95 186.36
-9755698.82 5135726.06 185.06
-9755701.91 5135718.74 185.48
-9755698.85 5135719.33 185.52
-9755696.16 5135720.95 185.47
-9755695.56 5135718.60 185.45
-9755702.25 5135724.15 186.79
-9755692.35 5135725.72 185.04
-9755699.65 5135718.80 185.49
-9755701.29 5135720.70 185.49
-9755700.43 5135716.10 185.55
-9755697.40 5135721.59 185.02
-9755695.90 5135717.39 185.43
-9755703.80 5135723.38 185.05
-9755692.31 5135717.38 186.76
-9755703.21 5135722.48 186.33
-9755695.80 5135721.52 185.48
-9755695.65 5135723.31 186.91
-9755696.10 5135716.07 185.46
-9755698.00 5135720.30 186.75
-9755695.93 5135720.95 185.47
-9755701.80 5135719.11 186.74
-9755698.23 5135725.96 185.47
-9755693.83 5135722.08 186.30
-9755692.34 5135718.36 186.75
-9755692.34 5135716.75 186.76
-9755692.17 5135715.87 186.76
-9755697.06 5135723.39 185.00
-9755703.86 5135719.83 185.02
-9755697.36 5135726.02 185.02
-9755698.81 5135717.77 185.03
-9755692.40 5135719.19 185.46
-9755703.88 5135717.43 185.03
-9755701.35 5135716.79 186.74
-9755692.38 5135721.57 186.79
-9755701.82 5135719.05 185.44
-9755693.83 5135723.28 186.39
-9755696.21 5135716.58 186.79
-9755701.86 5135720.02 186.71
-9755703.25 5135726.69 185.06
-9755696.20 5135719.96 186.85
-9755701.54 5135721.81 186.71
-9755696.26 5135718.30 186.77
-9755694.12 5135718.25 185.58
-9755692.34 5135717.44 185.01
-9755691.70 5135725.77 184.94
-9755697.09 5135721.02 184.99
-9755701.53 5135723.07 186.75
-9755702.91 5135725.81 185.05
-9755696.42 5135717.71 186.75
-9755696.34 5135725.80 186.89
-9755692.37 5135719.50 186.78
-9755701.84 5135721.21 185.73
-9755701.33 5135719.89 185.48
-9755693.84 5135725.85 186.89
-9755700.33 5135724.87 185.04
-9755695.98 5135715.02 186.80
-9755691.49 5135716.89 184.97
-9755702.10 5135724.85 186.75
-9755702.01 5135723.71 186.72
-9755693.31 5135724.28 185.04
-9755697.37 5135721.92 185.01
-9755698.00 5135722.65 186.77
-9755701.93 5135726.63 185.46
-9755696.29 5135718.80 186.79
-9755704.49 5135715.07 185.01
-9755703.84 5135718.09 185.03
-9755704.48 5135718.46 185.01
-9755695.62 5135724.92 186.66
-9755701.28 5135715.95 185.49
-9755700.39 5135720.12 185.51
-9755699.15 5135716.18 186.30
-9755702.96 5135723.44 185.04
-9755701.97 5135718.59 186.30
-9755703.85 5135715.77 185.02
-9755701.87 5135722.47 185.50
-9755704.18 5135719.49 184.98
-9755698.17 5135715.30 186.75
-9755692.90 5135725.94 186.88
-9755701.47 5135725.13 186.74
-9755695.55 5135723.37 186.47
-9755702.05 5135725.83 185.46
-9755695.50 5135726.58 186.36
-9755698.15 5135721.70 186.77
-9755691.08 5135726.77 185.50
-9755698.18 5135723.52 186.72
-9755698.19 5135723.96 186.75
-9755701.98 5135720.96 186.75
-9755701.84 5135715.10 186.75
-9755694.80 5135725.74 186.39
-9755694.34 5135724.42 186.21
-9755693.80 5135722.42 186.28
-9755692.47 5135725.34 186.53
-9755702.96 5135721.96 185.03
-9755693.03 5135715.62 184.89
-9755693.15 5135724.21 186.01
-9755702.65 5135717.48 185.00
-9755702.97 5135719.86 185.05
-9755695.89 5135721.50 186.82
-9755695.53 5135724.00 186.73
-9755697.30 5135721.80 186.70
-9755695.79 5135726.56 186.69
-9755692.39 5135723.91 186.74
-9755702.71 5135718.38 185.01
-9755704.75 5135723.82 185.01
-9755702.69 5135718.99 185.01
-9755697.36 5135723.98 185.01
-9755701.84 5135721.59 186.71
-9755692.91 5135722.68 186.33
-9755704.51 5135720.21 185.06
-9755697.51 5135720.71 186.76
-9755696.16 5135721.41 186.82
-9755691.23 5135719.98 186.84
-9755691.33 5135723.57 186.64
-9755691.17 5135716.56 186.53
-9755690.89 5135726.85 186.68
-9755690.79 5135724.15 186.65
-9755690.80 5135726.91 184.99
-9755690.47 5135726.00 184.96
-9755690.81 5135721.01 185.49
-9755690.53 5135724.25 184.97
-9755690.64 5135722.27 185.42
-9755691.16 5135724.23 185.68
-9755691.17 5135725.82 185.56
-9755690.56 5135721.49 185.49
-9755690.65 5135724.80 185.44
-9755690.95 5135720.24 185.69
-9755690.63 5135715.00 186.79
-9755690.93 5135719.27 185.39
-9755689.76 5135718.56 185.39
-9755691.23 5135724.86 186.70
-9755691.27 5135722.66 186.67
-9755690.57 5135718.48 186.80
-9755690.79 5135718.13 186.32
-9755689.90 5135721.82 185.48
-9755690.43 5135716.90 185.03
-9755689.76 5135715.26 186.75
-9755690.59 5135723.38 185.44
-9755689.68 5135719.18 185.57
-9755690.63 5135721.93 186.66
-9755691.18 5135721.48 186.69
-9755691.06 5135725.43 186.23
-9755690.64 5135717.30 186.75
-9755691.17 5135717.64 186.78
-9755689.75 5135717.62 186.69
-9755690.92 5135725.69 185.50
-9755689.96 5135724.82 185.47
-9755689.71 5135720.98 184.97
-9755691.12 5135718.95 185.47
-9755691.15 5135722.45 185.51
-9755690.82 5135723.55 186.66
-9755691.17 5135720.41 185.47
-9755690.00 5135723.35 184.99
-9755691.19 5135720.72 185.59
-9755689.68 5135723.92 185.47
-9755691.15 5135724.03 186.65
-9755689.64 5135719.88 185.48
-9755691.05 5135722.02 185.50
-9755690.01 5135715.12 184.96
-9755690.04 5135725.11 185.01
-9755689.70 5135722.49 185.52
-9755689.94 5135721.01 185.48
-9755679.82 5135701.06 185.50
-9755678.96 5135701.07 185.56
-9755682.41 5135701.36 185.01
-9755681.10 5135701.27 185.93
-9755680.98 5135700.83 184.99
-9755681.04 5135700.82 185.51
-9755686.57 5135700.86 184.98
-9755679.95 5135701.40 186.02
-9755677.71 5135700.78 185.01
-9755676.60 5135701.05 184.98
-9755680.59 5135701.27 186.78
-9755676.52 5135701.07 186.76
-9755682.33 5135712.25 186.34
-9755687.19 5135702.08 185.45
-9755687.38 5135714.11 186.83
-9755689.78 5135712.16 184.98
-9755689.47 5135708.47 184.98
-9755687.47 5135707.56 185.51
-9755689.23 5135708.49 184.95
-9755679.19 5135711.05 185.51
-9755689.16 5135710.10 185.44
-9755683.25 5135711.81 186.38
-9755684.67 5135711.85 186.81
-9755689.12 5135713.49 185.45
-9755684.95 5135712.31 186.79
-9755680.06 5135707.58 185.50
-9755688.64 5135712.60 185.48
-9755688.04 5135714.42 185.53
-9755688.31 5135706.77 184.98
-9755681.49 5135708.33 186.85
-9755687.41 5135703.47 185.52
-9755689.00 5135703.43 185.52
-9755685.13 5135707.60 186.35
-9755687.07 5135712.53 186.84
-9755678.88 5135708.47 185.54
-9755679.26 5135714.25 186.36
-9755689.18 5135705.28 185.54
-9755684.03 5135711.04 186.15
-9755679.17 5135705.54 185.55
-9755679.02 5135712.65 186.31
-9755682.49 5135711.10 185.48
-9755685.62 5135704.60 185.52
-9755681.55 5135702.62 184.99
-9755685.03 5135711.73 186.35
-9755683.87 5135709.18 186.84
-9755680.01 5135703.77 185.50
-9755679.78 5135709.29 185.49
-9755680.94 5135703.73 184.98
-9755678.30 5135711.14 185.49
-9755687.51 5135706.96 185.49
-9755679.78 5135701.87 185.50
-9755683.29 5135705.24 185.01
-9755689.20 5135712.48 184.94
-9755679.51 5135704.57 185.47
-9755688.13 5135704.13 185.53
-9755686.21 5135707.66 184.93
-9755684.11 5135708.74 184.99
-9755681.60 5135703.48 184.98
-9755678.29 5135703.70 185.60
-9755684.99 5135712.67 185.01
-9755680.73 5135709.97 186.88
-9755684.23 5135704.36 184.99
-9755685.36 5135708.67 186.83
-9755684.77 5135707.63 185.47
-9755686.59 5135705.23 184.99
-9755679.67 5135711.14 186.25
-9755687.07 5135713.57 186.85
-9755685.38 5135701.93 185.39
-9755681.46 5135708.46 184.97
-9755684.14 5135707.90 185.48
-9755679.20 5135711.72 185.50
-9755681.52 5135707.51 186.40
-9755679.21 5135703.11 185.00
-9755688.03 5135714.36 186.68
-9755685.41 5135702.81 185.49
-9755679.84 5135703.69 186.75
-9755687.63 5135713.56 185.00
-9755683.29 5135709.30 186.31
-9755679.76 5135706.09 185.54
-9755689.84 5135705.88 184.98
-9755684.79 5135702.87 185.00
-9755686.58 5135707.65 186.41
-9755689.16 5135705.92 185.44
-9755681.57 5135704.30 184.99
-9755686.28 5135703.50 184.94
-9755684.22 5135709.50 186.34
-9755682.04 5135710.25 184.98
-9755683.59 5135713.53 185.00
-9755688.11 5135702.88 184.94
-9755680.73 5135709.37 186.81
-9755681.77 5135706.03 186.45
-9755683.34 5135706.75 185.47
-9755684.22 5135713.28 185.01
-9755679.11 5135707.81 185.49
-9755684.11 5135711.78 186.81
-9755685.69 5135712.57 186.77
-9755689.15 5135706.73 184.98
-9755680.58 5135710.89 186.82
-9755678.25 5135714.06 186.28
-9755682.03 5135712.75 185.00
-9755681.57 5135702.84 185.50
-9755681.60 5135707.55 185.51
-9755681.85 5135705.82 185.00
-9755685.59 5135713.43 185.45
-9755679.81 5135705.26 185.52
-9755681.60 5135702.74 186.71
-9755683.84 5135714.19 185.00
-9755688.35 5135709.17 184.95
-9755679.80 5135708.43 185.54
-9755683.35 5135702.65 185.50
-9755689.84 5135708.23 185.48
-9755689.76 5135712.35 185.47
-9755681.80 5135712.01 186.71
-9755688.91 5135703.52 184.96
-9755683.84 5135707.87 186.65
-9755682.44 5135707.84 185.01
-9755687.04 5135702.02 186.72
-9755683.10 5135708.52 186.34
-9755682.18 5135709.11 185.01
-9755681.82 5135703.54 186.67
-9755686.23 5135709.38 184.94
-9755685.85 5135704.20 186.28
-9755679.74 5135712.65 186.33
-9755681.74 5135706.87 186.87
-9755679.95 5135701.93 186.02
-9755683.05 5135702.56 184.98
-9755678.24 5135710.23 185.53
-9755684.75 5135706.11 185.01
-9755686.17 5135713.55 184.96
-9755681.53 5135709.36 185.00
-9755685.60 5135714.39 186.76
-9755680.61 5135704.96 186.77
-9755687.48 5135702.12 184.95
-9755686.58 5135710.29 184.97
-9755686.58 5135714.43 186.84
-9755681.09 5135712.61 186.84
-9755685.65 5135713.56 186.78
-9755685.33 5135714.93 185.47
-9755685.03 5135714.18 185.01
-9755679.75 5135714.36 186.67
-9755688.28 5135705.29 185.49
-9755685.89 5135707.83 186.37
-9755681.52 5135705.18 186.71
-9755689.49 5135714.31 186.69
-9755685.84 5135706.76 186.82
-9755689.18 5135702.62 185.51
-9755681.48 5135706.02 186.76
-9755688.34 5135705.81 185.51
-9755679.29 5135711.21 186.28
-9755680.39 5135705.36 186.27
-9755686.76 5135715.33 185.02
-9755679.11 5135712.32 186.69
-9755686.66 5135709.42 186.67
-9755683.32 5135713.50 185.46
-9755686.28 5135707.16 186.71
-9755684.90 5135705.03 184.95
-9755679.15 5135711.91 186.31
-9755686.65 5135711.70 186.34
-9755681.56 5135707.78 186.81
-9755685.40 5135703.65 185.43
-9755683.90 5135710.23 186.19
-9755678.31 5135701.99 185.56
-9755688.34 5135710.01 184.98
-9755688.83 5135711.75 185.50
-9755688.30 5135712.73 184.97
-9755686.88 5135706.18 186.01
-9755680.61 5135701.71 186.79
-9755687.13 5135703.37 186.70
-9755682.10 5135709.31 186.38
-9755680.59 5135711.56 186.84
-9755685.06 5135713.19 184.97
-9755681.48 5135713.27 184.98
-9755688.06 5135711.88 185.49
-9755685.41 5135712.68 185.45
-9755687.73 5135714.13 185.52
-9755687.11 5135706.88 186.74
-9755687.17 5135711.13 186.72
-9755682.36 5135710.93 184.99
-9755683.31 5135710.80 186.81
-9755687.00 5135709.30 186.70
-9755685.37 5135714.12 185.46
-9755688.88 5135709.47 185.50
-9755680.95 5135709.06 184.99
-9755688.94 5135711.19 184.97
-9755684.76 5135710.73 184.99
-9755688.24 5135711.82 184.95
-9755680.07 5135710.22 186.80
-9755683.01 5135712.44 186.77
-9755684.12 5135715.08 185.01
-9755686.29 5135706.11 186.71
-9755688.36 5135703.45 184.96
-9755686.84 5135708.50 186.73
-9755687.08 5135704.93 186.69
-9755680.00 5135710.14 186.03
-9755687.09 5135702.81 186.74
-9755683.90 5135707.88 184.99
-9755680.85 5135714.43 185.02
-9755685.03 5135715.07 185.00
-9755682.07 5135703.34 186.57
-9755682.37 5135711.83 184.99
-9755680.35 5135702.43 186.79
-9755689.53 5135710.26 185.46
-9755677.41 5135711.64 186.31
-9755676.55 5135706.62 186.77
-9755677.69 5135709.32 185.54
-9755676.57 5135708.37 186.77
-9755677.44 5135706.10 185.54
-9755677.20 5135707.57 185.46
-9755676.76 5135712.50 186.37
-9755676.46 5135712.60 184.97
-9755677.15 5135711.33 186.25
-9755677.42 5135703.72 185.54
-9755676.49 5135704.56 186.79
-9755677.41 5135713.36 186.67
-9755676.56 5135706.12 184.98
-9755675.62 5135711.65 184.90
-9755676.50 5135712.51 186.77
-9755675.92 5135710.72 186.78
-9755677.69 5135707.32 185.01
-9755677.41 5135706.69 185.01
-9755675.60 5135712.66 184.91
-9755676.18 5135701.92 186.13
-9755676.52 5135713.50 184.96
-9755676.51 5135701.83 186.80
-9755676.17 5135713.67 186.30
-9755677.40 5135706.41 185.00
-9755675.97 5135709.50 186.85
-9755676.45 5135715.20 186.36
-9755684.63 5135726.62 184.98
-9755680.19 5135723.28 186.39
-9755688.86 5135725.39 185.52
-9755679.90 5135719.34 186.30
-9755681.58 5135723.50 186.56
-9755684.12 5135718.56 185.01
-9755687.02 5135722.43 186.66
-9755688.83 5135718.60 184.97
-9755684.37 5135720.96 184.99
-9755680.02 5135725.64 185.50
-9755688.32 5135718.78 185.47
-9755685.75 5135720.03 185.45
-9755679.95 5135722.32 185.43
-9755679.83 5135717.58 186.32
-9755680.61 5135725.96 185.54
-9755680.80 5135722.55 186.39
-9755685.84 5135725.74 185.47
-9755680.00 5135720.97 185.45
-9755688.20 5135717.58 186.71
-9755688.26 5135720.68 185.60
-9755687.30 5135720.65 185.01
-9755686.73 5135724.25 184.98
-9755689.68 5135718.28 186.71
-9755680.23 5135725.66 186.36
-9755683.84 5135725.86 185.42
-9755684.49 5135721.64 185.46
-9755685.52 5135716.14 185.45
-9755682.13 5135723.35 186.14
-9755679.02 5135725.85 185.50
-9755687.41 5135716.74 186.24
-9755679.12 5135724.21 186.32
-9755688.25 5135716.86 186.77
-9755678.25 5135724.66 185.50
-9755683.15 5135723.53 185.43
-9755684.06 5135715.90 185.46
-9755687.41 5135716.81 185.03
-9755680.00 5135724.11 186.39
-9755685.85 5135722.40 186.25
-9755679.08 5135723.24 185.47
-9755686.47 5135720.38 184.98
-9755684.08 5135722.03 184.99
-9755685.01 5135723.31 185.42
-9755681.45 5135726.00 184.98
-9755685.81 5135720.11 186.02
-9755679.16 5135716.78 186.35
-9755685.06 5135717.40 185.00
-9755689.04 5135726.05 184.99
-9755685.64 5135724.71 185.50
-9755688.17 5135725.03 186.27
-9755688.89 5135718.55 186.72
-9755685.02 5135717.37 185.47
-9755687.40 5135717.57 186.74
-9755681.77 5135715.91 185.01
-9755678.13 5135721.81 185.49
-9755685.58 5135723.34 185.46
-9755685.81 5135718.29 185.52
-9755685.77 5135717.62 185.46
-9755679.11 5135722.79 185.49
-9755687.09 5135720.59 186.57
-9755687.36 5135725.01 186.72
-9755682.14 5135724.94 186.70
-9755688.26 5135715.85 186.72
-9755683.80 5135715.62 185.01
-9755681.72 5135716.81 185.00
-9755686.78 5135725.36 186.38
-9755680.57 5135723.68 185.51
-9755680.78 5135720.24 186.40
-9755683.12 5135719.98 185.42
-9755688.23 5135717.10 185.00
-9755686.77 5135719.17 184.99
-9755684.96 5135720.09 185.40
-9755680.47 5135723.86 185.52
-9755680.09 5135721.50 185.45
-9755684.94 5135722.41 185.47
-9755687.35 5135719.46 185.00
-9755684.68 5135726.06 185.45
-9755683.47 5135720.64 184.98
-9755680.50 5135720.88 185.72
-9755678.29 5135716.83 186.27
-9755679.70 5135724.17 185.51
-9755684.09 5135723.32 185.45
-9755681.39 5135725.10 184.99
-9755689.10 5135719.80 184.98
-9755679.24 5135721.30 186.30
-9755678.29 5135720.80 186.28
-9755683.44 5135723.93 184.99
-9755679.10 5135717.56 186.43
-9755679.08 5135725.03 185.50
-9755682.32 5135723.55 185.00
-9755684.63 5135723.94 185.00
-9755681.44 5135717.73 185.01
-9755679.13 5135720.22 186.32
-9755682.57 5135723.93 185.00
-9755681.85 5135724.72 186.70
-9755684.75 5135719.16 185.01
-9755687.16 5135718.98 185.85
-9755679.05 5135714.99 186.46
-9755682.07 5135715.17 186.39
-9755681.78 5135718.20 186.61
-9755684.07 5135724.15 185.00
-9755680.29 5135725.07 186.38
-9755680.54 5135722.31 185.44
-9755683.15 5135725.00 185.44
-9755686.11 5135725.71 186.64
-9755685.62 5135724.17 185.48
-9755683.46 5135723.52 185.01
-9755687.94 5135726.57 185.00
-9755682.44 5135723.52 185.47
-9755689.13 5135721.82 184.99
-9755685.79 5135720.82 185.43
-9755689.14 5135719.22 185.48
-9755685.66 5135717.59 186.38
-9755686.87 5135720.45 186.38
-9755687.42 5135720.26 186.88
-9755680.05 5135716.56 186.84
-9755687.59 5135716.69 186.68
-9755689.16 5135716.84 186.82
-9755680.60 5135716.52 185.06
-9755683.11 5135725.66 185.01
-9755682.03 5135726.76 186.69
-9755681.55 5135723.82 186.51
-9755685.63 5135724.00 186.21
-9755687.23 5135724.83 186.31
-9755688.85 5135717.60 186.68
-9755680.57 5135725.96 186.38
-9755681.81 5135723.84 186.68
-9755684.61 5135725.07 185.43
-9755687.27 5135724.12 186.71
-9755678.49 5135723.50 185.48
-9755686.78 5135718.50 186.78
-9755681.16 5135725.11 185.00
-9755689.25 5135720.94 185.43
-9755687.33 5135722.73 186.68
-9755686.49 5135720.61 184.97
-9755686.11 5135723.66 186.65
-9755680.55 5135724.34 186.37
-9755686.80 5135718.95 186.61
-9755688.13 5135724.16 185.48
-9755685.60 5135722.37 185.56
-9755686.84 5135718.25 186.30
-9755685.59 5135721.82 185.40
-9755686.72 5135722.16 184.99
-9755688.89 5135717.07 185.05
-9755683.49 5135726.50 184.99
-9755682.71 5135717.16 185.00
-9755677.31 5135722.77 185.30
-9755677.37 5135715.82 186.42
-9755676.46 5135718.46 186.22
-9755676.52 5135724.12 186.44
-9755677.59 5135724.98 185.50
-9755676.38 5135715.75 186.35
-9755677.53 5135720.15 186.28
-9755677.56 5135723.51 185.51
-9755676.77 5135722.53 186.39
-9755676.40 5135723.49 186.54
-9755676.47 5135724.18 184.91
-9755677.38 5135724.18 185.52
-9755677.58 5135721.77 185.51
-9755676.70 5135721.71 186.43
-9755676.67 5135725.97 184.97
-9755675.82 5135723.28 184.92
-9755676.19 5135723.57 186.36
-9755676.50 5135719.38 184.95
-9755676.76 5135720.17 186.39
-9755676.47 5135716.73 185.01
-9755676.45 5135714.09 184.99
-9755676.11 5135724.19 184.90
-9755675.57 5135717.62 184.93
-9755676.41 5135718.24 184.98
-9755675.83 5135725.91 184.91
-9755704.60 5135698.55 186.24
-9755704.33 5135699.50 185.05
-9755705.20 5135698.67 185.04
-9755704.45 5135697.82 185.83
-9755705.73 5135697.03 186.25
-9755704.58 5135697.04 186.30
-9755698.12 5135700.23 185.49
-9755694.08 5135697.89 186.32
-9755700.72 5135700.29 185.50
-9755701.15 5135699.68 185.48
-9755697.16 5135700.15 186.76
-9755694.53 5135700.60 186.29
-9755701.32 5135700.36 185.53
-9755700.80 5135699.72 185.47
-9755694.86 5135699.68 186.28
-9755701.05 5135698.47 185.49
-9755694.84 5135697.90 186.57
-9755701.26 5135700.19 186.36
-9755695.45 5135700.19 186.36
-9755698.90 5135700.29 185.54
-9755696.98 5135698.73 185.29
-9755692.19 5135699.40 185.03
-9755694.07 5135699.40 186.22
-9755697.25 5135698.84 184.99
-9755699.86 5135697.67 185.54
-9755695.79 5135700.19 186.78
-9755691.91 5135697.61 185.03
-9755694.50 5135697.17 186.38
-9755703.00 5135699.74 186.35
-9755692.19 5135696.94 186.35
-9755694.55 5135698.58 186.34
-9755692.11 5135697.65 186.68
-9755701.23 5135698.81 186.74
-9755693.10 5135700.18 186.28
-9755695.48 5135698.42 186.65
-9755701.08 5135697.96 185.51
-9755693.98 5135698.62 186.24
-9755697.21 5135698.61 186.78
-9755702.82 5135698.84 185.04
-9755699.01 5135698.75 185.52
-9755699.53 5135699.42 185.50
-9755693.15 5135698.84 186.30
-9755701.92 5135698.87 185.00
-9755693.73 5135700.27 186.27
-9755696.32 5135697.93 184.94
-9755702.27 5135696.72 185.04
-9755697.24 5135697.67 184.98
-9755700.44 5135697.01 185.45
-9755691.60 5135698.67 186.70
-9755700.45 5135697.94 185.53
-9755701.39 5135699.34 186.33
-9755691.94 5135697.59 186.28
-9755695.80 5135699.64 186.78
-9755701.09 5135696.98 185.49
-9755704.65 5135699.35 187.41
-9755702.51 5135700.88 185.01
-9755698.94 5135699.45 185.03
-9755697.21 5135699.68 184.97
-9755697.67 5135700.27 186.77
-9755697.21 5135697.81 186.78
-9755692.13 5135700.44 186.79
-9755698.09 5135698.39 185.54
-9755701.94 5135699.10 185.00
-9755691.85 5135697.18 186.32
-9755695.21 5135699.75 186.36
-9755697.75 5135699.32 186.80
-9755691.74 5135698.41 186.37
-9755690.68 5135697.86 185.51
-9755689.71 5135700.29 185.43
-9755690.74 5135699.61 185.49
-9755690.50 5135698.53 185.53
-9755690.68 5135700.32 185.50
-9755690.78 5135700.23 186.24
-9755689.92 5135697.86 185.47
-9755690.79 5135700.23 186.72
-9755690.48 5135697.17 185.48
-9755691.59 5135697.03 185.00
-9755688.37 5135700.62 185.47
-9755685.10 5135697.84 186.15
-9755679.83 5135700.15 185.50
-9755686.57 5135698.42 186.46
-9755679.20 5135700.19 185.54
-9755682.23 5135697.85 185.48
-9755678.70 5135699.52 185.54
-9755680.02 5135697.74 185.52
-9755684.83 5135700.51 184.99
-9755688.27 5135697.01 185.48
-9755681.02 5135698.45 184.97
-9755678.44 5135699.51 185.58
-9755686.39 5135699.56 186.32
-9755684.03 5135698.61 185.47
-9755686.41 5135697.80 186.73
-9755686.68 5135697.88 186.28
-9755683.11 5135696.94 185.41
-9755686.79 5135699.58 186.68
-9755686.59 5135698.58 186.67
-9755678.29 5135700.21 185.55
-9755684.26 5135697.24 185.46
-9755682.39 5135696.93 185.47
-9755683.94 5135700.53 185.00
-9755679.27 5135697.80 185.57
-9755686.28 5135699.35 184.99
-9755679.80 5135698.71 185.51
-9755680.58 5135699.16 186.78
-9755679.85 5135699.60 185.54
-9755685.13 5135699.36 185.00
-9755681.56 5135698.70 185.00
-9755681.51 5135698.07 186.13
-9755687.46 5135697.94 185.00
-9755679.86 5135700.26 186.00
-9755688.10 5135697.61 184.97
-9755686.52 5135696.99 186.28
-9755688.99 5135697.87 185.52
-9755685.36 5135700.58 185.50
-9755682.85 5135697.71 186.44
-9755689.20 5135698.45 184.96
-9755688.37 5135700.28 184.97
-9755679.98 5135697.06 185.52
-9755681.62 5135697.78 186.68
-9755687.23 5135699.31 185.48
-9755684.18 5135699.28 185.00
-9755678.35 5135697.83 185.59
-9755686.56 5135700.24 184.98
-9755680.92 5135700.32 186.59
-9755685.60 5135699.39 185.60
-9755678.90 5135700.54 185.00
-9755689.87 5135696.98 185.43
-9755685.29 5135697.21 185.47
-9755689.23 5135697.89 184.98
-9755689.30 5135697.00 184.99
-9755681.07 5135697.04 186.14
-9755689.56 5135697.31 185.00
-9755677.71 5135699.30 185.54
-9755677.45 5135697.86 185.55
-9755676.45 5135700.38 186.78
-9755677.29 5135697.02 185.14
-9755676.55 5135697.82 184.98
-9755676.58 5135698.11 186.85
-9755676.60 5135696.83 186.86
-9755676.55 5135697.14 185.56
-9755670.26 5135701.03 186.27
-9755674.24 5135701.01 185.48
-9755670.01 5135700.98 185.51
-9755666.54 5135701.01 185.08
-9755671.45 5135701.10 185.38
-9755674.58 5135701.08 185.48
-9755671.74 5135702.00 185.33
-9755675.93 5135705.95 186.77
-9755671.80 5135711.63 186.64
-9755671.65 5135713.73 185.43
-9755676.05 5135704.26 186.71
-9755670.30 5135704.73 186.26
-9755669.43 5135710.23 184.99
-9755674.14 5135710.16 186.82
-9755674.16 5135707.86 186.73
-9755665.87 5135712.80 185.07
-9755670.68 5135705.95 186.62
-9755674.00 5135702.75 185.34
-9755673.38 5135704.31 184.95
-9755669.96 5135709.93 184.96
-9755670.68 5135705.09 186.62
-9755674.25 5135701.58 186.73
-9755673.29 5135702.84 184.92
-9755675.06 5135701.90 184.89
-9755675.69 5135704.38 184.89
-9755676.06 5135707.03 186.76
-9755674.37 5135704.44 186.70
-9755672.38 5135711.93 186.65
-9755668.57 5135704.31 185.06
-9755673.21 5135705.21 185.38
-9755671.84 5135707.52 184.90
-9755673.28 5135711.67 186.66
-9755670.29 5135711.67 184.95
-9755671.58 5135712.50 186.89
-9755671.44 5135711.29 186.63
-9755670.29 5135707.46 186.22
-9755671.84 5135705.21 184.88
-9755674.08 5135711.70 184.95
-9755665.91 5135706.02 185.09
-9755675.60 5135708.43 184.90
-9755670.07 5135702.76 186.60
-9755673.25 5135705.43 184.92
-9755674.44 5135711.07 186.84
-9755667.65 5135708.67 185.07
-9755673.55 5135709.37 184.95
-9755672.35 5135711.32 186.62
-9755673.26 5135706.95 184.94
-9755670.11 5135702.82 184.96
-9755666.81 5135705.12 185.08
-9755670.61 5135711.00 186.28
-9755670.03 5135707.88 184.97
-9755673.31 5135710.85 185.38
-9755672.73 5135705.16 184.91
-9755670.67 5135702.69 186.64
-9755668.53 5135711.98 185.06
-9755670.04 5135708.45 184.96
-9755665.92 5135703.62 185.08
-9755671.54 5135710.23 184.92
-9755671.67 5135714.03 186.53
-9755666.16 5135714.06 185.10
-9755670.83 5135710.94 186.81
-9755674.10 5135706.01 185.32
-9755669.47 5135707.52 184.97
-9755669.98 5135712.86 184.98
-9755669.43 5135709.25 184.99
-9755674.11 5135709.27 186.82
-9755674.22 5135703.64 186.69
-9755672.71 5135711.16 185.36
-9755672.69 5135703.44 184.90
-9755664.99 5135713.43 185.08
-9755674.79 5135709.87 186.89
-9755671.84 5135714.25 186.75
-9755666.23 5135708.41 185.08
-9755674.87 5135708.71 186.87
-9755674.14 5135707.51 185.35
-9755670.68 5135709.19 186.88
-9755675.66 5135702.52 184.92
-9755673.19 5135704.36 185.33
-9755670.87 5135708.86 186.91
-9755665.34 5135705.09 185.11
-9755666.75 5135713.39 185.08
-9755666.54 5135704.25 185.09
-9755672.39 5135706.15 185.36
-9755670.30 5135704.27 184.94
-9755669.43 5135705.19 184.99
-9755667.38 5135706.92 185.09
-9755670.34 5135711.10 186.20
-9755674.16 5135704.62 185.39
-9755671.55 5135707.53 185.33
-9755673.87 5135703.40 185.38
-9755669.11 5135705.42 185.02
-9755670.07 5135701.93 184.94
-9755671.45 5135704.60 185.35
-9755675.28 5135711.74 184.92
-9755676.19 5135701.98 184.97
-9755673.29 5135710.81 184.93
-9755672.67 5135711.10 184.93
-9755671.77 5135703.72 184.88
-9755665.88 5135702.82 185.10
-9755669.83 5135709.63 186.83
-9755674.40 5135705.29 186.73
-9755674.25 5135709.34 185.38
-9755665.06 5135704.20 185.09
-9755674.24 5135705.98 186.67
-9755670.60 5135714.04 184.99
-9755676.17 5135708.54 185.54
-9755674.81 5135703.47 184.90
-9755665.33 5135710.13 185.10
-9755670.98 5135714.53 186.80
-9755671.81 5135704.27 184.89
-9755671.77 5135708.41 185.36
-9755671.53 5135705.83 185.40
-9755667.35 5135713.71 185.09
-9755673.21 5135712.49 186.82
-9755674.66 5135711.24 186.85
-9755674.13 5135707.07 185.29
-9755673.48 5135712.09 186.82
-9755670.55 5135707.77 186.32
-9755670.36 5135708.39 186.24
-9755667.07 5135711.70 185.09
-9755669.10 5135711.06 185.02
-9755669.14 5135702.49 185.04
-9755674.01 5135703.07 186.70
-9755665.30 5135707.81 185.11
-9755664.98 5135714.33 185.10
-9755673.97 5135709.57 186.61
-9755672.47 5135713.08 186.86
-9755670.24 5135714.37 184.97
-9755670.04 5135709.33 184.98
-9755669.49 5135703.73 185.00
-9755669.07 5135712.85 185.02
-9755670.33 5135711.79 186.65
-9755671.83 5135706.91 185.30
-9755672.11 5135712.73 186.45
-9755664.77 5135703.66 185.10
-9755674.66 5135709.60 186.89
-9755670.53 5135710.12 186.84
-9755675.95 5135703.67 184.93
-9755664.37 5135714.33 185.07
-9755664.20 5135701.86 185.08
-9755664.40 5135711.63 185.13
-9755663.52 5135712.54 185.15
-9755663.51 5135711.94 185.14
-9755664.15 5135713.71 185.09
-9755663.49 5135713.98 185.12
-9755663.30 5135705.15 185.11
-9755664.12 5135708.63 185.08
-9755670.21 5135726.75 184.88
-9755671.00 5135726.71 186.72
-9755671.76 5135715.17 186.64
-9755674.12 5135722.63 185.38
-9755675.81 5135722.36 184.90
-9755671.73 5135719.12 184.90
-9755674.59 5135724.10 185.39
-9755672.52 5135725.51 185.35
-9755675.85 5135715.03 184.94
-9755672.38 5135715.16 186.64
-9755670.82 5135724.45 184.92
-9755674.43 5135722.54 186.63
-9755672.59 5135725.05 184.91
-9755670.79 5135722.34 186.04
-9755673.34 5135716.81 185.36
-9755670.77 5135725.92 184.91
-9755672.62 5135720.16 185.39
-9755670.29 5135716.07 186.31
-9755673.52 5135717.67 184.94
-9755674.21 5135722.67 184.91
-9755667.56 5135720.86 185.08
-9755672.59 5135725.94 184.91
-9755674.20 5135717.57 185.38
-9755673.48 5135720.97 185.34
-9755672.68 5135722.63 185.37
-9755670.85 5135721.50 184.92
-9755675.19 5135720.85 184.93
-9755670.86 5135719.65 184.93
-9755671.16 5135716.08 184.90
-9755674.02 5135719.07 185.32
-9755672.59 5135716.08 185.38
-9755667.86 5135725.00 185.09
-9755671.69 5135721.69 185.39
-9755665.29 5135720.27 185.12
-9755670.28 5135719.10 184.93
-9755670.25 5135716.71 184.96
-9755674.12 5135718.46 185.38
-9755675.92 5135719.42 184.93
-9755674.83 5135723.11 186.63
-9755667.65 5135718.17 185.09
-9755671.63 5135717.59 185.37
-9755673.18 5135722.29 185.40
-9755673.47 5135725.67 185.37
-9755671.11 5135724.89 186.62
-9755672.33 5135716.71 184.91
-9755674.91 5135718.07 186.62
-9755672.66 5135718.47 185.36
-9755674.70 5135722.73 185.40
-9755672.28 5135716.68 185.40
-9755670.88 5135716.34 186.86
-9755674.72 5135719.00 186.63
-9755674.49 5135717.65 185.92
-9755665.83 5135715.73 185.10
-9755674.69 5135715.50 186.85
-9755673.21 5135721.77 184.91
-9755669.38 5135720.24 184.97
-9755669.06 5135719.10 185.04
-9755666.08 5135725.03 185.10
-9755671.66 5135718.54 185.27
-9755670.84 5135719.10 186.68
-9755674.31 5135721.83 185.36
-9755670.24 5135722.65 184.90
-9755668.43 5135725.58 185.07
-9755674.05 5135725.88 185.39
-9755674.11 5135716.21 184.93
-9755671.77 5135721.21 185.34
-9755669.96 5135725.00 184.91
-9755674.29 5135724.14 185.35
-9755675.02 5135717.63 184.91
-9755664.89 5135722.61 185.11
-9755674.64 5135720.93 185.46
-9755674.69 5135724.10 186.62
-9755664.88 5135724.38 185.11
-9755674.60 5135717.94 185.43
-9755674.14 5135716.76 184.93
-9755670.82 5135718.19 184.95
-9755665.00 5135719.34 185.09
-9755674.60 5135725.69 185.56
-9755673.42 5135723.19 184.91
-9755666.02 5135724.14 185.10
-9755674.13 5135718.55 184.91
-9755674.75 5135721.77 186.63
-9755670.75 5135718.18 186.75
-9755674.76 5135726.45 185.51
-9755674.63 5135720.17 186.64
-9755672.58 5135718.26 184.93
-9755674.86 5135726.16 186.67
-9755674.65 5135716.03 186.85
-9755674.58 5135717.08 185.49
-9755671.98 5135725.34 185.32
-9755671.88 5135716.91 185.34
-9755672.30 5135723.58 185.37
-9755673.49 5135726.48 184.91
-9755664.34 5135723.53 185.10
-9755664.07 5135718.15 185.11
-9755663.14 5135721.12 185.10
-9755663.41 5135723.48 185.13
-9755664.37 5135719.91 185.09
-9755664.35 5135715.78 185.09
-9755663.22 5135719.93 185.13
-9755663.41 5135725.84 185.14
-9755663.75 5135721.72 185.12
-9755663.17 5135715.14 185.11
-9755663.18 5135716.08 185.11
-9755660.62 5135701.00 185.08
-9755657.68 5135700.95 185.72
-9755653.85 5135701.22 185.61
-9755662.07 5135701.23 185.08
-9755657.89 5135701.36 186.94
-9755650.06 5135701.19 185.29
-9755654.10 5135710.25 186.11
-9755655.05 5135706.96 185.63
-9755657.62 5135712.55 185.57
-9755653.46 5135714.25 185.56
-9755657.55 5135707.96 185.61
-9755662.89 5135712.80 185.11
-9755657.61 5135714.26 185.61
-9755655.09 5135708.38 185.57
-9755655.19 5135709.21 185.63
-9755654.46 5135711.47 186.84
-9755655.97 5135706.94 185.58
-9755660.25 5135703.66 185.05
-9755655.26 5135707.80 185.63
-9755657.65 5135703.50 186.75
-9755652.88 5135713.35 185.25
-9755657.10 5135710.07 185.57
-9755657.13 5135703.56 185.50
-9755655.03 5135704.45 186.24
-9755657.61 5135708.43 185.60
-9755654.65 5135709.25 185.60
-9755656.75 5135705.25 186.84
-9755652.64 5135703.57 185.24
-9755653.77 5135710.97 185.11
-9755654.41 5135711.51 185.49
-9755660.05 5135702.75 185.06
-9755656.74 5135702.65 186.81
-9755652.02 5135712.78 185.31
-9755656.78 5135704.99 185.43
-9755661.78 5135707.51 185.07
-9755654.39 5135705.36 186.42
-9755656.55 5135703.70 186.32
-9755654.34 5135705.83 186.90
-9755653.54 5135712.46 185.11
-9755654.50 5135705.26 186.89
-9755655.96 5135701.89 185.62
-9755652.08 5135705.96 185.30
-9755657.65 5135708.57 186.95
-9755653.74 5135712.64 186.74
-9755657.55 5135701.81 185.52
-9755654.01 5135707.78 186.96
-9755660.25 5135714.22 185.07
-9755655.42 5135702.30 186.78
-9755659.06 5135712.50 185.07
-9755655.94 5135710.95 185.62
-9755653.70 5135702.79 185.57
-9755657.64 5135710.20 185.56
-9755653.48 5135703.85 185.47
-9755657.65 5135710.96 186.77
-9755654.17 5135710.98 186.82
-9755657.06 5135712.58 185.56
-9755654.99 5135701.85 185.58
-9755652.64 5135701.82 185.24
-9755659.09 5135711.91 185.07
-9755656.76 5135709.47 185.62
-9755656.18 5135706.78 186.83
-9755654.17 5135706.85 186.87
-9755655.90 5135703.57 186.91
-9755654.43 5135709.41 186.72
-9755659.43 5135709.88 185.07
-9755651.75 5135707.42 185.32
-9755657.90 5135711.79 186.73
-9755654.13 5135713.26 186.75
-9755657.12 5135701.28 186.92
-9755662.43 5135707.51 185.08
-9755660.02 5135705.07 185.07
-9755653.93 5135704.48 185.51
-9755653.29 5135709.23 185.13
-9755656.66 5135704.22 186.21
-9755654.26 5135701.66 186.85
-9755659.13 5135709.23 185.07
-9755661.70 5135711.88 185.08
-9755660.05 5135706.85 185.06
-9755652.63 5135706.24 185.27
-9755651.78 5135706.81 185.31
-9755660.90 5135706.92 185.06
-9755656.56 5135706.87 185.60
-9755655.29 5135706.10 185.31
-9755660.05 5135705.99 185.06
-9755657.62 5135709.19 186.82
-9755656.22 5135708.35 185.64
-9755657.45 5135703.67 186.46
-9755652.08 5135708.28 185.31
-9755660.01 5135701.92 185.06
-9755659.37 5135713.43 185.09
-9755653.88 5135713.60 186.32
-9755659.44 5135701.82 185.07
-9755656.98 5135704.96 186.55
-9755661.75 5135712.56 185.08
-9755655.40 5135702.67 186.82
-9755661.20 5135703.61 185.06
-9755660.89 5135711.62 185.09
-9755657.62 5135710.02 186.79
-9755653.58 5135701.79 185.06
-9755658.17 5135708.66 186.63
-9755658.20 5135711.84 186.52
-9755657.19 5135701.97 186.82
-9755653.66 5135706.23 186.62
-9755656.28 5135702.01 186.82
-9755656.60 5135706.85 184.96
-9755654.39 5135714.57 186.80
-9755647.91 5135701.17 185.29
-9755649.99 5135706.81 185.30
-9755649.40 5135707.15 185.31
-9755648.46 5135710.08 185.30
-9755651.12 5135709.17 185.29
-9755650.20 5135711.26 185.31
-9755648.80 5135708.56 185.30
-9755649.31 5135710.01 185.30
-9755651.14 5135710.10 185.30
-9755647.66 5135702.63 185.20
-9755650.00 5135708.32 185.30
-9755650.94 5135707.74 185.31
-9755646.77 5135707.10 185.03
-9755647.64 5135705.97 185.15
-9755650.30 5135702.91 185.30
-9755647.89 5135714.49 185.17
-9755647.29 5135710.98 185.07
-9755649.99 5135709.17 185.30
-9755647.04 5135705.02 185.05
-9755646.77 5135708.61 185.05
-9755648.77 5135712.74 185.30
-9755646.79 5135708.00 185.05
-9755649.67 5135714.23 185.33
-9755646.80 5135702.69 185.05
-9755647.71 5135701.81 185.21
-9755646.77 5135701.82 185.05
-9755648.51 5135711.89 185.30
-9755649.68 5135701.72 185.29
-9755650.03 5135703.55 185.30
-9755647.90 5135707.11 185.21
-9755646.78 5135704.15 185.04
-9755653.94 5135715.40 186.23
-9755657.79 5135723.13 185.55
-9755656.77 5135724.27 185.59
-9755655.33 5135724.45 185.58
-9755657.84 5135715.97 186.43
-9755653.48 5135715.09 185.14
-9755654.62 5135717.52 185.58
-9755655.22 5135720.76 185.63
-9755657.60 5135724.38 185.56
-9755657.62 5135715.94 185.59
-9755657.88 5135720.84 185.58
-9755661.72 5135717.86 185.06
-9755659.66 5135716.65 185.09
-9755657.84 5135720.17 185.58
-9755655.09 5135725.82 185.60
-9755657.58 5135718.45 185.59
-9755657.88 5135721.72 185.63
-9755661.69 5135723.50 185.06
-9755658.48 5135716.06 185.06
-9755655.26 5135719.99 185.62
-9755656.10 5135723.97 185.61
-9755657.86 5135719.27 185.62
-9755662.91 5135715.20 185.08
-9755653.69 5135724.02 185.12
-9755658.31 5135722.49 185.61
-9755655.72 5135725.04 185.57
-9755662.00 5135721.07 185.05
-9755653.50 5135717.49 185.11
-9755655.92 5135715.26 185.65
-9755662.63 5135716.98 185.07
-9755656.17 5135719.02 185.60
-9755654.50 5135722.48 186.80
-9755660.80 5135716.67 185.07
-9755658.78 5135716.91 185.05
-9755660.83 5135715.80 185.07
-9755659.98 5135718.43 185.07
-9755657.78 5135725.84 185.57
-9755653.68 5135719.83 185.47
-9755654.48 5135726.06 186.93
-9755659.33 5135723.18 185.11
-9755655.24 5135724.90 185.64
-9755651.96 5135725.84 185.31
-9755653.43 5135721.66 185.17
-9755654.37 5135724.25 186.76
-9755658.34 5135724.00 185.63
-9755659.34 5135724.67 185.12
-9755655.19 5135719.03 185.14
-9755662.03 5135716.67 185.07
-9755653.83 5135725.99 186.87
-9755660.78 5135721.76 185.07
-9755654.01 5135715.67 186.27
-9755653.39 5135719.31 185.15
-9755659.96 5135719.35 185.07
-9755661.73 5135720.22 185.07
-9755657.56 5135714.97 185.54
-9755661.68 5135724.03 185.07
-9755658.32 5135723.18 186.82
-9755658.73 5135719.04 185.08
-9755657.94 5135723.28 185.88
-9755657.91 5135723.83 185.95
-9755652.86 5135725.80 185.28
-9755659.33 5135715.71 185.09
-9755662.60 5135719.91 185.10
-9755658.19 5135720.75 185.91
-9755659.05 5135721.69 185.07
-9755654.02 5135715.07 186.75
-9755653.60 5135716.82 186.88
-9755658.33 5135720.49 186.84
-9755657.86 5135719.21 186.78
-9755662.90 5135716.05 185.08
-9755657.67 5135716.89 186.79
-9755653.78 5135718.39 186.82
-9755646.89 5135726.96 184.96
-9755649.29 5135723.41 185.30
-9755651.07 5135721.01 185.30
-9755647.86 5135719.22 185.16
-9755650.50 5135719.22 185.29
-9755648.50 5135717.79 185.29
-9755651.04 5135720.19 185.29
-9755651.11 5135714.89 185.29
-9755648.09 5135724.88 185.18
-9755651.06 5135726.11 185.30
-9755651.11 5135715.76 185.31
-9755647.87 5135717.47 185.17
-9755649.35 5135715.39 185.30
-9755647.53 5135721.62 185.11
-9755649.60 5135721.62 185.32
-9755646.70 5135717.47 184.96
-9755648.72 5135722.49 185.28
-9755648.46 5135719.28 185.29
-9755648.74 5135716.85 185.32
-9755650.16 5135725.78 185.31
-9755647.26 5135721.59 185.05
-9755646.67 5135724.85 184.94
-9755646.34 5135725.83 184.90
-9755650.48 5135723.44 185.29
-9755649.92 5135715.74 185.30
-9755672.49 5135697.72 185.33
-9755673.44 5135697.82 185.28
-9755670.96 5135696.92 184.88
-9755675.98 5135700.42 184.96
-9755675.67 5135698.67 184.92
-9755672.41 5135700.15 184.88
-9755672.63 5135698.68 185.36
-9755672.50 5135700.26 185.39
-9755671.87 5135696.89 184.87
-9755668.91 5135699.55 185.02
-9755674.22 5135700.40 186.19
-9755673.86 5135697.78 185.36
-9755671.62 5135700.08 185.34
-9755674.39 5135698.58 185.52
-9755675.67 5135699.53 184.94
-9755670.12 5135700.15 184.97
-9755675.65 5135697.78 184.94
-9755674.84 5135698.35 184.91
-9755665.12 5135697.45 185.09
-9755674.18 5135696.94 185.43
-9755673.05 5135696.95 184.87
-9755673.70 5135698.69 185.34
-9755664.15 5135699.53 185.11
-9755657.69 5135700.26 186.93
-9755663.60 5135698.62 185.10
-9755655.10 5135698.78 185.57
-9755652.69 5135699.47 185.19
-9755654.62 5135698.53 185.46
-9755660.07 5135698.58 185.07
-9755654.47 5135699.49 185.58
-9755657.69 5135697.70 185.60
-9755655.98 5135697.03 185.60
-9755655.11 5135699.45 185.61
-9755657.47 5135698.79 185.57
-9755657.50 5135700.31 185.64
-9755656.46 5135700.37 185.01
-9755656.91 5135697.66 185.54
-9755657.69 5135699.71 186.94
