-9755460.89 5135459.40 205.27
-9755455.50 5135459.71 220.73
-9755460.79 5135459.90 205.51
-9755460.96 5135459.93 204.11
-9755458.62 5135459.81 207.04
-9755457.37 5135459.54 207.03
-9755459.42 5135459.51 207.04
-9755457.13 5135458.89 207.03
-9755459.17 5135459.24 207.02
-9755458.58 5135458.93 207.03
-9755456.82 5135459.48 207.01
-9755456.48 5135459.82 207.01
-9755460.52 5135458.98 205.50
-9755460.62 5135459.03 204.11
-9755459.47 5135458.88 207.05
-9755455.03 5135459.15 207.00
-9755459.78 5135459.77 207.04
-9755456.24 5135458.95 206.99
-9755456.05 5135460.00 220.77
-9755460.91 5135459.06 204.08
-9755455.62 5135459.45 207.01
-9755461.78 5135459.99 203.95
-9755461.03 5135459.41 203.21
-9755461.09 5135459.06 203.10
-9755456.43 5135459.52 207.00
-9755460.70 5135459.37 204.98
-9755458.84 5135459.80 207.03
-9755460.63 5135458.97 204.73
-9755456.04 5135459.18 220.76
-9755461.16 5135459.32 203.01
-9755455.25 5135458.91 207.00
-9755454.88 5135458.76 220.69
-9755454.96 5135459.49 206.99
-9755453.57 5135459.11 206.97
-9755454.15 5135459.42 206.97
-9755453.25 5135459.47 206.97
-9755454.45 5135458.84 206.98
-9755454.46 5135459.51 206.97
-9755453.06 5135459.12 220.59
-9755453.23 5135459.21 206.97
-9755459.43 5135460.10 207.04
-9755464.86 5135470.03 206.12
-9755462.71 5135464.85 205.24
-9755461.20 5135460.40 207.12
-9755463.14 5135464.97 203.45
-9755455.68 5135469.06 206.90
-9755464.14 5135468.22 203.41
-9755457.30 5135468.41 206.96
-9755461.38 5135460.29 205.23
-9755455.55 5135467.47 207.01
-9755457.34 5135464.20 207.00
-9755457.34 5135465.71 206.97
-9755460.88 5135461.00 207.04
-9755461.78 5135461.48 203.23
-9755460.88 5135469.90 206.99
-9755462.01 5135468.99 207.03
-9755458.41 5135467.51 207.33
-9755462.85 5135464.89 204.90
-9755461.26 5135460.45 204.79
-9755460.96 5135460.14 204.74
-9755463.83 5135467.39 204.10
-9755463.50 5135465.84 203.67
-9755460.87 5135468.40 207.03
-9755463.57 5135465.96 205.59
-9755464.05 5135468.21 204.11
-9755462.07 5135463.35 207.09
-9755461.41 5135468.37 207.02
-9755456.65 5135469.93 206.95
-9755458.17 5135468.46 206.89
-9755457.32 5135464.83 206.99
-9755464.06 5135467.61 204.09
-9755457.98 5135466.85 207.40
-9755458.24 5135460.06 207.02
-9755458.19 5135469.17 206.98
-9755457.21 5135465.93 220.88
-9755461.14 5135465.19 207.03
-9755463.75 5135467.07 204.10
-9755458.07 5135468.66 220.64
-9755462.04 5135467.78 207.03
-9755458.46 5135468.40 207.00
-9755460.56 5135469.52 207.01
-9755456.73 5135467.51 206.96
-9755456.39 5135468.50 207.90
-9755457.29 5135469.26 206.95
-9755461.78 5135469.24 207.02
-9755459.20 5135460.12 207.04
-9755463.46 5135466.74 205.55
-9755463.89 5135467.88 204.14
-9755456.98 5135465.10 206.97
-9755464.22 5135468.91 204.79
-9755457.45 5135468.01 207.26
-9755457.08 5135460.34 207.00
-9755463.84 5135467.01 203.09
-9755460.32 5135467.22 207.01
-9755456.48 5135463.37 207.00
-9755460.57 5135467.51 207.01
-9755463.55 5135467.20 207.10
-9755461.23 5135459.84 203.33
-9755463.85 5135467.61 204.11
-9755462.91 5135465.31 204.13
-9755462.09 5135466.89 207.04
-9755459.38 5135468.38 206.99
-9755462.92 5135469.60 207.04
-9755457.41 5135467.46 206.97
-9755461.02 5135460.23 204.12
-9755456.43 5135466.57 206.97
-9755461.51 5135467.49 207.03
-9755458.59 5135468.91 208.12
-9755461.42 5135466.94 207.03
-9755459.14 5135462.44 207.02
-9755456.22 5135461.28 207.00
-9755457.98 5135468.35 207.02
-9755455.88 5135461.60 206.99
-9755462.05 5135462.63 204.09
-9755455.16 5135464.14 220.62
-9755455.60 5135463.65 206.97
-9755462.20 5135463.56 205.10
-9755457.05 5135462.45 207.00
-9755459.12 5135468.36 206.99
-9755462.63 5135463.81 204.11
-9755457.38 5135467.45 207.34
-9755461.17 5135460.22 205.51
-9755456.05 5135466.19 220.61
-9755461.46 5135460.41 207.15
-9755464.69 5135469.23 203.09
-9755455.52 5135465.97 206.95
-9755463.69 5135465.86 204.05
-9755458.22 5135469.02 206.98
-9755457.64 5135465.07 206.99
-9755463.20 5135465.79 204.64
-9755461.26 5135460.85 206.24
-9755457.41 5135467.74 208.23
-9755463.19 5135469.04 207.03
-9755464.01 5135469.12 204.22
-9755459.41 5135468.71 207.00
-9755459.99 5135461.05 207.04
-9755455.75 5135464.44 220.61
-9755461.18 5135468.16 207.03
-9755456.87 5135463.27 220.71
-9755460.31 5135463.67 207.05
-9755463.49 5135469.02 207.04
-9755455.28 5135462.76 206.98
-9755454.81 5135464.48 220.61
-9755459.72 5135462.51 207.03
-9755459.72 5135464.83 207.02
-9755462.75 5135464.30 203.16
-9755457.96 5135466.89 206.97
-9755458.77 5135467.53 207.00
-9755457.18 5135465.88 220.77
-9755460.29 5135466.00 207.03
-9755458.84 5135462.78 207.01
-9755457.63 5135466.61 206.98
-9755455.56 5135464.53 206.97
-9755457.66 5135465.73 206.99
-9755465.26 5135469.44 203.97
-9755454.97 5135464.84 206.96
-9755465.02 5135469.74 202.56
-9755457.06 5135466.28 206.98
-9755462.10 5135462.42 203.19
-9755461.43 5135461.07 204.51
-9755458.06 5135469.33 220.62
-9755464.13 5135466.97 207.16
-9755455.69 5135464.22 220.63
-9755459.44 5135465.18 207.02
-9755459.39 5135461.54 207.03
-9755458.50 5135463.69 207.02
-9755461.18 5135466.29 207.03
-9755464.01 5135466.75 202.60
-9755460.60 5135466.65 207.03
-9755462.74 5135463.31 203.58
-9755457.67 5135461.94 207.00
-9755461.39 5135460.31 205.75
-9755463.96 5135466.92 202.95
-9755456.71 5135463.36 207.01
-9755457.04 5135468.39 206.94
-9755455.25 5135466.54 206.97
-9755459.71 5135466.93 207.01
-9755465.01 5135469.52 202.60
-9755458.21 5135466.02 207.00
-9755462.36 5135463.35 207.13
-9755464.42 5135469.61 207.10
-9755463.48 5135464.89 203.37
-9755461.74 5135468.96 207.02
-9755463.53 5135467.80 207.05
-9755458.02 5135466.89 220.66
-9755463.46 5135465.44 204.06
-9755461.66 5135462.03 204.35
-9755458.04 5135467.80 207.40
-9755456.16 5135463.35 207.00
-9755462.62 5135464.38 204.13
-9755456.47 5135462.14 206.99
-9755460.90 5135462.45 207.04
-9755462.32 5135463.07 204.85
-9755457.65 5135462.76 207.00
-9755460.33 5135463.03 207.04
-9755461.15 5135465.40 207.03
-9755460.00 5135464.26 207.04
-9755456.74 5135466.55 206.97
-9755455.61 5135463.92 206.98
-9755458.18 5135465.36 206.99
-9755455.60 5135461.55 206.99
-9755460.30 5135468.43 207.01
-9755461.76 5135468.35 207.02
-9755457.01 5135467.51 206.97
-9755460.58 5135463.67 207.04
-9755456.49 5135468.34 206.96
-9755459.71 5135469.03 207.00
-9755463.49 5135465.86 204.09
-9755460.32 5135465.13 207.02
-9755461.76 5135466.03 207.03
-9755455.89 5135460.97 206.99
-9755464.41 5135468.79 204.11
-9755456.98 5135467.20 206.96
-9755457.82 5135468.77 207.16
-9755462.36 5135462.47 203.19
-9755461.48 5135460.87 204.09
-9755459.17 5135461.56 207.03
-9755462.36 5135468.42 207.03
-9755459.70 5135461.26 207.03
-9755463.54 5135465.53 203.47
-9755457.32 5135466.30 206.97
-9755458.73 5135469.41 208.20
-9755462.53 5135463.80 204.92
-9755462.32 5135468.97 207.04
-9755460.52 5135468.97 207.01
-9755457.90 5135465.13 206.99
-9755461.70 5135466.59 207.03
-9755461.49 5135461.69 204.11
-9755458.81 5135464.23 207.01
-9755460.26 5135465.47 207.01
-9755456.75 5135460.04 207.01
-9755462.37 5135463.23 203.57
-9755462.67 5135463.16 203.93
-9755457.68 5135463.63 207.00
-9755455.90 5135464.20 206.97
-9755458.23 5135466.90 206.98
-9755458.85 5135466.62 206.99
-9755465.01 5135469.97 203.50
-9755461.20 5135464.86 207.04
-9755456.48 5135465.69 206.96
-9755456.77 5135462.79 207.00
-9755460.99 5135460.27 204.80
-9755463.54 5135469.29 207.03
-9755457.05 5135467.76 206.96
-9755464.11 5135469.30 207.07
-9755460.02 5135461.93 207.03
-9755457.51 5135468.38 220.60
-9755457.99 5135463.94 207.00
-9755457.66 5135464.49 207.00
-9755458.26 5135462.47 207.02
-9755461.50 5135461.59 207.10
-9755461.09 5135460.94 205.12
-9755463.49 5135466.20 204.09
-9755457.28 5135469.61 206.96
-9755462.31 5135469.31 207.04
-9755462.70 5135463.34 203.77
-9755458.34 5135467.78 207.01
-9755461.03 5135460.92 205.48
-9755463.36 5135464.44 203.26
-9755454.99 5135460.37 207.00
-9755461.43 5135469.58 207.02
-9755456.69 5135468.96 206.94
-9755461.24 5135460.78 205.46
-9755462.25 5135462.56 203.20
-9755458.16 5135469.53 208.20
-9755459.38 5135465.73 207.01
-9755459.39 5135463.64 207.02
-9755462.86 5135463.82 203.08
-9755465.28 5135469.85 203.44
-9755457.02 5135466.88 206.96
-9755462.34 5135463.47 204.76
-9755461.91 5135462.30 205.50
-9755461.16 5135467.83 207.03
-9755461.51 5135461.26 205.23
-9755462.37 5135462.94 204.09
-9755456.19 5135460.39 207.00
-9755460.30 5135462.14 207.03
-9755461.13 5135466.94 207.04
-9755459.41 5135466.62 207.01
-9755461.48 5135466.60 207.04
-9755456.20 5135460.62 207.00
-9755461.88 5135462.62 205.32
-9755455.75 5135469.32 206.90
-9755463.82 5135466.82 203.53
-9755461.52 5135461.10 204.10
-9755463.81 5135466.94 202.60
-9755464.43 5135469.29 204.48
-9755464.33 5135467.99 203.67
-9755456.13 5135468.35 206.96
-9755458.04 5135466.28 220.71
-9755455.61 5135463.30 206.97
-9755456.35 5135468.89 220.58
-9755464.35 5135467.93 204.09
-9755459.09 5135465.97 207.00
-9755458.76 5135468.97 206.99
-9755455.88 5135467.48 206.95
-9755462.08 5135466.33 207.04
-9755459.08 5135465.75 207.00
-9755464.67 5135469.71 205.76
-9755461.49 5135464.51 207.04
-9755459.41 5135469.26 206.99
-9755457.38 5135461.22 207.01
-9755454.89 5135461.80 220.61
-9755464.92 5135469.44 204.05
-9755455.36 5135462.43 206.97
-9755455.54 5135468.04 207.07
-9755456.52 5135460.91 207.00
-9755458.12 5135467.51 207.36
-9755458.77 5135469.63 206.98
-9755462.34 5135469.86 207.03
-9755454.97 5135462.47 206.97
-9755456.53 5135460.05 207.01
-9755457.29 5135464.31 222.20
-9755456.16 5135464.82 206.98
-9755460.30 5135460.69 207.05
-9755459.73 5135469.91 206.98
-9755457.03 5135461.57 207.01
-9755461.18 5135468.72 207.00
-9755462.61 5135469.29 207.04
-9755462.07 5135466.01 207.04
-9755461.09 5135460.21 205.75
-9755464.44 5135468.57 203.46
-9755461.92 5135461.43 203.23
-9755461.45 5135465.72 207.03
-9755457.37 5135463.32 207.00
-9755459.13 5135462.77 207.02
-9755462.95 5135463.48 204.09
-9755459.73 5135462.14 207.03
-9755460.64 5135465.65 207.03
-9755455.55 5135462.16 206.97
-9755457.75 5135467.09 207.37
-9755457.04 5135464.54 206.99
-9755455.31 5135460.67 206.99
-9755459.64 5135468.69 207.00
-9755463.45 5135466.64 205.17
-9755459.06 5135465.09 207.01
-9755461.79 5135466.91 207.03
-9755464.34 5135467.33 203.05
-9755462.42 5135462.89 204.87
-9755459.40 5135468.57 220.78
-9755455.58 5135462.42 206.97
-9755457.79 5135464.70 222.07
-9755457.53 5135468.38 206.97
-9755464.39 5135468.58 204.10
-9755463.32 5135466.50 205.56
-9755459.35 5135469.60 206.98
-9755460.29 5135468.99 207.00
-9755458.55 5135469.23 208.18
-9755458.26 5135460.95 207.01
-9755463.23 5135465.43 204.85
-9755460.53 5135468.64 207.01
-9755457.69 5135461.54 207.01
-9755456.45 5135462.72 207.00
-9755456.72 5135466.00 206.97
-9755461.63 5135462.34 204.50
-9755455.57 5135462.77 206.97
-9755458.50 5135466.01 207.00
-9755461.12 5135460.48 205.27
-9755454.99 5135463.35 206.96
-9755457.63 5135466.94 206.97
-9755455.85 5135469.15 206.97
-9755456.38 5135468.65 206.95
-9755456.99 5135469.87 208.00
-9755460.57 5135468.09 207.02
-9755461.76 5135461.11 203.52
-9755462.65 5135468.07 207.04
-9755464.00 5135468.11 205.42
-9755463.25 5135466.06 205.62
-9755457.93 5135469.01 206.93
-9755459.90 5135466.03 207.01
-9755460.82 5135466.87 207.01
-9755461.65 5135460.22 204.05
-9755457.38 5135462.75 207.01
-9755462.67 5135466.63 207.04
-9755462.56 5135462.73 204.01
-9755464.42 5135468.76 204.63
-9755462.57 5135463.29 204.10
-9755455.97 5135469.00 207.03
-9755455.27 5135466.97 207.03
-9755458.82 5135465.96 207.00
-9755456.09 5135467.48 206.95
-9755458.77 5135465.44 207.00
-9755455.53 5135467.83 207.03
-9755455.00 5135467.31 207.05
-9755464.29 5135467.41 202.53
-9755456.18 5135468.03 206.95
-9755460.02 5135462.50 207.04
-9755458.83 5135464.88 207.00
-9755460.32 5135469.31 207.00
-9755456.43 5135469.49 206.95
-9755460.29 5135466.34 207.02
-9755462.43 5135464.01 204.77
-9755462.70 5135467.51 207.04
-9755455.60 5135460.09 206.98
-9755455.11 5135465.16 207.97
-9755462.37 5135462.60 203.36
-9755462.89 5135468.94 207.03
-9755457.90 5135461.30 207.01
-9755455.21 5135465.43 206.95
-9755456.15 5135465.68 206.97
-9755457.39 5135467.53 208.22
-9755458.54 5135469.53 206.99
-9755454.67 5135461.59 206.97
-9755454.44 5135460.08 206.98
-9755454.97 5135462.69 206.98
-9755452.93 5135460.19 207.01
-9755454.98 5135464.21 206.97
-9755454.00 5135463.27 207.05
-9755453.99 5135465.82 220.69
-9755454.48 5135467.09 220.63
-9755453.81 5135462.69 207.01
-9755453.72 5135462.42 206.97
-9755454.53 5135464.86 206.97
-9755453.29 5135462.45 206.99
-9755453.85 5135462.09 206.97
-9755454.43 5135460.94 206.97
-9755453.21 5135462.17 206.99
-9755453.03 5135461.14 207.05
-9755453.85 5135468.91 220.63
-9755454.67 5135460.06 206.99
-9755454.37 5135462.17 206.97
-9755454.02 5135465.85 206.90
-9755453.98 5135466.50 220.63
-9755453.81 5135460.37 206.97
-9755454.40 5135463.67 206.97
-9755453.52 5135460.33 206.97
-9755454.04 5135462.71 207.93
-9755453.00 5135466.41 222.72
-9755452.96 5135460.63 207.05
-9755454.12 5135464.25 207.03
-9755453.80 5135461.00 206.97
-9755454.15 5135460.03 206.97
-9755453.22 5135460.91 207.01
-9755453.56 5135460.91 208.20
-9755453.98 5135465.60 207.10
-9755453.63 5135462.13 220.63
-9755453.83 5135463.36 207.09
-9755453.66 5135467.18 220.68
-9755452.97 5135468.96 220.64
-9755453.20 5135461.89 207.05
-9755453.84 5135461.25 206.97
-9755453.21 5135460.19 208.66
-9755454.46 5135465.78 207.09
-9755454.38 5135464.94 207.01
-9755454.13 5135461.74 206.97
-9755453.56 5135463.30 207.09
-9755454.45 5135461.83 206.97
-9755454.59 5135464.72 220.63
-9755454.66 5135463.91 206.97
-9755454.60 5135466.05 206.90
-9755452.93 5135459.80 206.99
-9755451.61 5135459.35 220.84
-9755452.51 5135459.45 220.62
-9755452.35 5135459.21 207.04
-9755451.50 5135459.36 220.69
-9755451.56 5135459.54 220.82
-9755452.22 5135464.42 220.68
-9755452.09 5135469.59 220.68
-9755452.94 5135460.42 207.04
-9755452.31 5135460.43 207.13
-9755451.38 5135464.98 220.70
-9755452.47 5135465.07 220.66
-9755451.35 5135464.46 220.70
-9755452.45 5135460.77 207.10
-9755450.67 5135466.24 220.71
-9755452.17 5135460.22 220.63
-9755451.42 5135466.44 220.67
-9755451.83 5135469.79 220.69
-9755450.87 5135466.98 224.91
-9755451.29 5135466.97 220.69
-9755452.08 5135467.89 220.65
-9755452.65 5135460.37 207.04
-9755451.02 5135468.59 220.72
-9755451.30 5135460.04 220.65
-9755452.78 5135467.32 220.65
-9755451.90 5135467.95 220.67
-9755451.29 5135469.74 220.70
-9755450.73 5135465.82 220.69
-9755450.58 5135468.23 220.71
-9755451.81 5135465.09 220.70
-9755452.25 5135464.70 220.69
-9755452.48 5135460.88 220.65
-9755452.16 5135467.17 220.62
-9755451.86 5135468.58 220.68
-9755453.24 5135458.81 206.97
-9755460.73 5135458.67 205.21
-9755460.69 5135458.47 202.98
-9755459.71 5135458.93 207.05
-9755460.63 5135458.46 204.44
-9755460.62 5135458.69 205.44
-9755460.52 5135457.99 202.74
-9755455.59 5135458.34 206.99
-9755457.99 5135457.96 207.03
-9755457.69 5135458.62 207.03
-9755460.70 5135458.22 202.59
-9755457.68 5135458.32 207.03
-9755455.63 5135457.75 206.99
-9755460.76 5135457.89 202.50
-9755456.47 5135458.29 207.02
-9755454.92 5135457.31 220.76
-9755460.89 5135458.25 202.92
-9755460.88 5135458.50 203.35
-9755460.34 5135457.29 205.06
-9755455.35 5135457.92 206.99
-9755460.50 5135457.41 202.08
-9755460.37 5135458.00 207.13
-9755460.87 5135458.49 204.06
-9755457.09 5135458.01 207.01
-9755460.30 5135457.24 204.09
-9755457.35 5135458.02 207.01
-9755458.33 5135457.71 207.05
-9755459.43 5135457.41 207.06
-9755457.07 5135457.35 207.03
-9755460.38 5135458.34 204.64
-9755460.58 5135457.93 203.03
-9755460.04 5135457.14 204.72
-9755458.01 5135458.62 207.02
-9755458.26 5135458.63 207.03
-9755456.19 5135457.40 207.02
-9755454.89 5135458.14 208.64
-9755458.88 5135457.67 207.05
-9755460.70 5135458.53 203.37
-9755456.52 5135457.06 207.02
-9755459.44 5135458.00 207.05
-9755456.79 5135458.37 207.03
-9755460.06 5135457.29 204.11
-9755460.58 5135458.53 204.10
-9755459.42 5135457.11 207.06
-9755457.74 5135457.09 207.03
-9755460.31 5135457.87 204.10
-9755455.39 5135457.10 207.00
-9755455.08 5135457.69 207.01
-9755452.99 5135457.94 206.97
-9755453.88 5135458.57 206.95
-9755453.15 5135457.27 220.60
-9755454.97 5135457.96 208.65
-9755454.67 5135458.53 208.19
-9755453.77 5135457.81 206.95
-9755453.71 5135458.18 220.61
-9755453.86 5135458.31 206.95
-9755453.21 5135457.71 206.98
-9755454.51 5135457.15 207.00
-9755454.20 5135457.85 208.70
-9755454.01 5135457.28 208.71
-9755452.04 5135457.09 206.94
-9755451.59 5135457.90 207.08
-9755452.02 5135458.52 207.05
-9755452.06 5135457.34 206.94
-9755451.79 5135457.68 207.02
-9755452.37 5135457.15 206.94
-9755452.41 5135458.25 206.98
-9755451.74 5135457.45 206.99
-9755452.41 5135458.03 206.97
-9755452.38 5135457.38 206.95
-9755451.80 5135458.54 207.07
-9755452.78 5135458.22 220.59
-9755482.56 5135433.24 201.78
-9755485.18 5135433.00 201.81
-9755486.36 5135432.95 201.81
-9755483.43 5135432.96 201.78
-9755482.86 5135432.64 201.75
-9755487.80 5135432.99 201.86
-9755487.53 5135432.37 201.80
-9755481.93 5135432.94 201.77
-9755481.93 5135432.62 201.74
-9755487.91 5135432.40 201.87
-9755484.88 5135433.54 201.85
-9755487.00 5135433.55 201.87
-9755485.77 5135433.27 201.84
-9755488.23 5135433.18 202.46
-9755488.09 5135433.01 202.65
-9755485.46 5135432.37 201.77
-9755486.07 5135433.29 201.85
-9755482.82 5135432.35 201.74
-9755480.73 5135433.27 201.75
-9755480.78 5135432.36 201.71
-9755480.16 5135432.95 201.74
-9755481.67 5135433.51 201.80
-9755480.49 5135432.89 201.74
-9755481.96 5135433.82 201.82
-9755486.03 5135446.87 202.51
-9755485.98 5135446.49 202.49
-9755484.51 5135445.35 202.40
-9755486.95 5135437.09 202.08
-9755488.39 5135441.52 202.27
-9755485.77 5135439.42 202.21
-9755486.96 5135434.15 201.90
-9755484.56 5135446.53 202.47
-9755488.37 5135445.09 202.45
-9755489.80 5135438.57 203.04
-9755487.20 5135442.15 202.27
-9755483.70 5135439.74 202.18
-9755484.04 5135434.73 201.90
-9755488.35 5135446.52 202.55
-9755483.70 5135445.37 202.38
-9755481.93 5135436.19 201.97
-9755486.95 5135435.35 201.98
-9755482.42 5135441.50 202.27
-9755487.52 5135435.65 201.99
-9755486.88 5135445.95 202.48
-9755492.40 5135445.45 202.56
-9755483.73 5135435.28 201.92
-9755486.91 5135446.20 202.49
-9755484.93 5135436.77 202.04
-9755483.41 5135440.01 202.20
-9755482.55 5135437.39 202.05
-9755481.92 5135437.05 202.02
-9755488.14 5135435.60 202.01
-9755482.86 5135434.75 201.89
-9755486.33 5135436.25 202.02
-9755489.28 5135442.13 202.27
-9755482.85 5135439.74 202.18
-9755486.08 5135437.36 202.08
-9755483.39 5135440.34 202.22
-9755491.89 5135446.89 202.60
-9755488.13 5135434.48 201.94
-9755482.50 5135438.84 202.13
-9755483.33 5135443.89 202.28
-9755486.07 5135435.61 201.99
-9755485.96 5135442.09 202.27
-9755483.97 5135441.18 202.27
-9755488.71 5135440.34 202.27
-9755482.26 5135437.11 202.03
-9755488.69 5135434.78 202.72
-9755483.37 5135444.76 202.34
-9755486.63 5135438.89 202.18
-9755488.45 5135435.91 202.03
-9755483.96 5135443.60 202.28
-9755483.43 5135435.29 201.92
-9755488.97 5135444.54 202.41
-9755487.53 5135442.44 202.28
-9755491.36 5135442.98 202.44
-9755483.40 5135442.11 202.29
-9755490.18 5135443.94 202.39
-9755488.36 5135440.63 202.27
-9755482.49 5135435.32 201.92
-9755489.00 5135439.76 202.26
-9755488.36 5135444.82 202.43
-9755487.18 5135446.29 202.51
-9755484.57 5135434.70 201.89
-9755483.68 5135443.02 202.27
-9755484.25 5135440.38 202.23
-9755491.71 5135444.07 203.14
-9755488.10 5135439.77 202.24
-9755488.07 5135443.58 202.35
-9755481.87 5135445.94 202.38
-9755481.92 5135440.61 202.20
-9755488.44 5135437.39 202.11
-9755489.82 5135437.73 202.24
-9755485.15 5135446.00 202.45
-9755487.47 5135445.72 202.48
-9755482.82 5135436.19 201.98
-9755482.21 5135446.23 202.41
-9755484.91 5135436.53 202.03
-9755490.15 5135443.28 202.34
-9755489.00 5135446.27 202.52
-9755490.74 5135444.22 202.42
-9755483.36 5135441.24 202.26
-9755485.71 5135443.60 202.30
-9755487.56 5135441.54 202.26
-9755488.09 5135445.35 202.47
-9755487.50 5135443.88 202.35
-9755488.08 5135446.24 202.53
-9755487.56 5135435.34 201.98
-9755489.30 5135436.46 202.13
-9755489.85 5135446.89 202.59
-9755485.42 5135442.08 202.27
-9755490.14 5135443.07 202.33
-9755484.02 5135437.10 202.05
-9755490.45 5135442.13 202.28
-9755488.64 5135444.49 202.40
-9755483.99 5135437.66 202.06
-9755481.95 5135437.96 202.06
-9755483.69 5135440.93 202.27
-9755484.85 5135440.38 202.24
-9755484.60 5135437.10 202.05
-9755488.14 5135438.55 202.18
-9755484.26 5135442.39 202.27
-9755482.24 5135440.29 202.20
-9755485.16 5135441.79 202.27
-9755489.92 5135440.36 202.25
-9755484.28 5135440.06 202.22
-9755486.94 5135438.57 202.16
-9755487.25 5135437.97 202.13
-9755485.16 5135439.78 202.22
-9755489.51 5135445.40 202.48
-9755483.92 5135445.35 202.39
-9755488.78 5135435.23 202.80
-9755484.89 5135435.28 201.94
-9755485.45 5135442.69 202.29
-9755488.69 5135438.60 202.20
-9755486.95 5135442.14 202.27
-9755482.45 5135444.15 202.29
-9755487.83 5135440.61 202.27
-9755487.57 5135434.43 201.93
-9755486.02 5135443.62 202.32
-9755488.95 5135436.17 202.98
-9755485.77 5135437.33 202.09
-9755486.60 5135445.36 202.43
-9755486.06 5135445.04 202.41
-9755487.83 5135435.07 201.97
-9755481.88 5135445.62 202.36
-9755484.27 5135443.59 202.29
-9755486.99 5135438.31 202.15
-9755482.52 5135438.28 202.08
-9755482.49 5135445.04 202.34
-9755486.58 5135446.86 202.53
-9755482.81 5135445.65 202.38
-9755483.36 5135445.08 202.36
-9755487.80 5135441.20 202.27
-9755488.44 5135434.14 202.63
-9755487.55 5135438.25 202.14
-9755482.19 5135442.09 202.29
-9755482.52 5135442.39 202.29
-9755483.62 5135445.94 202.41
-9755485.16 5135443.31 202.29
-9755489.88 5135445.99 202.52
-9755483.43 5135434.10 201.85
-9755489.02 5135438.27 202.17
-9755490.71 5135445.99 202.53
-9755489.55 5135446.27 202.53
-9755491.60 5135443.28 202.45
-9755486.34 5135442.68 202.27
-9755484.61 5135439.41 202.18
-9755484.29 5135443.26 202.27
-9755487.78 5135444.78 202.42
-9755484.31 5135433.83 201.86
-9755487.49 5135445.36 202.46
-9755483.41 5135445.63 202.38
-9755483.67 5135446.58 202.46
-9755484.30 5135439.16 202.16
-9755489.25 5135436.82 203.08
-9755489.02 5135436.18 202.91
-9755481.96 5135440.01 202.17
-9755486.01 5135440.64 202.27
-9755486.37 5135440.35 202.26
-9755491.33 5135444.52 202.45
-9755482.49 5135440.93 202.23
-9755482.77 5135444.77 202.34
-9755490.20 5135440.07 202.27
-9755487.83 5135437.38 202.10
-9755483.37 5135442.98 202.29
-9755489.26 5135446.58 202.55
-9755481.06 5135443.87 202.29
-9755481.59 5135446.21 202.38
-9755480.72 5135443.57 202.29
-9755481.36 5135434.67 201.86
-9755480.47 5135436.20 201.92
-9755481.08 5135437.39 202.01
-9755481.35 5135440.34 202.18
-9755480.76 5135446.23 202.37
-9755479.64 5135433.82 201.77
-9755480.19 5135436.46 201.93
-9755481.34 5135437.05 202.00
-9755479.83 5135446.83 200.93
-9755481.31 5135446.83 202.42
-9755480.75 5135440.92 202.20
-9755480.98 5135445.69 202.34
-9755480.16 5135441.78 202.24
-9755480.99 5135445.90 202.35
-9755479.84 5135437.10 201.96
-9755481.67 5135435.60 201.92
-9755479.45 5135444.55 201.72
-9755481.30 5135440.59 202.20
-9755480.47 5135437.05 201.97
-9755480.78 5135434.67 201.85
-9755480.15 5135437.91 202.02
-9755479.52 5135440.91 202.17
-9755479.85 5135443.84 202.33
-9755480.53 5135445.36 203.14
-9755479.89 5135438.83 202.06
-9755480.20 5135437.67 202.00
-9755479.83 5135442.64 202.28
-9755480.71 5135441.84 202.26
-9755480.47 5135440.62 202.18
-9755496.17 5135456.94 203.73
-9755496.35 5135456.93 203.34
-9755495.14 5135454.30 203.03
-9755495.37 5135454.52 203.05
-9755495.11 5135456.66 203.13
-9755495.69 5135456.01 203.19
-9755489.19 5135457.18 203.06
-9755494.76 5135453.40 202.95
-9755483.86 5135456.01 202.93
-9755482.47 5135447.09 202.46
-9755486.00 5135448.32 202.61
-9755492.78 5135446.86 202.70
-9755484.51 5135451.29 202.76
-9755484.47 5135451.82 202.78
-9755490.69 5135452.20 202.90
-9755494.25 5135454.59 202.98
-9755489.81 5135450.10 202.79
-9755484.52 5135448.33 202.58
-9755492.44 5135455.18 202.99
-9755488.94 5135452.44 202.90
-9755486.28 5135452.81 202.88
-9755485.37 5135452.74 202.85
-9755486.59 5135449.50 202.68
-9755482.69 5135453.08 202.88
-9755490.10 5135457.50 203.11
-9755491.02 5135452.21 202.90
-9755486.01 5135450.40 202.73
-9755490.11 5135447.75 202.63
-9755483.32 5135448.57 202.57
-9755494.78 5135456.02 203.08
-9755485.44 5135447.74 202.55
-9755492.46 5135454.86 202.97
-9755489.78 5135451.29 202.86
-9755485.15 5135447.15 202.52
-9755492.77 5135454.28 202.94
-9755486.84 5135452.77 202.88
-9755490.66 5135456.92 203.09
-9755485.36 5135453.64 202.88
-9755487.51 5135450.11 202.74
-9755487.17 5135447.73 202.59
-9755491.57 5135454.52 202.94
-9755484.23 5135451.85 202.78
-9755488.01 5135455.13 202.91
-9755484.44 5135455.09 202.89
-9755494.18 5135451.92 202.91
-9755491.83 5135454.88 202.98
-9755486.25 5135452.16 202.83
-9755481.55 5135448.58 202.53
-9755492.71 5135456.03 203.05
-9755492.47 5135448.63 202.71
-9755485.10 5135452.78 202.84
-9755485.07 5135455.96 202.92
-9755493.16 5135448.59 203.40
-9755490.43 5135449.19 202.74
-9755489.80 5135450.90 202.92
-9755489.82 5135447.13 202.60
-9755484.20 5135450.07 202.67
-9755490.72 5135448.94 202.73
-9755492.72 5135454.83 202.98
-9755485.09 5135449.80 202.68
-9755488.33 5135454.54 202.90
-9755491.01 5135451.87 202.90
-9755490.09 5135456.32 203.04
-9755492.16 5135450.14 202.81
-9755490.13 5135452.77 202.90
-9755489.81 5135452.17 202.88
-9755488.90 5135452.77 202.90
-9755484.24 5135448.85 202.61
-9755488.95 5135449.54 202.74
-9755488.61 5135452.72 202.89
-9755489.78 5135456.00 203.01
-9755490.13 5135449.83 202.77
-9755488.01 5135452.14 202.88
-9755486.57 5135447.43 202.56
-9755489.81 5135453.38 202.89
-9755490.67 5135454.53 202.93
-9755493.64 5135455.43 203.01
-9755486.91 5135451.89 202.84
-9755491.27 5135455.16 203.00
-9755494.51 5135456.63 203.12
-9755490.94 5135456.58 203.06
-9755482.75 5135452.13 202.76
-9755489.22 5135453.96 202.90
-9755485.69 5135455.14 202.91
-9755487.43 5135448.60 202.65
-9755483.34 5135452.13 202.77
-9755482.17 5135447.99 202.52
-9755487.14 5135455.40 202.92
-9755486.89 5135449.83 202.72
-9755492.18 5135448.65 202.71
-9755483.34 5135447.08 202.47
-9755481.86 5135450.08 202.65
-9755486.86 5135455.07 202.91
-9755482.13 5135450.94 202.72
-9755489.22 5135450.12 202.78
-9755487.70 5135455.46 202.93
-9755485.38 5135449.45 202.66
-9755483.62 5135457.05 203.03
-9755491.59 5135456.33 203.06
-9755490.68 5135449.82 202.77
-9755483.65 5135447.70 202.51
-9755485.33 5135454.23 202.88
-9755493.29 5135455.47 203.01
-9755484.77 5135456.90 202.95
-9755492.15 5135452.46 202.90
-9755491.87 5135449.53 202.77
-9755492.15 5135456.88 203.11
-9755487.74 5135456.02 202.96
-9755482.47 5135449.19 202.58
-9755487.48 5135450.43 202.76
-9755484.24 5135456.60 202.93
-9755489.79 5135448.62 202.69
-9755490.39 5135453.36 202.89
-9755490.65 5135455.07 202.96
-9755484.74 5135455.98 202.91
-9755492.10 5135456.01 203.05
-9755491.86 5135453.37 202.90
-9755487.45 5135454.51 202.90
-9755485.44 5135448.04 202.58
-9755493.33 5135453.98 202.94
-9755486.89 5135450.13 202.73
-9755489.24 5135447.49 202.62
-9755492.74 5135453.10 202.90
-9755487.78 5135450.07 202.74
-9755489.19 5135453.30 202.90
-9755487.18 5135452.76 202.87
-9755491.57 5135451.62 202.88
-9755483.61 5135456.00 203.00
-9755484.76 5135447.10 202.50
-9755483.92 5135450.12 202.67
-9755492.17 5135452.73 202.89
-9755489.81 5135452.48 202.89
-9755483.93 5135447.14 202.49
-9755483.62 5135451.57 202.74
-9755486.25 5135457.50 203.02
-9755486.89 5135456.01 202.95
-9755493.38 5135452.18 202.89
-9755484.78 5135452.14 202.81
-9755482.77 5135450.06 202.63
-9755482.42 5135448.63 202.56
-9755488.66 5135454.26 202.90
-9755486.87 5135452.45 202.86
-9755488.04 5135456.60 202.99
-9755483.61 5135453.28 202.84
-9755492.44 5135455.45 203.01
-9755482.77 5135447.44 202.48
-9755492.52 5135450.68 202.85
-9755488.65 5135448.03 202.64
-9755485.66 5135456.85 202.96
-9755487.12 5135455.99 202.95
-9755483.64 5135448.60 202.58
-9755487.45 5135447.15 202.58
-9755491.63 5135450.75 202.86
-9755486.26 5135449.21 202.66
-9755485.99 5135448.63 202.62
-9755488.97 5135447.17 202.59
-9755487.77 5135448.30 202.63
-9755489.79 5135454.81 202.93
-9755487.14 5135454.51 202.91
-9755483.34 5135449.23 202.60
-9755481.53 5135453.67 200.49
-9755481.65 5135449.93 203.13
-9755491.54 5135452.16 202.90
-9755483.62 5135455.65 202.95
-9755484.24 5135450.73 202.70
-9755490.40 5135453.67 202.89
-9755486.28 5135451.25 202.78
-9755482.85 5135453.65 203.59
-9755489.02 5135448.03 202.65
-9755485.97 5135449.23 202.67
-9755487.73 5135448.91 202.67
-9755488.37 5135455.41 202.94
-9755481.86 5135454.65 200.45
-9755488.34 5135454.23 202.91
-9755485.93 5135452.17 202.84
-9755489.19 5135455.70 202.98
-9755486.86 5135449.17 202.68
-9755482.22 5135450.34 202.64
-9755490.74 5135455.44 203.00
-9755493.63 5135456.91 203.12
-9755493.05 5135454.28 202.95
-9755484.21 5135455.46 202.90
-9755491.86 5135453.67 202.90
-9755481.57 5135455.22 200.45
-9755494.24 5135455.73 203.04
-9755482.22 5135451.83 202.78
-9755488.62 5135453.67 202.89
-9755483.33 5135450.34 202.68
-9755483.06 5135449.48 202.61
-9755488.63 5135455.42 202.95
-9755488.61 5135453.34 202.90
-9755486.00 5135453.92 202.89
-9755484.81 5135455.42 202.89
-9755482.76 5135447.98 202.51
-9755489.52 5135447.75 202.62
-9755492.16 5135454.55 202.95
-9755488.07 5135449.54 202.72
-9755489.77 5135453.70 202.89
-9755488.36 5135452.47 202.89
-9755489.51 5135455.47 202.97
-9755484.54 5135449.52 202.64
-9755489.84 5135449.22 202.72
-9755481.78 5135455.78 200.45
-9755485.10 5135451.57 202.78
-9755485.97 5135453.05 202.88
-9755483.36 5135454.51 202.91
-9755490.66 5135455.73 203.01
-9755491.94 5135450.39 202.83
-9755483.65 5135449.79 202.64
-9755489.53 5135449.53 202.74
-9755483.92 5135455.38 202.89
-9755490.73 5135455.18 202.98
-9755481.79 5135455.21 200.45
-9755484.80 5135455.10 202.89
-9755491.28 5135452.79 202.91
-9755487.13 5135453.31 202.89
-9755486.23 5135455.99 202.93
-9755487.75 5135453.65 202.89
-9755488.63 5135451.01 202.82
-9755489.24 5135456.57 203.04
-9755491.27 5135455.46 203.01
-9755490.97 5135453.95 202.90
-9755480.62 5135452.83 200.56
-9755481.23 5135453.72 200.51
-9755481.19 5135452.25 200.59
-9755480.92 5135453.72 200.51
-9755480.65 5135453.42 200.55
-9755481.55 5135448.89 202.56
-9755480.31 5135456.69 200.47
-9755481.21 5135453.14 200.53
-9755480.02 5135456.10 200.46
-9755480.09 5135447.51 200.89
-9755480.06 5135454.88 200.49
-9755480.97 5135456.66 200.45
-9755480.34 5135453.77 200.51
-9755479.54 5135448.09 200.88
-9755480.04 5135451.63 200.66
-9755480.33 5135451.04 200.67
-9755481.01 5135449.89 202.81
-9755480.92 5135454.89 200.47
-9755479.76 5135456.68 200.46
-9755480.66 5135449.59 200.75
-9755479.48 5135450.15 200.75
-9755480.37 5135455.19 200.46
-9755480.05 5135456.98 200.46
-9755480.65 5135453.72 200.52
-9755481.28 5135448.86 202.59
-9755480.67 5135454.61 200.49
-9755480.63 5135452.53 200.58
-9755480.11 5135450.16 200.74
-9755479.75 5135449.29 200.79
-9755480.74 5135446.99 202.49
-9755477.26 5135432.91 201.68
-9755472.80 5135433.49 201.65
-9755478.13 5135432.96 201.69
-9755476.38 5135433.18 201.68
-9755479.29 5135433.49 201.75
-9755476.94 5135433.51 201.69
-9755478.70 5135432.95 201.70
-9755475.45 5135432.90 201.67
-9755479.29 5135432.64 201.69
-9755476.96 5135432.92 201.68
-9755475.49 5135433.23 201.67
-9755471.34 5135432.33 201.65
-9755476.03 5135433.24 201.76
-9755477.25 5135433.23 201.69
-9755474.31 5135433.51 201.66
-9755475.93 5135433.47 202.61
-9755479.00 5135433.17 201.71
-9755479.02 5135432.90 201.69
-9755474.00 5135432.36 201.66
-9755478.41 5135432.92 201.70
-9755471.93 5135432.59 201.65
-9755479.58 5135435.28 201.85
-9755471.02 5135433.16 201.66
-9755472.14 5135445.95 201.06
-9755479.23 5135438.86 202.04
-9755471.32 5135435.52 201.65
-9755476.94 5135438.85 201.33
-9755475.99 5135437.08 201.47
-9755476.92 5135436.18 201.92
-9755477.15 5135446.85 201.00
-9755476.81 5135445.67 201.06
-9755478.69 5135439.43 202.07
-9755478.05 5135442.14 201.12
-9755478.95 5135440.29 202.13
-9755479.28 5135435.55 201.86
-9755472.56 5135433.78 201.66
-9755477.75 5135443.63 201.06
-9755473.12 5135440.30 201.33
-9755474.51 5135438.54 201.40
-9755476.58 5135441.21 201.20
-9755474.53 5135439.42 201.35
-9755476.59 5135434.57 202.59
-9755478.40 5135439.14 202.07
-9755479.27 5135437.64 201.98
-9755471.92 5135439.41 201.41
-9755477.57 5135433.84 201.72
-9755471.33 5135436.42 201.59
-9755477.17 5135442.65 201.11
-9755475.74 5135435.28 201.58
-9755472.50 5135436.15 201.60
-9755478.09 5135435.61 201.84
-9755476.96 5135439.73 201.28
-9755471.89 5135437.63 201.52
-9755473.98 5135435.63 201.61
-9755476.63 5135434.09 201.72
-9755479.27 5135435.86 201.88
-9755479.06 5135437.07 201.94
-9755476.96 5135436.23 202.41
-9755472.44 5135445.36 201.06
-9755473.37 5135436.15 201.58
-9755478.35 5135445.37 201.04
-9755475.70 5135442.08 201.17
-9755476.00 5135439.14 201.34
-9755473.14 5135435.23 201.63
-9755478.03 5135445.38 201.04
-9755474.23 5135440.90 201.27
-9755471.88 5135442.70 201.21
-9755478.11 5135437.33 201.92
-9755478.32 5135445.11 201.05
-9755478.70 5135438.85 202.04
-9755473.07 5135442.08 201.23
-9755475.98 5135443.28 201.10
-9755476.03 5135445.68 201.06
-9755475.97 5135444.14 201.07
-9755475.40 5135443.60 201.08
-9755478.40 5135439.43 202.08
-9755474.82 5135440.63 201.28
-9755471.89 5135440.00 201.38
-9755470.99 5135445.10 201.06
-9755474.61 5135437.05 201.50
-9755474.25 5135438.51 201.41
-9755474.83 5135443.00 201.13
-9755475.15 5135440.93 201.26
-9755473.33 5135444.51 201.08
-9755474.86 5135435.59 201.60
-9755474.88 5135433.78 201.67
-9755478.07 5135443.03 201.06
-9755476.07 5135435.88 201.54
-9755474.21 5135443.60 201.10
-9755477.62 5135437.03 202.61
-9755478.75 5135441.06 202.61
-9755478.67 5135441.16 202.26
-9755477.62 5135436.80 202.61
-9755475.47 5135439.47 201.34
-9755477.71 5135446.61 200.99
-9755473.63 5135446.29 201.06
-9755474.21 5135446.82 201.05
-9755476.95 5135435.61 202.33
-9755479.31 5135434.41 201.79
-9755471.91 5135434.99 201.66
-9755476.91 5135441.87 201.16
-9755476.33 5135438.54 201.37
-9755476.00 5135438.25 201.39
-9755478.96 5135436.18 201.88
-9755477.57 5135438.82 202.11
-9755477.51 5135435.28 201.80
-9755477.55 5135437.05 201.94
-9755477.50 5135441.85 201.14
-9755474.58 5135435.27 201.61
-9755476.89 5135437.66 201.42
-9755478.39 5135435.59 201.84
-9755477.49 5135446.30 201.02
-9755473.93 5135445.93 201.05
-9755474.27 5135446.22 201.06
-9755474.79 5135445.35 201.07
-9755472.21 5135443.91 201.13
-9755472.21 5135436.19 201.60
-9755477.80 5135437.38 201.94
-9755475.68 5135445.07 201.07
-9755475.11 5135440.63 201.27
-9755475.73 5135438.55 201.38
-9755471.87 5135439.12 201.42
-9755478.13 5135437.05 201.92
-9755479.19 5135442.36 202.29
-9755475.37 5135445.94 201.06
-9755473.69 5135439.09 201.38
-9755478.36 5135439.68 202.53
-9755476.70 5135435.32 202.47
-9755477.47 5135442.42 201.11
-9755474.48 5135446.57 201.05
-9755473.72 5135434.09 201.67
-9755476.57 5135445.11 201.07
-9755473.38 5135433.76 201.65
-9755476.28 5135441.79 201.18
-9755473.96 5135434.42 201.65
-9755474.28 5135437.66 201.45
-9755478.96 5135439.71 202.08
-9755471.30 5135442.40 201.24
-9755475.45 5135437.38 201.46
-9755476.32 5135440.66 201.24
-9755476.92 5135435.61 201.81
-9755472.54 5135434.68 201.66
-9755479.27 5135439.74 202.09
-9755475.15 5135440.30 201.30
-9755477.79 5135439.13 202.13
-9755471.56 5135445.06 201.06
-9755475.40 5135438.25 201.42
-9755473.33 5135443.87 201.09
-9755471.86 5135445.05 201.06
-9755475.43 5135437.04 201.48
-9755473.67 5135437.98 201.45
-9755474.81 5135442.11 201.19
-9755477.21 5135435.60 201.81
-9755473.38 5135442.96 201.15
-9755473.39 5135437.04 201.52
-9755478.40 5135440.26 202.18
-9755475.75 5135438.82 201.37
-9755472.26 5135436.43 201.59
-9755477.15 5135445.42 201.06
-9755476.86 5135443.87 201.07
-9755476.03 5135439.80 201.30
-9755472.17 5135446.83 201.04
-9755475.70 5135441.84 201.20
-9755477.13 5135445.97 201.05
-9755476.88 5135440.98 201.20
-9755478.93 5135445.99 201.00
-9755474.56 5135438.19 201.42
-9755471.25 5135445.65 201.05
-9755479.51 5135448.64 200.84
-9755476.83 5135450.07 200.82
-9755478.91 5135454.34 200.51
-9755475.02 5135455.47 200.51
-9755471.86 5135446.84 201.03
-9755472.37 5135450.37 200.86
-9755475.94 5135452.18 200.71
-9755474.78 5135447.15 201.02
-9755471.54 5135456.98 200.58
-9755474.47 5135451.59 200.76
-9755478.58 5135454.31 200.51
-9755472.96 5135456.97 200.46
-9755474.50 5135447.45 201.02
-9755476.85 5135448.34 200.91
-9755477.72 5135450.69 200.75
-9755475.11 5135449.55 200.88
-9755473.85 5135454.56 200.59
-9755477.68 5135457.00 200.46
-9755471.76 5135456.34 200.50
-9755471.46 5135454.26 200.64
-9755474.19 5135447.15 201.04
-9755478.61 5135450.71 200.74
-9755473.60 5135454.56 200.60
-9755472.69 5135450.44 200.86
-9755474.20 5135448.04 200.99
-9755475.95 5135451.95 200.71
-9755475.65 5135447.73 200.97
-9755476.53 5135448.59 200.89
-9755475.36 5135450.11 200.83
-9755477.12 5135450.78 200.77
-9755473.33 5135449.20 200.93
-9755475.34 5135449.85 200.85
-9755472.12 5135451.87 200.78
-9755472.07 5135455.99 200.52
-9755477.69 5135454.90 200.49
-9755474.82 5135446.23 201.06
-9755472.98 5135455.73 200.52
-9755475.65 5135448.63 200.91
-9755477.68 5135454.02 200.55
-9755477.41 5135455.48 200.48
-9755475.33 5135453.35 200.65
-9755476.84 5135450.74 200.78
-9755479.14 5135455.22 200.46
-9755470.95 5135450.35 200.88
-9755477.43 5135447.44 200.95
-9755476.23 5135450.38 200.81
-9755476.25 5135454.86 200.53
-9755472.74 5135451.59 200.79
-9755478.01 5135454.31 200.52
-9755479.17 5135450.14 200.76
-9755472.10 5135450.97 200.82
-9755476.56 5135449.25 200.86
-9755474.43 5135453.11 200.66
-9755475.68 5135449.51 200.86
-9755476.46 5135454.32 200.57
-9755470.92 5135449.24 200.95
-9755478.32 5135452.18 200.66
-9755478.28 5135455.20 200.46
-9755476.56 5135455.17 200.50
-9755471.80 5135450.05 200.91
-9755475.34 5135450.43 200.81
-9755472.13 5135447.73 201.02
-9755471.20 5135455.73 200.61
-9755479.16 5135454.26 200.51
-9755471.19 5135451.60 200.80
-9755475.36 5135451.32 200.76
-9755475.89 5135456.67 200.48
-9755473.65 5135447.41 201.04
-9755473.56 5135450.08 200.87
-9755472.09 5135448.93 200.96
-9755477.42 5135451.02 200.74
-9755477.73 5135453.41 200.59
-9755472.09 5135455.11 200.57
-9755473.28 5135450.12 200.87
-9755472.40 5135447.13 201.03
-9755473.04 5135450.09 200.87
-9755476.86 5135447.12 200.98
-9755477.97 5135456.65 200.47
-9755478.31 5135448.93 200.84
-9755479.19 5135453.67 200.55
-9755477.07 5135451.92 200.69
-9755474.74 5135454.27 200.59
-9755478.30 5135455.42 200.46
-9755476.26 5135447.15 201.00
-9755475.08 5135447.42 201.01
-9755476.81 5135448.96 200.87
-9755473.02 5135449.22 200.94
-9755478.32 5135454.62 200.49
-9755475.97 5135448.04 200.94
-9755473.32 5135447.74 201.03
-9755475.67 5135449.29 200.88
-9755473.58 5135453.67 200.65
-9755472.45 5135449.48 200.93
-9755475.69 5135450.40 200.81
-9755476.58 5135453.40 200.62
-9755471.25 5135448.01 201.02
-9755470.93 5135454.26 200.68
-9755474.17 5135449.85 200.87
-9755473.03 5135448.35 200.98
-9755474.75 5135450.38 200.84
-9755474.16 5135454.87 200.57
-9755478.30 5135450.76 200.75
-9755479.75 5135452.80 200.60
-9755475.31 5135456.95 200.47
-9755479.17 5135452.57 200.62
-9755474.76 5135448.01 200.98
-9755477.13 5135454.59 200.53
-9755483.44 5135428.79 201.67
-9755481.98 5135431.45 201.69
-9755485.51 5135428.84 201.67
-9755482.90 5135428.84 201.66
-9755483.42 5135431.79 201.71
-9755484.36 5135428.82 201.67
-9755484.35 5135429.40 201.67
-9755482.54 5135430.25 201.67
-9755483.79 5135428.78 201.67
-9755483.42 5135429.98 201.68
-9755482.55 5135428.84 201.67
-9755484.06 5135430.30 201.68
-9755484.62 5135428.21 201.66
-9755483.45 5135430.86 201.69
-9755481.97 5135428.80 201.65
-9755486.12 5135431.50 201.73
-9755481.94 5135427.92 201.66
-9755484.37 5135431.47 201.70
-9755486.13 5135428.50 201.69
-9755484.36 5135430.34 201.68
-9755482.89 5135427.66 201.66
-9755485.50 5135431.16 201.69
-9755484.94 5135430.61 201.69
-9755485.25 5135430.29 201.67
-9755484.95 5135430.03 201.68
-9755486.08 5135431.19 201.71
-9755485.80 5135432.09 201.77
-9755484.00 5135432.10 201.74
-9755482.90 5135432.05 201.71
-9755483.45 5135429.72 201.68
-9755487.26 5135432.09 201.78
-9755484.63 5135429.11 201.68
-9755482.86 5135431.18 201.68
-9755483.74 5135431.47 201.70
-9755484.89 5135432.05 201.75
-9755486.14 5135428.76 205.21
-9755486.65 5135431.74 201.76
-9755482.89 5135429.41 201.67
-9755479.62 5135432.04 201.68
-9755479.87 5135431.43 201.67
-9755480.79 5135428.82 201.65
-9755480.45 5135432.01 201.70
-9755481.67 5135429.33 201.65
-9755480.23 5135428.77 201.66
-9755479.64 5135429.99 201.66
-9755480.22 5135430.24 201.67
-9755479.89 5135428.20 201.64
-9755480.19 5135429.37 201.66
-9755481.10 5135429.98 201.66
-9755479.64 5135427.56 201.64
-9755480.84 5135430.86 201.68
-9755479.01 5135431.12 201.66
-9755473.73 5135430.83 201.65
-9755473.69 5135431.43 201.65
-9755471.95 5135430.21 201.64
-9755474.02 5135428.72 201.65
-9755472.81 5135431.71 201.66
-9755472.83 5135430.49 201.65
-9755477.54 5135427.86 201.65
-9755475.51 5135430.23 201.65
-9755477.25 5135431.44 201.66
-9755474.32 5135429.34 201.65
-9755476.66 5135428.76 201.65
-9755471.69 5135428.12 201.63
-9755472.54 5135430.17 201.65
-9755473.69 5135428.15 201.65
-9755471.92 5135430.80 201.66
-9755471.10 5135431.68 201.64
-9755478.73 5135428.20 201.65
-9755472.85 5135427.88 201.64
-9755474.59 5135429.94 201.66
-9755476.66 5135430.24 201.66
-9755475.80 5135429.06 201.64
-9755477.54 5135428.49 201.64
-9755473.43 5135428.15 201.65
-9755476.88 5135432.01 201.66
-9755475.20 5135427.60 201.64
-9755471.90 5135431.71 201.65
-9755476.41 5135431.15 201.66
-9755476.11 5135428.43 201.65
-9755475.78 5135430.51 201.65
-9755475.45 5135431.72 201.66
-9755475.45 5135429.94 201.66
-9755471.07 5135430.49 201.65
-9755472.83 5135430.26 201.65
-9755477.82 5135427.59 201.65
-9755478.98 5135432.02 201.67
-9755476.36 5135429.07 201.65
-9755476.97 5135428.75 201.65
-9755475.47 5135427.88 201.63
-9755474.61 5135430.79 201.65
-9755473.11 5135428.73 201.64
-9755478.76 5135427.61 201.65
-9755471.69 5135429.35 201.64
-9755472.83 5135428.47 201.65
-9755471.70 5135429.89 201.64
-9755479.34 5135430.29 201.67
-9755473.41 5135428.73 201.65
-9755475.48 5135429.35 201.66
-9755472.82 5135429.94 201.65
-9755476.36 5135427.84 201.65
-9755475.50 5135428.76 201.65
-9755472.54 5135430.79 201.66
-9755469.28 5135432.57 201.65
-9755466.60 5135432.28 201.66
-9755463.71 5135433.12 201.72
-9755463.96 5135432.88 201.67
-9755467.79 5135432.28 201.66
-9755465.44 5135432.60 201.64
-9755464.93 5135433.14 201.66
-9755466.91 5135432.55 201.66
-9755464.84 5135432.83 201.65
-9755464.27 5135433.14 201.66
-9755467.21 5135433.43 201.66
-9755469.00 5135433.77 201.66
-9755471.06 5135437.03 201.55
-9755468.57 5135444.46 201.13
-9755471.10 5135435.57 201.65
-9755468.97 5135437.00 201.60
-9755468.69 5135437.01 201.60
-9755470.33 5135443.88 201.14
-9755468.38 5135433.74 201.66
-9755469.49 5135445.33 201.07
-9755471.00 5135443.87 201.14
-9755468.90 5135440.31 201.39
-9755470.37 5135445.05 201.07
-9755468.63 5135436.71 201.62
-9755470.41 5135441.50 201.30
-9755471.00 5135434.37 201.65
-9755470.38 5135439.72 201.42
-9755469.84 5135437.01 201.59
-9755470.42 5135442.68 201.23
-9755468.61 5135439.42 201.45
-9755470.77 5135437.03 201.57
-9755468.60 5135446.25 201.04
-9755469.49 5135442.37 201.26
-9755469.21 5135443.26 201.20
-9755469.25 5135438.23 201.52
-9755468.64 5135441.20 201.35
-9755469.83 5135439.70 201.42
-9755470.71 5135440.29 201.38
-9755470.10 5135442.99 201.21
-9755469.80 5135440.27 201.38
-9755470.10 5135442.36 201.26
-9755470.70 5135439.40 201.43
-9755470.44 5135434.05 201.66
-9755468.95 5135442.99 201.22
-9755470.70 5135438.76 201.47
-9755468.33 5135445.92 201.05
-9755470.15 5135434.07 201.66
-9755471.01 5135444.77 201.08
-9755470.42 5135441.81 201.28
-9755470.42 5135434.95 201.67
-9755470.73 5135435.26 201.66
-9755470.69 5135444.69 201.09
-9755469.53 5135438.23 201.51
-9755469.85 5135440.59 201.38
-9755470.45 5135440.00 201.40
-9755470.14 5135435.53 201.65
-9755470.40 5135440.61 201.37
-9755469.54 5135435.86 201.64
-9755469.55 5135439.12 201.46
-9755468.95 5135436.11 201.65
-9755470.43 5135435.58 201.65
-9755469.58 5135435.20 201.67
-9755468.98 5135434.63 201.67
-9755469.56 5135439.39 201.45
-9755469.21 5135438.83 201.48
-9755468.93 5135442.10 201.28
-9755469.27 5135439.38 201.45
-9755469.56 5135434.32 201.66
-9755470.11 5135443.25 201.19
-9755470.72 5135441.18 201.32
-9755468.62 5135440.31 201.39
-9755455.65 5135445.98 204.08
-9755468.03 5135445.72 204.62
-9755468.31 5135442.65 201.25
-9755466.31 5135433.76 201.65
-9755467.20 5135435.49 201.65
-9755456.00 5135446.64 203.21
-9755455.33 5135445.96 204.87
-9755467.18 5135436.71 201.63
-9755467.12 5135444.48 201.50
-9755468.09 5135442.04 201.29
-9755468.07 5135445.91 201.16
-9755455.15 5135445.26 205.18
-9755467.79 5135436.43 201.63
-9755455.31 5135445.42 204.08
-9755464.87 5135435.23 201.67
-9755455.68 5135445.72 203.46
-9755466.32 5135435.77 201.66
-9755455.29 5135444.91 204.61
-9755468.04 5135438.20 201.52
-9755467.47 5135437.89 201.56
-9755467.68 5135443.84 201.20
-9755455.25 5135444.62 204.66
-9755466.03 5135434.96 201.66
-9755456.13 5135446.61 203.40
-9755468.06 5135439.08 201.48
-9755466.00 5135440.21 201.56
-9755456.16 5135445.70 204.02
-9755455.16 5135445.32 205.58
-9755456.19 5135446.35 204.05
-9755467.16 5135443.54 201.30
-9755466.33 5135441.19 201.48
-9755467.17 5135440.27 201.42
-9755465.14 5135435.23 201.65
-9755463.95 5135433.72 201.72
-9755466.31 5135435.51 201.66
-9755455.05 5135444.50 204.96
-9755466.04 5135438.78 201.54
-9755455.67 5135446.00 204.57
-9755468.05 5135439.36 201.46
-9755456.05 5135446.67 203.44
-9755467.51 5135445.18 201.21
-9755465.45 5135433.75 201.67
-9755455.73 5135445.77 203.08
-9755466.52 5135440.56 201.43
-9755468.03 5135445.04 201.12
-9755466.02 5135439.31 201.53
-9755466.03 5135435.18 201.65
-9755466.03 5135436.71 201.64
-9755465.73 5135434.34 201.66
-9755466.86 5135441.76 201.34
-9755455.54 5135444.94 203.47
-9755455.18 5135445.18 204.78
-9755468.03 5135444.17 201.17
-9755467.48 5135433.76 201.66
-9755466.48 5135441.74 201.48
-9755455.00 5135443.97 204.70
-9755455.46 5135445.65 205.37
-9755455.49 5135445.13 203.16
-9755465.71 5135436.40 201.67
-9755467.75 5135435.29 201.66
-9755455.72 5135446.57 204.10
-9755467.16 5135439.64 201.43
-9755467.71 5135444.45 201.20
-9755455.30 5135444.91 205.36
-9755467.76 5135441.47 201.34
-9755455.34 5135445.55 204.74
-9755467.43 5135442.07 201.30
-9755467.73 5135440.54 201.38
-9755467.45 5135443.59 201.22
-9755466.88 5135442.01 201.35
-9755466.88 5135442.94 201.38
-9755455.31 5135445.08 204.66
-9755455.06 5135443.57 203.40
-9755455.03 5135444.20 204.10
-9755454.55 5135442.77 203.60
-9755454.82 5135445.57 207.06
-9755453.25 5135439.72 204.79
-9755454.23 5135446.11 207.04
-9755453.29 5135440.26 205.18
-9755454.51 5135442.57 203.18
-9755453.59 5135439.83 204.03
-9755453.28 5135440.06 205.47
-9755453.98 5135441.53 203.27
-9755453.14 5135438.88 203.89
-9755454.13 5135442.70 204.98
-9755453.16 5135439.22 202.31
-9755454.01 5135441.80 203.52
-9755454.50 5135443.34 204.11
-9755453.01 5135439.13 202.13
-9755453.30 5135439.48 199.97
-9755453.08 5135443.83 207.05
-9755454.55 5135445.52 207.05
-9755454.21 5135442.79 204.09
-9755453.94 5135442.89 207.07
-9755453.50 5135439.59 203.45
-9755454.78 5135443.15 202.56
-9755454.69 5135444.38 204.43
-9755454.23 5135442.48 204.07
-9755453.26 5135440.34 204.07
-9755453.65 5135440.69 204.06
-9755453.66 5135440.38 202.27
-9755454.44 5135442.51 202.49
-9755454.33 5135442.98 204.57
-9755454.20 5135442.06 203.72
-9755453.89 5135445.24 207.04
-9755453.07 5135439.36 203.50
-9755453.07 5135438.92 202.92
-9755453.64 5135443.44 207.04
-9755454.13 5135441.27 204.05
-9755453.54 5135440.19 203.21
-9755454.76 5135443.43 203.45
-9755453.05 5135443.18 207.04
-9755453.07 5135444.63 207.04
-9755454.63 5135444.18 204.89
-9755454.82 5135443.90 204.11
-9755453.02 5135439.78 204.91
-9755453.69 5135440.49 203.47
-9755453.11 5135440.82 207.08
-9755454.35 5135443.35 204.12
-9755454.26 5135442.19 203.09
-9755454.17 5135442.07 205.34
-9755453.03 5135438.99 203.49
-9755453.66 5135439.91 203.34
-9755454.20 5135441.82 204.09
