-9755487.91 5135838.22 184.88
-9755489.75 5135835.60 185.25
-9755485.51 5135836.61 184.75
-9755489.29 5135838.58 185.24
-9755485.08 5135836.12 184.25
-9755489.75 5135835.21 185.10
-9755483.71 5135834.55 186.75
-9755488.41 5135838.02 184.98
-9755490.02 5135834.43 185.57
-9755479.40 5135832.92 185.57
-9755483.71 5135838.01 184.78
-9755483.26 5135838.15 187.41
-9755488.21 5135838.28 185.83
-9755480.02 5135833.18 185.54
-9755479.89 5135833.40 185.54
-9755481.16 5135833.01 186.13
-9755487.44 5135838.77 186.31
-9755485.03 5135833.68 186.93
-9755483.57 5135838.71 185.44
-9755490.32 5135836.54 185.05
-9755490.16 5135837.90 185.17
-9755486.33 5135835.08 185.23
-9755487.91 5135839.01 183.81
-9755489.45 5135833.90 184.99
-9755488.54 5135835.98 184.37
-9755486.78 5135837.52 187.61
-9755486.58 5135838.50 184.29
-9755484.33 5135837.27 186.45
-9755490.06 5135837.14 185.17
-9755489.34 5135838.83 185.96
-9755490.65 5135838.14 185.18
-9755489.47 5135838.93 187.21
-9755491.70 5135838.00 184.36
-9755486.27 5135837.29 186.72
-9755482.03 5135833.08 187.16
-9755485.02 5135835.36 185.05
-9755487.69 5135838.22 184.82
-9755486.98 5135839.04 181.23
-9755483.44 5135837.75 184.77
-9755486.82 5135832.72 187.24
-9755481.84 5135834.00 185.58
-9755488.25 5135838.46 184.89
-9755487.41 5135837.95 185.34
-9755490.36 5135835.28 186.57
-9755490.06 5135839.02 188.24
-9755483.83 5135834.84 187.23
-9755487.31 5135838.90 185.10
-9755479.99 5135832.86 186.69
-9755490.57 5135837.04 185.04
-9755483.58 5135833.36 186.96
-9755490.26 5135838.19 187.36
-9755487.47 5135838.66 185.07
-9755483.83 5135833.41 187.96
-9755490.08 5135836.51 185.80
-9755485.54 5135835.99 187.39
-9755484.99 5135836.34 187.00
-9755490.53 5135835.70 186.51
-9755488.93 5135835.88 185.39
-9755485.85 5135836.13 184.65
-9755487.40 5135837.53 185.01
-9755485.91 5135832.95 185.70
-9755483.78 5135836.41 181.32
-9755487.35 5135837.85 185.58
-9755481.85 5135834.63 186.54
-9755485.96 5135836.37 184.71
-9755482.63 5135836.78 186.80
-9755487.41 5135836.94 184.18
-9755485.93 5135838.92 187.74
-9755487.58 5135836.37 186.82
-9755486.56 5135836.09 185.46
-9755485.32 5135837.27 187.08
-9755487.44 5135838.01 183.40
-9755491.45 5135839.03 187.90
-9755488.13 5135838.22 183.99
-9755488.58 5135835.04 184.40
-9755480.64 5135834.09 186.33
-9755486.99 5135836.54 183.91
-9755486.55 5135838.43 186.07
-9755487.63 5135836.04 186.35
-9755489.24 5135837.93 187.46
-9755490.01 5135835.20 185.86
-9755487.24 5135836.68 185.20
-9755487.57 5135837.00 185.17
-9755483.86 5135833.93 188.15
-9755481.75 5135833.42 185.31
-9755487.59 5135834.67 186.64
-9755486.22 5135837.09 187.44
-9755490.84 5135836.99 184.46
-9755490.11 5135835.96 185.53
-9755484.09 5135837.54 181.34
-9755484.15 5135837.07 186.08
-9755482.03 5135833.70 187.22
-9755485.95 5135836.47 185.28
-9755484.35 5135836.05 185.07
-9755487.94 5135838.67 184.17
-9755481.76 5135836.91 181.38
-9755483.12 5135837.17 187.74
-9755480.24 5135837.21 181.38
-9755485.88 5135837.84 187.33
-9755487.37 5135838.97 186.28
-9755487.05 5135833.17 186.26
-9755489.97 5135834.71 185.41
-9755486.18 5135837.88 186.47
-9755486.69 5135838.18 181.23
-9755483.26 5135837.13 187.84
-9755489.50 5135838.81 185.31
-9755483.53 5135838.07 184.27
-9755482.01 5135833.37 181.36
-9755486.81 5135835.47 186.07
-9755483.60 5135833.87 187.44
-9755490.04 5135837.20 183.72
-9755488.44 5135838.27 185.73
-9755491.54 5135834.86 185.47
-9755485.40 5135838.25 186.63
-9755487.08 5135836.15 186.06
-9755482.20 5135834.45 187.33
-9755485.83 5135835.71 184.70
-9755490.60 5135835.52 186.31
-9755486.72 5135839.03 181.23
-9755487.06 5135835.79 185.99
-9755488.91 5135838.62 187.37
-9755482.20 5135833.71 185.86
-9755489.81 5135839.03 188.10
-9755488.34 5135836.42 186.37
-9755489.98 5135837.94 186.72
-9755490.83 5135837.17 186.30
-9755483.28 5135835.12 183.94
-9755486.13 5135834.87 181.19
-9755482.94 5135837.09 184.67
-9755483.44 5135833.49 184.91
-9755487.64 5135837.75 184.88
-9755486.16 5135834.02 185.09
-9755490.61 5135837.84 185.20
-9755483.27 5135838.45 187.39
-9755486.52 5135837.29 187.12
-9755484.88 5135833.15 188.35
-9755484.51 5135837.66 186.46
-9755487.02 5135837.64 185.00
-9755490.29 5135836.12 185.07
-9755489.69 5135838.28 186.07
-9755483.79 5135834.17 188.12
-9755483.90 5135836.64 185.29
-9755486.55 5135835.55 185.34
-9755490.61 5135834.07 185.88
-9755486.54 5135838.87 185.93
-9755481.77 5135834.89 186.54
-9755490.31 5135834.73 186.28
-9755482.01 5135837.16 185.01
-9755489.39 5135835.50 180.97
-9755490.37 5135838.13 186.64
-9755483.65 5135837.86 186.54
-9755483.23 5135835.05 184.84
-9755486.50 5135838.32 187.21
-9755491.23 5135834.00 186.03
-9755485.96 5135838.98 186.44
-9755489.18 5135835.56 184.82
-9755484.61 5135832.90 186.75
-9755489.77 5135833.27 184.93
-9755489.79 5135838.16 186.66
-9755486.42 5135838.50 186.62
-9755487.22 5135836.44 186.83
-9755490.24 5135838.76 186.87
-9755483.45 5135836.70 187.09
-9755484.04 5135834.25 188.25
-9755487.12 5135836.24 185.13
-9755479.35 5135837.47 181.37
-9755486.57 5135835.35 184.33
-9755486.77 5135836.91 188.34
-9755481.86 5135835.25 186.51
-9755490.90 5135836.00 184.09
-9755486.79 5135836.10 185.46
-9755481.04 5135837.00 185.88
-9755487.61 5135832.90 183.98
-9755480.65 5135833.25 186.13
-9755482.00 5135838.11 181.40
-9755486.11 5135838.03 184.96
-9755480.28 5135833.98 185.90
-9755485.77 5135835.04 184.77
-9755484.37 5135833.07 181.33
-9755489.06 5135839.04 186.16
-9755487.54 5135837.00 188.49
-9755485.13 5135833.33 185.27
-9755486.52 5135836.11 185.52
-9755482.35 5135834.92 184.86
-9755481.67 5135833.11 181.37
-9755484.45 5135835.45 184.17
-9755484.40 5135835.53 184.90
-9755481.78 5135833.05 187.28
-9755489.41 5135836.17 184.97
-9755480.95 5135834.04 188.09
-9755479.37 5135834.55 181.37
-9755486.20 5135838.53 184.97
-9755489.12 5135838.60 185.90
-9755491.23 5135834.42 186.19
-9755483.08 5135833.49 184.23
-9755489.68 5135833.52 184.96
-9755491.15 5135839.04 180.87
-9755483.55 5135833.42 185.72
-9755485.93 5135837.24 183.88
-9755482.87 5135838.98 181.36
-9755491.48 5135837.36 185.85
-9755487.82 5135838.15 183.82
-9755491.17 5135837.28 187.24
-9755490.21 5135836.68 184.65
-9755488.57 5135835.66 184.57
-9755483.20 5135838.99 181.36
-9755482.92 5135835.54 184.87
-9755481.20 5135837.21 186.25
-9755482.04 5135833.11 186.30
-9755490.09 5135837.42 185.22
-9755489.67 5135837.91 184.99
-9755489.33 5135837.35 184.74
-9755487.91 5135838.54 187.07
-9755483.67 5135837.31 185.61
-9755483.54 5135834.86 186.90
-9755488.28 5135836.15 186.54
-9755491.21 5135836.73 186.02
-9755481.94 5135833.07 184.10
-9755489.94 5135837.70 187.47
-9755484.40 5135837.13 186.81
-9755489.78 5135838.81 188.24
-9755488.46 5135835.93 186.77
-9755482.04 5135836.44 184.51
-9755488.83 5135838.34 185.24
-9755485.83 5135838.82 185.50
-9755480.81 5135833.40 186.30
-9755486.19 5135837.71 184.69
-9755489.74 5135837.89 185.99
-9755490.78 5135834.94 186.26
-9755490.60 5135836.41 184.62
-9755481.70 5135835.44 181.38
-9755490.05 5135836.50 185.05
-9755490.84 5135836.40 180.87
-9755483.91 5135838.77 184.93
-9755491.21 5135836.53 185.93
-9755489.95 5135836.42 185.54
-9755485.63 5135837.31 187.09
-9755488.91 5135837.22 184.36
-9755485.28 5135838.10 184.09
-9755482.39 5135837.02 185.00
-9755485.90 5135838.25 184.96
-9755489.69 5135837.09 184.98
-9755489.12 5135838.24 184.98
-9755487.99 5135836.92 186.74
-9755485.06 5135837.05 186.95
-9755484.21 5135833.01 184.11
-9755488.87 5135838.79 186.83
-9755480.91 5135833.12 186.16
-9755487.48 5135838.01 183.40
-9755483.62 5135834.97 185.04
-9755486.98 5135835.88 185.42
-9755488.74 5135837.10 185.22
-9755489.12 5135836.37 180.99
-9755486.06 5135834.41 185.86
-9755490.60 5135836.78 185.64
-9755486.43 5135837.87 186.48
-9755489.52 5135839.01 187.56
-9755490.91 5135838.29 186.75
-9755486.07 5135836.16 184.70
-9755481.40 5135834.31 181.37
-9755481.73 5135838.98 181.37
-9755480.89 5135833.79 186.52
-9755488.22 5135836.65 181.08
-9755482.54 5135833.77 186.25
-9755490.26 5135838.18 184.05
-9755485.85 5135836.93 185.84
-9755489.22 5135837.44 184.18
-9755490.07 5135835.30 185.63
-9755486.44 5135834.70 185.92
-9755489.75 5135838.97 187.89
-9755489.79 5135838.79 185.90
-9755488.46 5135835.52 181.04
-9755487.66 5135835.89 186.35
-9755489.20 5135833.87 184.97
-9755487.10 5135836.59 184.19
-9755490.67 5135833.85 185.94
-9755485.21 5135836.66 181.28
-9755485.87 5135834.29 185.01
-9755482.64 5135834.26 181.35
-9755486.21 5135833.44 186.43
-9755489.33 5135835.03 184.93
-9755489.34 5135837.19 184.41
-9755484.35 5135833.70 188.81
-9755487.05 5135834.82 185.36
-9755486.37 5135838.51 184.97
-9755485.98 5135837.89 184.68
-9755489.13 5135837.97 186.36
-9755486.39 5135836.76 184.96
-9755489.04 5135838.79 187.54
-9755489.66 5135837.29 180.92
-9755490.96 5135837.17 184.33
-9755487.01 5135838.69 183.60
-9755487.13 5135838.81 183.64
-9755484.81 5135834.99 183.98
-9755491.26 5135834.96 186.21
-9755489.07 5135838.84 186.10
-9755483.55 5135834.05 186.75
-9755484.10 5135833.67 187.90
-9755488.56 5135838.17 184.94
-9755484.40 5135837.37 184.40
-9755482.61 5135833.61 186.77
-9755481.70 5135837.61 185.28
-9755481.79 5135834.29 186.26
-9755484.73 5135836.99 184.97
-9755487.42 5135838.54 186.31
-9755479.76 5135833.51 185.20
-9755488.77 5135838.99 183.88
-9755486.51 5135835.84 185.43
-9755490.61 5135835.17 186.14
-9755487.72 5135835.23 186.88
-9755491.02 5135834.50 185.27
-9755487.32 5135833.87 186.31
-9755488.50 5135838.55 183.93
-9755488.55 5135838.51 185.47
-9755488.50 5135838.10 181.06
-9755485.29 5135838.34 187.35
-9755487.43 5135835.45 186.27
-9755486.17 5135836.43 185.28
-9755486.80 5135833.19 186.28
-9755487.06 5135838.24 183.31
-9755490.30 5135838.22 180.87
-9755491.54 5135835.30 185.11
-9755487.96 5135837.42 183.79
-9755482.04 5135833.51 186.26
-9755484.05 5135836.64 181.33
-9755488.60 5135838.80 184.54
-9755489.66 5135838.94 187.82
-9755489.91 5135837.65 184.21
-9755491.05 5135835.12 185.14
-9755483.16 5135836.62 184.64
-9755491.03 5135834.89 185.16
-9755487.40 5135838.82 183.72
-9755491.22 5135837.17 187.31
-9755483.60 5135834.30 186.74
-9755481.64 5135837.35 185.36
-9755486.34 5135838.20 187.52
-9755484.32 5135835.58 185.89
-9755488.83 5135834.17 184.87
-9755485.47 5135838.94 186.84
-9755485.07 5135835.61 186.54
-9755484.82 5135835.86 184.21
-9755486.76 5135836.53 184.01
-9755484.97 5135834.89 181.26
-9755488.74 5135837.07 185.19
-9755490.10 5135838.84 187.16
-9755490.97 5135836.48 185.00
-9755489.92 5135838.12 184.47
-9755488.39 5135836.32 185.29
-9755488.97 5135838.86 188.30
-9755491.35 5135835.81 186.78
-9755482.93 5135836.89 181.37
-9755482.49 5135838.82 184.08
-9755483.20 5135838.81 185.00
-9755481.27 5135834.44 188.21
-9755482.42 5135838.96 185.23
-9755489.71 5135834.16 185.82
-9755489.21 5135837.70 185.29
-9755487.57 5135835.13 186.32
-9755482.95 5135835.11 187.22
-9755487.62 5135835.61 185.39
-9755484.11 5135834.00 181.32
-9755485.58 5135837.55 186.89
-9755489.43 5135838.53 184.46
-9755489.21 5135835.57 185.33
-9755480.27 5135837.48 181.38
-9755483.47 5135837.86 181.37
-9755483.48 5135835.85 184.07
-9755488.88 5135835.63 184.64
-9755485.71 5135833.21 185.64
-9755483.51 5135835.86 185.63
-9755489.40 5135835.93 184.96
-9755486.84 5135834.20 185.10
-9755486.14 5135833.78 185.11
-9755483.68 5135837.28 187.14
-9755490.05 5135835.33 184.92
-9755489.73 5135835.56 185.68
-9755486.76 5135836.46 185.52
-9755485.05 5135837.71 184.81
-9755483.59 5135833.79 186.19
-9755485.07 5135835.00 185.44
-9755485.94 5135837.84 186.47
-9755483.11 5135835.83 183.89
-9755487.42 5135838.96 187.13
-9755485.61 5135839.04 188.06
-9755491.18 5135833.75 185.96
-9755485.40 5135835.95 184.66
-9755480.82 5135839.01 181.39
-9755482.08 5135837.94 184.97
-9755488.18 5135837.75 187.41
-9755490.28 5135835.22 186.48
-9755486.85 5135838.25 186.63
-9755482.49 5135833.68 185.03
-9755483.72 5135838.82 184.85
-9755488.02 5135838.27 187.39
-9755487.65 5135837.76 184.33
-9755483.19 5135836.41 184.95
-9755490.82 5135834.67 186.02
-9755484.25 5135833.62 188.30
-9755487.41 5135834.92 186.55
-9755486.88 5135837.09 187.06
-9755489.40 5135836.81 184.22
-9755489.80 5135834.85 185.63
-9755488.13 5135835.37 185.67
-9755483.31 5135835.59 184.76
-9755479.66 5135833.80 185.69
-9755488.25 5135836.94 186.53
-9755484.32 5135838.73 181.33
-9755487.73 5135835.44 186.90
-9755488.56 5135838.30 186.30
-9755489.06 5135838.78 185.15
-9755483.50 5135836.46 185.50
-9755482.49 5135838.54 185.08
-9755491.20 5135835.90 184.79
-9755487.40 5135837.07 185.11
-9755485.82 5135839.05 188.05
-9755484.26 5135835.49 185.23
-9755485.86 5135838.24 186.73
-9755484.15 5135837.82 181.33
-9755486.23 5135838.97 188.28
-9755483.22 5135837.35 184.55
-9755484.99 5135836.77 184.28
-9755490.30 5135836.13 185.83
-9755490.82 5135838.78 180.87
-9755491.25 5135837.45 184.32
-9755486.78 5135836.06 187.19
-9755482.92 5135838.57 184.98
-9755485.12 5135834.33 185.68
-9755489.09 5135836.77 185.45
-9755490.60 5135834.32 180.88
-9755488.83 5135838.40 187.71
-9755485.36 5135836.04 187.43
-9755487.31 5135837.36 187.57
-9755484.86 5135837.57 186.22
-9755488.87 5135833.50 184.99
-9755487.77 5135834.61 186.83
-9755490.93 5135837.52 186.41
-9755489.94 5135834.91 185.54
-9755479.79 5135833.22 185.45
-9755490.61 5135838.47 186.89
-9755480.56 5135838.95 181.39
-9755489.92 5135837.27 184.17
-9755483.57 5135833.20 186.32
-9755490.31 5135837.62 186.87
-9755477.07 5135833.09 181.31
-9755478.50 5135834.85 181.36
-9755477.90 5135838.96 181.34
-9755477.30 5135837.48 181.32
-9755478.49 5135835.43 181.36
-9755478.16 5135836.60 181.35
-9755478.19 5135833.05 181.34
-9755476.33 5135838.98 181.21
-9755477.61 5135835.10 181.35
-9755471.98 5135835.07 181.18
-9755474.62 5135835.10 181.20
-9755474.59 5135837.14 181.20
-9755473.44 5135836.57 181.20
-9755474.65 5135837.49 181.20
-9755470.51 5135836.55 181.19
-9755472.63 5135832.76 181.18
-9755475.28 5135833.64 181.19
-9755472.01 5135836.60 181.20
-9755476.72 5135834.26 181.23
-9755474.09 5135833.98 181.19
-9755476.18 5135833.62 181.20
-9755471.09 5135835.10 181.17
-9755476.72 5135836.00 181.22
-9755471.07 5135834.23 181.16
-9755468.74 5135838.31 181.20
-9755471.48 5135834.22 181.17
-9755475.83 5135833.06 181.20
-9755470.55 5135835.07 181.17
-9755473.77 5135838.99 181.21
-9755472.83 5135836.29 181.18
-9755468.73 5135835.98 181.17
-9755473.47 5135834.75 181.17
-9755475.26 5135836.55 181.19
-9755474.07 5135835.74 181.19
-9755468.71 5135838.92 181.20
-9755471.39 5135838.37 181.22
-9755469.07 5135838.94 181.20
-9755467.85 5135837.45 181.19
-9755470.19 5135833.34 181.15
-9755493.28 5135818.38 180.85
-9755492.45 5135815.97 180.86
-9755493.34 5135815.07 180.83
-9755492.72 5135818.27 180.86
-9755492.45 5135816.25 180.86
-9755496.56 5135816.93 180.72
-9755497.14 5135819.30 180.73
-9755494.53 5135816.00 180.65
-9755495.74 5135815.94 180.69
-9755496.54 5135818.64 180.72
-9755491.81 5135818.08 180.87
-9755493.63 5135816.89 180.84
-9755492.45 5135818.97 180.86
-9755493.35 5135819.28 180.84
-9755492.43 5135819.18 180.86
-9755496.01 5135814.53 180.71
-9755491.87 5135814.84 180.84
-9755484.23 5135815.47 182.97
-9755483.91 5135815.30 182.91
-9755483.62 5135815.35 182.97
-9755485.07 5135814.35 183.66
-9755485.43 5135816.04 184.16
-9755484.72 5135815.29 183.56
-9755484.57 5135815.81 183.30
-9755483.36 5135814.36 183.82
-9755485.46 5135815.83 184.07
-9755484.57 5135814.61 182.72
-9755483.99 5135815.21 183.33
-9755483.00 5135819.15 181.37
-9755485.30 5135815.01 183.62
-9755484.52 5135814.37 183.72
-9755483.00 5135815.89 181.41
-9755485.93 5135817.21 183.80
-9755480.37 5135814.74 181.41
-9755484.85 5135814.56 184.02
-9755485.43 5135816.13 183.21
-9755485.78 5135815.48 183.66
-9755487.75 5135814.50 181.09
-9755483.47 5135815.53 182.98
-9755485.10 5135814.52 182.34
-9755485.40 5135814.73 183.03
-9755481.55 5135818.55 181.41
-9755478.55 5135816.79 181.37
-9755485.11 5135814.88 183.41
-9755479.49 5135817.66 181.40
-9755486.35 5135816.00 184.16
-9755485.66 5135816.67 183.45
-9755485.13 5135815.07 184.24
-9755485.16 5135814.62 183.79
-9755484.50 5135815.50 183.65
-9755484.48 5135816.12 183.33
-9755484.47 5135815.25 182.36
-9755484.37 5135814.63 181.69
-9755485.09 5135816.05 183.99
-9755482.68 5135815.44 183.39
-9755489.19 5135814.48 180.94
-9755483.56 5135814.54 183.97
-9755490.68 5135819.22 180.88
-9755483.02 5135815.75 183.85
-9755485.41 5135815.47 184.36
-9755479.53 5135814.67 181.37
-9755485.39 5135814.49 181.23
-9755486.02 5135814.39 182.42
-9755486.05 5135814.95 184.03
-9755488.60 5135816.56 181.01
-9755491.56 5135819.22 180.87
-9755485.38 5135816.93 183.57
-9755487.15 5135816.11 183.63
-9755489.20 5135815.65 180.95
-9755486.01 5135814.64 184.01
-9755486.01 5135815.18 183.89
-9755486.27 5135815.22 184.40
-9755489.21 5135817.44 180.96
-9755487.16 5135816.85 181.15
-9755480.80 5135818.36 181.95
-9755485.71 5135816.79 183.69
-9755485.98 5135815.66 184.53
-9755490.11 5135815.12 180.89
-9755484.18 5135814.57 184.07
-9755484.23 5135814.51 181.34
-9755484.94 5135815.01 182.27
-9755483.61 5135818.27 181.35
-9755483.32 5135814.74 181.39
-9755483.72 5135814.96 181.72
-9755488.61 5135819.25 180.98
-9755485.82 5135814.37 182.94
-9755485.15 5135814.98 182.39
-9755488.62 5135818.37 181.01
-9755479.13 5135816.15 181.39
-9755479.79 5135815.89 181.40
-9755483.97 5135814.56 184.00
-9755485.74 5135814.95 182.97
-9755484.80 5135816.11 183.95
-9755486.61 5135817.00 183.74
-9755482.17 5135814.44 181.41
-9755486.32 5135816.09 183.78
-9755485.74 5135815.83 183.90
-9755483.62 5135816.83 181.34
-9755481.82 5135818.26 181.41
-9755490.08 5135815.36 180.89
-9755482.98 5135816.67 183.67
-9755485.65 5135817.26 183.73
-9755490.06 5135817.68 180.88
-9755483.40 5135814.61 183.62
-9755490.68 5135818.33 180.88
-9755481.00 5135818.37 181.94
-9755480.37 5135817.68 181.40
-9755480.34 5135819.43 181.41
-9755485.95 5135817.72 181.20
-9755482.41 5135817.05 181.38
-9755483.33 5135815.79 183.48
-9755481.27 5135814.46 181.41
-9755477.40 5135819.10 181.34
-9755477.66 5135817.33 181.35
-9755477.73 5135814.73 181.35
-9755478.32 5135814.38 181.37
-9755489.46 5135832.85 184.97
-9755495.07 5135819.83 180.69
-9755493.56 5135831.35 180.85
-9755495.02 5135825.43 180.69
-9755493.27 5135823.71 180.87
-9755491.79 5135828.67 180.87
-9755491.81 5135828.43 180.88
-9755492.38 5135825.78 180.87
-9755495.27 5135829.93 180.69
-9755493.25 5135832.00 180.85
-9755496.55 5135821.96 180.73
-9755494.20 5135824.30 180.70
-9755494.48 5135824.31 180.70
-9755496.82 5135819.88 180.73
-9755493.28 5135821.55 180.85
-9755493.26 5135827.25 180.86
-9755491.84 5135829.57 180.87
-9755493.24 5135830.21 180.87
-9755496.74 5135832.85 180.73
-9755496.53 5135823.40 180.74
-9755492.71 5135823.96 180.86
-9755495.69 5135820.72 180.71
-9755496.48 5135829.90 180.71
-9755495.95 5135829.02 180.71
-9755494.99 5135831.97 180.68
-9755495.69 5135823.10 180.72
-9755492.15 5135821.03 180.86
-9755494.18 5135829.31 180.75
-9755496.53 5135822.83 180.74
-9755493.89 5135829.30 180.85
-9755495.02 5135831.11 180.66
-9755494.51 5135820.76 180.68
-9755497.12 5135821.67 180.74
-9755497.17 5135820.20 180.74
-9755496.26 5135822.51 180.74
-9755493.30 5135822.80 180.86
-9755492.40 5135823.95 180.86
-9755496.49 5135824.01 180.74
-9755495.34 5135824.05 180.71
-9755492.67 5135830.22 180.87
-9755494.81 5135820.99 180.69
-9755496.54 5135824.92 180.72
-9755496.22 5135826.06 180.70
-9755479.22 5135819.47 181.38
-9755484.56 5135827.52 187.44
-9755489.07 5135831.76 185.47
-9755480.38 5135827.60 184.53
-9755490.87 5135830.50 180.88
-9755486.76 5135828.86 188.10
-9755488.26 5135823.75 184.47
-9755486.86 5135823.17 184.40
-9755483.98 5135827.44 188.66
-9755483.25 5135824.95 185.51
-9755487.37 5135829.30 185.72
-9755484.22 5135832.54 186.64
-9755483.54 5135827.57 186.02
-9755484.98 5135831.57 188.43
-9755486.77 5135821.22 183.24
-9755479.57 5135832.16 186.07
-9755481.32 5135832.37 186.69
-9755480.62 5135829.65 185.11
-9755479.93 5135828.98 185.02
-9755486.78 5135821.43 183.30
-9755479.95 5135828.94 181.37
-9755489.18 5135824.15 184.42
-9755483.52 5135828.29 188.97
-9755480.69 5135828.99 185.12
-9755489.50 5135824.68 184.12
-9755483.54 5135831.71 186.51
-9755488.54 5135824.41 184.33
-9755485.85 5135831.89 187.91
-9755485.55 5135828.39 187.46
-9755481.81 5135832.32 186.14
-9755484.79 5135832.53 188.14
-9755480.11 5135830.18 185.54
-9755488.04 5135822.34 183.12
-9755485.15 5135830.05 185.72
-9755480.81 5135829.10 185.22
-9755486.51 5135822.01 183.47
-9755487.41 5135822.62 183.68
-9755481.75 5135829.47 186.63
-9755484.69 5135829.07 187.53
-9755486.40 5135828.48 183.95
-9755480.01 5135829.67 185.84
-9755485.93 5135830.85 185.05
-9755482.99 5135828.46 186.76
-9755481.10 5135827.82 185.98
-9755486.23 5135828.87 186.60
-9755489.16 5135829.67 185.76
-9755485.60 5135828.35 181.26
-9755482.90 5135832.40 187.92
-9755482.38 5135827.48 187.89
-9755485.92 5135827.43 181.22
-9755487.07 5135825.04 184.22
-9755489.76 5135824.67 184.07
-9755487.59 5135830.29 186.21
-9755480.99 5135829.20 187.75
-9755482.35 5135829.85 185.93
-9755482.61 5135827.71 183.83
-9755485.40 5135830.82 184.46
-9755487.44 5135824.93 181.11
-9755488.88 5135828.77 185.80
-9755485.30 5135825.39 181.26
-9755487.96 5135828.57 187.42
-9755489.78 5135823.42 183.65
-9755488.87 5135830.04 184.40
-9755486.70 5135830.50 184.62
-9755479.46 5135824.46 181.38
-9755481.80 5135826.42 185.37
-9755485.36 5135823.11 181.27
-9755487.07 5135832.51 185.48
-9755488.92 5135824.94 183.15
-9755482.99 5135824.30 185.78
-9755488.18 5135826.87 183.74
-9755485.33 5135823.49 184.04
-9755481.80 5135825.49 186.24
-9755481.02 5135829.66 183.40
-9755482.56 5135827.54 185.27
-9755485.84 5135827.50 185.85
-9755488.28 5135829.86 184.33
-9755486.75 5135822.59 184.01
-9755480.81 5135829.50 183.41
-9755479.98 5135831.59 185.52
-9755482.63 5135825.89 187.21
-9755481.91 5135831.64 186.82
-9755484.51 5135828.25 185.05
-9755483.25 5135827.45 181.36
-9755485.65 5135825.86 184.62
-9755482.00 5135828.85 184.62
-9755483.52 5135831.27 181.39
-9755483.21 5135830.62 187.98
-9755486.48 5135826.73 185.13
-9755485.59 5135832.20 188.42
-9755484.07 5135829.77 188.38
-9755481.97 5135825.27 185.37
-9755486.71 5135832.19 185.88
-9755481.73 5135828.63 186.53
-9755481.48 5135829.04 184.99
-9755489.72 5135831.38 185.04
-9755485.85 5135830.66 187.43
-9755484.82 5135831.10 185.90
-9755486.44 5135825.06 185.56
-9755485.93 5135828.41 185.11
-9755490.09 5135823.80 184.11
-9755483.55 5135828.60 181.40
-9755486.34 5135827.43 185.98
-9755490.04 5135826.92 180.91
-9755482.16 5135829.01 184.17
-9755485.65 5135822.08 183.54
-9755480.28 5135828.00 181.38
-9755485.07 5135826.52 188.52
-9755480.34 5135832.07 183.88
-9755480.03 5135832.03 186.35
-9755483.69 5135832.19 186.17
-9755482.71 5135831.95 188.05
-9755485.13 5135826.00 188.13
-9755482.45 5135826.34 187.35
-9755488.23 5135830.62 184.02
-9755484.23 5135829.51 186.87
-9755486.10 5135824.41 183.09
-9755479.94 5135831.14 185.56
-9755480.39 5135831.94 187.49
-9755487.49 5135827.84 186.00
-9755487.76 5135822.46 182.77
-9755487.89 5135831.14 186.25
-9755483.49 5135828.77 184.05
-9755486.32 5135825.66 183.48
-9755481.15 5135825.11 186.31
-9755487.99 5135828.34 186.64
-9755486.47 5135823.46 182.63
-9755487.76 5135828.48 186.04
-9755487.70 5135828.49 186.93
-9755484.17 5135830.07 188.01
-9755481.68 5135828.76 184.97
-9755485.37 5135822.72 181.27
-9755481.19 5135832.47 185.49
-9755486.03 5135832.43 183.41
-9755486.33 5135830.14 186.85
-9755484.05 5135827.71 188.56
-9755485.56 5135830.01 185.82
-9755485.95 5135830.59 184.47
-9755481.50 5135829.87 187.64
-9755484.44 5135827.30 184.24
-9755480.06 5135829.55 186.39
-9755481.30 5135826.36 185.74
-9755481.19 5135830.76 186.66
-9755481.17 5135832.45 181.38
-9755480.03 5135830.75 185.22
-9755488.32 5135822.35 184.70
-9755484.44 5135830.75 186.35
-9755486.56 5135822.47 181.20
-9755482.71 5135830.11 186.58
-9755481.56 5135829.56 186.25
-9755482.53 5135830.00 187.86
-9755485.03 5135828.88 187.54
-9755486.25 5135831.03 181.18
-9755483.07 5135826.80 187.06
-9755490.30 5135823.53 183.49
-9755479.44 5135828.03 185.56
-9755486.00 5135830.42 183.47
-9755482.34 5135827.68 183.87
-9755485.24 5135829.08 184.33
-9755481.92 5135828.73 184.17
-9755485.16 5135827.35 184.09
-9755487.11 5135830.01 185.44
-9755484.77 5135826.96 187.39
-9755488.42 5135831.48 184.18
-9755485.65 5135824.15 183.31
-9755489.53 5135824.08 184.01
-9755482.23 5135828.22 183.70
-9755484.80 5135826.68 184.71
-9755485.23 5135829.79 187.38
-9755487.43 5135828.50 183.61
-9755486.62 5135823.57 183.78
-9755488.32 5135824.84 183.58
-9755487.09 5135828.58 186.67
-9755483.31 5135820.05 181.33
-9755483.47 5135829.77 183.81
-9755487.07 5135823.38 181.14
-9755485.93 5135828.01 187.39
-9755487.53 5135821.64 183.30
-9755483.51 5135828.09 187.35
-9755484.58 5135829.29 187.02
-9755490.90 5135825.75 180.90
-9755482.63 5135831.74 184.82
-9755480.59 5135827.57 186.12
-9755490.96 5135828.97 180.90
-9755483.54 5135830.39 187.06
-9755485.87 5135825.77 183.68
-9755483.22 5135829.38 185.11
-9755483.07 5135829.19 186.75
-9755488.02 5135830.83 185.71
-9755480.69 5135827.72 185.86
-9755488.86 5135827.91 185.08
-9755483.56 5135829.86 186.79
-9755480.91 5135831.58 187.14
-9755485.13 5135831.20 186.47
-9755485.37 5135822.65 183.90
-9755483.91 5135828.40 186.08
-9755482.09 5135828.09 185.00
-9755482.88 5135829.25 187.28
-9755485.94 5135824.99 183.32
-9755488.83 5135827.87 186.77
-9755482.35 5135830.89 181.42
-9755485.35 5135832.19 188.45
-9755485.36 5135828.68 186.52
-9755481.49 5135830.02 185.34
-9755487.65 5135830.96 184.54
-9755488.60 5135821.13 184.14
-9755481.23 5135826.93 185.23
-9755483.47 5135831.69 186.47
-9755485.29 5135828.50 185.59
-9755489.53 5135822.64 184.30
-9755480.09 5135827.83 186.16
-9755480.31 5135829.66 186.21
-9755482.15 5135825.67 181.39
-9755488.04 5135821.07 183.66
-9755487.74 5135824.00 181.07
-9755482.04 5135826.61 181.37
-9755488.53 5135825.28 183.71
-9755487.07 5135832.52 185.52
-9755480.48 5135830.05 181.40
-9755481.31 5135830.84 187.16
-9755487.71 5135825.66 181.05
-9755485.87 5135821.99 183.05
-9755482.36 5135830.05 187.65
-9755481.16 5135831.31 186.52
-9755481.76 5135827.92 188.03
-9755485.86 5135828.98 187.00
-9755482.45 5135832.16 186.50
-9755486.57 5135821.49 183.22
-9755486.56 5135824.08 184.40
-9755482.41 5135829.85 185.20
-9755482.99 5135827.44 181.36
-9755483.04 5135830.93 189.13
-9755481.12 5135830.22 186.44
-9755481.81 5135830.80 184.14
-9755491.20 5135825.12 180.89
-9755480.02 5135828.11 185.83
-9755485.32 5135826.58 181.28
-9755486.16 5135830.60 186.78
-9755482.63 5135832.50 186.86
-9755487.15 5135830.40 184.20
-9755483.55 5135828.67 186.69
-9755481.46 5135828.56 187.47
-9755486.21 5135826.76 184.47
-9755485.86 5135822.46 181.26
-9755480.70 5135828.21 184.49
-9755488.89 5135830.59 184.89
-9755481.78 5135826.15 186.33
-9755481.08 5135830.99 187.63
-9755483.31 5135826.01 185.21
-9755484.71 5135832.29 187.45
-9755485.97 5135830.52 186.31
-9755480.30 5135832.19 186.69
-9755479.07 5135829.19 181.36
-9755487.35 5135825.64 183.21
-9755486.94 5135823.47 183.13
-9755489.13 5135829.09 184.49
-9755487.14 5135827.56 186.23
-9755486.55 5135821.67 183.33
-9755481.31 5135826.95 184.08
-9755480.24 5135828.53 184.32
-9755487.63 5135830.54 185.30
-9755480.96 5135829.40 185.38
-9755484.81 5135827.61 188.80
-9755486.87 5135829.49 186.72
-9755486.19 5135823.19 182.74
-9755483.00 5135830.60 183.99
-9755484.20 5135828.65 187.50
-9755481.77 5135827.06 181.38
-9755484.53 5135825.88 184.61
-9755482.42 5135826.59 181.36
-9755486.78 5135824.96 185.18
-9755485.82 5135829.53 184.93
-9755485.31 5135823.85 181.27
-9755482.95 5135828.27 187.51
-9755484.78 5135828.36 187.74
-9755488.96 5135821.68 183.77
-9755486.44 5135828.18 184.85
-9755488.87 5135825.35 182.55
-9755484.51 5135828.95 188.09
-9755483.19 5135831.06 181.40
-9755488.68 5135829.18 184.28
-9755480.92 5135832.33 186.89
-9755482.97 5135825.74 185.94
-9755489.21 5135824.57 184.49
-9755485.29 5135832.18 187.82
-9755481.37 5135832.33 186.07
-9755481.16 5135827.23 185.69
-9755483.62 5135825.90 187.80
-9755487.37 5135820.68 183.47
-9755484.79 5135831.90 188.81
-9755484.14 5135828.88 185.19
-9755488.22 5135824.37 183.92
-9755483.87 5135825.66 187.29
-9755483.00 5135820.94 181.39
-9755488.32 5135821.54 182.79
-9755484.01 5135830.13 188.76
-9755481.10 5135831.97 186.48
-9755480.58 5135828.28 181.36
-9755480.37 5135827.59 185.33
-9755488.99 5135828.56 184.79
-9755482.62 5135828.13 187.14
-9755484.18 5135830.11 185.49
-9755484.43 5135828.79 183.80
-9755488.35 5135823.69 183.84
-9755485.25 5135831.07 185.12
-9755488.56 5135830.81 186.58
-9755488.57 5135828.44 186.21
-9755480.94 5135827.49 181.39
-9755482.82 5135831.97 186.54
-9755481.70 5135828.84 184.79
-9755487.19 5135822.99 183.34
-9755482.78 5135828.06 186.49
-9755487.74 5135821.16 184.18
-9755482.06 5135831.67 185.87
-9755490.36 5135826.95 180.91
-9755488.95 5135830.32 185.93
-9755485.42 5135830.71 187.42
-9755488.25 5135828.46 183.71
-9755484.59 5135828.21 187.46
-9755487.68 5135828.98 181.08
-9755480.42 5135829.97 184.90
-9755485.09 5135829.90 187.82
-9755482.48 5135828.23 188.68
-9755488.68 5135824.21 181.01
-9755490.26 5135831.63 180.90
-9755480.67 5135829.27 184.02
-9755488.95 5135824.65 183.52
-9755480.71 5135828.40 186.20
-9755481.17 5135824.16 181.41
-9755480.01 5135832.49 181.39
-9755483.24 5135827.83 188.18
-9755486.22 5135828.41 185.72
-9755483.71 5135832.47 188.20
-9755483.36 5135826.70 183.98
-9755487.15 5135823.20 183.33
-9755480.37 5135832.47 186.42
-9755483.83 5135831.68 187.24
-9755482.65 5135829.26 186.45
-9755480.04 5135824.45 181.39
-9755486.39 5135827.94 185.74
-9755482.68 5135825.46 185.43
-9755487.59 5135832.42 183.37
-9755483.53 5135830.01 186.03
-9755487.46 5135830.05 183.86
-9755488.58 5135825.13 183.62
-9755483.53 5135829.06 183.85
-9755484.08 5135827.53 185.92
-9755480.84 5135832.47 186.34
-9755482.12 5135828.40 181.40
-9755481.52 5135827.57 185.29
-9755479.44 5135825.37 181.38
-9755482.97 5135826.84 181.36
-9755479.47 5135828.93 181.37
-9755482.11 5135831.01 185.79
-9755479.49 5135827.68 185.22
-9755483.30 5135827.90 186.38
-9755483.51 5135832.20 181.38
-9755487.63 5135829.34 187.25
-9755485.91 5135826.25 181.20
-9755482.97 5135827.39 187.43
-9755485.87 5135831.92 181.24
-9755483.57 5135827.37 184.35
-9755480.70 5135832.34 184.48
-9755483.33 5135825.45 185.33
-9755485.22 5135826.50 188.01
-9755487.36 5135824.36 184.63
-9755485.83 5135831.31 181.25
-9755487.14 5135820.95 183.44
-9755481.44 5135827.73 181.41
-9755483.78 5135825.04 185.98
-9755489.19 5135823.93 184.60
-9755489.42 5135832.55 180.94
-9755483.20 5135829.15 184.26
-9755488.57 5135821.73 182.79
-9755487.59 5135823.83 182.72
-9755484.07 5135827.76 185.94
-9755481.74 5135829.03 187.35
-9755481.00 5135828.61 188.10
-9755482.12 5135826.89 185.21
-9755484.44 5135832.10 188.14
-9755483.77 5135827.05 187.66
-9755483.63 5135831.90 188.17
-9755486.87 5135826.95 186.11
-9755487.31 5135824.39 182.98
-9755486.01 5135824.49 183.57
-9755488.87 5135821.12 184.18
-9755483.96 5135826.62 186.91
-9755482.06 5135832.18 187.25
-9755484.76 5135830.87 183.51
-9755484.34 5135826.57 187.12
-9755483.63 5135827.96 189.28
-9755483.94 5135825.94 187.55
-9755481.17 5135830.46 186.30
-9755489.12 5135828.93 180.98
-9755480.31 5135831.34 185.61
-9755479.53 5135830.84 185.99
-9755488.35 5135825.54 183.63
-9755487.51 5135821.98 184.49
-9755485.22 5135831.59 187.51
-9755482.26 5135830.77 185.82
-9755480.07 5135831.84 186.19
-9755480.80 5135829.04 184.04
-9755487.23 5135824.96 183.53
-9755484.46 5135822.74 181.34
-9755485.01 5135826.80 181.30
-9755486.16 5135831.97 188.46
-9755485.95 5135826.50 184.40
-9755480.65 5135825.82 184.57
-9755481.26 5135828.93 186.76
-9755485.35 5135821.57 181.29
-9755480.99 5135828.83 187.36
-9755482.38 5135826.64 187.69
-9755480.32 5135831.04 186.65
-9755486.27 5135822.64 184.74
-9755484.23 5135830.55 188.82
-9755487.15 5135829.22 185.14
-9755487.48 5135823.22 184.58
-9755489.67 5135830.66 183.70
-9755482.89 5135826.84 185.07
-9755482.50 5135827.82 184.33
-9755480.87 5135832.54 184.59
-9755480.93 5135830.51 184.25
-9755485.77 5135823.67 183.55
-9755485.94 5135831.06 185.91
-9755482.70 5135821.23 181.40
-9755487.25 5135830.16 185.82
-9755483.81 5135827.34 185.16
-9755486.52 5135832.29 187.09
-9755483.34 5135830.68 186.02
-9755490.33 5135823.76 183.47
-9755484.46 5135831.95 184.54
-9755487.12 5135828.60 188.24
-9755482.62 5135827.54 186.91
-9755483.18 5135828.23 187.72
-9755483.52 5135829.20 186.51
-9755487.74 5135822.29 184.02
-9755483.77 5135829.41 187.52
-9755482.13 5135825.80 185.94
-9755479.73 5135827.27 186.77
-9755484.77 5135823.62 181.30
-9755486.45 5135825.34 183.18
-9755486.48 5135827.64 184.61
-9755483.87 5135827.44 181.34
-9755480.29 5135829.75 181.40
-9755487.43 5135823.64 184.32
-9755483.61 5135830.96 188.29
-9755488.26 5135824.78 183.00
-9755486.67 5135822.94 184.41
-9755485.67 5135831.95 188.44
-9755487.60 5135830.38 184.21
-9755483.78 5135832.41 183.86
-9755486.92 5135823.81 182.70
-9755482.35 5135830.90 186.21
-9755489.20 5135823.11 183.55
-9755483.97 5135827.50 186.21
-9755483.43 5135824.06 186.45
-9755479.16 5135824.46 181.38
-9755482.29 5135828.27 185.01
-9755486.16 5135823.41 183.60
-9755481.86 5135831.46 187.53
-9755479.81 5135828.39 184.97
-9755483.94 5135830.72 187.39
-9755487.50 5135822.08 184.00
-9755488.90 5135825.03 183.89
-9755482.02 5135831.00 186.63
-9755484.27 5135830.76 184.92
-9755482.67 5135825.53 184.35
-9755480.04 5135827.53 184.89
-9755479.43 5135827.89 185.31
-9755482.74 5135824.94 185.85
-9755480.04 5135830.70 181.38
-9755484.93 5135827.00 186.00
-9755479.24 5135827.86 185.46
-9755486.85 5135826.46 186.12
-9755483.76 5135827.11 185.34
-9755482.98 5135828.03 187.55
-9755486.84 5135822.68 181.13
-9755483.33 5135828.60 187.09
-9755483.94 5135831.57 185.89
-9755485.85 5135828.89 187.29
-9755485.72 5135827.86 184.59
-9755486.20 5135831.12 184.95
-9755487.53 5135829.48 184.24
-9755480.33 5135829.15 181.38
-9755488.54 5135831.65 181.01
-9755487.35 5135829.22 185.15
-9755485.94 5135824.22 183.06
-9755485.08 5135831.22 188.80
-9755481.25 5135830.82 187.36
-9755484.75 5135827.26 186.00
-9755482.27 5135824.91 186.68
-9755480.64 5135823.28 181.42
-9755488.38 5135830.24 184.66
-9755487.02 5135824.81 183.21
-9755481.12 5135827.26 183.97
-9755486.81 5135820.62 183.83
-9755487.78 5135828.74 185.08
-9755488.24 5135824.15 182.81
-9755482.66 5135831.45 188.25
-9755481.53 5135830.15 187.42
-9755482.54 5135830.22 185.60
-9755482.90 5135830.64 188.74
-9755482.44 5135830.52 185.15
-9755482.63 5135831.99 187.22
-9755481.64 5135830.74 186.79
-9755480.33 5135831.78 185.85
-9755488.27 5135824.44 184.50
-9755485.60 5135821.57 181.27
-9755487.76 5135825.02 183.25
-9755481.74 5135825.06 181.41
-9755486.18 5135829.48 187.62
-9755488.07 5135831.06 186.49
-9755486.19 5135825.71 183.40
-9755482.64 5135828.64 181.40
-9755489.21 5135825.00 184.52
-9755484.73 5135821.82 181.31
-9755480.27 5135827.07 184.62
-9755489.86 5135821.67 184.34
-9755480.64 5135825.96 181.39
-9755484.13 5135831.30 187.72
-9755488.24 5135832.09 185.21
-9755487.23 5135822.03 184.15
-9755488.58 5135822.62 183.59
-9755483.29 5135828.35 185.65
-9755481.81 5135824.77 181.41
-9755480.63 5135826.01 183.96
-9755487.78 5135830.88 185.66
-9755486.87 5135828.62 185.87
-9755484.31 5135829.88 184.81
-9755488.21 5135826.00 182.69
-9755484.55 5135831.92 188.80
-9755487.31 5135822.93 182.65
-9755490.09 5135822.45 180.89
-9755486.76 5135829.13 185.47
-9755481.71 5135826.68 186.00
-9755485.45 5135822.33 184.15
-9755484.38 5135829.73 185.34
-9755482.19 5135824.87 186.21
-9755488.61 5135821.43 183.99
-9755479.76 5135828.99 186.11
-9755479.81 5135826.44 184.86
-9755482.98 5135820.04 181.35
-9755480.04 5135821.49 181.40
-9755486.78 5135825.82 185.27
-9755486.58 5135825.43 183.46
-9755485.93 5135830.72 188.85
-9755484.35 5135829.69 187.95
-9755480.96 5135830.73 187.59
-9755485.00 5135831.11 185.12
-9755483.85 5135828.02 185.94
-9755485.94 5135823.20 183.56
-9755484.02 5135826.58 187.60
-9755484.25 5135826.25 186.61
-9755478.56 5135822.43 181.38
-9755483.91 5135828.59 188.56
-9755488.16 5135829.20 184.37
-9755488.60 5135823.70 183.95
-9755482.06 5135830.02 181.41
-9755486.06 5135824.98 185.33
-9755480.31 5135829.12 183.66
-9755486.96 5135828.46 187.11
-9755484.53 5135832.22 186.90
-9755484.12 5135830.53 183.26
-9755481.67 5135828.72 185.04
-9755480.81 5135831.21 186.99
-9755479.59 5135827.76 186.43
-9755488.88 5135824.08 183.34
-9755484.00 5135832.47 187.66
-9755487.64 5135831.36 186.37
-9755483.37 5135830.45 186.87
-9755489.80 5135824.32 184.11
-9755488.26 5135825.48 183.22
-9755485.02 5135827.86 185.58
-9755481.31 5135829.54 187.24
-9755484.24 5135830.79 186.28
-9755489.49 5135825.14 183.36
-9755486.78 5135826.26 181.16
-9755481.37 5135828.27 187.74
-9755482.43 5135828.43 184.65
-9755490.05 5135826.05 180.91
-9755480.91 5135827.48 185.69
-9755488.93 5135823.14 184.29
-9755487.65 5135831.90 181.08
-9755480.05 5135831.23 187.70
-9755483.04 5135828.56 188.07
-9755487.07 5135824.36 184.29
-9755482.61 5135829.33 184.35
-9755489.53 5135823.19 183.67
-9755481.74 5135826.96 184.11
-9755481.09 5135831.65 186.06
-9755488.65 5135825.78 183.01
-9755487.32 5135824.65 183.10
-9755482.34 5135826.68 185.33
-9755483.39 5135825.93 184.61
-9755484.54 5135831.17 186.57
-9755481.83 5135830.42 181.40
-9755486.61 5135823.36 181.17
-9755489.13 5135822.06 184.61
-9755489.19 5135824.35 184.43
-9755480.57 5135826.92 186.03
-9755486.69 5135827.58 183.75
-9755489.71 5135830.76 180.93
-9755483.28 5135823.89 181.36
-9755485.66 5135822.23 183.88
-9755485.57 5135826.74 184.40
-9755483.27 5135826.85 181.34
-9755484.69 5135826.09 184.56
-9755479.46 5135822.40 181.38
-9755486.75 5135826.02 181.16
-9755483.92 5135824.94 185.70
-9755483.25 5135831.68 184.03
-9755482.97 5135826.55 185.36
-9755483.02 5135831.91 187.38
-9755485.56 5135826.56 184.53
-9755483.84 5135828.40 185.19
-9755489.17 5135824.35 183.18
-9755481.51 5135825.07 181.42
-9755483.97 5135830.19 187.14
-9755489.18 5135830.00 185.27
-9755488.33 5135823.17 180.99
-9755480.83 5135828.68 187.03
-9755481.28 5135828.31 188.20
-9755484.86 5135828.42 185.02
-9755484.50 5135832.10 187.39
-9755480.67 5135826.16 185.48
-9755481.47 5135832.50 187.78
-9755485.31 5135824.27 181.25
-9755487.12 5135828.98 186.79
-9755488.00 5135825.24 183.22
-9755487.65 5135829.99 184.82
-9755482.12 5135827.89 188.27
-9755484.20 5135828.55 185.53
-9755488.42 5135830.21 185.48
-9755482.68 5135828.37 188.00
-9755486.53 5135823.11 181.17
-9755485.55 5135829.47 186.90
-9755481.78 5135832.18 187.44
-9755487.44 5135821.43 184.13
-9755479.49 5135827.73 185.04
-9755480.70 5135826.88 186.41
-9755480.45 5135826.82 183.94
-9755479.56 5135832.26 186.48
-9755479.08 5135829.83 181.36
-9755486.48 5135832.43 183.41
-9755489.45 5135824.87 180.94
-9755489.20 5135820.85 184.29
-9755485.01 5135830.05 187.32
-9755485.98 5135825.29 184.90
-9755482.32 5135825.85 184.93
-9755486.60 5135826.07 185.21
-9755486.56 5135824.91 185.20
-9755483.83 5135827.54 185.16
-9755485.62 5135831.12 185.12
-9755480.54 5135829.32 183.65
-9755488.16 5135828.54 185.15
-9755485.96 5135828.19 185.72
-9755487.24 5135828.33 183.52
-9755482.91 5135829.69 185.73
-9755485.96 5135825.50 184.89
-9755482.56 5135826.98 185.57
-9755487.64 5135828.82 185.68
-9755488.39 5135824.07 183.99
-9755483.07 5135828.67 186.76
-9755481.82 5135832.08 186.16
-9755488.88 5135821.84 184.68
-9755485.58 5135823.23 183.51
-9755486.24 5135828.25 183.84
-9755479.97 5135829.13 183.74
-9755483.38 5135827.66 184.79
-9755481.39 5135832.22 186.35
-9755489.44 5135827.82 180.96
-9755480.13 5135832.45 184.86
-9755489.20 5135822.67 184.26
-9755483.26 5135830.59 188.80
-9755487.46 5135829.84 183.84
-9755482.19 5135829.21 187.42
-9755487.68 5135821.73 183.80
-9755483.01 5135830.26 183.58
-9755483.71 5135828.40 186.80
-9755484.77 5135826.52 188.88
-9755484.47 5135827.51 181.31
-9755482.15 5135828.40 184.72
-9755486.48 5135831.78 187.42
-9755487.46 5135824.37 183.04
-9755486.21 5135822.18 183.15
-9755489.24 5135831.71 185.61
-9755484.46 5135825.41 181.32
-9755486.18 5135832.18 188.46
-9755489.18 5135821.46 183.69
-9755484.44 5135828.14 188.72
-9755491.25 5135821.04 180.87
-9755487.47 5135829.07 187.26
-9755483.25 5135830.09 188.11
-9755488.85 5135823.51 184.40
-9755483.88 5135828.42 186.86
-9755480.90 5135830.85 184.92
-9755485.15 5135823.77 183.28
-9755480.35 5135830.73 187.12
-9755488.00 5135824.39 184.55
-9755484.98 5135829.14 186.52
-9755485.97 5135825.93 184.98
-9755485.55 5135826.40 184.97
-9755488.63 5135823.86 183.41
-9755489.21 5135820.39 180.98
-9755482.54 5135832.31 187.60
-9755486.42 5135826.97 186.22
-9755479.18 5135828.75 186.16
-9755484.43 5135831.40 188.27
-9755480.24 5135827.50 186.48
-9755488.53 5135831.01 181.02
-9755486.60 5135826.75 186.12
-9755488.90 5135824.71 184.03
-9755482.62 5135829.53 181.40
-9755488.60 5135826.79 183.92
-9755486.53 5135827.28 184.93
-9755484.13 5135829.56 185.21
-9755489.42 5135826.95 180.96
-9755479.70 5135829.16 183.87
-9755485.00 5135825.05 185.07
-9755487.13 5135826.10 184.14
-9755488.62 5135822.44 181.01
-9755481.53 5135825.96 181.40
-9755490.89 5135828.68 180.90
-9755481.72 5135828.48 184.15
-9755480.72 5135830.22 187.30
-9755485.33 5135828.02 185.59
-9755485.52 5135829.31 188.42
-9755488.23 5135826.44 182.71
-9755485.68 5135826.35 184.39
-9755489.04 5135826.81 184.08
-9755480.92 5135825.75 185.65
-9755484.28 5135832.32 183.95
-9755487.73 5135827.36 183.69
-9755488.35 5135820.46 184.08
-9755486.02 5135821.50 183.17
-9755487.18 5135821.95 184.56
-9755483.06 5135830.20 187.82
-9755486.12 5135826.44 185.04
-9755480.96 5135827.96 184.77
-9755481.75 5135824.42 186.11
-9755482.71 5135828.47 184.48
-9755485.12 5135825.37 184.66
-9755483.27 5135829.20 184.91
-9755479.67 5135830.18 185.84
-9755488.99 5135824.50 180.98
-9755488.90 5135829.74 183.84
-9755489.73 5135823.99 184.27
-9755484.44 5135831.32 186.17
-9755486.47 5135829.45 188.46
-9755488.82 5135821.27 182.82
-9755485.37 5135823.49 183.47
-9755480.12 5135826.17 184.13
-9755483.24 5135830.42 181.40
-9755484.10 5135829.10 185.21
-9755487.62 5135824.68 182.70
-9755482.23 5135829.05 186.42
-9755490.08 5135820.39 180.89
-9755483.09 5135825.87 184.93
-9755483.31 5135831.31 187.84
-9755482.06 5135829.22 187.28
-9755485.96 5135832.40 188.40
-9755481.47 5135832.21 188.20
-9755487.64 5135831.00 181.09
-9755489.22 5135830.57 185.09
-9755483.27 5135830.32 188.93
-9755488.80 5135830.42 184.89
-9755480.89 5135826.00 185.54
-9755483.82 5135829.65 188.11
-9755482.39 5135826.92 185.08
-9755487.66 5135828.24 183.66
-9755484.83 5135826.93 188.06
-9755481.08 5135831.01 187.59
-9755480.29 5135828.87 186.23
-9755488.28 5135831.06 185.72
-9755485.27 5135829.72 187.83
-9755480.06 5135827.62 184.60
-9755484.48 5135829.31 187.55
-9755488.33 5135826.73 183.29
-9755486.43 5135829.92 184.52
-9755484.76 5135830.10 188.08
-9755479.80 5135827.29 184.78
-9755483.15 5135827.94 184.45
-9755481.17 5135830.22 184.79
-9755482.98 5135832.47 186.78
-9755485.80 5135824.87 182.94
-9755483.91 5135830.10 181.40
-9755483.22 5135830.53 183.23
-9755483.27 5135828.92 186.64
-9755479.28 5135832.41 187.56
-9755484.80 5135830.86 186.67
-9755483.28 5135825.92 187.66
-9755487.13 5135823.44 184.29
-9755479.81 5135826.70 183.86
-9755482.65 5135830.52 186.66
-9755481.95 5135831.79 186.27
-9755485.33 5135831.00 181.32
-9755483.96 5135829.89 187.96
-9755480.87 5135829.55 181.39
-9755483.31 5135828.06 186.39
-9755487.36 5135824.71 182.68
-9755485.38 5135821.85 182.78
-9755485.60 5135822.89 183.92
-9755488.61 5135825.16 180.98
-9755482.88 5135826.31 186.63
-9755489.47 5135821.30 183.43
-9755481.27 5135829.96 185.39
-9755485.39 5135830.25 184.25
-9755482.82 5135828.34 187.42
-9755485.62 5135825.68 181.23
-9755479.46 5135831.88 181.37
-9755483.37 5135829.87 185.70
-9755486.74 5135824.94 182.76
-9755484.76 5135830.15 181.34
-9755482.04 5135828.71 186.82
-9755487.62 5135823.80 182.66
-9755484.41 5135827.03 187.86
-9755481.49 5135830.58 185.63
-9755480.27 5135832.29 184.62
-9755480.36 5135825.68 184.91
-9755482.96 5135831.13 184.43
-9755479.91 5135828.49 186.21
-9755488.49 5135827.37 183.72
-9755485.70 5135831.76 185.92
-9755483.64 5135825.67 187.11
-9755488.58 5135828.24 185.18
-9755482.72 5135831.03 187.42
-9755482.95 5135831.80 187.91
-9755485.99 5135828.35 187.57
-9755482.89 5135828.91 188.22
-9755490.96 5135823.08 180.88
-9755482.85 5135830.15 188.79
-9755485.18 5135827.12 184.04
-9755479.67 5135828.26 181.37
-9755485.57 5135824.47 183.12
-9755477.71 5135821.21 181.35
-9755477.96 5135824.45 181.36
-9755478.49 5135829.81 181.35
-9755477.13 5135819.39 181.34
-9755478.02 5135821.80 181.36
-9755476.80 5135828.88 181.26
-9755476.78 5135831.57 181.24
-9755478.21 5135830.10 181.34
-9755477.70 5135823.89 181.37
-9755477.37 5135828.33 181.33
-9755477.68 5135825.66 181.35
-9755472.12 5135815.23 181.17
-9755467.89 5135832.67 181.14
-9755470.63 5135816.72 181.16
-9755471.86 5135817.01 181.04
-9755470.32 5135818.77 181.17
-9755471.85 5135815.51 181.17
-9755468.56 5135816.74 181.14
-9755467.88 5135819.08 181.14
-9755475.97 5135818.82 181.20
-9755473.91 5135817.67 181.20
-9755474.13 5135815.23 181.20
-9755470.63 5135814.41 181.17
-9755470.34 5135816.45 181.18
-9755475.01 5135817.35 181.20
-9755472.13 5135818.47 181.17
-9755473.28 5135815.91 181.18
-9755475.98 5135818.27 181.21
-9755476.81 5135820.04 181.29
-9755476.80 5135823.84 181.29
-9755476.79 5135828.62 181.27
-9755475.85 5135830.96 181.19
-9755475.31 5135826.85 181.21
-9755476.20 5135827.74 181.21
-9755474.36 5135829.18 181.19
-9755469.44 5135819.44 181.14
-9755472.60 5135829.14 181.18
-9755475.88 5135823.55 181.23
-9755473.55 5135824.71 181.21
-9755468.81 5135825.55 181.15
-9755468.83 5135819.96 181.15
-9755468.83 5135822.66 181.13
-9755470.25 5135829.77 181.16
-9755468.77 5135832.42 181.14
-9755471.13 5135832.44 181.16
-9755469.39 5135826.18 181.14
-9755468.53 5135821.76 181.14
-9755470.32 5135821.72 181.17
-9755471.47 5135824.10 181.17
-9755470.35 5135821.20 181.17
-9755471.44 5135830.64 181.18
-9755469.39 5135824.17 181.15
-9755473.34 5135822.69 181.19
-9755473.79 5135831.88 181.19
-9755474.40 5135830.96 181.19
-9755472.03 5135832.45 181.17
-9755467.97 5135829.44 181.13
-9755472.93 5135820.24 181.19
-9755467.93 5135832.10 181.13
-9755467.87 5135831.23 181.14
-9755468.45 5135830.03 181.14
-9755470.28 5135827.12 181.15
-9755469.75 5135819.41 181.15
-9755473.76 5135827.42 181.19
-9755468.48 5135831.51 181.14
-9755469.98 5135831.55 181.14
-9755473.54 5135821.53 181.19
-9755471.40 5135832.41 181.17
-9755474.69 5135827.97 181.20
-9755468.84 5135830.98 181.14
-9755475.91 5135820.33 181.20
-9755465.54 5135832.76 181.12
-9755467.83 5135836.02 181.17
-9755465.53 5135834.51 181.13
-9755466.06 5135837.72 181.18
-9755465.22 5135837.46 181.16
-9755465.53 5135835.95 181.15
-9755465.47 5135835.03 181.13
-9755463.45 5135832.71 181.11
-9755453.96 5135837.38 181.17
-9755463.76 5135833.28 181.12
-9755451.32 5135832.63 181.16
-9755454.57 5135837.35 181.17
-9755460.18 5135838.29 181.16
-9755456.68 5135834.12 181.13
-9755463.74 5135834.81 181.13
-9755456.99 5135837.94 181.17
-9755456.11 5135832.60 181.14
-9755458.98 5135834.72 181.13
-9755464.38 5135834.11 181.11
-9755454.07 5135832.59 181.16
-9755461.99 5135835.59 181.14
-9755456.35 5135835.95 181.15
-9755460.49 5135836.78 181.16
-9755454.90 5135834.68 181.15
-9755452.19 5135837.94 181.19
-9755463.76 5135835.03 181.13
-9755457.29 5135834.78 181.14
-9755463.45 5135835.33 181.14
-9755457.60 5135837.40 181.16
-9755464.89 5135835.09 181.14
-9755453.69 5135833.53 181.14
-9755459.89 5135834.80 181.14
-9755460.21 5135834.45 181.13
-9755453.67 5135837.39 181.17
-9755452.82 5135836.71 181.18
-9755453.17 5135832.63 181.14
-9755458.67 5135838.36 181.17
-9755453.39 5135836.72 181.16
-9755454.92 5135833.50 181.14
-9755452.26 5135835.62 181.16
-9755452.86 5135834.68 181.16
-9755461.41 5135838.03 181.16
-9755461.32 5135837.36 181.16
-9755452.25 5135838.85 181.19
-9755461.66 5135837.36 181.17
-9755459.39 5135834.14 181.13
-9755462.57 5135834.16 181.12
-9755456.08 5135837.97 181.17
-9755460.47 5135838.59 181.18
-9755460.18 5135836.50 181.14
-9755464.37 5135835.68 181.14
-9755462.87 5135837.37 181.16
-9755451.11 5135838.51 181.21
-9755465.93 5135817.59 181.12
