-9755448.28 5135502.02 207.35
-9755447.42 5135500.04 207.38
-9755449.94 5135508.88 206.83
-9755447.34 5135504.19 206.28
-9755444.15 5135502.31 203.60
-9755449.25 5135501.14 221.00
-9755450.43 5135500.83 220.93
-9755448.81 5135502.68 207.41
-9755444.62 5135502.38 205.65
-9755442.83 5135512.01 203.36
-9755443.21 5135506.30 204.21
-9755444.90 5135511.93 204.01
-9755444.47 5135500.97 205.58
-9755449.79 5135501.69 208.13
-9755444.69 5135505.01 205.81
-9755446.19 5135511.26 205.16
-9755448.26 5135511.00 205.70
-9755450.27 5135507.72 207.38
-9755447.36 5135505.66 206.28
-9755449.42 5135500.58 207.96
-9755445.00 5135507.78 204.60
-9755443.88 5135501.23 205.19
-9755441.12 5135507.83 203.34
-9755448.54 5135510.39 206.25
-9755447.06 5135503.59 206.47
-9755443.00 5135504.87 203.48
-9755445.80 5135504.50 206.45
-9755442.90 5135508.67 203.45
-9755442.66 5135501.31 204.60
-9755450.11 5135508.95 220.53
-9755442.55 5135507.54 203.87
-9755447.05 5135503.91 206.31
-9755448.30 5135500.23 207.39
-9755442.09 5135503.01 204.17
-9755444.10 5135506.90 204.56
-9755445.54 5135510.79 204.57
-9755450.03 5135501.54 208.20
-9755443.19 5135508.41 204.02
-9755449.17 5135501.53 207.83
-9755450.21 5135502.02 220.97
-9755444.00 5135508.10 204.63
-9755448.57 5135505.33 206.85
-9755447.89 5135503.31 206.95
-9755445.54 5135509.95 204.59
-9755448.83 5135506.86 206.84
-9755449.92 5135501.23 207.97
-9755450.51 5135505.65 220.97
-9755449.51 5135503.18 207.41
-9755449.66 5135509.82 206.82
-9755450.07 5135504.73 207.89
-9755450.13 5135508.55 207.33
-9755448.22 5135511.61 205.70
-9755441.42 5135501.40 203.49
-9755447.03 5135511.08 205.14
-9755450.31 5135507.38 207.39
-9755443.95 5135507.31 204.04
-9755447.68 5135500.59 206.85
-9755442.86 5135511.04 204.03
-9755442.69 5135505.49 204.06
-9755442.89 5135507.78 203.44
-9755443.02 5135502.52 205.23
-9755443.20 5135506.38 204.16
-9755446.45 5135511.09 205.12
-9755444.06 5135511.68 203.91
-9755447.93 5135502.43 207.03
-9755442.90 5135505.18 203.48
-9755450.32 5135510.98 206.81
-9755441.33 5135509.00 203.80
-9755447.95 5135508.05 206.28
-9755447.36 5135507.78 205.72
-9755446.12 5135502.49 203.62
-9755441.79 5135506.22 203.96
-9755449.04 5135501.43 220.99
-9755444.14 5135501.31 205.31
-9755446.81 5135501.15 206.82
-9755446.19 5135502.71 206.26
-9755449.51 5135501.97 220.97
-9755444.06 5135509.61 204.02
-9755448.93 5135504.90 220.54
-9755447.04 5135503.48 203.69
-9755448.88 5135501.49 207.52
-9755445.57 5135502.43 206.19
-9755448.25 5135503.59 206.85
-9755444.76 5135501.50 205.69
-9755447.67 5135506.26 206.28
-9755448.31 5135511.45 206.20
-9755448.81 5135510.99 206.25
-9755444.68 5135503.98 203.55
-9755450.29 5135506.48 207.39
-9755449.52 5135501.78 220.97
-9755446.74 5135510.45 205.14
-9755442.32 5135501.87 204.42
-9755449.73 5135510.66 206.80
-9755449.95 5135503.84 207.47
-9755441.44 5135505.76 203.49
-9755448.76 5135509.77 206.26
-9755449.28 5135503.65 221.05
-9755447.05 5135505.91 206.27
-9755441.70 5135508.09 204.00
-9755442.88 5135501.92 204.62
-9755448.79 5135510.09 206.26
-9755448.31 5135500.91 207.39
-9755445.14 5135504.75 206.04
-9755447.67 5135505.04 206.29
-9755448.53 5135502.08 207.43
-9755447.70 5135507.74 206.28
-9755450.03 5135505.62 207.40
-9755450.37 5135506.41 220.98
-9755450.31 5135506.82 207.39
-9755450.37 5135502.94 208.19
-9755449.38 5135505.37 221.14
-9755445.57 5135504.34 203.58
-9755441.70 5135503.16 203.61
-9755449.09 5135506.23 206.85
-9755449.70 5135510.07 206.82
-9755450.05 5135501.45 208.27
-9755444.09 5135503.62 203.53
-9755441.44 5135506.98 203.38
-9755447.41 5135501.50 206.83
-9755449.73 5135507.15 206.84
-9755447.10 5135506.03 205.72
-9755449.75 5135508.05 206.84
-9755444.39 5135508.84 204.56
-9755448.85 5135505.61 206.84
-9755444.43 5135501.30 205.52
-9755449.88 5135502.03 220.97
-9755448.98 5135500.74 220.96
-9755446.70 5135505.91 205.96
-9755448.96 5135504.04 221.10
-9755443.24 5135504.91 203.49
-9755448.93 5135500.03 207.43
-9755444.44 5135504.04 203.54
-9755450.09 5135501.29 208.05
-9755443.81 5135503.72 203.52
-9755443.54 5135501.26 205.12
-9755447.94 5135510.71 205.70
-9755448.34 5135503.43 207.15
-9755445.00 5135503.05 203.58
-9755446.78 5135508.67 205.70
-9755441.74 5135507.86 204.01
-9755446.78 5135503.95 206.27
-9755441.42 5135501.61 203.46
-9755447.90 5135510.16 205.70
-9755441.53 5135509.24 203.84
-9755449.18 5135502.92 207.64
-9755449.22 5135504.45 207.40
-9755446.16 5135511.69 204.59
-9755446.82 5135508.03 205.22
-9755448.83 5135502.93 207.43
-9755445.33 5135501.14 206.04
-9755443.61 5135510.50 204.02
-9755448.84 5135502.29 207.53
-9755444.11 5135506.33 204.67
-9755446.74 5135501.24 206.30
-9755446.11 5135503.65 206.64
-9755445.84 5135505.75 205.57
-9755441.76 5135500.14 204.03
-9755442.85 5135506.97 203.98
-9755445.07 5135500.95 205.89
-9755448.81 5135504.36 207.34
-9755445.64 5135500.00 206.28
-9755450.08 5135501.11 208.24
-9755444.70 5135503.09 203.57
-9755447.73 5135507.97 206.28
-9755447.06 5135505.68 206.26
-9755444.77 5135500.39 205.70
-9755450.29 5135510.42 206.82
-9755447.09 5135499.97 206.84
-9755448.88 5135501.76 207.59
-9755444.11 5135505.45 204.77
-9755446.37 5135511.64 205.12
-9755448.04 5135501.05 220.54
-9755444.22 5135505.17 204.90
-9755447.82 5135500.46 221.12
-9755446.45 5135511.90 205.14
-9755448.25 5135500.58 207.38
-9755446.13 5135507.20 205.16
-9755448.01 5135502.60 207.10
-9755450.38 5135505.94 207.39
-9755441.74 5135502.80 204.00
-9755448.83 5135509.25 206.27
-9755446.97 5135504.02 203.63
-9755447.31 5135509.24 205.72
-9755444.37 5135509.28 204.02
-9755441.42 5135504.34 203.47
-9755449.44 5135500.25 207.96
-9755446.46 5135505.93 205.79
-9755449.69 5135508.87 206.83
-9755445.31 5135502.35 206.49
-9755448.28 5135501.10 221.08
-9755440.85 5135508.40 203.75
-9755441.02 5135509.31 203.63
-9755441.20 5135506.94 203.37
-9755440.86 5135503.39 203.47
-9755440.94 5135507.00 203.37
-9755440.85 5135500.37 203.97
-9755440.92 5135501.89 203.67
-9755440.86 5135500.72 203.45
-9755440.96 5135508.69 203.78
-9755440.88 5135501.04 203.45
-9755440.83 5135508.73 203.68
-9755440.87 5135502.17 203.50
-9755441.12 5135503.05 203.61
-9755441.05 5135507.49 203.89
-9755440.88 5135500.69 204.00
-9755440.85 5135501.37 203.45
-9755440.85 5135504.84 204.02
-9755441.43 5135505.11 203.48
-9755439.11 5135496.56 203.47
-9755440.64 5135496.51 204.02
-9755440.94 5135493.31 204.60
-9755440.64 5135492.22 205.10
-9755437.67 5135494.77 204.01
-9755440.60 5135492.92 204.59
-9755440.58 5135493.03 205.16
-9755439.77 5135496.89 203.47
-9755439.69 5135496.20 203.45
-9755437.33 5135493.57 203.38
-9755439.42 5135496.60 204.07
-9755439.97 5135498.05 203.45
-9755439.72 5135497.77 203.45
-9755437.15 5135487.39 203.48
-9755440.59 5135493.59 204.59
-9755439.82 5135489.43 203.54
-9755440.73 5135489.30 206.18
-9755435.38 5135487.37 203.40
-9755439.80 5135492.40 204.59
-9755440.72 5135493.63 205.19
-9755437.98 5135488.01 203.52
-9755439.17 5135489.94 204.61
-9755435.65 5135487.08 203.48
-9755436.54 5135491.50 203.37
-9755439.35 5135491.90 204.09
-9755436.26 5135486.77 203.48
-9755439.61 5135487.24 205.74
-9755438.27 5135496.33 203.38
-9755436.55 5135491.82 203.37
-9755439.15 5135490.85 204.55
-9755438.59 5135491.50 204.16
-9755439.73 5135489.82 205.57
-9755437.37 5135494.48 203.36
-9755437.73 5135490.58 203.73
-9755438.79 5135495.43 203.92
-9755439.52 5135490.26 204.77
-9755440.39 5135495.32 204.02
-9755440.00 5135489.65 205.72
-9755437.38 5135495.38 203.39
-9755440.07 5135489.98 205.14
-9755440.37 5135489.73 205.34
-9755437.20 5135494.07 203.94
-9755438.88 5135490.31 204.45
-9755437.42 5135488.57 203.50
-9755439.77 5135494.72 204.02
-9755439.76 5135491.20 204.70
-9755436.31 5135489.46 203.47
-9755439.73 5135493.63 204.02
-9755437.67 5135488.85 203.50
-9755440.51 5135487.10 206.35
-9755438.28 5135493.01 203.45
-9755436.50 5135493.54 203.75
-9755440.02 5135491.80 204.60
-9755437.40 5135487.67 203.50
-9755439.18 5135486.72 205.18
-9755437.68 5135494.51 203.37
-9755438.22 5135491.83 203.87
-9755438.38 5135490.26 204.85
-9755439.09 5135498.63 204.03
-9755440.09 5135490.55 204.98
-9755437.44 5135495.62 203.38
-9755436.50 5135491.26 203.37
-9755437.97 5135495.35 203.39
-9755435.04 5135486.74 204.00
-9755437.44 5135489.47 203.50
-9755439.21 5135487.31 205.77
-9755437.16 5135494.42 203.38
-9755440.11 5135492.51 204.15
-9755436.78 5135492.12 203.37
-9755439.80 5135493.31 204.61
-9755438.91 5135489.20 203.50
-9755437.16 5135488.28 203.50
-9755436.82 5135488.23 203.51
-9755439.35 5135486.73 205.98
-9755439.50 5135487.22 203.55
-9755439.70 5135498.34 203.45
-9755439.81 5135487.95 203.55
-9755437.92 5135496.26 203.36
-9755438.92 5135487.42 203.54
-9755439.17 5135491.80 204.37
-9755436.31 5135490.63 203.69
-9755440.06 5135494.48 204.02
-9755435.64 5135487.97 203.42
-9755440.32 5135492.07 204.59
-9755437.97 5135493.61 203.45
-9755440.65 5135487.70 203.60
-9755440.40 5135487.65 203.60
-9755437.99 5135488.55 203.52
-9755436.19 5135489.76 203.41
-9755437.12 5135487.97 203.50
-9755438.87 5135490.54 205.07
-9755438.07 5135490.37 204.68
-9755440.40 5135488.54 203.59
-9755440.00 5135497.72 203.45
-9755439.77 5135491.83 204.59
-9755438.93 5135490.86 204.40
-9755440.63 5135498.64 204.02
-9755440.61 5135496.85 204.00
-9755438.26 5135492.65 203.99
-9755440.04 5135493.59 204.02
-9755439.17 5135493.85 204.02
-9755435.64 5135488.62 203.36
-9755437.72 5135490.07 203.52
-9755440.67 5135491.80 204.62
-9755438.88 5135487.98 203.53
-9755440.41 5135489.67 205.36
-9755440.35 5135487.08 203.61
-9755437.08 5135490.07 203.48
-9755440.04 5135491.43 204.94
-9755440.12 5135490.25 205.10
-9755438.59 5135488.90 203.51
-9755438.82 5135489.97 205.15
-9755437.15 5135493.07 203.38
-9755435.96 5135489.14 203.38
-9755440.67 5135488.57 203.61
-9755435.08 5135487.02 203.37
-9755438.93 5135494.12 204.02
-9755440.08 5135491.21 204.94
-9755436.85 5135490.67 203.47
-9755436.52 5135490.64 203.40
-9755439.20 5135489.48 203.53
-9755438.62 5135496.31 203.45
-9755439.49 5135493.01 204.02
-9755435.06 5135486.79 203.38
-9755439.09 5135498.97 203.38
-9755438.80 5135491.23 204.24
-9755437.95 5135490.90 203.86
-9755438.86 5135493.91 204.04
-9755437.70 5135487.42 203.51
-9755438.87 5135487.67 203.54
-9755437.39 5135491.52 203.64
-9755440.62 5135487.15 203.61
-9755437.38 5135487.35 203.49
-9755438.63 5135494.72 204.07
-9755436.52 5135487.96 203.49
-9755437.37 5135490.92 203.63
-9755439.97 5135498.63 203.46
-9755440.31 5135498.69 203.45
-9755438.35 5135490.56 204.20
-9755439.41 5135498.95 204.02
-9755435.89 5135490.58 203.34
-9755439.76 5135495.10 204.02
-9755440.38 5135493.84 204.59
-9755440.34 5135492.97 204.59
-9755439.18 5135497.22 204.02
-9755437.69 5135495.41 203.39
-9755437.43 5135490.63 203.66
-9755438.82 5135497.16 204.02
-9755438.84 5135486.70 205.67
-9755440.73 5135491.17 205.19
-9755435.69 5135487.65 203.47
-9755436.17 5135489.20 203.45
-9755439.42 5135490.53 204.73
-9755440.04 5135492.36 204.59
-9755438.03 5135489.15 203.51
-9755439.07 5135487.13 203.55
-9755437.72 5135491.17 203.80
-9755438.57 5135488.00 203.52
-9755439.46 5135486.67 205.34
-9755440.73 5135490.83 205.33
-9755437.95 5135488.24 203.52
-9755438.52 5135497.18 203.40
-9755439.40 5135496.25 203.46
-9755440.55 5135490.92 205.17
-9755438.28 5135488.29 203.51
-9755436.01 5135490.93 203.34
-9755438.32 5135488.53 203.52
-9755438.33 5135489.76 203.50
-9755435.80 5135489.69 204.01
-9755439.75 5135487.32 205.98
-9755439.99 5135494.78 204.58
-9755436.57 5135488.25 203.50
-9755440.40 5135486.67 205.82
-9755439.10 5135499.87 203.36
-9755439.09 5135501.64 203.78
-9755440.01 5135499.85 203.45
-9755440.57 5135504.55 203.36
-9755439.68 5135501.90 203.32
-9755439.31 5135502.15 203.77
-9755439.44 5135501.94 203.29
-9755440.86 5135499.82 203.49
-9755440.55 5135504.87 203.34
-9755439.96 5135502.52 203.35
-9755440.63 5135501.34 203.44
-9755440.25 5135503.04 203.38
-9755440.02 5135502.78 204.01
-9755439.76 5135502.86 203.37
-9755440.54 5135502.43 203.47
-9755439.76 5135500.80 203.43
-9755439.93 5135501.62 203.38
-9755439.38 5135500.42 203.40
-9755440.30 5135501.28 203.44
-9755439.14 5135500.78 203.40
-9755439.49 5135500.76 203.40
-9755440.60 5135503.92 204.00
-9755440.57 5135505.12 203.34
-9755440.01 5135503.08 203.37
-9755440.30 5135501.94 203.45
-9755439.39 5135500.07 204.02
-9755439.74 5135501.37 203.38
-9755439.98 5135502.77 203.37
-9755438.84 5135499.84 203.37
-9755440.66 5135500.41 203.90
-9755440.53 5135504.23 203.35
-9755438.85 5135501.92 203.75
-9755438.81 5135501.24 203.78
-9755440.30 5135502.84 203.43
-9755438.31 5135501.43 203.63
-9755440.93 5135506.33 203.36
-9755447.37 5135486.94 220.90
-9755449.90 5135485.97 220.86
-9755444.07 5135486.04 207.69
-9755450.19 5135485.77 220.86
-9755445.23 5135486.54 208.25
-9755444.20 5135486.04 207.42
-9755449.42 5135486.31 220.86
-9755448.86 5135486.34 220.87
-9755449.96 5135486.58 220.85
-9755445.47 5135485.98 208.37
-9755445.63 5135486.04 220.95
-9755444.45 5135486.22 220.98
-9755446.18 5135486.25 220.92
-9755445.28 5135486.51 220.94
-9755443.42 5135486.37 207.35
-9755447.55 5135485.54 220.90
-9755443.23 5135486.38 221.15
-9755441.61 5135486.37 206.29
-9755444.22 5135485.75 207.41
-9755445.25 5135485.74 220.97
-9755443.39 5135485.48 207.39
-9755445.85 5135485.65 220.93
-9755444.54 5135485.99 207.95
-9755445.14 5135485.66 208.00
-9755446.79 5135486.29 220.95
-9755444.85 5135485.70 207.99
-9755446.35 5135486.00 208.88
-9755443.06 5135485.41 206.88
-9755442.49 5135485.73 206.85
-9755443.33 5135486.08 207.40
-9755443.81 5135485.69 221.00
-9755448.40 5135485.67 220.86
-9755444.80 5135485.98 207.99
-9755446.26 5135486.24 208.77
-9755450.26 5135486.59 220.86
-9755441.84 5135485.78 206.30
-9755445.26 5135485.93 208.32
-9755442.18 5135486.07 206.30
-9755446.50 5135486.20 220.89
-9755443.75 5135485.39 220.99
-9755444.94 5135485.69 220.97
-9755443.40 5135485.73 207.40
-9755442.21 5135486.41 206.30
-9755443.62 5135486.33 207.40
-9755445.13 5135485.72 208.29
-9755447.00 5135485.42 220.90
-9755443.07 5135486.08 206.87
-9755447.92 5135486.42 220.94
-9755444.93 5135486.00 220.97
-9755441.32 5135488.14 206.68
-9755441.29 5135486.09 206.28
-9755440.71 5135486.81 203.62
-9755449.01 5135486.63 220.86
-9755448.69 5135486.60 220.81
-9755441.49 5135486.57 203.63
-9755445.72 5135486.93 208.39
-9755446.61 5135486.58 208.86
-9755444.82 5135486.62 207.98
-9755443.65 5135486.61 207.40
-9755443.05 5135486.63 207.02
-9755442.99 5135486.56 206.94
-9755445.90 5135486.64 220.93
-9755447.16 5135486.61 220.91
-9755440.98 5135486.59 206.65
-9755440.98 5135486.56 203.65
-9755443.03 5135471.98 220.87
-9755447.08 5135470.33 220.79
-9755444.75 5135470.32 220.85
-9755448.04 5135470.29 220.79
-9755445.33 5135473.21 220.81
-9755442.14 5135471.45 220.85
-9755446.40 5135471.53 220.83
-9755446.88 5135470.96 220.76
-9755448.55 5135470.09 231.01
-9755444.10 5135471.52 220.85
-9755444.75 5135471.52 220.87
-9755445.07 5135472.37 220.82
-9755445.59 5135472.75 220.80
-9755449.80 5135471.79 220.76
-9755448.03 5135471.19 220.78
-9755448.63 5135470.38 231.01
-9755449.00 5135470.14 231.01
-9755442.37 5135472.89 220.87
-9755445.70 5135470.91 220.80
-9755449.69 5135472.16 220.77
-9755442.96 5135470.32 220.85
-9755447.39 5135471.82 220.79
-9755449.80 5135470.13 231.01
-9755445.85 5135470.06 220.80
-9755445.35 5135472.67 220.80
-9755448.88 5135472.95 220.75
-9755442.66 5135470.60 220.82
-9755443.88 5135473.00 220.84
-9755445.31 5135470.95 220.83
-9755447.14 5135470.62 220.77
-9755446.57 5135471.07 220.75
-9755449.17 5135472.69 220.71
-9755447.44 5135472.34 220.78
-9755448.13 5135471.28 231.04
-9755449.54 5135471.48 220.72
-9755443.05 5135471.51 220.84
-9755450.15 5135472.34 220.73
-9755441.66 5135471.63 208.90
-9755442.38 5135471.46 220.88
-9755443.53 5135473.18 220.87
-9755444.09 5135470.22 220.83
-9755445.41 5135470.53 220.82
-9755447.42 5135472.03 220.79
-9755442.39 5135470.48 220.84
-9755441.80 5135472.64 220.88
-9755444.99 5135472.59 220.81
-9755449.56 5135470.30 233.34
-9755445.68 5135472.11 220.82
-9755443.86 5135470.36 220.82
-9755443.89 5135471.48 220.83
-9755449.28 5135470.10 230.99
-9755447.93 5135472.60 227.52
-9755443.53 5135470.83 220.86
-9755448.84 5135470.07 220.74
-9755448.82 5135472.68 220.76
-9755446.87 5135470.70 220.77
-9755449.21 5135471.83 233.36
-9755444.16 5135472.06 220.83
-9755448.02 5135471.54 233.36
-9755446.48 5135471.85 220.81
-9755448.00 5135473.01 220.75
-9755445.65 5135473.22 220.82
-9755441.71 5135471.41 208.90
-9755442.91 5135470.54 220.84
-9755445.32 5135471.10 220.82
-9755446.21 5135470.57 220.77
-9755448.62 5135470.62 220.74
-9755449.60 5135470.08 230.99
-9755448.28 5135472.20 220.76
-9755448.12 5135471.30 232.11
-9755444.42 5135470.84 220.80
-9755442.42 5135471.14 220.87
-9755450.07 5135471.90 220.71
-9755446.13 5135471.26 220.83
-9755444.74 5135471.17 220.85
-9755442.06 5135471.73 220.87
-9755442.04 5135472.28 220.87
-9755444.93 5135472.12 220.84
-9755448.32 5135472.67 220.75
-9755445.29 5135471.52 220.84
-9755441.67 5135471.76 208.52
-9755449.54 5135471.13 233.31
-9755450.40 5135473.07 220.72
-9755441.65 5135471.99 208.89
-9755443.21 5135471.97 220.87
-9755448.28 5135471.00 233.33
-9755448.09 5135472.28 220.78
-9755443.89 5135471.18 220.83
-9755441.56 5135472.31 220.88
-9755443.76 5135472.72 220.87
-9755443.24 5135471.20 220.83
-9755447.55 5135470.32 233.35
-9755443.89 5135470.09 220.83
-9755444.22 5135471.76 220.82
-9755446.13 5135470.93 220.69
-9755447.47 5135470.48 220.78
-9755450.08 5135472.43 230.99
-9755448.06 5135471.09 231.08
-9755448.14 5135471.80 232.19
-9755449.76 5135472.45 220.75
-9755441.45 5135470.58 220.90
-9755441.10 5135471.80 208.55
-9755440.93 5135471.41 220.91
-9755441.34 5135470.52 208.94
-9755441.23 5135472.28 220.88
-9755441.16 5135470.52 208.93
-9755441.11 5135472.31 208.51
-9755441.26 5135470.88 220.90
-9755440.93 5135472.37 220.88
-9755441.29 5135471.68 208.76
-9755441.09 5135472.40 208.09
-9755441.16 5135471.53 208.83
-9755441.38 5135472.94 208.53
-9755444.70 5135484.86 220.96
-9755442.39 5135479.15 221.13
-9755442.08 5135477.55 220.90
-9755443.88 5135485.23 207.77
-9755444.75 5135484.54 220.97
-9755443.19 5135481.88 220.96
-9755442.30 5135475.84 208.53
-9755448.02 5135476.53 220.90
-9755445.98 5135473.32 220.85
-9755443.89 5135479.24 208.51
-9755443.71 5135480.95 207.97
-9755443.90 5135483.32 220.95
-9755443.10 5135480.70 207.97
-9755442.18 5135483.73 206.86
-9755442.85 5135476.81 208.49
-9755443.74 5135483.90 220.96
-9755444.87 5135483.02 208.53
-9755442.41 5135483.92 207.36
-9755441.66 5135473.27 208.55
-9755442.13 5135475.63 207.97
-9755444.58 5135482.40 208.51
-9755446.63 5135473.36 220.82
-9755442.79 5135477.36 208.52
-9755447.04 5135481.25 220.86
-9755441.95 5135480.68 207.39
-9755447.09 5135473.91 220.79
-9755444.14 5135484.76 220.93
-9755441.60 5135480.20 207.38
-9755449.65 5135476.26 220.91
-9755447.03 5135475.88 220.79
-9755449.76 5135473.33 220.73
-9755442.36 5135475.62 220.92
-9755442.13 5135478.30 220.96
-9755441.59 5135481.93 206.84
-9755443.96 5135480.32 208.50
-9755443.28 5135474.96 220.86
-9755446.76 5135484.20 220.91
-9755445.35 5135483.83 220.93
-9755443.75 5135478.60 208.53
-9755447.93 5135475.63 220.82
-9755443.75 5135481.84 220.93
-9755442.21 5135477.98 207.96
-9755443.72 5135477.71 208.54
-9755442.12 5135476.88 220.90
-9755441.64 5135478.28 207.94
-9755442.75 5135484.80 206.86
-9755443.17 5135473.85 220.86
-9755442.28 5135475.34 208.53
-9755446.80 5135481.59 220.89
-9755442.91 5135475.90 208.54
-9755448.84 5135478.92 220.82
-9755442.68 5135485.04 207.36
-9755446.75 5135485.08 220.90
-9755441.37 5135477.44 207.79
-9755441.62 5135484.83 206.80
-9755446.43 5135473.79 220.82
-9755442.15 5135478.91 207.41
-9755442.81 5135483.37 207.40
-9755441.66 5135476.50 207.95
-9755443.10 5135478.49 208.51
-9755443.89 5135473.29 220.84
-9755442.30 5135476.14 208.52
-9755443.35 5135481.55 207.97
-9755442.20 5135475.59 208.53
-9755444.09 5135482.39 220.97
-9755444.76 5135483.35 207.98
-9755450.31 5135476.33 220.94
-9755443.38 5135479.11 208.51
-9755443.43 5135484.13 207.93
-9755449.95 5135484.83 220.86
-9755446.99 5135479.18 220.90
-9755449.17 5135474.18 220.74
-9755443.12 5135479.52 207.95
-9755441.95 5135483.16 206.85
-9755442.17 5135476.01 207.96
-9755448.50 5135479.25 220.83
-9755445.68 5135474.37 220.81
-9755449.42 5135482.27 220.84
-9755441.91 5135476.51 207.95
-9755447.09 5135476.56 220.85
-9755448.19 5135475.93 220.81
-9755446.12 5135483.35 220.91
-9755444.47 5135483.81 220.94
-9755449.08 5135481.84 220.84
-9755445.05 5135474.20 220.83
-9755447.43 5135479.26 220.84
-9755442.32 5135480.33 221.07
-9755449.74 5135476.86 220.98
-9755442.26 5135479.22 207.42
-9755443.40 5135483.35 220.95
-9755450.19 5135484.90 220.86
-9755442.80 5135480.08 207.95
-9755446.37 5135476.80 220.82
-9755442.22 5135479.22 207.94
-9755441.59 5135483.39 206.84
-9755442.73 5135475.00 220.87
-9755444.57 5135482.15 208.53
-9755447.93 5135473.62 220.78
-9755442.31 5135475.22 220.90
-9755446.87 5135473.19 220.80
-9755444.22 5135479.98 208.53
-9755442.32 5135479.71 207.93
-9755441.91 5135480.99 207.39
-9755449.17 5135483.98 220.85
-9755443.92 5135479.78 208.52
-9755450.06 5135485.02 220.85
-9755441.64 5135478.52 207.91
-9755443.76 5135475.34 220.87
-9755447.09 5135482.17 220.89
-9755449.72 5135478.55 220.79
-9755448.19 5135480.14 220.85
-9755445.02 5135474.81 220.84
-9755442.23 5135476.55 208.56
-9755443.19 5135476.59 220.90
-9755442.34 5135484.91 207.34
-9755449.66 5135481.55 220.81
-9755442.23 5135474.15 208.51
-9755443.50 5135478.85 208.52
-9755443.19 5135478.89 221.13
-9755442.29 5135474.11 220.89
-9755449.16 5135478.00 220.90
-9755445.06 5135480.72 220.90
-9755443.70 5135481.88 207.97
-9755448.78 5135484.28 220.87
-9755443.76 5135477.62 220.90
-9755448.20 5135475.46 220.80
-9755443.94 5135477.35 220.85
-9755443.37 5135477.97 208.52
-9755445.30 5135476.58 220.86
-9755442.10 5135483.18 220.48
-9755449.87 5135483.25 220.84
-9755447.92 5135475.03 220.80
-9755441.40 5135476.84 207.94
-9755442.23 5135478.88 207.95
-9755447.45 5135474.51 220.78
-9755445.63 5135477.07 220.85
-9755444.99 5135478.54 221.08
-9755443.79 5135476.25 220.88
-9755444.30 5135485.48 207.95
-9755449.71 5135473.83 220.72
-9755445.07 5135475.87 220.86
-9755443.69 5135478.82 208.52
-9755443.56 5135477.47 220.87
-9755441.64 5135479.96 221.15
-9755450.24 5135483.27 220.84
-9755450.31 5135475.09 220.75
-9755443.83 5135479.44 221.10
-9755441.64 5135477.08 207.96
-9755442.90 5135481.98 207.98
-9755442.25 5135480.63 207.40
-9755444.22 5135483.95 207.97
-9755445.35 5135475.58 220.83
-9755445.46 5135482.80 208.55
-9755441.84 5135479.19 221.13
-9755446.59 5135479.98 220.87
-9755443.65 5135483.90 207.39
-9755441.61 5135480.36 207.38
-9755448.20 5135482.69 220.86
-9755448.51 5135474.17 220.78
-9755448.01 5135481.61 220.82
-9755443.07 5135481.56 207.97
-9755442.17 5135483.92 207.26
-9755444.98 5135483.87 220.95
-9755444.56 5135484.87 207.97
-9755445.41 5135485.11 208.52
-9755442.78 5135479.13 208.44
-9755442.92 5135480.11 221.08
-9755442.65 5135479.78 221.11
-9755441.95 5135474.73 208.52
-9755449.14 5135473.96 220.73
-9755443.28 5135477.65 220.92
-9755446.25 5135485.34 220.89
-9755445.05 5135478.86 221.07
-9755444.62 5135481.28 208.52
-9755447.84 5135485.43 220.92
-9755448.72 5135478.66 220.85
-9755441.95 5135476.88 207.96
-9755441.96 5135477.39 207.97
-9755442.49 5135482.17 207.40
-9755442.91 5135477.90 208.52
-9755444.00 5135481.37 208.51
-9755442.23 5135481.01 207.39
-9755443.23 5135483.95 207.93
-9755442.26 5135479.79 207.40
-9755449.40 5135484.27 220.85
-9755447.40 5135475.07 220.79
-9755442.85 5135476.48 208.51
-9755442.85 5135478.68 207.97
-9755444.87 5135484.55 208.51
-9755446.52 5135481.85 220.90
-9755444.72 5135480.02 220.90
-9755445.44 5135484.52 208.54
-9755444.05 5135480.75 208.53
-9755448.03 5135477.13 220.98
-9755449.68 5135483.03 220.84
-9755442.03 5135476.50 220.90
-9755448.47 5135484.86 220.86
-9755442.10 5135481.84 221.14
-9755450.03 5135476.51 220.95
-9755449.17 5135475.36 220.75
-9755441.58 5135478.04 207.39
-9755444.29 5135482.46 220.96
-9755444.41 5135477.49 220.88
-9755445.03 5135475.01 220.82
-9755446.17 5135482.36 220.92
-9755442.56 5135480.07 207.96
-9755446.59 5135473.65 220.82
-9755444.60 5135481.87 208.53
-9755447.95 5135480.06 220.84
-9755449.74 5135478.07 220.86
-9755446.43 5135484.49 220.88
-9755441.81 5135477.71 220.93
-9755444.88 5135485.09 220.96
-9755442.27 5135482.79 207.40
-9755444.44 5135483.03 208.50
-9755446.80 5135479.80 220.87
-9755447.04 5135479.48 220.87
-9755443.70 5135477.50 208.54
-9755442.19 5135483.77 207.45
-9755447.41 5135475.97 220.80
-9755448.86 5135482.42 220.86
-9755447.72 5135475.70 220.81
-9755443.60 5135485.44 207.39
-9755447.94 5135474.52 220.79
-9755444.12 5135479.88 220.97
-9755443.11 5135477.73 208.52
-9755442.44 5135477.41 207.98
-9755442.56 5135475.90 208.53
-9755442.57 5135482.77 207.40
-9755442.78 5135482.23 207.40
-9755441.48 5135473.73 220.90
-9755449.49 5135476.51 220.96
-9755447.31 5135473.28 220.76
-9755448.55 5135481.60 220.86
-9755443.26 5135481.20 220.95
-9755441.96 5135475.97 207.96
-9755442.90 5135477.96 220.93
-9755444.31 5135481.57 208.53
-9755447.08 5135482.82 220.91
-9755443.69 5135482.47 207.96
-9755441.70 5135476.50 220.90
-9755445.58 5135473.86 220.81
-9755446.80 5135475.02 220.80
-9755449.76 5135474.79 220.76
-9755450.34 5135473.88 220.72
-9755448.28 5135478.58 220.89
-9755448.84 5135476.26 220.90
-9755444.64 5135475.01 220.87
-9755444.29 5135482.23 207.97
-9755441.36 5135478.33 207.38
-9755444.26 5135483.34 207.97
-9755445.26 5135481.47 220.93
-9755447.09 5135476.26 220.83
-9755445.02 5135477.51 220.92
-9755444.47 5135484.24 220.96
-9755442.78 5135483.06 207.40
-9755442.13 5135482.14 218.97
-9755448.00 5135474.79 220.79
-9755444.56 5135473.26 220.84
-9755447.03 5135475.27 220.79
-9755445.17 5135483.34 208.53
-9755449.99 5135478.31 220.82
-9755445.82 5135479.22 220.98
-9755441.97 5135474.14 208.51
-9755444.45 5135473.90 220.81
-9755444.53 5135482.09 207.98
-9755449.94 5135476.82 220.97
-9755442.22 5135481.60 207.39
-9755449.90 5135484.26 220.85
-9755443.45 5135479.67 208.52
-9755442.92 5135475.95 220.87
-9755444.87 5135484.50 207.98
-9755443.15 5135476.84 208.51
-9755448.58 5135482.99 220.86
-9755444.34 5135480.63 208.52
-9755443.38 5135480.69 207.97
-9755449.12 5135474.39 220.74
-9755444.16 5135473.81 220.82
-9755447.29 5135476.82 220.90
-9755443.86 5135482.37 220.97
-9755444.14 5135479.16 221.14
-9755447.06 5135482.42 220.88
-9755445.04 5135477.93 221.02
-9755447.86 5135484.81 220.88
-9755442.48 5135484.32 206.86
-9755448.65 5135475.93 220.82
-9755448.51 5135477.40 221.00
-9755448.88 5135483.84 220.85
-9755446.79 5135474.13 220.79
-9755446.83 5135479.19 220.90
-9755448.47 5135476.59 220.93
-9755442.82 5135484.78 207.36
-9755446.25 5135481.81 220.92
-9755449.40 5135477.44 220.95
-9755443.89 5135478.81 221.10
-9755441.66 5135475.02 208.50
-9755449.71 5135479.48 220.81
-9755443.06 5135474.53 220.87
-9755441.85 5135481.90 218.87
-9755445.49 5135482.35 208.54
-9755443.16 5135477.91 220.93
-9755443.08 5135481.69 207.43
-9755447.35 5135475.39 220.79
-9755449.51 5135475.99 220.84
-9755442.88 5135481.52 220.99
-9755442.12 5135477.34 220.90
-9755445.89 5135480.07 220.91
-9755443.48 5135482.17 207.96
-9755441.68 5135477.98 207.94
-9755448.59 5135483.91 220.85
-9755446.46 5135482.15 220.90
-9755444.06 5135477.90 220.99
-9755449.10 5135479.25 220.82
-9755444.15 5135474.24 220.85
-9755449.90 5135484.49 220.87
-9755442.54 5135475.01 208.54
-9755441.71 5135473.56 208.55
-9755445.40 5135473.99 220.82
-9755442.57 5135484.12 221.14
-9755441.58 5135484.90 206.30
-9755442.23 5135482.43 207.39
-9755445.38 5135474.75 220.81
-9755446.73 5135474.76 220.81
-9755442.02 5135478.59 207.94
-9755446.81 5135478.26 221.01
-9755444.42 5135475.87 220.86
-9755442.26 5135474.74 208.54
-9755442.26 5135479.52 207.93
-9755442.34 5135483.06 221.12
-9755444.52 5135480.11 208.52
-9755445.98 5135474.25 220.83
-9755445.03 5135484.78 220.92
-9755442.67 5135476.51 220.91
-9755449.16 5135476.02 220.82
-9755444.66 5135475.91 220.83
-9755442.07 5135473.68 220.89
-9755443.15 5135478.90 207.94
-9755450.25 5135482.14 220.81
-9755442.91 5135484.21 221.11
-9755442.46 5135481.86 207.39
-9755449.78 5135475.41 220.75
-9755444.10 5135483.26 220.96
-9755445.61 5135478.59 221.07
-9755448.26 5135476.27 220.88
-9755446.39 5135483.67 220.92
-9755441.47 5135474.80 220.90
-9755446.32 5135480.15 220.87
-9755442.82 5135481.27 207.41
-9755446.30 5135481.19 220.90
-9755441.72 5135473.23 220.90
-9755447.61 5135483.90 220.90
-9755442.56 5135476.49 208.53
-9755444.19 5135481.01 208.53
-9755441.89 5135480.08 207.38
-9755444.90 5135481.84 208.53
-9755447.61 5135482.35 220.88
-9755442.84 5135484.26 207.39
-9755447.95 5135481.20 220.83
-9755442.09 5135481.75 218.97
-9755450.30 5135476.90 220.93
-9755442.05 5135476.41 208.56
-9755446.43 5135476.04 220.82
-9755442.74 5135474.80 220.87
-9755447.98 5135476.32 220.88
-9755441.56 5135483.04 206.84
-9755450.09 5135474.13 220.73
-9755443.03 5135484.83 207.38
-9755444.92 5135482.73 208.54
-9755450.03 5135479.18 220.82
-9755449.53 5135473.85 220.72
-9755442.79 5135483.89 207.40
-9755442.82 5135482.78 207.40
-9755448.21 5135479.17 220.84
-9755441.97 5135481.27 221.11
-9755446.66 5135481.22 220.91
-9755442.39 5135476.71 220.90
-9755442.48 5135483.42 219.00
-9755442.01 5135475.08 208.53
-9755443.01 5135474.90 208.49
-9755445.16 5135484.83 208.55
-9755441.74 5135474.45 208.51
-9755442.40 5135480.03 221.10
-9755443.14 5135478.03 208.52
-9755443.09 5135481.04 207.96
-9755444.35 5135480.03 220.93
-9755448.03 5135473.90 220.79
-9755443.83 5135480.65 220.94
-9755446.53 5135477.13 220.96
-9755450.05 5135477.68 220.86
-9755447.98 5135478.95 220.84
-9755443.74 5135476.46 220.88
-9755444.89 5135483.35 208.53
-9755442.18 5135483.38 207.45
-9755444.23 5135484.78 207.96
-9755442.33 5135481.25 221.00
-9755444.40 5135481.81 220.94
-9755445.78 5135482.43 220.92
-9755442.50 5135484.87 206.86
-9755449.79 5135479.85 220.79
-9755443.41 5135478.26 208.52
-9755445.53 5135479.82 220.92
-9755445.21 5135483.39 220.95
-9755442.65 5135477.74 220.91
-9755442.18 5135475.63 220.90
-9755447.31 5135484.25 220.90
-9755448.31 5135473.92 220.78
-9755442.64 5135483.19 221.11
-9755442.48 5135484.49 207.41
-9755449.09 5135476.85 220.98
-9755442.21 5135473.82 208.51
-9755443.70 5135479.50 208.52
-9755447.90 5135481.77 220.85
-9755443.80 5135479.99 208.51
-9755448.25 5135474.51 220.79
-9755449.59 5135484.86 220.86
-9755446.17 5135475.40 220.80
-9755444.69 5135474.80 220.88
-9755448.50 5135477.62 221.00
-9755443.73 5135484.19 207.93
-9755441.99 5135480.62 221.09
-9755442.91 5135481.18 220.99
-9755441.66 5135481.35 206.84
-9755443.08 5135484.53 207.39
-9755444.70 5135483.60 220.94
-9755442.53 5135477.75 207.96
-9755443.92 5135484.81 207.41
-9755441.45 5135474.44 220.89
-9755441.32 5135473.82 207.97
-9755441.44 5135476.22 207.95
-9755441.31 5135479.60 206.87
-9755441.39 5135480.15 207.37
-9755440.98 5135484.63 206.30
-9755441.23 5135480.09 206.84
-9755441.38 5135475.02 207.97
-9755441.43 5135478.23 207.94
-9755441.06 5135474.72 207.96
-9755441.27 5135485.20 206.29
-9755440.92 5135475.60 220.91
-9755441.30 5135480.10 218.80
-9755441.12 5135475.93 207.94
-9755440.95 5135474.19 220.93
-9755441.44 5135478.09 220.96
-9755441.29 5135481.30 206.83
-9755441.33 5135477.45 207.39
-9755441.22 5135475.89 220.91
-9755441.01 5135479.85 207.37
-9755441.11 5135479.98 207.40
-9755441.11 5135475.70 207.96
-9755441.01 5135484.87 206.29
-9755441.00 5135478.40 206.87
-9755440.91 5135474.78 220.94
-9755441.45 5135476.93 220.93
-9755441.14 5135473.63 220.92
-9755441.13 5135473.63 208.52
-9755440.89 5135478.44 221.10
-9755441.03 5135481.61 206.85
-9755441.38 5135473.24 208.00
-9755441.27 5135480.40 206.84
-9755441.31 5135482.20 206.84
-9755441.05 5135473.89 207.97
-9755441.18 5135474.72 220.94
-9755441.01 5135480.15 206.83
-9755441.35 5135473.88 208.54
-9755439.33 5135485.78 205.47
-9755440.68 5135485.78 206.11
-9755438.93 5135485.84 205.15
-9755440.12 5135486.44 205.68
-9755439.21 5135485.86 205.28
-9755439.53 5135485.83 205.52
-9755438.83 5135485.82 203.57
-9755436.54 5135486.45 203.47
-9755438.44 5135485.94 205.12
-9755434.81 5135485.55 203.39
-9755434.50 5135485.78 203.88
-9755439.22 5135485.79 205.21
-9755438.28 5135486.25 203.50
-9755437.48 5135485.28 203.45
-9755434.54 5135485.59 203.97
-9755437.19 5135485.61 203.47
-9755434.21 5135486.18 203.80
-9755435.06 5135486.47 203.99
-9755438.10 5135485.28 204.02
-9755438.99 5135486.21 203.52
-9755438.32 5135486.04 205.64
-9755439.23 5135486.37 205.30
-9755435.63 5135486.16 203.47
-9755438.07 5135485.33 203.48
-9755437.71 5135485.62 203.47
-9755434.82 5135485.90 203.37
-9755437.71 5135485.93 203.48
-9755439.50 5135485.50 205.51
-9755434.61 5135485.85 203.35
-9755440.63 5135486.93 206.54
-9755438.32 5135486.53 203.51
-9755439.10 5135486.61 203.57
-9755434.74 5135486.51 203.40
-9755434.21 5135486.48 203.79
-9755436.23 5135486.52 203.47
-9755440.77 5135472.03 208.50
-9755437.86 5135472.38 206.99
-9755432.19 5135470.98 204.51
-9755432.55 5135470.09 204.58
-9755440.65 5135470.18 220.89
-9755430.76 5135470.45 204.03
-9755433.37 5135471.02 205.02
-9755431.93 5135471.05 204.37
-9755438.11 5135472.11 207.18
-9755432.56 5135470.70 204.59
-9755435.33 5135470.04 206.20
-9755438.46 5135471.52 207.43
-9755431.62 5135470.42 204.59
-9755435.48 5135472.30 203.58
-9755432.11 5135470.27 204.04
-9755433.98 5135471.86 205.17
-9755430.77 5135471.15 203.73
-9755432.74 5135472.52 204.52
-9755435.77 5135471.79 206.26
-9755437.54 5135472.69 206.81
-9755440.57 5135470.88 208.53
-9755435.54 5135470.95 206.11
-9755433.11 5135470.10 205.14
-9755433.36 5135472.18 205.44
-9755441.20 5135472.60 220.88
-9755440.52 5135471.10 208.50
-9755440.86 5135472.87 208.52
-9755431.63 5135471.89 204.02
-9755433.07 5135471.58 204.77
-9755432.50 5135472.98 204.10
-9755432.22 5135470.42 204.57
-9755439.13 5135470.85 220.94
-9755439.65 5135471.47 208.00
-9755439.02 5135470.31 207.95
-9755433.98 5135471.01 205.33
-9755429.28 5135471.03 203.35
-9755439.69 5135472.64 207.94
-9755428.94 5135471.07 203.80
-9755440.54 5135472.03 220.91
-9755429.82 5135471.01 203.40
-9755433.14 5135470.69 205.00
-9755440.48 5135470.05 208.54
-9755431.93 5135471.00 204.14
-9755433.10 5135470.97 204.95
-9755438.41 5135470.30 207.39
-9755432.53 5135472.80 204.66
-9755436.36 5135472.14 206.33
-9755435.17 5135473.13 203.57
-9755432.47 5135473.14 203.50
-9755437.80 5135470.92 206.87
-9755430.73 5135472.23 203.61
-9755436.47 5135473.13 206.30
-9755430.73 5135471.93 203.63
-9755434.91 5135471.00 205.84
-9755439.90 5135470.54 208.33
-9755440.46 5135472.39 207.97
-9755435.80 5135470.32 206.27
-9755435.17 5135470.72 205.95
-9755437.26 5135472.40 206.69
-9755434.09 5135472.20 203.56
-9755440.53 5135471.78 208.34
-9755436.12 5135472.30 203.61
-9755435.14 5135470.64 205.97
-9755437.26 5135470.65 206.84
-9755436.36 5135470.65 206.27
-9755433.34 5135472.88 203.49
-9755431.89 5135473.11 203.49
-9755438.97 5135470.27 207.44
-9755436.66 5135472.11 206.48
-9755434.83 5135473.12 203.56
-9755438.24 5135471.14 221.09
-9755428.98 5135471.60 203.77
-9755440.25 5135471.81 208.30
-9755437.98 5135470.80 221.09
-9755432.50 5135471.01 204.60
-9755434.13 5135471.91 205.92
-9755429.83 5135472.51 203.37
-9755439.94 5135470.04 207.98
-9755433.35 5135471.32 204.99
-9755431.33 5135471.94 203.87
-9755438.46 5135472.10 207.31
-9755431.06 5135471.02 204.00
-9755434.75 5135471.75 203.60
-9755432.86 5135470.04 204.59
-9755439.10 5135472.65 207.48
-9755433.35 5135472.50 203.51
-9755431.05 5135471.88 203.79
-9755429.55 5135471.70 203.37
-9755439.58 5135471.78 207.97
-9755439.56 5135470.82 220.90
-9755434.57 5135472.60 203.55
-9755432.48 5135472.22 204.36
-9755432.47 5135472.80 203.49
-9755431.67 5135472.19 204.03
-9755435.19 5135471.73 205.86
-9755439.78 5135471.08 220.90
-9755439.04 5135472.09 207.60
-9755432.51 5135472.67 204.38
-9755439.50 5135471.45 220.94
-9755434.25 5135470.97 205.50
-9755440.16 5135471.83 208.19
-9755439.71 5135471.76 220.92
-9755434.88 5135470.69 205.85
-9755440.06 5135470.26 220.93
-9755440.49 5135470.53 208.52
-9755440.41 5135471.68 220.90
-9755439.46 5135472.57 220.93
-9755441.12 5135473.26 207.98
-9755434.61 5135470.70 205.71
-9755432.57 5135472.73 204.98
-9755430.77 5135470.77 203.45
-9755436.36 5135472.53 203.61
-9755440.68 5135471.43 220.91
-9755439.39 5135473.17 221.01
-9755436.90 5135472.45 206.53
-9755438.29 5135470.88 221.08
-9755435.13 5135472.56 203.56
-9755435.42 5135473.11 203.57
-9755429.24 5135470.81 203.37
-9755434.92 5135472.00 203.58
-9755433.97 5135472.87 203.52
-9755439.36 5135471.52 207.92
-9755439.68 5135470.04 220.91
-9755434.63 5135471.55 205.54
-9755431.33 5135471.07 204.01
-9755429.32 5135470.47 203.37
-9755433.71 5135470.94 205.23
-9755437.52 5135472.41 206.83
-9755438.47 5135470.27 220.97
-9755436.68 5135471.79 206.50
-9755435.49 5135471.57 206.16
-9755439.63 5135471.74 207.97
-9755437.58 5135471.49 206.99
-9755439.08 5135471.19 207.77
-9755430.73 5135471.35 203.67
-9755429.28 5135470.18 203.38
-9755438.20 5135471.46 207.30
-9755435.44 5135470.36 206.22
-9755437.27 5135470.05 206.85
-9755433.73 5135471.60 205.15
-9755432.69 5135472.75 204.56
-9755433.67 5135472.64 203.51
-9755440.50 5135472.68 207.97
-9755433.09 5135472.19 204.70
-9755439.25 5135471.71 220.97
-9755439.88 5135471.50 208.12
-9755431.63 5135471.02 204.04
-9755429.30 5135470.45 204.02
-9755436.36 5135473.16 203.59
-9755434.52 5135473.15 203.55
-9755436.80 5135471.27 206.71
-9755437.51 5135473.01 206.74
-9755435.73 5135471.25 206.16
-9755434.89 5135472.31 203.56
-9755434.03 5135470.37 205.50
-9755431.62 5135471.61 204.13
-9755435.57 5135471.85 206.13
-9755429.86 5135471.90 203.36
-9755434.01 5135472.04 203.57
-9755440.22 5135470.90 208.39
-9755436.33 5135472.84 203.61
-9755438.15 5135470.30 207.38
-9755439.03 5135471.17 207.75
-9755437.27 5135470.35 206.85
-9755438.88 5135471.38 221.00
-9755437.50 5135471.80 206.87
-9755436.97 5135470.09 206.84
-9755434.21 5135472.00 205.97
-9755438.43 5135471.82 207.38
-9755439.67 5135472.96 220.96
-9755431.93 5135471.91 204.18
-9755440.07 5135471.16 220.92
-9755436.66 5135470.67 206.28
-9755430.48 5135472.57 204.02
-9755433.79 5135471.26 205.20
-9755434.48 5135471.87 206.00
-9755439.61 5135471.17 208.00
-9755430.13 5135472.88 203.36
-9755433.42 5135471.90 204.91
-9755432.84 5135471.32 204.74
-9755439.58 5135473.02 207.40
-9755436.08 5135471.57 206.28
-9755434.30 5135471.84 205.37
-9755435.79 5135470.68 206.26
-9755437.27 5135471.55 206.85
-9755434.88 5135471.27 205.70
-9755440.81 5135472.65 207.98
-9755438.12 5135473.06 206.85
-9755437.52 5135470.30 206.86
-9755438.71 5135472.45 207.38
-9755438.64 5135485.57 205.12
-9755438.62 5135473.27 207.41
-9755440.85 5135475.17 220.91
-9755440.70 5135483.74 206.29
-9755440.77 5135477.98 207.39
-9755438.99 5135485.24 205.14
-9755438.34 5135485.18 205.11
-9755438.98 5135480.74 206.24
-9755440.86 5135475.32 207.43
-9755440.82 5135478.03 221.07
-9755440.70 5135482.56 206.30
-9755440.76 5135476.57 207.40
-9755437.20 5135478.44 205.16
-9755440.40 5135481.61 206.28
-9755435.10 5135481.12 203.46
-9755439.03 5135483.96 205.68
-9755438.98 5135480.25 206.22
-9755435.67 5135476.07 205.15
-9755439.88 5135484.34 205.73
-9755430.98 5135474.91 203.36
-9755440.66 5135478.38 218.95
-9755440.81 5135479.19 207.38
-9755437.24 5135476.61 205.73
-9755433.10 5135473.44 203.50
-9755436.66 5135476.27 205.71
-9755438.06 5135485.02 203.48
-9755440.71 5135475.32 207.95
-9755437.23 5135475.38 206.26
-9755437.20 5135480.87 203.43
-9755432.16 5135477.55 204.00
-9755434.86 5135477.01 203.46
-9755437.48 5135475.44 205.73
-9755437.47 5135483.39 205.12
-9755439.26 5135480.97 206.24
-9755438.38 5135481.11 205.69
-9755439.03 5135475.13 206.84
-9755436.62 5135474.25 206.09
-9755440.01 5135484.83 206.09
-9755436.25 5135476.49 205.75
-9755439.83 5135482.51 206.29
-9755436.64 5135478.40 205.16
-9755438.96 5135479.25 206.27
-9755436.25 5135481.77 203.44
-9755437.79 5135475.71 206.27
-9755438.04 5135481.35 205.66
-9755434.27 5135476.40 203.48
-9755439.80 5135483.75 205.72
-9755439.95 5135474.12 207.95
-9755438.99 5135477.42 206.78
-9755440.01 5135476.24 207.33
-9755434.16 5135483.83 203.40
-9755438.10 5135475.95 206.28
-9755438.99 5135473.96 206.86
-9755437.45 5135476.56 205.73
-9755438.99 5135480.75 205.72
-9755438.12 5135483.41 205.13
-9755435.68 5135484.40 203.45
-9755435.11 5135476.32 205.67
-9755440.49 5135476.51 207.39
-9755438.12 5135478.39 206.21
-9755438.37 5135477.48 206.28
-9755440.46 5135474.14 207.97
-9755439.14 5135478.28 206.78
-9755440.43 5135483.75 206.28
-9755439.17 5135475.00 220.49
-9755435.70 5135474.34 205.66
-9755435.73 5135475.76 205.30
-9755431.92 5135478.18 203.35
-9755440.50 5135475.92 207.40
-9755440.58 5135474.79 220.94
-9755437.15 5135475.44 205.72
-9755435.90 5135479.24 205.64
-9755439.26 5135482.50 205.73
-9755436.59 5135477.78 205.14
-9755435.72 5135481.45 203.45
-9755436.05 5135474.17 206.43
-9755437.17 5135476.34 205.73
-9755440.73 5135477.45 207.39
-9755440.23 5135473.21 207.97
-9755436.95 5135473.22 206.33
-9755437.19 5135477.75 205.68
-9755439.49 5135475.01 206.87
-9755434.52 5135478.51 203.45
-9755435.74 5135477.93 203.47
-9755438.98 5135478.98 206.27
-9755431.02 5135474.06 203.99
-9755439.75 5135484.66 205.73
-9755435.39 5135478.17 203.46
-9755437.47 5135484.76 203.45
-9755435.36 5135477.76 205.60
-9755435.78 5135473.95 206.38
-9755437.15 5135484.15 203.44
-9755439.60 5135481.44 205.73
-9755434.19 5135484.06 204.00
-9755436.33 5135478.12 205.15
-9755438.04 5135482.85 205.14
-9755435.51 5135474.53 205.47
-9755440.66 5135478.98 206.83
-9755433.30 5135481.71 203.38
-9755433.70 5135482.62 203.37
-9755438.69 5135480.84 206.22
-9755435.79 5135478.99 205.00
-9755437.42 5135483.26 203.46
-9755437.80 5135484.06 205.65
-9755433.06 5135478.47 203.45
-9755434.82 5135479.98 203.46
-9755437.20 5135481.36 205.14
-9755431.32 5135473.74 203.48
-9755436.87 5135483.27 203.43
-9755434.28 5135477.57 203.47
-9755431.94 5135474.90 203.48
-9755437.93 5135483.20 205.69
-9755436.32 5135473.42 206.29
-9755440.50 5135476.22 207.40
-9755439.78 5135475.28 221.04
-9755432.15 5135476.37 203.47
-9755437.23 5135473.89 206.28
-9755434.25 5135477.26 203.46
-9755437.45 5135480.46 205.14
-9755435.41 5135477.31 203.46
-9755440.21 5135473.52 207.96
-9755439.14 5135473.86 221.08
-9755435.71 5135478.32 205.67
-9755432.48 5135479.33 203.98
-9755433.05 5135479.92 204.00
-9755435.76 5135473.39 203.59
-9755437.81 5135476.60 206.25
-9755439.72 5135482.07 205.74
-9755440.05 5135473.23 207.38
-9755432.48 5135475.46 203.48
-9755430.74 5135474.05 203.37
-9755436.37 5135475.69 205.71
-9755436.53 5135481.75 203.45
-9755437.45 5135481.04 205.13
-9755436.29 5135476.90 205.15
-9755435.23 5135476.05 205.67
-9755439.56 5135482.20 205.74
-9755436.25 5135484.11 203.45
-9755435.72 5135474.52 206.18
-9755440.23 5135477.60 207.36
-9755440.11 5135483.07 206.28
-9755440.71 5135484.86 206.27
-9755434.78 5135484.46 204.00
-9755439.58 5135481.40 206.28
-9755436.92 5135479.90 205.12
-9755439.98 5135476.46 220.46
-9755437.16 5135480.17 205.13
-9755437.13 5135483.25 203.44
-9755435.05 5135483.83 203.46
-9755436.91 5135482.10 204.88
-9755432.41 5135479.05 203.36
-9755435.75 5135479.67 203.44
-9755438.98 5135477.27 206.80
-9755436.61 5135476.68 205.15
-9755437.53 5135473.36 206.29
-9755437.50 5135476.34 205.73
-9755438.70 5135475.12 206.83
-9755440.43 5135478.95 206.83
-9755439.02 5135484.51 205.53
-9755431.31 5135476.42 203.39
-9755437.50 5135483.55 203.46
-9755437.54 5135476.63 206.17
-9755438.95 5135476.92 206.27
-9755433.32 5135479.67 203.46
-9755434.20 5135484.34 203.36
-9755437.80 5135483.41 205.65
-9755434.26 5135476.67 203.47
-9755434.24 5135484.97 203.35
-9755439.26 5135484.04 205.16
-9755433.06 5135481.42 203.38
-9755435.63 5135476.44 203.55
-9755440.72 5135474.73 207.96
-9755431.64 5135473.42 203.50
-9755440.66 5135485.21 206.17
-9755437.38 5135479.31 205.75
-9755440.03 5135476.08 206.88
-9755436.06 5135474.83 205.69
-9755438.95 5135476.42 206.27
-9755438.95 5135481.95 205.71
-9755434.77 5135482.01 203.45
-9755434.18 5135481.69 203.47
-9755438.70 5135480.55 206.23
-9755439.40 5135475.26 220.50
-9755440.47 5135474.38 207.97
-9755440.47 5135475.33 207.41
-9755440.19 5135474.77 207.40
-9755433.91 5135480.27 203.46
-9755440.59 5135478.11 220.48
-9755434.23 5135475.77 203.50
-9755435.52 5135475.96 203.53
-9755434.54 5135485.01 203.36
-9755439.86 5135481.65 206.27
-9755439.80 5135476.07 221.08
-9755433.40 5135475.83 203.48
-9755438.04 5135483.54 203.46
-9755438.13 5135473.66 206.83
-9755436.93 5135473.19 203.63
-9755433.35 5135477.30 203.47
-9755433.42 5135474.31 203.50
-9755437.78 5135475.13 206.28
-9755440.65 5135475.26 220.93
-9755439.44 5135474.38 221.07
-9755439.82 5135485.22 205.71
-9755436.54 5135485.01 203.45
-9755433.10 5135480.26 203.43
-9755438.93 5135481.33 205.71
-9755439.59 5135473.62 207.40
-9755434.21 5135482.29 203.45
-9755437.18 5135473.61 203.64
-9755436.30 5135479.86 205.65
-9755432.75 5135478.46 203.45
-9755439.33 5135474.81 220.49
-9755435.75 5135477.24 203.51
-9755432.48 5135477.87 203.48
-9755440.14 5135483.41 206.27
-9755437.84 5135483.81 205.12
-9755435.80 5135474.48 205.68
-9755440.42 5135484.32 205.74
-9755439.53 5135482.22 206.20
-9755436.27 5135484.41 203.45
-9755437.51 5135474.46 206.27
-9755435.12 5135480.24 203.45
-9755436.83 5135481.46 203.47
-9755435.36 5135484.10 203.45
-9755439.50 5135483.45 205.72
-9755433.30 5135482.28 203.34
-9755438.02 5135477.77 205.73
-9755431.63 5135477.30 203.38
-9755436.56 5135476.90 205.17
-9755438.92 5135481.67 205.71
-9755435.97 5135479.71 203.44
-9755439.14 5135474.63 221.08
-9755438.11 5135478.03 205.73
-9755436.03 5135475.36 205.53
-9755432.98 5135480.81 203.37
-9755435.72 5135479.04 203.45
-9755436.58 5135479.56 205.13
-9755438.99 5135478.63 206.28
-9755436.37 5135477.51 205.13
-9755437.55 5135474.20 206.29
-9755438.41 5135479.25 205.70
-9755436.74 5135475.07 205.98
-9755440.79 5135479.53 206.83
-9755437.46 5135482.63 203.46
-9755432.42 5135478.79 203.37
-9755436.36 5135476.05 205.70
-9755439.46 5135482.57 206.26
-9755434.24 5135479.36 203.45
-9755439.94 5135473.21 220.95
-9755440.53 5135475.34 207.94
-9755435.36 5135477.64 203.47
-9755436.60 5135474.01 206.18
-9755440.18 5135482.50 206.28
-9755435.04 5135482.92 203.45
-9755438.04 5135482.55 205.15
-9755435.14 5135477.08 203.46
-9755434.28 5135474.06 203.53
-9755433.32 5135480.22 203.46
-9755440.68 5135483.97 206.28
-9755432.05 5135478.67 203.84
-9755433.69 5135475.80 203.48
-9755433.60 5135482.36 203.37
-9755434.18 5135484.73 203.36
-9755435.15 5135474.86 205.85
-9755430.77 5135473.72 204.00
-9755439.93 5135483.38 206.29
-9755436.07 5135478.98 205.65
-9755434.22 5135474.94 203.51
-9755440.31 5135475.95 207.19
-9755438.81 5135484.08 205.16
-9755434.50 5135484.70 204.00
-9755431.56 5135476.68 203.40
-9755440.44 5135477.47 207.39
-9755438.40 5135474.80 206.83
-9755433.10 5135474.93 203.50
-9755439.99 5135482.80 205.74
-9755439.73 5135478.33 206.30
-9755440.78 5135478.89 207.41
-9755439.68 5135475.55 207.42
-9755440.49 5135478.71 206.83
-9755436.85 5135483.82 203.43
-9755432.20 5135476.16 203.47
-9755435.14 5135477.59 203.46
-9755440.30 5135473.25 220.90
-9755440.76 5135476.23 207.40
-9755437.54 5135474.77 206.29
-9755431.87 5135476.66 203.99
-9755439.88 5135477.13 206.85
-9755438.34 5135484.43 203.51
-9755436.61 5135479.65 203.46
-9755441.16 5135473.23 208.53
-9755440.32 5135477.28 221.08
-9755437.48 5135481.36 205.14
-9755438.39 5135482.57 205.14
-9755434.81 5135480.24 203.46
-9755437.32 5135481.15 203.51
-9755434.53 5135474.90 203.51
-9755439.29 5135473.90 207.37
-9755437.44 5135477.06 206.08
-9755438.73 5135475.66 206.83
-9755433.07 5135472.90 203.50
-9755436.85 5135480.00 205.76
-9755438.11 5135474.81 206.30
-9755438.45 5135473.57 206.85
-9755438.97 5135478.06 206.29
-9755439.50 5135473.54 221.00
-9755431.24 5135477.24 203.40
-9755434.20 5135485.06 203.98
-9755440.48 5135479.23 206.83
-9755433.66 5135478.18 203.45
-9755436.01 5135478.11 205.14
-9755440.44 5135474.99 207.92
-9755435.78 5135477.74 205.13
-9755434.52 5135481.43 203.46
-9755431.59 5135473.72 203.49
-9755438.76 5135473.83 207.38
-9755439.93 5135475.05 207.40
