-9755101.60 5135508.91 186.90
-9755098.96 5135507.48 181.41
-9755102.19 5135507.53 186.58
-9755100.08 5135508.44 184.88
-9755101.42 5135506.39 186.80
-9755104.18 5135508.06 187.90
-9755103.68 5135504.87 181.48
-9755102.19 5135507.61 187.30
-9755102.31 5135508.38 189.14
-9755101.87 5135507.01 186.47
-9755103.13 5135507.52 186.78
-9755101.09 5135507.50 186.93
-9755104.27 5135507.39 186.25
-9755098.36 5135503.08 181.38
-9755104.24 5135508.69 187.73
-9755104.48 5135506.72 185.20
-9755103.16 5135507.58 186.25
-9755102.58 5135509.34 186.00
-9755100.16 5135507.23 181.41
-9755100.31 5135507.92 187.03
-9755103.67 5135507.43 186.90
-9755100.73 5135505.42 181.42
-9755104.13 5135507.13 187.14
-9755104.01 5135507.08 185.48
-9755101.88 5135508.53 188.64
-9755101.91 5135506.61 187.38
-9755103.21 5135508.76 186.81
-9755101.32 5135508.13 181.41
-9755102.61 5135508.15 187.13
-9755100.40 5135507.24 185.92
-9755102.78 5135507.21 186.62
-9755099.00 5135499.82 181.39
-9755104.26 5135508.75 187.15
-9755101.98 5135506.67 188.11
-9755098.41 5135504.85 181.37
-9755103.77 5135506.99 187.76
-9755102.83 5135503.07 181.46
-9755102.55 5135506.33 181.44
-9755099.57 5135509.10 184.76
-9755103.84 5135508.40 187.18
-9755098.74 5135499.79 181.38
-9755099.51 5135508.24 184.77
-9755103.14 5135506.34 187.83
-9755101.33 5135504.27 181.43
-9755103.68 5135506.07 181.48
-9755099.85 5135508.93 186.55
-9755101.44 5135508.41 186.88
-9755103.60 5135508.98 188.21
-9755100.00 5135507.06 185.57
-9755101.58 5135507.22 181.43
-9755101.42 5135507.61 187.00
-9755103.10 5135502.80 181.50
-9755102.79 5135507.21 188.12
-9755101.63 5135507.68 188.18
-9755101.94 5135509.13 188.00
-9755101.01 5135507.82 185.42
-9755101.33 5135507.21 181.43
-9755100.98 5135509.15 185.31
-9755103.70 5135500.13 181.55
-9755099.79 5135508.28 185.17
-9755102.53 5135507.76 187.98
-9755101.33 5135500.41 181.41
-9755101.27 5135508.05 188.13
-9755102.18 5135506.07 181.44
-9755099.01 5135500.41 181.40
-9755100.76 5135508.64 181.43
-9755103.47 5135507.60 185.77
-9755101.31 5135507.25 185.47
-9755104.40 5135508.43 187.91
-9755098.09 5135503.36 181.34
-9755104.26 5135507.66 188.88
-9755103.17 5135499.83 181.49
-9755100.43 5135501.03 181.40
-9755103.08 5135507.47 188.42
-9755102.59 5135508.18 186.42
-9755102.05 5135507.25 187.21
-9755099.83 5135508.34 184.64
-9755102.61 5135507.02 187.42
-9755102.84 5135507.67 188.08
-9755102.34 5135506.53 186.85
-9755103.46 5135508.69 188.45
-9755101.98 5135508.20 185.61
-9755098.11 5135504.89 181.33
-9755103.13 5135503.96 181.48
-9755100.20 5135507.60 187.52
-9755103.65 5135506.49 185.63
-9755098.41 5135501.58 181.38
-9755101.68 5135507.94 189.06
-9755103.54 5135508.47 187.42
-9755101.68 5135508.76 188.36
-9755103.72 5135506.05 185.74
-9755101.64 5135499.78 181.42
-9755102.52 5135508.04 181.42
-9755101.63 5135508.20 185.96
-9755103.55 5135508.44 189.12
-9755100.77 5135507.67 186.89
-9755104.00 5135507.79 189.37
-9755102.69 5135508.81 186.07
-9755103.13 5135507.64 187.19
-9755102.74 5135506.99 181.46
-9755101.43 5135508.43 185.68
-9755103.63 5135508.15 181.48
-9755096.54 5135509.52 181.35
-9755097.20 5135509.22 182.58
-9755093.34 5135509.53 181.42
-9755092.49 5135509.50 181.41
-9755096.61 5135508.92 182.56
-9755096.30 5135508.97 181.37
-9755097.18 5135504.87 181.32
-9755095.43 5135506.58 181.37
-9755093.06 5135506.61 181.42
-9755093.93 5135502.74 181.39
-9755093.37 5135506.25 181.41
-9755093.08 5135502.97 181.40
-9755095.15 5135503.00 181.36
-9755095.69 5135508.35 181.37
-9755097.26 5135504.51 181.32
-9755093.97 5135501.61 181.38
-9755097.74 5135508.69 182.49
-9755094.26 5135507.23 181.39
-9755094.60 5135503.03 181.37
-9755097.26 5135503.07 181.31
-9755096.87 5135508.65 182.53
-9755096.31 5135508.64 182.51
-9755096.34 5135506.33 181.35
-9755096.06 5135508.32 182.50
-9755093.65 5135499.77 181.39
-9755097.10 5135506.89 181.34
-9755096.07 5135500.40 181.33
-9755095.13 5135506.31 181.37
-9755096.31 5135502.52 181.33
-9755096.63 5135508.34 182.47
-9755093.72 5135504.17 181.40
-9755095.72 5135502.71 181.35
-9755097.22 5135503.29 181.31
-9755097.77 5135499.82 181.30
-9755096.35 5135500.13 181.32
-9755093.10 5135500.96 181.41
-9755094.24 5135508.65 181.40
-9755095.75 5135501.84 181.34
-9755092.20 5135506.24 181.42
-9755091.90 5135501.53 181.42
-9755096.26 5135508.30 181.36
-9755096.60 5135506.30 181.34
-9755095.73 5135499.84 181.34
-9755092.17 5135508.39 181.41
-9755093.37 5135503.64 181.41
-9755095.14 5135503.92 181.35
-9755093.43 5135499.79 181.39
-9755096.39 5135508.22 182.50
-9755094.80 5135508.66 181.39
-9755097.11 5135508.34 182.42
-9755096.64 5135508.68 182.05
-9755091.88 5135505.33 181.43
-9755082.90 5135522.47 181.61
-9755091.55 5135509.27 181.42
-9755088.34 5135509.77 181.45
-9755082.88 5135510.64 183.32
-9755082.42 5135509.54 181.15
-9755082.43 5135510.32 182.06
-9755082.47 5135509.43 181.67
-9755083.63 5135510.96 181.63
-9755082.39 5135509.02 181.87
-9755082.56 5135510.75 181.02
-9755082.68 5135510.70 181.61
-9755081.52 5135510.75 179.98
-9755089.22 5135510.44 181.44
-9755081.56 5135509.53 180.23
-9755082.42 5135509.52 180.11
-9755082.44 5135509.77 181.61
-9755083.06 5135510.91 183.32
-9755082.68 5135510.34 181.61
-9755083.91 5135509.47 181.63
-9755086.86 5135510.41 181.45
-9755082.42 5135509.76 181.16
-9755083.56 5135509.50 181.63
-9755082.16 5135511.03 180.04
-9755082.67 5135510.90 181.61
-9755082.71 5135510.40 180.10
-9755087.12 5135511.00 181.44
-9755081.85 5135510.47 180.03
-9755082.46 5135510.01 182.57
-9755082.58 5135510.46 180.69
-9755086.27 5135510.67 181.45
-9755082.43 5135510.59 180.59
-9755082.88 5135510.28 180.12
-9755088.59 5135511.03 181.45
-9755082.40 5135509.18 181.34
-9755081.52 5135510.12 180.01
-9755082.39 5135509.39 182.19
-9755082.73 5135510.94 181.03
-9755082.39 5135510.23 181.47
-9755086.27 5135509.52 181.46
-9755082.09 5135510.16 180.09
-9755082.66 5135509.25 180.87
-9755082.40 5135510.61 181.37
-9755082.65 5135509.38 181.16
-9755088.04 5135509.51 181.45
-9755081.87 5135509.29 180.40
-9755091.79 5135515.44 181.42
-9755091.54 5135515.21 181.43
-9755091.53 5135516.91 181.43
-9755091.18 5135519.01 181.42
-9755091.51 5135521.33 181.42
-9755091.25 5135513.42 181.43
-9755082.47 5135522.30 181.52
-9755082.95 5135522.43 182.57
-9755082.25 5135511.24 182.12
-9755089.18 5135521.05 181.44
-9755082.95 5135514.03 180.51
-9755087.70 5135511.28 181.45
-9755082.35 5135514.82 181.82
-9755083.08 5135516.02 180.29
-9755082.99 5135514.17 182.60
-9755082.42 5135511.56 181.88
-9755082.69 5135514.11 180.84
-9755082.36 5135520.80 182.07
-9755082.59 5135513.46 180.11
-9755083.06 5135520.81 180.08
-9755087.41 5135517.24 181.45
-9755089.73 5135522.30 181.43
-9755082.83 5135519.38 180.41
-9755090.32 5135516.00 181.43
-9755090.08 5135511.92 181.44
-9755085.64 5135511.59 181.48
-9755082.39 5135520.21 181.95
-9755082.39 5135513.14 180.11
-9755082.38 5135516.66 181.66
-9755082.43 5135510.75 180.05
-9755089.51 5135518.38 181.45
-9755082.57 5135517.23 181.02
-9755082.74 5135516.64 180.86
-9755082.42 5135514.03 181.51
-9755082.69 5135521.28 181.93
-9755087.70 5135519.54 181.45
-9755082.70 5135518.46 181.65
-9755085.07 5135512.73 181.61
-9755082.34 5135516.30 181.17
-9755082.68 5135520.36 182.58
-9755087.05 5135521.32 181.45
-9755082.57 5135520.76 181.90
-9755082.75 5135515.36 182.58
-9755082.89 5135520.13 181.65
-9755086.52 5135512.15 181.46
-9755085.39 5135513.89 181.50
-9755082.71 5135516.84 181.15
-9755089.77 5135511.60 181.44
-9755082.67 5135515.44 180.12
-9755082.37 5135520.79 182.56
-9755082.45 5135519.96 181.06
-9755083.88 5135511.55 181.62
-9755081.55 5135513.09 179.91
-9755083.14 5135517.93 180.27
-9755081.52 5135519.32 179.91
-9755082.59 5135518.61 180.97
-9755084.77 5135511.58 181.61
-9755082.38 5135511.89 181.33
-9755082.38 5135518.77 180.63
-9755083.26 5135522.18 182.57
-9755082.61 5135515.92 180.73
-9755082.37 5135512.56 180.08
-9755090.64 5135516.56 181.44
-9755081.76 5135520.49 179.92
-9755082.67 5135519.29 180.87
-9755081.51 5135517.54 179.94
-9755081.79 5135521.14 180.18
-9755082.63 5135518.82 182.10
-9755090.35 5135512.77 181.43
-9755082.57 5135512.83 181.58
-9755082.44 5135513.30 182.56
-9755083.02 5135515.08 182.56
-9755082.76 5135516.42 180.77
-9755082.75 5135512.37 181.64
-9755082.75 5135517.15 181.68
-9755082.55 5135517.18 181.21
-9755082.66 5135522.60 180.04
-9755083.28 5135512.16 181.63
-9755082.45 5135513.10 180.71
-9755082.37 5135515.96 180.63
-9755081.53 5135515.79 179.93
-9755082.05 5135518.45 179.97
-9755082.63 5135520.16 181.62
-9755082.61 5135518.18 180.81
-9755087.15 5135515.15 181.47
-9755082.98 5135518.31 182.57
-9755082.64 5135514.59 181.19
-9755082.38 5135519.26 180.06
-9755082.33 5135517.53 181.85
-9755082.57 5135519.10 180.82
-9755082.33 5135517.74 180.87
-9755090.87 5135521.69 181.41
-9755082.63 5135512.20 181.52
-9755082.64 5135511.79 180.44
-9755082.99 5135520.37 182.60
-9755082.04 5135522.03 180.11
-9755082.43 5135511.58 181.30
-9755087.98 5135518.63 181.45
-9755082.69 5135519.55 181.22
-9755082.92 5135516.66 180.18
-9755082.62 5135512.72 180.96
-9755088.26 5135519.63 181.44
-9755090.94 5135514.55 181.43
-9755082.37 5135514.01 181.34
-9755082.84 5135518.83 180.38
-9755088.00 5135514.56 181.44
-9755082.48 5135513.12 181.52
-9755082.62 5135516.56 181.58
-9755088.35 5135517.21 181.45
-9755082.66 5135520.73 181.66
-9755082.75 5135519.23 181.69
-9755082.04 5135516.07 179.97
-9755082.64 5135516.16 181.09
-9755082.72 5135518.00 181.66
-9755082.41 5135519.21 181.93
-9755084.19 5135517.78 181.63
-9755082.37 5135517.26 180.05
-9755082.65 5135517.73 181.34
-9755082.37 5135517.84 180.03
-9755087.13 5135514.25 181.46
-9755081.79 5135513.64 179.98
-9755082.68 5135518.17 180.20
-9755082.53 5135519.23 180.71
-9755082.74 5135512.97 182.58
-9755082.39 5135520.39 181.97
-9755082.77 5135515.19 181.62
-9755084.74 5135520.74 181.61
-9755082.69 5135516.00 181.95
-9755082.51 5135517.17 181.70
-9755083.00 5135514.51 182.58
-9755082.75 5135514.25 180.13
-9755082.32 5135518.46 180.02
-9755086.80 5135512.82 181.45
-9755084.75 5135515.43 181.61
-9755082.60 5135517.46 181.01
-9755082.39 5135512.23 181.21
-9755087.08 5135522.55 181.47
-9755082.74 5135512.76 180.09
-9755088.39 5135511.27 181.45
-9755082.63 5135519.45 181.62
-9755082.40 5135516.97 180.07
-9755082.34 5135519.95 180.03
-9755082.70 5135517.70 182.58
-9755082.35 5135515.00 182.43
-9755082.85 5135515.79 180.81
-9755083.25 5135513.92 181.62
-9755086.23 5135516.02 181.47
-9755085.32 5135513.01 181.50
-9755082.06 5135521.68 180.17
-9755087.12 5135519.28 181.46
-9755082.69 5135513.62 181.23
-9755082.37 5135521.36 180.06
-9755082.41 5135511.31 180.07
-9755089.52 5135513.03 181.44
-9755082.95 5135516.55 182.55
-9755082.08 5135516.95 180.02
-9755082.56 5135514.60 180.61
-9755085.95 5135515.42 181.47
-9755084.74 5135518.03 181.62
-9755083.85 5135521.00 181.62
-9755082.97 5135515.41 180.16
-9755090.10 5135516.01 181.44
-9755083.62 5135511.87 181.62
-9755085.06 5135516.33 181.60
-9755085.07 5135518.11 181.61
-9755082.30 5135514.60 182.01
-9755082.34 5135521.95 180.12
-9755084.39 5135521.91 181.62
-9755087.99 5135513.08 181.46
-9755082.73 5135517.12 182.57
-9755082.46 5135513.87 182.58
-9755084.78 5135512.14 181.62
-9755081.79 5135515.23 179.95
-9755088.34 5135511.86 181.45
-9755084.74 5135511.25 181.62
-9755082.81 5135519.87 180.27
-9755082.89 5135515.21 180.12
-9755087.97 5135518.97 181.45
-9755082.64 5135519.60 181.88
-9755082.42 5135514.44 182.57
-9755084.76 5135519.52 181.60
-9755082.64 5135512.50 180.12
-9755082.65 5135521.09 180.14
-9755086.87 5135514.49 181.45
-9755082.48 5135511.20 180.19
-9755082.62 5135521.89 181.80
-9755083.83 5135519.56 181.63
-9755088.88 5135514.24 181.44
-9755082.91 5135519.72 180.03
-9755082.67 5135516.39 181.58
-9755082.69 5135512.20 181.29
-9755088.53 5135520.48 181.45
-9755086.53 5135511.84 181.46
-9755082.08 5135515.39 182.44
-9755082.88 5135518.72 180.05
-9755082.58 5135520.10 181.34
-9755082.64 5135516.98 180.10
-9755082.39 5135512.47 181.19
-9755082.76 5135515.43 181.22
-9755082.35 5135518.70 180.03
-9755082.70 5135521.13 181.03
-9755082.59 5135518.34 181.43
-9755082.72 5135517.83 181.52
-9755082.18 5135515.59 182.53
-9755082.48 5135515.63 181.70
-9755087.72 5135512.79 181.46
-9755082.75 5135514.85 181.74
-9755082.95 5135519.04 180.14
-9755082.78 5135520.40 181.32
-9755089.46 5135521.63 181.42
-9755083.13 5135521.30 180.11
-9755082.48 5135515.12 180.65
-9755081.52 5135512.76 179.91
-9755082.40 5135517.56 180.03
-9755082.36 5135518.33 181.36
-9755082.82 5135517.77 181.08
-9755082.69 5135518.03 182.57
-9755082.51 5135521.51 182.19
-9755082.67 5135515.86 180.20
-9755082.38 5135513.87 182.22
-9755091.88 5135503.03 181.42
-9755091.60 5135504.27 181.42
-9755091.30 5135507.44 181.44
-9755090.09 5135509.53 181.41
-9755091.60 5135508.34 181.42
-9755091.01 5135500.69 181.42
-9755082.35 5135505.23 180.49
-9755082.18 5135502.66 181.66
-9755081.56 5135506.00 180.25
-9755082.01 5135502.99 181.43
-9755082.52 5135503.88 181.61
-9755091.03 5135507.14 181.43
-9755081.57 5135504.23 180.15
-9755082.18 5135500.65 180.19
-9755090.99 5135505.60 181.42
-9755088.33 5135508.92 181.45
-9755082.26 5135505.55 180.66
-9755083.11 5135505.25 182.59
-9755082.40 5135501.24 180.17
-9755081.65 5135500.37 180.16
-9755082.24 5135499.99 181.21
-9755091.31 5135503.95 181.42
-9755081.83 5135509.50 180.06
-9755082.40 5135501.85 181.27
-9755082.37 5135502.64 181.07
-9755082.13 5135501.51 181.69
-9755086.00 5135503.04 181.44
-9755082.28 5135500.73 181.14
-9755082.22 5135508.92 181.28
-9755081.87 5135504.77 180.43
-9755083.06 5135506.39 182.59
-9755090.99 5135503.89 181.41
-9755087.38 5135507.74 181.44
-9755082.43 5135501.89 181.32
-9755081.86 5135502.47 180.20
-9755082.81 5135501.71 182.59
-9755082.03 5135499.66 181.82
-9755082.05 5135500.32 181.83
-9755082.49 5135504.12 182.57
-9755086.29 5135509.23 181.47
-9755082.52 5135507.59 182.10
-9755082.30 5135507.74 181.39
-9755083.13 5135502.08 182.63
-9755082.21 5135505.25 181.29
-9755082.29 5135504.39 181.92
-9755082.13 5135502.26 181.91
-9755082.35 5135500.11 181.07
-9755082.20 5135503.84 181.37
-9755082.52 5135503.65 180.19
-9755082.18 5135500.93 180.19
-9755082.11 5135504.56 180.23
-9755082.38 5135508.65 180.13
-9755082.35 5135506.06 181.01
-9755082.05 5135500.67 181.26
-9755082.72 5135506.13 180.12
-9755082.48 5135506.88 182.20
-9755082.42 5135502.86 180.72
-9755082.85 5135503.55 180.72
-9755088.08 5135500.96 181.44
-9755082.47 5135507.49 180.54
-9755085.68 5135503.27 181.44
-9755086.00 5135503.91 181.46
-9755082.49 5135505.89 182.58
-9755082.76 5135499.70 181.61
-9755082.20 5135504.80 180.46
-9755082.23 5135502.98 181.06
-9755085.07 5135508.02 181.54
-9755087.21 5135508.05 181.44
-9755082.43 5135506.89 181.28
-9755082.13 5135508.32 180.22
-9755082.36 5135499.82 180.28
-9755082.19 5135501.48 180.16
-9755083.37 5135501.44 181.60
-9755085.05 5135503.00 181.52
-9755082.44 5135504.76 181.64
-9755082.76 5135507.33 182.57
-9755085.46 5135501.22 181.44
-9755082.84 5135503.67 180.24
-9755082.35 5135508.41 180.45
-9755090.45 5135503.00 181.43
-9755087.77 5135503.01 181.46
-9755088.93 5135508.30 181.44
-9755083.65 5135502.11 181.61
-9755085.09 5135504.74 181.50
-9755082.35 5135504.20 180.74
-9755082.42 5135503.00 180.18
-9755084.57 5135504.42 181.60
-9755082.22 5135500.62 181.43
-9755081.95 5135500.39 181.83
-9755090.70 5135506.51 181.42
-9755082.48 5135508.64 181.52
-9755082.29 5135504.81 181.29
-9755081.54 5135503.28 180.10
-9755082.41 5135506.26 180.24
-9755090.94 5135508.95 181.43
-9755082.17 5135504.18 180.19
-9755081.87 5135506.26 180.09
-9755085.99 5135506.26 181.45
-9755082.20 5135499.77 180.39
-9755082.74 5135507.64 180.86
-9755082.37 5135504.05 182.07
-9755089.57 5135505.02 181.42
-9755082.33 5135505.84 181.03
-9755082.44 5135501.58 182.03
-9755083.63 5135501.17 181.60
-9755083.06 5135500.02 182.61
-9755082.41 5135507.09 181.32
-9755086.52 5135506.21 181.47
-9755082.79 5135508.83 181.66
-9755083.92 5135507.42 181.62
-9755082.09 5135503.29 180.20
-9755082.44 5135507.13 181.45
-9755082.41 5135500.01 181.55
-9755081.92 5135503.89 180.64
-9755082.80 5135502.90 182.56
-9755086.92 5135503.01 181.45
-9755082.46 5135506.14 182.57
-9755082.46 5135506.73 182.57
-9755083.97 5135500.30 181.59
-9755083.66 5135503.86 181.62
-9755081.88 5135502.11 180.20
-9755082.18 5135505.55 181.82
-9755082.49 5135506.50 180.34
-9755082.44 5135505.40 181.80
-9755082.12 5135508.58 180.44
-9755081.57 5135499.46 180.16
-9755082.15 5135504.41 182.57
-9755082.27 5135499.57 181.44
-9755082.13 5135502.94 181.87
-9755082.47 5135503.79 182.56
-9755082.47 5135500.00 181.98
-9755082.69 5135509.00 180.14
-9755082.49 5135502.75 181.62
-9755082.39 5135508.97 181.35
-9755081.58 5135504.78 180.61
-9755089.85 5135503.57 181.42
-9755082.78 5135504.43 180.79
-9755082.39 5135505.71 180.44
-9755082.62 5135503.38 180.65
-9755082.35 5135502.14 180.36
-9755082.49 5135506.20 180.11
-9755081.52 5135508.68 180.13
-9755088.40 5135502.09 181.43
-9755082.41 5135507.23 180.63
-9755081.81 5135508.94 180.13
-9755082.41 5135500.87 181.71
-9755083.04 5135503.34 182.56
-9755081.78 5135506.33 180.18
-9755082.61 5135504.70 180.79
-9755081.93 5135506.05 181.79
-9755082.48 5135508.06 180.91
-9755087.19 5135503.01 181.46
-9755083.68 5135499.72 181.61
-9755081.91 5135506.50 180.90
-9755082.77 5135507.74 180.13
-9755082.34 5135501.32 180.79
-9755082.44 5135508.02 180.52
-9755082.41 5135501.86 180.25
-9755082.52 5135503.03 181.99
-9755090.15 5135499.79 181.43
-9755082.52 5135500.23 182.60
-9755082.33 5135502.61 180.68
-9755082.55 5135504.24 180.38
-9755082.75 5135505.29 182.58
-9755089.26 5135507.75 181.44
-9755082.41 5135501.58 180.19
-9755088.35 5135508.01 181.44
-9755082.19 5135501.45 181.18
-9755082.16 5135499.99 181.93
-9755082.44 5135508.90 180.48
-9755084.87 5135501.74 181.55
-9755082.45 5135505.02 181.59
-9755090.11 5135506.24 181.43
-9755082.77 5135503.17 182.56
-9755083.34 5135503.85 181.63
-9755083.28 5135503.99 182.62
-9755082.41 5135501.22 181.18
-9755082.95 5135507.08 182.58
-9755084.56 5135500.63 181.59
-9755082.52 5135500.84 182.58
-9755082.53 5135501.14 182.59
-9755082.19 5135506.26 180.21
-9755082.79 5135506.87 180.16
-9755082.45 5135506.48 180.97
-9755081.85 5135506.55 180.29
-9755082.75 5135503.09 180.11
-9755081.54 5135508.61 179.98
-9755084.19 5135500.28 181.59
-9755082.41 5135501.61 180.68
-9755082.08 5135504.69 181.99
-9755082.49 5135501.42 182.58
-9755082.47 5135503.29 180.23
-9755088.96 5135505.95 181.44
-9755082.77 5135506.37 180.52
-9755082.18 5135504.50 180.53
-9755084.82 5135503.30 181.59
-9755082.27 5135503.79 181.91
-9755081.51 5135506.85 180.30
-9755082.41 5135505.24 181.50
-9755132.89 5135497.23 183.25
-9755131.96 5135494.75 192.19
-9755133.29 5135496.12 181.64
-9755132.94 5135494.13 181.53
-9755132.38 5135497.17 191.69
-9755132.23 5135495.62 191.58
-9755134.17 5135495.40 191.27
-9755132.45 5135497.60 187.13
-9755132.36 5135497.69 191.15
-9755133.35 5135496.28 191.25
-9755133.26 5135497.21 183.26
-9755132.87 5135496.70 181.54
-9755133.57 5135496.14 181.71
-9755133.31 5135497.70 191.16
-9755133.60 5135496.81 181.62
-9755132.22 5135494.57 192.21
-9755132.36 5135496.06 191.56
-9755133.03 5135496.59 191.25
-9755132.32 5135496.91 191.71
-9755133.64 5135494.64 181.53
-9755131.98 5135496.43 191.17
-9755133.61 5135494.20 191.27
-9755134.14 5135494.34 182.59
-9755134.15 5135496.71 182.60
-9755132.34 5135497.24 183.25
-9755133.79 5135495.50 182.55
-9755133.58 5135497.14 181.62
-9755132.47 5135493.64 191.28
-9755132.25 5135495.05 191.82
-9755134.07 5135497.25 183.26
-9755133.57 5135496.27 191.26
-9755133.48 5135494.59 181.61
-9755133.51 5135496.46 181.69
-9755133.16 5135494.68 181.56
-9755133.57 5135493.84 181.70
-9755133.15 5135496.41 181.62
-9755133.82 5135496.96 183.26
-9755132.41 5135493.53 184.74
-9755131.87 5135497.51 191.30
-9755133.33 5135493.62 191.29
-9755131.92 5135497.74 191.18
-9755133.02 5135494.74 191.26
-9755132.31 5135496.22 191.45
-9755133.59 5135495.13 191.27
-9755133.48 5135496.99 183.26
-9755134.09 5135497.46 183.26
-9755132.80 5135497.83 187.17
-9755134.15 5135497.17 191.28
-9755133.38 5135494.74 191.25
-9755133.45 5135496.78 181.39
-9755133.54 5135496.43 182.55
-9755134.07 5135495.45 182.59
-9755132.38 5135497.47 183.22
-9755132.66 5135496.87 183.25
-9755133.33 5135494.49 191.26
-9755133.87 5135496.62 182.55
-9755132.88 5135497.43 187.21
-9755132.31 5135495.55 181.51
-9755133.16 5135497.57 187.13
-9755133.81 5135494.08 182.55
-9755133.63 5135497.16 191.27
-9755133.60 5135495.34 191.27
-9755134.10 5135494.67 182.58
-9755133.10 5135496.94 181.52
-9755132.69 5135497.23 183.25
-9755133.35 5135497.44 191.27
-9755133.54 5135494.12 181.62
-9755131.91 5135493.80 184.73
-9755132.09 5135494.99 181.41
-9755129.04 5135495.52 181.34
-9755130.84 5135497.70 181.33
-9755129.11 5135495.25 181.35
-9755119.62 5135495.21 181.33
-9755130.54 5135494.72 181.31
-9755130.93 5135493.81 181.35
-9755130.88 5135494.28 181.34
-9755130.93 5135496.13 181.32
-9755125.87 5135494.94 181.34
-9755129.38 5135495.56 181.35
-9755125.88 5135493.76 181.36
-9755125.32 5135493.46 181.36
-9755122.31 5135497.34 181.35
-9755128.52 5135494.64 181.33
-9755120.86 5135497.00 181.33
-9755121.16 5135494.61 181.33
-9755128.19 5135496.72 181.34
-9755124.39 5135495.18 181.35
-9755129.09 5135494.67 181.36
-9755121.18 5135496.34 181.34
-9755132.07 5135493.76 181.31
-9755120.27 5135494.87 181.34
-9755131.22 5135495.63 181.32
-9755129.12 5135496.40 181.34
-9755128.19 5135494.93 181.36
-9755124.35 5135497.04 181.35
-9755122.63 5135495.53 181.34
-9755127.67 5135494.05 181.35
-9755122.60 5135496.39 181.35
-9755130.01 5135495.23 181.37
-9755125.27 5135494.91 181.36
-9755130.01 5135494.63 181.34
-9755131.15 5135497.30 181.33
-9755131.69 5135497.00 181.32
-9755129.88 5135494.34 181.34
-9755127.68 5135494.63 181.35
-9755129.71 5135493.75 181.33
-9755123.22 5135495.48 181.35
-9755120.58 5135495.75 181.32
-9755133.15 5135499.87 185.86
-9755132.74 5135498.04 182.94
-9755132.32 5135497.97 183.12
-9755134.18 5135498.55 191.27
-9755132.15 5135497.96 185.22
-9755133.67 5135499.70 191.24
-9755132.97 5135498.98 190.29
-9755132.36 5135499.68 181.38
-9755133.20 5135498.24 190.85
-9755133.69 5135498.12 190.97
-9755133.31 5135498.19 182.92
-9755132.30 5135499.92 183.20
-9755132.31 5135499.20 181.68
-9755132.61 5135499.73 181.35
-9755132.87 5135498.69 182.63
-9755132.35 5135498.97 182.54
-9755133.73 5135497.87 181.39
-9755132.71 5135498.99 190.44
-9755132.39 5135498.51 182.73
-9755133.65 5135498.17 191.63
-9755133.28 5135499.44 182.21
-9755132.64 5135498.53 181.37
-9755133.49 5135499.80 185.74
-9755132.34 5135499.54 190.01
-9755132.57 5135498.29 187.25
-9755133.29 5135498.93 190.30
-9755133.29 5135497.50 183.27
-9755133.21 5135499.45 186.04
-9755133.19 5135498.24 186.47
-9755132.39 5135499.42 190.30
-9755132.91 5135499.10 186.43
-9755133.68 5135499.01 182.36
-9755132.93 5135499.00 186.07
-9755132.30 5135497.87 182.79
-9755132.27 5135498.03 183.03
-9755133.51 5135498.34 190.72
-9755132.13 5135498.52 191.72
-9755132.67 5135498.86 182.37
-9755132.02 5135498.08 184.13
-9755132.31 5135499.14 183.20
-9755132.84 5135499.10 182.35
-9755133.75 5135499.70 185.81
-9755133.52 5135498.67 182.77
-9755133.70 5135499.39 182.45
-9755121.11 5135497.87 181.33
-9755124.97 5135498.16 181.35
-9755130.00 5135499.77 181.32
-9755120.58 5135497.85 181.34
-9755129.10 5135497.32 181.34
-9755131.52 5135499.46 181.31
-9755121.14 5135499.67 181.33
-9755121.11 5135498.78 181.34
-9755128.80 5135497.88 181.34
-9755125.86 5135498.43 181.33
-9755121.71 5135497.85 181.34
-9755128.18 5135498.80 181.34
-9755130.76 5135498.23 181.33
-9755125.80 5135497.89 181.34
-9755122.61 5135499.61 181.35
-9755130.01 5135498.50 181.32
-9755124.37 5135497.89 181.33
-9755129.63 5135499.65 181.33
-9755125.23 5135499.36 181.35
-9755132.33 5135499.07 181.35
-9755132.05 5135493.59 191.63
-9755133.07 5135493.33 191.28
-9755133.62 5135493.29 191.27
-9755133.79 5135492.91 181.71
-9755134.21 5135490.36 191.28
-9755133.52 5135493.42 181.72
-9755132.97 5135491.49 181.34
-9755132.26 5135493.37 184.74
-9755132.22 5135492.41 191.71
-9755132.24 5135492.63 191.83
-9755133.08 5135492.50 191.26
-9755133.94 5135493.32 191.27
-9755133.03 5135491.53 191.26
-9755132.13 5135490.79 191.66
-9755133.53 5135492.83 181.64
-9755132.17 5135491.09 191.65
-9755133.38 5135490.35 191.28
-9755133.87 5135493.17 181.72
-9755133.52 5135493.70 182.48
-9755133.95 5135490.64 191.27
-9755132.61 5135493.10 181.34
-9755133.67 5135492.18 191.26
-9755134.12 5135493.18 181.72
-9755132.42 5135491.10 181.32
-9755132.70 5135493.32 191.27
-9755133.85 5135491.36 181.32
-9755132.35 5135491.33 184.17
-9755132.72 5135491.54 191.27
-9755133.53 5135493.48 182.48
-9755132.94 5135492.33 181.33
-9755133.52 5135493.17 181.71
-9755133.72 5135492.58 181.68
-9755133.79 5135492.33 181.33
-9755132.38 5135491.71 181.34
-9755132.34 5135491.54 184.18
-9755133.19 5135493.27 181.30
-9755128.52 5135493.48 181.36
-9755124.42 5135493.72 181.36
-9755121.18 5135493.41 181.33
-9755132.36 5135490.56 181.35
-9755129.12 5135493.71 181.33
-9755131.85 5135490.97 191.26
-9755125.83 5135492.26 181.36
-9755123.57 5135490.79 181.36
-9755131.74 5135491.35 181.33
-9755130.55 5135493.18 181.34
-9755130.85 5135491.96 181.34
-9755125.27 5135491.99 181.37
-9755129.13 5135492.54 181.34
-9755121.75 5135492.81 181.33
-9755124.38 5135490.48 181.35
-9755122.60 5135492.29 181.35
-9755129.68 5135491.36 181.34
-9755125.92 5135491.96 181.37
-9755127.64 5135492.89 181.35
-9755121.98 5135492.85 181.34
-9755121.78 5135490.17 181.34
-9755122.94 5135492.56 181.35
-9755131.78 5135491.71 181.32
-9755123.22 5135491.36 181.34
-9755131.74 5135493.21 181.33
-9755126.15 5135491.37 181.36
-9755120.28 5135493.10 181.33
-9755128.26 5135492.89 181.36
-9755128.26 5135491.39 181.34
-9755128.83 5135490.50 181.34
-9755129.11 5135490.46 181.33
-9755129.38 5135490.54 181.35
-9755132.37 5135482.54 181.34
-9755133.93 5135478.30 181.31
-9755134.05 5135473.17 191.31
-9755134.08 5135474.93 191.33
-9755132.41 5135477.43 181.99
-9755132.36 5135475.69 181.36
-9755133.39 5135481.79 191.27
-9755133.62 5135481.34 181.34
-9755132.03 5135476.07 181.94
-9755133.97 5135475.78 181.31
-9755132.18 5135475.87 182.01
-9755133.60 5135477.17 181.33
-9755133.31 5135475.46 181.36
-9755133.27 5135479.56 181.35
-9755133.90 5135481.36 181.33
-9755133.33 5135480.96 181.31
-9755132.96 5135475.12 181.47
-9755132.35 5135473.28 181.47
-9755132.52 5135478.79 191.29
-9755133.10 5135473.84 191.30
-9755132.58 5135476.41 192.04
-9755133.11 5135479.70 191.27
-9755132.80 5135478.66 182.01
-9755133.11 5135483.26 191.29
-9755132.52 5135477.95 191.29
-9755132.44 5135483.53 191.27
-9755132.81 5135475.80 191.31
-9755132.89 5135475.18 181.74
-9755132.80 5135479.86 181.34
-9755132.14 5135476.63 181.64
-9755133.38 5135482.85 181.30
-9755132.87 5135474.08 191.32
-9755133.39 5135482.66 191.31
-9755131.98 5135481.76 192.22
-9755134.06 5135473.89 182.11
-9755133.57 5135483.68 181.30
-9755134.17 5135478.95 181.34
-9755132.74 5135481.48 191.28
-9755134.16 5135482.23 181.32
-9755132.79 5135476.01 182.00
-9755133.18 5135473.19 191.29
-9755133.30 5135476.63 192.04
-9755133.93 5135475.10 181.35
-9755132.00 5135474.87 191.30
-9755132.54 5135477.59 192.05
-9755134.06 5135476.41 191.30
-9755132.41 5135476.01 182.00
-9755132.53 5135474.15 181.37
-9755132.15 5135483.20 184.16
-9755133.54 5135481.95 181.32
-9755133.91 5135474.30 181.36
-9755132.45 5135476.53 182.00
-9755132.43 5135483.65 181.30
-9755132.45 5135473.92 181.95
-9755133.16 5135474.04 191.31
-9755132.41 5135479.85 181.34
-9755133.67 5135482.31 181.33
-9755133.99 5135482.08 191.28
-9755133.14 5135476.35 181.31
-9755133.01 5135476.00 181.99
-9755132.47 5135477.95 181.38
-9755132.19 5135477.54 191.33
-9755134.06 5135474.02 191.31
-9755132.41 5135481.00 181.34
-9755134.02 5135483.88 191.29
-9755132.66 5135482.87 181.85
-9755132.83 5135479.68 191.27
-9755132.73 5135477.20 181.99
-9755132.67 5135476.61 182.01
-9755132.07 5135482.19 191.70
-9755134.04 5135472.83 181.94
-9755133.01 5135472.96 181.60
-9755132.52 5135473.99 181.76
-9755132.63 5135482.20 181.32
-9755132.80 5135478.81 191.31
-9755132.18 5135477.79 191.55
-9755132.41 5135480.50 181.34
-9755133.66 5135473.68 181.92
-9755132.45 5135477.12 181.99
-9755134.02 5135481.76 191.28
-9755132.82 5135475.38 181.74
-9755134.04 5135479.69 191.29
-9755134.03 5135480.31 191.27
-9755132.28 5135473.76 191.30
-9755132.47 5135472.78 181.71
-9755133.67 5135473.32 181.86
-9755132.86 5135476.08 192.05
-9755132.15 5135475.62 181.74
-9755133.15 5135473.89 181.93
-9755133.02 5135475.71 181.99
-9755133.69 5135478.24 191.28
-9755133.62 5135473.43 181.36
-9755133.03 5135474.22 181.78
-9755133.70 5135477.33 191.27
-9755133.07 5135483.46 181.31
-9755132.28 5135474.92 191.31
-9755133.43 5135476.88 181.30
-9755133.17 5135474.96 191.32
-9755131.90 5135483.14 184.75
-9755132.87 5135477.59 192.04
-9755133.63 5135476.28 181.30
-9755133.00 5135474.70 181.74
-9755133.59 5135480.19 181.30
-9755132.07 5135475.17 181.39
-9755132.45 5135480.17 181.33
-9755132.93 5135480.72 181.33
-9755133.71 5135474.56 181.83
-9755132.35 5135479.11 185.21
-9755132.01 5135483.35 191.64
-9755132.39 5135476.03 181.39
-9755134.04 5135475.89 191.33
-9755132.50 5135482.93 191.30
-9755131.95 5135476.58 181.34
-9755132.20 5135483.45 181.29
-9755130.65 5135479.90 181.33
-9755132.14 5135475.77 181.36
-9755121.26 5135474.72 181.32
-9755125.90 5135483.08 181.34
-9755119.46 5135480.67 181.33
-9755132.00 5135476.07 181.98
-9755127.72 5135475.12 181.34
-9755130.70 5135474.75 181.33
-9755128.56 5135476.83 181.33
-9755132.53 5135474.20 181.76
-9755121.91 5135474.47 181.34
-9755122.66 5135482.79 181.34
-9755119.43 5135482.19 181.35
-9755122.44 5135475.09 181.32
-9755132.18 5135474.53 181.72
-9755119.85 5135473.31 181.31
-9755132.07 5135481.65 181.33
-9755124.25 5135474.78 181.33
-9755121.57 5135480.08 181.33
-9755124.41 5135481.56 181.34
-9755125.95 5135480.12 181.33
-9755131.98 5135473.01 181.86
-9755129.45 5135482.56 181.31
-9755126.27 5135477.45 181.36
-9755127.49 5135475.13 181.35
-9755127.42 5135474.24 181.34
-9755124.18 5135481.27 181.34
-9755123.93 5135477.45 181.33
-9755125.05 5135476.60 181.36
-9755132.31 5135477.80 181.38
-9755125.96 5135483.38 181.34
-9755126.56 5135475.12 181.36
-9755131.97 5135483.81 191.26
-9755127.11 5135483.34 181.33
-9755122.90 5135482.50 181.35
-9755119.45 5135477.44 181.34
-9755123.87 5135483.09 181.34
-9755129.76 5135478.45 181.33
-9755125.10 5135475.08 181.36
-9755121.23 5135477.43 181.33
-9755132.15 5135479.28 181.35
-9755129.94 5135480.28 181.30
-9755122.47 5135476.56 181.34
-9755128.61 5135478.38 181.34
-9755123.88 5135475.67 181.33
-9755124.51 5135474.17 181.34
-9755129.43 5135473.72 181.34
-9755129.82 5135475.72 181.33
-9755131.03 5135473.10 181.32
-9755122.72 5135475.97 181.34
-9755131.59 5135478.44 181.34
-9755126.82 5135478.32 181.36
-9755131.57 5135480.16 181.31
-9755120.10 5135474.78 181.33
-9755125.65 5135475.99 181.35
-9755132.11 5135473.98 181.70
-9755129.72 5135481.57 181.33
-9755131.85 5135482.59 183.98
-9755129.19 5135482.77 181.30
-9755125.03 5135483.11 181.35
-9755129.46 5135476.88 181.34
-9755123.62 5135483.38 181.34
-9755128.36 5135475.42 181.33
-9755125.97 5135476.29 181.36
-9755122.11 5135480.97 181.33
-9755132.12 5135477.44 181.95
-9755130.64 5135483.40 181.32
-9755128.62 5135474.29 181.35
-9755120.37 5135477.12 181.33
-9755125.97 5135476.57 181.35
-9755123.87 5135478.89 181.35
-9755131.29 5135483.99 181.31
-9755130.75 5135472.72 181.31
-9755125.10 5135473.31 181.35
-9755131.91 5135473.96 181.66
-9755126.86 5135476.83 181.35
-9755130.98 5135482.81 181.34
-9755130.62 5135481.32 181.34
-9755129.22 5135479.28 181.33
-9755131.73 5135476.85 182.82
-9755131.47 5135483.38 181.34
-9755119.46 5135476.27 181.33
-9755129.20 5135480.12 181.34
-9755128.27 5135483.37 181.32
-9755122.50 5135473.00 181.32
-9755128.94 5135475.98 181.33
-9755131.23 5135480.16 181.31
-9755129.18 5135475.69 181.32
-9755132.16 5135482.02 191.73
-9755122.11 5135480.68 181.34
-9755126.82 5135477.75 181.36
-9755126.23 5135478.03 181.36
-9755125.15 5135474.52 181.35
-9755131.00 5135475.33 181.32
-9755129.18 5135480.47 181.32
-9755130.36 5135477.66 181.32
-9755122.99 5135480.69 181.34
-9755120.90 5135482.44 181.34
-9755123.32 5135480.98 181.34
-9755129.18 5135473.06 181.31
-9755127.97 5135482.48 181.33
-9755132.02 5135474.09 191.30
-9755132.55 5135475.77 191.99
-9755129.19 5135473.96 181.34
-9755124.49 5135479.24 181.34
-9755131.83 5135476.65 183.19
-9755125.99 5135483.69 181.33
-9755128.84 5135482.48 181.32
-9755121.31 5135475.63 181.31
-9755125.66 5135478.93 181.35
-9755131.55 5135477.76 181.33
-9755131.00 5135479.89 181.32
-9755131.67 5135478.29 181.74
-9755130.74 5135475.94 181.31
-9755121.20 5135476.25 181.34
-9755125.14 5135477.75 181.33
-9755128.06 5135477.46 181.34
-9755131.79 5135476.85 181.80
-9755121.82 5135483.33 181.35
-9755130.74 5135473.01 181.32
-9755122.70 5135483.63 181.35
-9755130.39 5135476.84 181.34
-9755131.85 5135482.64 191.30
-9755120.37 5135481.55 181.34
-9755130.73 5135482.52 181.33
-9755125.97 5135473.36 181.35
-9755132.01 5135473.10 191.30
-9755125.97 5135479.53 181.33
-9755124.22 5135477.76 181.36
-9755123.64 5135473.00 181.32
-9755130.89 5135481.69 181.33
-9755130.90 5135474.22 181.34
-9755132.11 5135475.76 185.28
-9755131.47 5135478.66 181.31
-9755131.65 5135475.16 181.33
-9755131.24 5135479.31 181.32
-9755128.58 5135481.55 181.33
-9755131.59 5135472.98 181.76
-9755123.61 5135479.76 181.34
-9755131.98 5135484.11 191.26
-9755132.09 5135490.18 184.19
-9755133.71 5135490.49 181.37
-9755132.22 5135486.61 181.74
-9755133.63 5135484.15 191.29
-9755132.24 5135487.22 181.95
-9755131.99 5135487.56 181.74
-9755132.39 5135486.79 181.88
-9755132.50 5135484.99 191.27
-9755133.39 5135486.52 191.30
-9755132.36 5135488.13 181.40
-9755132.49 5135485.79 181.34
-9755132.12 5135489.00 181.71
-9755131.94 5135490.10 191.27
-9755134.00 5135484.42 191.28
-9755133.32 5135486.61 181.30
-9755132.32 5135489.72 181.43
-9755133.35 5135488.04 191.27
-9755133.42 5135489.97 181.31
-9755134.10 5135486.44 181.33
-9755131.96 5135488.82 191.32
-9755133.24 5135488.18 181.99
-9755133.89 5135484.65 181.31
-9755134.07 5135489.62 181.31
-9755132.36 5135487.63 191.56
-9755132.46 5135486.04 181.34
-9755132.06 5135489.18 181.94
-9755134.13 5135487.80 181.31
-9755133.41 5135483.72 181.31
-9755133.06 5135485.60 191.28
-9755132.60 5135486.77 181.98
-9755134.21 5135489.19 191.28
-9755132.36 5135490.17 181.40
-9755133.64 5135489.75 191.27
-9755133.87 5135488.22 181.32
-9755133.93 5135489.47 191.26
-9755132.34 5135486.67 181.37
-9755133.63 5135485.50 181.34
-9755133.18 5135488.76 182.01
-9755133.53 5135489.68 181.31
-9755133.82 5135485.77 181.33
-9755131.90 5135484.90 187.19
-9755132.91 5135485.80 181.31
-9755133.08 5135487.19 182.01
-9755132.51 5135484.18 191.27
-9755132.09 5135486.69 181.35
-9755132.09 5135488.14 181.33
-9755129.44 5135484.05 181.31
-9755125.03 5135484.27 181.34
-9755130.03 5135484.98 181.25
-9755131.81 5135487.88 181.34
-9755131.81 5135489.67 181.37
-9755129.98 5135484.80 181.31
-9755130.91 5135489.94 181.34
-9755124.48 5135484.87 181.34
-9755122.06 5135486.65 181.33
-9755121.21 5135488.10 181.33
-9755129.43 5135486.62 181.33
-9755125.33 5135488.10 181.34
-9755127.04 5135485.45 181.34
-9755130.00 5135489.61 181.32
-9755120.58 5135489.01 181.34
-9755123.54 5135484.83 181.35
-9755131.51 5135488.21 181.33
-9755122.07 5135488.12 181.33
-9755130.11 5135488.17 181.34
-9755129.46 5135485.71 181.31
-9755130.93 5135485.85 181.30
-9755121.21 5135484.83 181.34
-9755123.49 5135487.80 181.34
-9755125.04 5135486.34 181.33
-9755126.77 5135488.71 181.35
-9755123.82 5135485.68 181.33
-9755128.33 5135488.08 181.33
-9755124.38 5135488.41 181.34
-9755130.88 5135484.90 181.29
-9755129.18 5135488.42 181.34
-9755130.03 5135486.33 181.33
-9755130.23 5135488.81 181.33
-9755121.76 5135488.70 181.32
-9755128.60 5135485.72 181.32
-9755120.34 5135489.55 181.34
-9755129.23 5135485.72 181.33
-9755127.38 5135484.64 181.33
-9755132.04 5135489.08 181.32
-9755128.29 5135484.60 181.32
-9755131.57 5135488.74 181.33
-9755131.56 5135484.86 181.29
-9755126.19 5135488.10 181.35
-9755129.23 5135484.29 181.31
-9755123.61 5135486.59 181.32
-9755128.59 5135488.14 181.33
-9755125.85 5135488.98 181.35
-9755130.69 5135485.86 181.31
-9755120.30 5135485.09 181.34
-9755128.84 5135486.64 181.33
-9755122.12 5135485.12 181.34
-9755130.91 5135487.92 181.30
-9755120.86 5135485.76 181.34
-9755127.42 5135484.31 181.32
-9755119.43 5135489.56 181.34
-9755131.82 5135489.89 181.37
-9755127.10 5135486.62 181.35
-9755127.94 5135486.41 181.31
-9755125.57 5135489.03 181.36
-9755131.51 5135487.63 181.34
-9755127.63 5135488.73 181.34
-9755123.90 5135487.26 181.33
-9755131.58 5135485.81 181.31
-9755130.99 5135486.03 181.30
-9755130.22 5135485.38 181.31
-9755122.03 5135489.87 181.34
-9755125.99 5135484.57 181.34
-9755127.60 5135487.28 181.34
-9755129.16 5135487.26 181.33
-9755129.14 5135487.53 181.32
-9755125.28 5135489.28 181.36
-9755129.49 5135488.16 181.33
-9755130.45 5135484.92 181.29
-9755123.55 5135488.68 181.34
-9755130.67 5135489.01 181.34
-9755129.16 5135486.11 181.31
-9755125.84 5135489.33 181.36
-9755126.82 5135486.90 181.35
-9755123.18 5135489.85 181.35
-9755127.38 5135484.86 181.32
-9755118.54 5135494.87 181.33
-9755118.20 5135495.43 181.32
-9755119.07 5135495.75 181.33
-9755118.19 5135495.78 181.32
-9755117.86 5135496.68 181.32
-9755117.89 5135494.88 181.32
-9755117.86 5135495.48 181.33
-9755119.29 5135499.04 181.33
-9755117.87 5135498.45 181.32
-9755117.26 5135497.83 181.34
-9755118.47 5135499.33 181.33
-9755118.85 5135491.31 181.33
-9755119.36 5135491.60 181.33
-9755117.89 5135490.70 181.34
-9755112.72 5135494.85 183.29
-9755115.86 5135495.44 181.32
-9755105.43 5135495.23 185.90
-9755105.93 5135495.45 186.04
-9755117.30 5135495.78 181.33
-9755106.49 5135496.42 186.35
-9755106.37 5135496.13 186.37
-9755106.79 5135496.53 186.47
-9755111.63 5135497.21 181.77
-9755112.81 5135495.66 182.29
-9755112.70 5135497.13 182.01
-9755109.33 5135493.97 181.36
-9755105.52 5135496.61 185.71
-9755109.33 5135493.35 181.37
-9755111.20 5135496.94 181.56
-9755107.87 5135495.13 181.37
-9755111.11 5135494.52 181.45
-9755112.72 5135495.82 182.61
-9755112.55 5135494.79 182.22
-9755112.79 5135494.39 183.50
-9755116.37 5135496.94 181.33
-9755105.58 5135495.43 185.94
-9755116.75 5135494.58 181.31
-9755106.06 5135494.88 186.16
-9755106.79 5135496.10 186.44
-9755106.13 5135495.79 186.41
-9755110.84 5135496.58 181.35
-9755112.57 5135497.17 181.48
-9755112.75 5135495.64 183.04
-9755111.17 5135493.62 181.46
-9755109.68 5135495.39 181.37
-9755111.45 5135496.30 181.65
-9755105.84 5135495.75 185.96
-9755116.66 5135496.03 181.32
-9755105.54 5135496.27 181.42
-9755116.14 5135496.91 181.32
-9755112.89 5135496.02 181.92
-9755111.69 5135496.59 182.24
-9755113.75 5135496.34 181.44
-9755111.43 5135496.25 182.21
-9755106.37 5135495.71 181.38
-9755107.87 5135496.04 181.38
-9755114.35 5135496.62 181.29
-9755114.62 5135497.27 181.28
-9755114.62 5135493.66 181.32
-9755108.47 5135494.54 181.37
-9755105.92 5135496.40 184.88
-9755113.80 5135496.04 181.44
-9755113.75 5135495.15 181.42
-9755110.82 5135495.73 181.38
-9755111.05 5135496.87 181.38
-9755111.40 5135495.40 181.47
-9755111.69 5135495.45 181.47
-9755114.32 5135496.99 181.29
-9755111.98 5135496.61 182.26
-9755112.55 5135493.53 182.47
-9755105.48 5135496.31 184.81
-9755105.54 5135496.02 186.61
-9755111.41 5135495.12 181.47
-9755106.91 5135496.17 186.49
-9755112.29 5135493.92 181.48
-9755111.39 5135496.61 181.68
-9755105.27 5135495.67 181.53
-9755114.97 5135494.63 181.31
-9755106.08 5135496.58 181.38
-9755115.52 5135496.90 181.31
-9755108.78 5135496.03 181.37
-9755112.51 5135496.01 182.51
-9755105.38 5135493.92 186.25
-9755112.78 5135494.52 182.81
-9755107.89 5135493.34 181.37
-9755106.99 5135496.91 181.37
-9755108.44 5135493.62 181.38
-9755112.30 5135497.23 181.47
-9755112.77 5135497.63 181.93
-9755112.32 5135497.30 182.12
-9755112.84 5135498.67 181.48
-9755111.94 5135497.80 181.58
-9755111.23 5135499.54 181.52
-9755106.99 5135497.74 181.37
-9755112.68 5135497.97 183.28
-9755107.88 5135497.23 181.36
-9755111.38 5135498.35 181.67
-9755114.61 5135499.59 181.29
-9755114.61 5135498.44 181.29
-9755111.14 5135497.81 181.38
-9755117.03 5135499.36 181.31
-9755107.88 5135498.98 181.36
-9755110.24 5135498.07 181.35
-9755112.27 5135498.24 182.21
-9755106.98 5135498.42 181.36
-9755113.76 5135498.43 181.42
-9755112.20 5135498.60 182.04
-9755111.10 5135499.30 181.41
-9755111.42 5135499.09 182.10
-9755114.32 5135498.99 181.30
-9755111.68 5135498.65 182.24
-9755111.53 5135499.56 181.70
-9755112.26 5135498.07 182.29
-9755111.64 5135497.78 181.75
-9755106.09 5135498.39 181.37
-9755111.93 5135499.23 182.24
-9755112.22 5135499.54 182.23
-9755111.69 5135498.67 181.79
-9755106.96 5135499.27 181.37
-9755111.69 5135499.29 181.82
-9755116.71 5135497.85 181.32
-9755111.95 5135498.55 181.84
-9755104.59 5135495.29 185.64
-9755105.19 5135495.71 186.24
-9755105.24 5135495.67 184.76
-9755104.86 5135495.83 186.56
-9755104.87 5135495.46 186.00
-9755105.20 5135494.77 181.52
-9755104.70 5135495.95 186.48
-9755105.00 5135494.97 185.53
-9755104.70 5135496.40 184.72
-9755104.98 5135495.72 185.78
-9755104.75 5135495.82 185.81
-9755104.64 5135493.66 181.54
-9755105.26 5135493.44 187.96
-9755104.65 5135496.67 185.59
-9755104.66 5135493.37 188.09
-9755104.62 5135493.30 181.54
-9755103.67 5135493.44 186.12
-9755103.77 5135495.96 181.50
-9755104.04 5135495.68 181.52
-9755102.06 5135494.50 187.25
-9755102.70 5135493.93 186.69
-9755103.10 5135497.13 181.48
-9755101.06 5135495.40 186.46
-9755100.24 5135493.41 186.97
-9755103.38 5135495.40 188.02
-9755103.89 5135494.69 185.75
-9755098.74 5135494.19 186.57
-9755101.20 5135493.64 187.84
-9755102.27 5135494.79 181.41
-9755100.91 5135493.60 186.04
-9755100.16 5135495.09 187.33
-9755103.20 5135494.62 186.05
-9755099.05 5135494.50 181.40
-9755101.96 5135493.32 181.41
-9755099.01 5135493.60 181.40
-9755101.40 5135496.80 181.40
-9755102.37 5135496.33 185.43
-9755100.30 5135493.87 186.30
-9755102.07 5135494.28 187.25
-9755103.28 5135494.83 186.05
-9755103.91 5135494.32 189.25
-9755100.91 5135494.87 186.25
-9755102.68 5135493.93 187.10
-9755099.21 5135494.53 187.04
-9755102.31 5135494.35 187.38
-9755102.92 5135494.55 187.47
-9755101.38 5135496.27 181.40
-9755101.49 5135494.22 187.08
-9755101.74 5135494.44 187.04
-9755099.94 5135495.65 181.40
-9755101.11 5135495.10 188.41
-9755100.49 5135496.25 181.40
-9755103.10 5135494.47 188.03
-9755101.38 5135495.99 181.41
-9755101.19 5135493.30 188.51
-9755102.25 5135494.23 186.88
-9755101.71 5135494.09 187.71
-9755103.73 5135496.28 181.49
-9755104.31 5135494.19 181.52
-9755101.79 5135493.71 188.79
-9755100.16 5135493.28 186.53
-9755099.65 5135493.27 181.39
-9755102.04 5135495.64 187.85
-9755100.22 5135493.84 186.89
-9755099.88 5135496.27 181.41
-9755099.67 5135493.90 181.39
-9755101.10 5135497.14 181.41
-9755103.15 5135494.72 187.72
-9755102.88 5135494.20 181.44
-9755098.17 5135494.24 181.35
-9755100.67 5135494.47 186.31
-9755098.26 5135493.66 185.45
-9755100.33 5135494.82 186.59
-9755099.37 5135493.40 185.88
-9755103.43 5135494.31 185.24
-9755103.11 5135493.67 190.87
-9755104.05 5135494.05 189.29
-9755101.55 5135494.12 186.07
-9755102.22 5135496.27 181.43
-9755101.75 5135493.95 186.77
-9755101.69 5135494.77 187.18
-9755101.09 5135495.01 186.29
-9755101.06 5135494.66 186.25
-9755102.05 5135494.78 187.25
-9755100.37 5135495.97 186.51
-9755101.49 5135494.46 187.70
-9755102.30 5135494.51 181.42
-9755101.76 5135494.20 186.07
-9755101.12 5135495.73 186.50
-9755099.43 5135493.27 187.25
-9755101.90 5135495.08 185.74
-9755100.51 5135495.04 181.40
-9755103.94 5135494.12 188.92
-9755102.28 5135494.24 181.42
-9755104.61 5135497.73 181.52
-9755101.96 5135498.04 181.41
-9755100.15 5135497.43 181.40
-9755104.03 5135498.95 181.54
-9755101.33 5135498.06 181.41
-9755100.54 5135497.77 181.41
-9755103.45 5135498.68 181.49
-9755100.22 5135499.25 181.41
-9755103.73 5135499.56 181.54
-9755099.87 5135499.52 181.41
-9755111.75 5135490.68 181.79
-9755107.61 5135490.72 185.33
-9755112.60 5135492.47 181.49
-9755114.09 5135493.13 181.33
-9755105.82 5135491.49 187.68
-9755107.44 5135492.03 185.14
-9755113.82 5135492.52 181.41
-9755112.78 5135491.21 182.25
-9755107.52 5135490.28 185.29
-9755111.16 5135490.68 181.71
-9755113.78 5135491.58 181.42
-9755105.36 5135490.31 189.07
-9755106.20 5135492.14 181.39
-9755112.63 5135490.88 183.45
-9755116.42 5135493.12 181.33
-9755105.87 5135491.69 185.57
-9755112.77 5135492.01 183.01
-9755106.07 5135492.05 187.12
-9755107.43 5135490.94 188.90
-9755108.43 5135490.72 187.93
-9755106.54 5135492.24 186.76
-9755112.78 5135492.57 182.48
-9755107.94 5135492.16 187.21
-9755112.66 5135492.74 182.77
-9755105.48 5135491.22 187.97
-9755106.82 5135491.57 187.87
-9755112.51 5135490.72 182.23
-9755111.42 5135490.05 181.76
-9755106.52 5135490.71 185.75
-9755106.72 5135492.76 186.68
-9755105.23 5135493.23 185.28
-9755115.81 5135490.12 181.34
-9755107.45 5135492.22 187.18
-9755107.12 5135491.31 187.26
-9755105.34 5135491.43 188.45
-9755116.13 5135492.22 181.33
-9755106.86 5135491.25 187.94
-9755108.05 5135491.36 187.81
-9755107.97 5135491.52 187.81
-9755105.53 5135490.26 188.45
-9755111.10 5135492.74 181.46
-9755106.18 5135490.33 187.92
-9755107.36 5135490.79 187.25
-9755111.69 5135492.14 181.48
-9755106.20 5135492.48 187.03
-9755105.47 5135492.79 185.66
-9755112.65 5135493.25 183.06
-9755105.91 5135490.56 187.94
-9755106.51 5135492.19 188.24
-9755105.54 5135490.40 187.82
-9755110.00 5135491.34 185.20
-9755107.37 5135491.60 187.22
-9755108.56 5135490.99 187.16
-9755113.51 5135491.28 181.45
-9755112.78 5135493.29 182.10
-9755105.36 5135491.72 187.77
-9755105.85 5135492.85 187.39
-9755116.42 5135492.20 181.33
-9755107.35 5135491.60 187.95
-9755111.74 5135491.87 181.48
-9755106.57 5135491.71 187.79
-9755107.27 5135492.64 185.07
-9755106.43 5135491.96 186.75
-9755105.41 5135491.98 185.24
-9755112.12 5135490.40 182.05
-9755107.30 5135490.22 188.36
-9755107.94 5135492.67 188.07
-9755105.67 5135492.43 188.66
-9755107.19 5135490.32 188.90
-9755105.57 5135490.29 189.43
-9755108.11 5135492.23 187.27
-9755112.62 5135490.67 181.48
-9755107.29 5135490.47 187.25
-9755108.74 5135490.03 186.39
-9755106.44 5135490.53 189.89
-9755106.51 5135492.79 186.68
-9755106.23 5135492.31 184.91
-9755112.61 5135490.11 182.43
-9755106.41 5135491.26 187.95
-9755111.75 5135490.06 182.27
-9755117.36 5135492.24 181.33
-9755107.10 5135490.02 188.29
-9755112.60 5135490.92 182.23
-9755105.38 5135492.17 185.29
-9755105.19 5135490.02 181.47
-9755108.02 5135490.34 187.73
-9755108.02 5135491.77 187.83
-9755106.49 5135491.51 187.74
-9755112.33 5135491.24 182.23
-9755107.33 5135492.23 185.01
-9755107.39 5135491.72 185.31
-9755112.67 5135490.83 183.83
-9755105.95 5135491.08 189.40
-9755104.96 5135493.23 188.13
-9755104.45 5135494.08 189.33
-9755105.24 5135490.76 190.25
-9755105.13 5135489.97 189.60
-9755104.69 5135492.28 188.19
-9755104.77 5135491.32 185.56
-9755104.67 5135491.78 188.68
-9755104.80 5135492.46 187.73
-9755105.06 5135492.36 187.86
-9755105.16 5135492.24 187.82
-9755100.48 5135493.60 181.40
-9755104.73 5135491.21 188.28
-9755104.90 5135492.11 181.54
-9755104.74 5135491.15 185.45
-9755104.62 5135490.83 185.81
-9755104.69 5135491.72 185.78
-9755104.74 5135491.14 190.41
-9755104.65 5135491.23 188.31
-9755102.39 5135490.34 188.39
-9755103.73 5135489.96 189.83
-9755101.13 5135493.34 181.40
-9755102.70 5135491.12 188.92
-9755102.28 5135492.43 188.38
-9755098.86 5135490.95 185.96
-9755099.77 5135493.12 185.63
-9755102.35 5135491.55 188.06
-9755100.45 5135492.75 186.23
-9755103.13 5135492.86 188.85
-9755104.35 5135492.09 190.33
-9755101.75 5135492.28 185.85
-9755100.96 5135490.89 188.42
-9755102.79 5135490.04 189.90
-9755104.28 5135491.42 186.27
-9755101.64 5135492.50 186.73
-9755100.50 5135492.38 188.04
-9755100.00 5135493.06 186.45
-9755101.34 5135492.92 181.42
-9755102.59 5135492.42 181.44
-9755099.40 5135491.51 186.96
-9755104.39 5135493.07 187.75
-9755101.31 5135490.01 188.42
-9755098.19 5135491.83 181.36
-9755103.33 5135490.61 188.96
-9755102.92 5135490.39 181.48
