-9755420.10 5135303.89 181.10
-9755424.43 5135300.38 181.09
-9755420.68 5135305.10 181.08
-9755422.40 5135300.59 181.09
-9755418.57 5135305.35 181.07
-9755416.78 5135301.75 181.09
-9755420.94 5135301.58 181.09
-9755417.91 5135302.68 181.12
-9755416.59 5135300.90 181.10
-9755418.51 5135301.82 181.10
-9755420.03 5135307.20 181.09
-9755423.58 5135301.47 181.07
-9755419.45 5135307.75 181.10
-9755416.49 5135305.42 181.09
-9755425.92 5135307.10 181.05
-9755427.11 5135305.12 181.06
-9755424.43 5135305.43 181.08
-9755420.65 5135305.99 181.08
-9755424.19 5135304.75 181.06
-9755421.51 5135305.06 181.09
-9755419.73 5135307.74 181.09
-9755421.48 5135302.14 181.09
-9755425.12 5135307.13 181.06
-9755420.94 5135305.31 181.09
-9755416.79 5135305.61 181.10
-9755423.31 5135300.28 181.09
-9755424.79 5135301.54 181.09
-9755417.69 5135304.11 181.09
-9755417.64 5135303.22 181.11
-9755418.01 5135301.15 181.11
-9755419.69 5135306.23 181.11
-9755412.64 5135308.27 181.04
-9755415.34 5135300.30 181.09
-9755415.69 5135299.58 181.11
-9755416.24 5135303.51 181.09
-9755413.56 5135307.14 181.08
-9755416.74 5135306.54 181.07
-9755414.12 5135307.69 181.08
-9755415.29 5135308.03 181.08
-9755413.93 5135299.74 181.11
-9755413.87 5135307.68 181.07
-9755413.88 5135303.02 181.12
-9755414.18 5135305.81 181.09
-9755416.19 5135303.78 181.08
-9755413.28 5135305.30 181.09
-9755414.96 5135302.33 181.08
-9755412.71 5135304.76 181.07
-9755415.40 5135303.55 181.09
-9755414.38 5135305.33 181.08
-9755413.61 5135302.09 181.10
-9755413.00 5135307.10 181.07
-9755414.54 5135301.19 181.09
-9755414.10 5135307.15 181.07
-9755415.31 5135305.58 181.09
-9755415.03 5135307.10 181.09
-9755415.68 5135300.94 181.09
-9755412.94 5135303.48 181.08
-9755415.67 5135303.88 181.09
-9755416.33 5135299.72 181.11
-9755415.35 5135303.05 181.09
-9755415.08 5135300.59 181.08
-9755415.05 5135300.98 181.09
-9755414.45 5135304.19 181.08
-9755415.34 5135301.77 181.09
-9755413.90 5135305.07 181.08
-9755415.92 5135304.99 181.09
-9755413.29 5135306.52 181.09
-9755416.51 5135307.06 181.07
-9755430.75 5135283.51 181.04
-9755442.84 5135283.06 181.05
-9755430.73 5135282.31 181.05
-9755434.19 5135283.87 181.05
-9755437.26 5135286.26 181.08
-9755439.69 5135283.59 181.04
-9755435.47 5135282.32 181.00
-9755440.81 5135286.06 181.06
-9755433.44 5135279.31 181.03
-9755433.14 5135282.67 181.03
-9755432.26 5135281.70 181.04
-9755438.44 5135284.77 181.04
-9755431.13 5135282.32 181.03
-9755437.30 5135280.57 181.01
-9755438.43 5135285.35 181.04
-9755432.84 5135281.15 181.02
-9755430.54 5135279.60 181.01
-9755437.28 5135279.73 181.02
-9755434.95 5135279.13 181.03
-9755437.34 5135282.44 181.02
-9755440.79 5135279.37 181.00
-9755433.99 5135281.94 181.05
-9755437.57 5135283.56 181.03
-9755441.71 5135280.58 180.99
-9755442.19 5135279.47 181.03
-9755430.42 5135279.13 181.02
-9755432.52 5135279.87 181.03
-9755438.23 5135282.42 181.02
-9755442.02 5135284.73 181.07
-9755439.64 5135278.79 181.01
-9755434.24 5135284.08 181.05
-9755436.35 5135280.37 181.00
-9755436.98 5135283.64 181.05
-9755430.42 5135281.50 181.03
-9755436.34 5135283.19 181.04
-9755432.61 5135281.46 181.03
-9755434.07 5135282.90 181.03
-9755437.28 5135285.89 181.07
-9755441.68 5135286.36 181.05
-9755435.17 5135285.60 181.06
-9755442.00 5135281.48 181.02
-9755431.33 5135284.94 181.05
-9755434.04 5135280.66 181.03
-9755437.55 5135284.05 181.05
-9755439.62 5135283.29 181.01
-9755437.55 5135285.72 181.08
-9755430.14 5135282.42 181.03
-9755430.46 5135284.77 181.05
-9755434.85 5135285.28 181.05
-9755441.35 5135284.18 181.06
-9755430.17 5135285.32 181.04
-9755441.44 5135280.62 181.00
-9755436.39 5135280.59 181.01
-9755430.13 5135282.62 181.03
-9755430.23 5135280.81 181.00
-9755436.94 5135282.11 181.01
-9755432.65 5135279.06 181.02
-9755433.72 5135280.56 181.01
-9755438.34 5135285.09 181.04
-9755435.16 5135278.83 181.02
-9755434.00 5135284.13 181.05
-9755430.49 5135280.53 181.02
-9755429.95 5135280.30 181.04
-9755429.02 5135282.95 181.04
-9755429.90 5135284.03 181.05
-9755428.77 5135285.52 181.06
-9755428.73 5135283.16 181.03
-9755428.17 5135280.20 181.04
-9755429.60 5135285.54 181.05
-9755428.74 5135278.74 181.05
-9755428.07 5135285.55 181.06
-9755428.96 5135284.46 181.06
-9755429.61 5135282.39 181.03
-9755428.99 5135281.70 181.04
-9755434.21 5135298.67 181.09
-9755435.75 5135286.53 181.07
-9755442.31 5135291.95 181.08
-9755431.71 5135292.06 181.11
-9755433.74 5135297.70 181.05
-9755439.18 5135294.72 181.10
-9755439.63 5135292.07 181.11
-9755440.43 5135292.13 181.09
-9755435.70 5135298.07 181.06
-9755442.24 5135291.30 181.07
-9755430.06 5135298.63 181.07
-9755430.74 5135288.28 181.05
-9755439.29 5135286.55 181.06
-9755439.31 5135291.32 181.05
-9755436.57 5135298.43 181.07
-9755442.80 5135286.56 181.05
-9755434.05 5135293.28 181.09
-9755436.10 5135288.89 181.08
-9755431.59 5135298.69 181.07
-9755432.55 5135297.71 181.08
-9755435.78 5135292.17 181.08
-9755432.99 5135296.88 181.10
-9755433.65 5135295.40 181.07
-9755441.98 5135294.55 181.08
-9755434.27 5135288.03 181.06
-9755437.51 5135287.15 181.07
-9755433.96 5135292.07 181.08
-9755441.44 5135288.22 181.04
-9755430.36 5135291.27 181.10
-9755430.43 5135286.47 181.04
-9755433.98 5135294.77 181.10
-9755437.18 5135295.69 181.08
-9755430.44 5135287.38 181.04
-9755435.01 5135286.79 181.08
-9755439.84 5135291.03 181.09
-9755435.72 5135292.96 181.10
-9755434.54 5135298.62 181.06
-9755431.29 5135289.76 181.09
-9755434.16 5135297.45 181.08
-9755430.74 5135289.94 181.08
-9755433.32 5135292.11 181.09
-9755432.51 5135290.09 181.07
-9755438.89 5135291.63 181.08
-9755438.35 5135298.04 181.06
-9755438.98 5135294.14 181.10
-9755438.30 5135295.13 181.08
-9755442.24 5135288.03 181.05
-9755432.21 5135295.38 181.09
-9755437.50 5135296.35 181.07
-9755431.59 5135291.74 181.08
-9755435.76 5135291.26 181.09
-9755436.34 5135287.42 181.05
-9755441.58 5135293.95 181.09
-9755432.50 5135294.48 181.07
-9755433.16 5135294.20 181.09
-9755432.20 5135289.15 181.07
-9755436.41 5135296.89 181.06
-9755438.12 5135290.10 181.08
-9755431.33 5135294.13 181.09
-9755438.59 5135291.30 181.09
-9755437.52 5135287.38 181.05
-9755440.18 5135297.79 181.04
-9755432.46 5135291.92 181.09
-9755436.04 5135291.26 181.11
-9755436.35 5135290.70 181.09
-9755440.76 5135288.96 181.05
-9755434.52 5135296.27 181.07
-9755435.48 5135287.98 181.06
-9755440.69 5135289.19 181.08
-9755441.36 5135287.06 181.07
-9755430.48 5135289.70 181.08
-9755436.02 5135296.24 181.06
-9755433.41 5135290.05 181.09
-9755439.93 5135290.03 181.08
-9755440.75 5135291.00 181.09
-9755430.72 5135297.48 181.08
-9755441.56 5135297.45 181.07
-9755437.24 5135292.70 181.09
-9755438.41 5135288.64 181.06
-9755435.16 5135298.43 181.05
-9755442.22 5135292.78 181.11
-9755429.59 5135292.11 181.09
-9755437.29 5135290.11 181.09
-9755432.21 5135290.64 181.08
-9755431.32 5135290.27 181.06
-9755436.03 5135297.16 181.07
-9755433.99 5135295.69 181.10
-9755434.63 5135292.72 181.09
-9755439.17 5135295.13 181.04
-9755430.44 5135292.12 181.09
-9755436.58 5135294.22 181.09
-9755438.03 5135289.76 181.09
-9755440.99 5135296.85 181.05
-9755430.72 5135290.65 181.06
-9755438.44 5135290.45 181.08
-9755438.08 5135295.66 181.10
-9755431.29 5135292.15 181.11
-9755441.41 5135292.22 181.07
-9755433.40 5135289.14 181.08
-9755436.61 5135291.84 181.08
-9755430.70 5135288.84 181.07
-9755440.94 5135293.08 181.10
-9755429.85 5135288.83 181.08
-9755429.77 5135287.08 181.05
-9755428.07 5135298.61 181.08
-9755427.54 5135287.95 181.05
-9755427.72 5135297.16 181.09
-9755428.39 5135294.19 181.08
-9755427.44 5135298.30 181.07
-9755427.72 5135296.83 181.10
-9755428.05 5135289.79 181.05
-9755429.22 5135298.03 181.07
-9755428.37 5135295.36 181.09
-9755428.90 5135295.02 181.09
-9755429.28 5135287.92 181.06
-9755429.22 5135290.92 181.09
-9755428.07 5135294.41 181.07
-9755429.14 5135293.31 181.11
-9755429.51 5135286.51 181.07
-9755429.59 5135290.64 181.08
-9755427.73 5135298.62 181.08
-9755429.60 5135287.36 181.07
-9755428.95 5135288.84 181.05
-9755428.73 5135287.92 181.07
-9755427.55 5135285.94 181.07
-9755417.89 5135285.80 181.09
-9755420.14 5135279.35 181.09
-9755418.37 5135283.79 181.08
-9755417.55 5135282.57 181.07
-9755426.59 5135282.33 181.05
-9755416.92 5135282.52 181.07
-9755421.96 5135283.17 181.05
-9755422.16 5135286.17 181.08
-9755419.86 5135279.91 181.07
-9755422.23 5135284.70 181.08
-9755424.57 5135280.51 181.05
-9755423.99 5135279.63 181.07
-9755426.97 5135281.47 181.05
-9755423.44 5135284.14 181.09
-9755422.57 5135284.38 181.06
-9755425.77 5135284.89 181.04
-9755419.90 5135282.25 181.11
-9755420.15 5135284.10 181.10
-9755427.54 5135279.89 181.05
-9755418.99 5135286.09 181.09
-9755425.78 5135284.14 181.08
-9755421.31 5135279.62 181.08
-9755424.00 5135280.54 181.05
-9755419.01 5135279.82 181.10
-9755418.12 5135279.60 181.09
-9755425.16 5135282.14 181.05
-9755424.02 5135284.91 181.09
-9755417.54 5135284.38 181.08
-9755421.01 5135283.97 181.09
-9755417.69 5135284.91 181.07
-9755426.14 5135278.78 181.02
-9755425.50 5135279.93 181.04
-9755417.49 5135280.14 181.08
-9755427.30 5135279.08 181.07
-9755420.98 5135286.13 181.08
-9755426.38 5135284.08 181.08
-9755427.24 5135285.59 181.08
-9755418.45 5135282.54 181.09
-9755416.93 5135283.43 181.10
-9755425.75 5135281.42 181.06
-9755423.17 5135280.51 181.09
-9755425.77 5135283.23 181.05
-9755418.95 5135284.70 181.09
-9755426.09 5135282.26 181.05
-9755426.70 5135285.85 181.06
-9755422.58 5135280.24 181.08
-9755417.74 5135283.83 181.08
-9755421.96 5135281.09 181.06
-9755422.51 5135283.75 181.08
-9755422.57 5135282.28 181.08
-9755417.21 5135281.97 181.08
-9755426.65 5135284.12 181.08
-9755418.13 5135282.84 181.09
-9755425.75 5135285.34 181.08
-9755418.94 5135286.31 181.08
-9755421.62 5135279.29 181.06
-9755419.86 5135282.53 181.09
-9755427.24 5135284.75 181.08
-9755421.68 5135279.01 181.05
-9755425.97 5135284.73 181.07
-9755425.79 5135279.37 181.01
-9755426.57 5135285.29 181.08
-9755416.35 5135278.94 181.08
-9755416.36 5135283.98 181.05
-9755414.19 5135284.49 181.07
-9755416.58 5135279.56 181.09
-9755412.87 5135279.87 181.08
-9755416.05 5135283.08 181.08
-9755413.08 5135279.69 181.08
-9755414.86 5135284.67 181.09
-9755415.72 5135282.66 181.08
-9755414.81 5135283.96 181.07
-9755413.65 5135285.23 181.09
-9755415.49 5135279.64 181.07
-9755413.98 5135281.40 181.08
-9755415.52 5135280.58 181.07
-9755412.81 5135283.40 181.06
-9755413.90 5135284.90 181.09
-9755413.37 5135285.79 181.07
-9755415.42 5135282.28 181.06
-9755414.58 5135280.47 181.06
-9755415.78 5135284.61 181.06
-9755415.99 5135285.56 181.10
-9755414.26 5135283.39 181.08
-9755415.77 5135278.74 181.06
-9755414.27 5135280.45 181.07
-9755413.12 5135281.32 181.07
-9755425.83 5135286.17 181.07
-9755416.85 5135298.47 181.11
-9755423.34 5135298.61 181.08
-9755425.92 5135298.60 181.08
-9755424.54 5135288.80 181.05
-9755417.71 5135297.68 181.12
-9755420.46 5135289.73 181.09
-9755418.52 5135297.09 181.88
-9755419.20 5135298.00 181.14
-9755422.27 5135287.87 181.09
-9755419.10 5135296.21 181.14
-9755424.27 5135286.36 181.09
-9755427.17 5135298.47 181.09
-9755419.80 5135298.52 181.14
-9755419.92 5135287.06 181.09
-9755425.73 5135297.70 181.10
-9755421.81 5135292.03 181.09
-9755426.61 5135293.88 181.10
-9755424.20 5135295.85 181.10
-9755420.99 5135286.40 181.10
-9755418.44 5135297.22 181.93
-9755425.69 5135292.42 181.07
-9755420.12 5135295.01 181.11
-9755425.67 5135292.10 181.08
-9755419.87 5135297.36 192.69
-9755417.80 5135291.18 181.11
-9755417.66 5135293.49 181.11
-9755418.32 5135293.77 181.09
-9755426.85 5135294.42 181.12
-9755420.15 5135288.55 181.10
-9755418.05 5135288.17 181.11
-9755423.43 5135288.47 181.09
-9755418.64 5135297.27 181.94
-9755419.40 5135297.65 192.67
-9755420.09 5135292.72 181.10
-9755426.01 5135292.02 181.08
-9755418.61 5135293.79 181.11
-9755418.14 5135296.67 181.43
-9755418.05 5135289.64 181.11
-9755416.84 5135295.18 181.12
-9755418.99 5135297.12 192.69
-9755423.96 5135286.42 181.09
-9755421.60 5135291.97 181.09
-9755419.42 5135297.73 181.12
-9755419.31 5135293.14 181.11
-9755424.27 5135292.96 181.09
-9755425.44 5135291.14 181.09
-9755421.55 5135294.72 181.11
-9755425.98 5135294.53 181.07
-9755423.72 5135292.86 181.10
-9755420.20 5135297.15 192.70
-9755424.83 5135298.01 181.08
-9755420.69 5135292.06 181.09
-9755416.82 5135290.52 181.10
-9755426.89 5135291.50 181.09
-9755424.26 5135291.17 181.09
-9755426.32 5135292.97 181.09
-9755418.65 5135290.46 181.11
-9755416.93 5135296.78 181.12
-9755421.93 5135287.36 181.09
-9755424.21 5135296.76 181.09
-9755420.91 5135290.82 181.10
-9755422.16 5135292.94 181.10
-9755425.70 5135291.54 181.09
-9755418.92 5135297.26 181.17
-9755417.45 5135291.96 181.11
-9755425.15 5135287.28 181.07
-9755422.48 5135296.79 181.06
-9755424.26 5135296.25 181.09
-9755421.78 5135295.29 181.10
-9755425.70 5135296.86 181.08
-9755426.86 5135295.92 181.07
-9755419.79 5135297.00 181.96
-9755419.19 5135294.41 181.12
-9755417.69 5135296.66 181.13
-9755423.62 5135291.22 181.10
-9755422.43 5135287.55 181.07
-9755420.12 5135293.48 181.10
-9755418.98 5135297.74 192.67
-9755423.58 5135295.28 181.09
-9755425.77 5135291.08 181.09
-9755418.93 5135296.44 181.98
-9755419.25 5135297.39 192.66
-9755417.47 5135287.92 181.11
-9755419.46 5135296.47 181.95
-9755423.03 5135293.85 181.09
-9755422.47 5135290.92 181.09
-9755424.90 5135288.24 181.06
-9755426.59 5135295.33 181.11
-9755420.73 5135287.36 181.08
-9755421.88 5135298.15 181.12
-9755425.94 5135297.11 181.07
-9755425.70 5135295.99 181.09
-9755418.08 5135295.31 181.11
-9755418.99 5135291.41 181.09
-9755419.78 5135291.46 181.12
-9755420.04 5135297.16 181.11
-9755425.39 5135298.57 181.07
-9755418.43 5135286.69 181.10
-9755420.95 5135295.57 181.09
-9755419.21 5135297.29 181.98
-9755427.04 5135296.90 181.05
-9755419.28 5135292.32 181.09
-9755417.78 5135296.16 181.11
-9755423.41 5135295.63 181.07
-9755427.21 5135294.56 181.10
-9755419.22 5135297.64 181.96
-9755424.05 5135288.19 181.09
-9755418.94 5135295.05 181.12
-9755425.68 5135293.88 181.08
-9755419.81 5135288.79 181.09
-9755422.36 5135294.94 181.11
-9755422.76 5135290.86 181.08
-9755423.95 5135291.16 181.11
-9755416.59 5135291.04 181.09
-9755413.97 5135286.40 181.08
-9755413.33 5135287.27 181.08
-9755416.27 5135295.28 181.13
-9755415.40 5135294.93 181.13
-9755416.01 5135292.60 181.11
-9755415.73 5135287.93 181.12
-9755416.60 5135287.37 181.10
-9755415.06 5135293.50 181.11
-9755416.60 5135289.02 181.08
-9755415.73 5135289.72 181.10
-9755415.99 5135295.28 181.11
-9755414.54 5135288.09 181.08
-9755414.25 5135292.64 181.11
-9755416.58 5135294.43 181.10
-9755412.73 5135297.66 181.12
-9755414.16 5135297.39 181.12
-9755415.12 5135294.93 181.13
-9755415.36 5135295.33 181.13
-9755414.28 5135291.97 181.07
-9755413.00 5135297.96 181.11
-9755416.02 5135288.20 181.10
-9755413.57 5135290.51 181.11
-9755415.40 5135297.93 181.10
-9755416.01 5135290.88 181.11
-9755415.11 5135291.07 181.12
-9755414.13 5135295.57 181.11
-9755413.28 5135298.51 181.12
-9755413.61 5135295.91 181.10
-9755415.69 5135295.57 181.12
-9755413.97 5135288.78 181.08
-9755413.94 5135296.44 181.11
-9755415.69 5135290.79 181.13
-9755413.34 5135287.80 181.09
-9755413.01 5135292.89 181.12
-9755413.32 5135297.69 181.11
-9755415.45 5135288.76 181.08
-9755415.72 5135288.67 181.09
-9755413.26 5135288.69 181.08
-9755415.94 5135297.97 181.11
-9755413.04 5135294.43 181.10
-9755413.29 5135294.10 181.11
-9755414.85 5135291.98 181.10
-9755405.03 5135299.61 181.07
-9755404.25 5135299.01 181.02
-9755406.80 5135299.75 181.05
-9755411.32 5135299.35 181.11
-9755408.24 5135299.37 181.08
-9755401.59 5135298.69 181.08
-9755402.35 5135298.78 181.04
-9755409.14 5135299.71 181.09
-9755411.77 5135307.31 181.04
-9755411.19 5135302.06 181.07
-9755402.61 5135307.97 180.99
-9755410.90 5135302.98 181.05
-9755408.04 5135300.23 181.08
-9755412.39 5135301.78 181.05
-9755408.29 5135301.70 181.07
-9755406.16 5135307.66 180.99
-9755411.12 5135306.50 181.03
-9755411.14 5135307.41 181.04
-9755409.17 5135303.17 181.05
-9755407.86 5135305.32 181.02
-9755411.80 5135303.25 181.05
-9755410.95 5135305.32 181.04
-9755404.46 5135302.29 181.03
-9755405.88 5135302.91 181.02
-9755404.73 5135303.81 181.00
-9755410.32 5135305.37 181.04
-9755405.63 5135301.43 181.04
-9755411.49 5135306.26 181.02
-9755405.00 5135304.04 181.01
-9755412.36 5135304.97 181.06
-9755410.28 5135303.17 181.03
-9755404.74 5135302.89 181.03
-9755406.20 5135304.36 181.02
-9755405.32 5135300.54 181.05
-9755407.10 5135301.39 181.04
-9755404.41 5135306.81 181.00
-9755405.55 5135305.89 180.99
-9755405.88 5135302.01 181.02
-9755403.83 5135305.53 181.00
-9755411.80 5135304.80 181.06
-9755410.06 5135300.90 181.08
-9755409.97 5135303.55 181.03
-9755408.54 5135307.37 181.01
-9755412.08 5135306.23 181.04
-9755407.07 5135305.60 181.01
-9755404.51 5135300.84 181.05
-9755410.97 5135300.85 181.08
-9755403.77 5135304.07 181.01
-9755403.45 5135305.56 181.00
-9755403.53 5135302.02 181.01
-9755403.83 5135304.77 181.00
-9755403.52 5135307.35 180.99
-9755404.98 5135306.78 181.00
-9755405.32 5135302.33 181.04
-9755412.16 5135299.75 181.08
-9755405.33 5135305.59 181.01
-9755403.45 5135306.98 180.99
-9755405.06 5135301.80 181.04
-9755407.34 5135300.29 181.05
-9755407.39 5135307.05 181.01
-9755404.41 5135307.35 181.01
-9755408.49 5135300.56 181.07
-9755409.15 5135302.47 181.06
-9755404.42 5135303.30 181.00
-9755403.57 5135300.56 181.05
-9755403.24 5135303.52 181.01
-9755402.97 5135301.98 181.04
-9755401.16 5135304.69 181.00
-9755402.15 5135303.47 181.01
-9755401.74 5135303.51 181.00
-9755402.72 5135307.35 180.98
-9755402.68 5135301.51 181.06
-9755402.30 5135306.99 180.98
-9755403.13 5135307.09 180.99
-9755401.15 5135305.25 181.01
-9755401.21 5135300.22 181.04
-9755402.71 5135305.88 181.00
-9755400.88 5135307.05 180.98
-9755401.75 5135303.17 180.99
-9755401.77 5135307.05 180.98
-9755401.13 5135307.45 180.99
-9755402.70 5135304.97 181.01
-9755401.19 5135306.14 180.99
-9755402.90 5135300.27 181.05
-9755402.33 5135302.93 181.01
-9755397.92 5135299.07 181.05
-9755398.94 5135299.51 181.07
-9755400.84 5135305.25 180.99
-9755398.84 5135300.25 181.05
-9755398.53 5135303.99 180.99
-9755399.40 5135304.69 180.99
-9755399.09 5135301.44 181.03
-9755398.48 5135302.02 181.04
-9755399.95 5135306.76 180.98
-9755400.27 5135306.73 180.99
-9755398.79 5135305.27 181.00
-9755400.02 5135305.24 181.01
-9755398.55 5135305.27 180.99
-9755399.12 5135302.61 181.01
-9755398.85 5135307.09 180.98
-9755398.79 5135305.86 180.98
-9755399.08 5135303.83 181.00
-9755398.54 5135300.88 181.04
-9755399.08 5135302.83 181.01
-9755398.25 5135301.06 181.02
-9755399.19 5135301.38 181.05
-9755400.26 5135300.80 181.05
-9755397.95 5135303.38 181.01
-9755405.99 5135282.22 181.00
-9755406.37 5135282.40 181.00
-9755406.58 5135284.01 181.01
-9755404.30 5135281.05 180.98
-9755411.57 5135279.05 181.06
-9755411.92 5135283.96 181.05
-9755413.12 5135280.45 181.08
-9755405.10 5135283.93 180.99
-9755408.10 5135283.68 181.03
-9755406.30 5135283.37 181.01
-9755412.50 5135279.04 181.08
-9755408.68 5135282.23 181.04
-9755403.63 5135285.09 180.98
-9755405.96 5135284.14 181.03
-9755411.96 5135281.92 181.05
-9755403.68 5135284.33 180.98
-9755408.93 5135285.53 181.04
-9755411.08 5135281.36 181.06
-9755406.93 5135285.68 181.04
-9755408.09 5135280.63 181.04
-9755410.62 5135285.72 181.05
-9755404.81 5135286.23 180.98
-9755408.70 5135281.08 181.01
-9755410.20 5135283.98 181.06
-9755411.61 5135280.13 181.07
-9755409.04 5135284.08 181.05
-9755406.91 5135280.83 181.01
-9755411.66 5135281.03 181.07
-9755404.60 5135283.92 181.01
-9755404.29 5135280.50 180.98
-9755411.59 5135283.43 181.06
-9755404.40 5135286.30 181.01
-9755403.59 5135282.72 180.99
-9755409.18 5135285.79 181.05
-9755409.85 5135283.72 181.03
-9755404.54 5135279.75 180.99
-9755410.18 5135282.15 181.06
-9755411.91 5135278.68 181.06
-9755405.17 5135283.43 180.98
-9755406.83 5135284.87 181.01
-9755411.64 5135284.88 181.08
-9755404.08 5135279.51 180.95
-9755407.54 5135278.42 181.02
-9755408.42 5135282.55 181.04
-9755405.14 5135280.63 180.98
-9755408.61 5135285.91 181.03
-9755407.50 5135278.98 181.01
-9755408.36 5135280.09 181.03
-9755405.16 5135284.27 180.98
-9755409.31 5135279.84 181.04
-9755411.92 5135282.56 181.04
-9755403.66 5135283.98 180.99
-9755402.22 5135281.66 180.98
-9755401.92 5135278.67 180.93
-9755401.54 5135282.83 180.99
-9755402.57 5135283.09 180.98
-9755402.19 5135285.47 181.01
-9755402.83 5135281.06 180.99
-9755401.84 5135285.70 181.01
-9755401.87 5135281.58 180.97
-9755401.29 5135280.42 180.97
-9755401.32 5135285.74 180.98
-9755404.41 5135292.82 180.97
-9755411.27 5135286.37 181.09
-9755404.99 5135298.53 181.07
-9755407.75 5135289.59 181.06
-9755405.33 5135293.14 181.06
-9755402.07 5135298.21 181.08
-9755409.26 5135291.36 181.08
-9755411.52 5135295.24 181.08
-9755410.76 5135292.85 181.08
-9755408.32 5135293.45 181.09
-9755405.95 5135292.77 181.06
-9755411.67 5135287.24 181.07
-9755408.00 5135296.35 181.08
-9755403.28 5135293.75 181.05
-9755407.11 5135287.25 181.07
-9755403.63 5135293.72 181.03
-9755405.36 5135286.35 181.00
-9755404.15 5135296.45 181.05
-9755412.17 5135290.51 181.09
-9755412.68 5135294.93 181.10
-9755411.90 5135293.51 181.08
-9755404.48 5135296.97 181.06
-9755406.87 5135290.52 181.05
-9755411.55 5135294.39 181.08
-9755406.47 5135294.62 181.04
-9755408.63 5135290.69 181.05
-9755410.96 5135290.83 181.08
-9755404.14 5135290.81 181.05
-9755411.23 5135288.76 181.08
-9755403.53 5135298.49 181.03
-9755407.46 5135287.20 181.07
-9755408.00 5135292.82 181.08
-9755406.24 5135296.21 181.06
-9755403.62 5135293.37 181.06
-9755405.65 5135293.77 181.07
-9755409.48 5135296.17 181.09
-9755412.21 5135287.26 181.08
-9755404.42 5135295.02 181.08
-9755407.22 5135291.39 181.06
-9755406.02 5135286.55 181.02
-9755406.36 5135291.65 181.09
-9755405.72 5135289.61 181.03
-9755409.48 5135289.22 181.04
-9755404.20 5135292.81 181.04
-9755410.68 5135294.37 181.11
-9755406.01 5135289.30 181.04
-9755408.83 5135297.97 181.08
-9755407.48 5135286.93 181.07
-9755412.42 5135298.51 181.10
-9755410.46 5135287.24 181.06
-9755404.21 5135288.08 181.03
-9755406.03 5135290.21 181.03
-9755406.02 5135294.08 181.08
-9755408.38 5135289.25 181.06
-9755405.35 5135291.10 181.06
-9755406.82 5135290.76 181.05
-9755410.39 5135293.46 181.09
-9755408.95 5135292.83 181.09
-9755406.54 5135292.82 181.08
-9755407.46 5135289.84 181.06
-9755410.02 5135291.99 181.06
-9755404.17 5135289.52 181.02
-9755405.07 5135290.78 181.04
-9755408.36 5135290.85 181.05
-9755410.97 5135294.08 181.08
-9755412.08 5135293.78 181.09
-9755407.50 5135288.16 181.05
-9755403.83 5135287.23 181.01
-9755409.79 5135292.04 181.07
-9755410.10 5135297.49 181.06
-9755411.84 5135289.06 181.07
-9755409.12 5135288.11 181.06
-9755405.00 5135297.22 181.08
-9755403.84 5135295.22 181.09
-9755405.87 5135297.60 181.09
-9755404.77 5135294.71 181.06
-9755409.59 5135290.44 181.07
-9755409.25 5135297.62 181.08
-9755409.22 5135292.50 181.09
-9755405.78 5135291.94 181.07
-9755404.17 5135291.90 181.06
-9755407.10 5135294.03 181.03
-9755409.90 5135289.62 181.07
-9755410.88 5135296.36 181.09
-9755409.80 5135287.22 181.08
-9755410.76 5135289.32 181.07
-9755409.17 5135292.90 181.09
-9755407.78 5135295.24 181.05
-9755407.66 5135294.91 181.05
-9755404.25 5135287.27 181.01
-9755409.80 5135293.11 181.08
-9755411.05 5135290.48 181.06
-9755405.02 5135297.54 181.07
-9755402.68 5135298.13 181.05
-9755403.18 5135297.30 181.07
-9755402.70 5135292.82 181.07
-9755403.38 5135287.25 181.02
-9755403.02 5135296.45 181.09
-9755401.62 5135286.64 181.00
-9755402.73 5135289.60 181.01
-9755401.86 5135287.16 181.01
-9755402.75 5135290.80 181.06
-9755402.69 5135293.39 181.07
-9755401.24 5135290.18 181.02
-9755402.43 5135292.85 181.07
-9755402.71 5135288.07 181.02
-9755402.21 5135290.40 181.03
-9755401.19 5135290.40 181.02
-9755401.27 5135298.49 181.09
-9755401.81 5135291.57 181.05
-9755401.28 5135296.13 181.07
-9755402.65 5135288.73 181.00
-9755402.25 5135291.31 180.99
-9755402.16 5135287.20 181.00
-9755402.45 5135289.58 181.02
-9755401.52 5135288.72 181.02
-9755402.62 5135296.00 181.09
-9755402.72 5135297.59 181.03
-9755403.02 5135292.28 181.04
-9755401.05 5135284.55 180.99
-9755401.07 5135285.45 180.97
-9755399.58 5135280.98 180.99
-9755399.24 5135281.30 180.98
-9755398.37 5135284.03 180.98
-9755398.99 5135284.58 181.00
-9755399.50 5135283.33 181.00
-9755399.90 5135278.94 180.95
-9755400.96 5135283.29 181.00
-9755399.75 5135283.88 180.99
-9755398.05 5135285.75 180.98
-9755400.44 5135283.64 180.98
-9755398.63 5135280.68 180.97
-9755398.05 5135279.15 180.98
-9755398.66 5135282.74 181.00
-9755400.95 5135284.13 180.99
-9755399.22 5135282.50 180.99
-9755400.66 5135284.59 181.00
-9755399.56 5135282.46 180.98
-9755398.05 5135282.15 180.99
-9755400.04 5135281.61 180.98
-9755401.04 5135278.87 180.98
-9755398.65 5135278.64 180.94
-9755398.30 5135282.46 180.98
-9755399.42 5135298.45 181.08
-9755401.01 5135286.59 181.00
-9755398.83 5135294.80 181.06
-9755398.97 5135288.08 181.02
-9755400.70 5135298.69 181.08
-9755398.25 5135296.94 181.07
-9755401.05 5135291.05 181.04
-9755400.38 5135295.20 181.05
-9755397.95 5135293.72 181.06
-9755397.95 5135296.96 181.07
-9755398.25 5135290.46 181.03
-9755398.00 5135297.73 181.06
-9755400.07 5135288.67 181.03
-9755399.97 5135296.04 181.07
-9755399.48 5135288.31 181.03
-9755399.12 5135296.94 181.07
-9755401.02 5135288.07 181.03
-9755398.02 5135291.29 181.03
-9755399.46 5135291.65 181.04
-9755399.48 5135286.55 181.01
-9755398.63 5135293.63 181.05
-9755399.76 5135296.89 181.07
-9755400.35 5135293.40 181.06
-9755398.01 5135294.60 181.06
-9755400.40 5135297.21 181.07
-9755398.11 5135288.92 181.05
-9755400.00 5135297.85 181.05
-9755399.45 5135290.75 181.05
-9755400.02 5135293.73 181.08
-9755399.42 5135295.46 181.06
-9755399.48 5135297.52 181.06
-9755448.82 5135278.83 181.04
-9755438.10 5135278.85 181.01
-9755445.64 5135272.65 181.03
-9755447.04 5135273.04 181.01
-9755448.27 5135272.61 181.00
-9755448.89 5135272.36 181.01
-9755449.72 5135272.39 181.03
-9755444.13 5135272.70 181.02
-9755446.97 5135273.25 181.02
-9755445.31 5135273.20 181.02
-9755444.41 5135273.23 181.03
-9755443.86 5135273.24 181.01
-9755448.23 5135273.18 180.99
-9755446.41 5135278.54 181.01
-9755444.11 5135278.03 181.01
-9755447.84 5135277.10 181.03
-9755445.54 5135274.72 181.02
-9755444.08 5135275.86 181.02
-9755447.04 5135277.98 181.04
-9755445.84 5135274.73 181.00
-9755447.03 5135276.50 181.03
-9755447.90 5135278.70 181.05
-9755445.91 5135277.97 181.02
-9755449.37 5135275.04 181.04
-9755447.95 5135273.87 180.99
-9755445.52 5135278.04 181.02
-9755444.94 5135277.32 181.03
-9755445.24 5135274.74 181.01
-9755450.29 5135277.69 181.04
-9755448.81 5135277.76 181.03
-9755449.31 5135275.61 181.03
-9755447.05 5135274.83 181.02
-9755446.18 5135273.76 180.99
-9755447.87 5135277.44 181.03
-9755446.76 5135277.39 181.02
-9755444.68 5135276.21 181.01
-9755447.29 5135276.91 181.03
-9755449.31 5135277.06 181.03
-9755442.80 5135277.93 181.03
-9755442.60 5135274.57 181.01
-9755444.13 5135272.13 181.01
-9755448.45 5135271.57 181.03
-9755447.08 5135260.26 181.03
-9755446.75 5135269.17 180.99
-9755445.63 5135268.44 181.01
-9755445.37 5135269.17 181.01
-9755444.77 5135267.35 181.00
-9755447.97 5135267.29 180.99
-9755443.84 5135269.59 181.01
-9755447.01 5135271.74 181.01
-9755446.24 5135259.67 181.02
-9755448.94 5135262.37 181.00
-9755450.27 5135265.66 181.05
-9755445.18 5135261.71 181.01
-9755445.52 5135271.97 181.00
-9755447.63 5135267.31 181.01
-9755446.51 5135267.29 180.98
-9755445.26 5135271.43 180.99
-9755444.37 5135266.68 181.00
-9755447.33 5135271.56 181.03
-9755443.23 5135265.77 181.00
-9755443.67 5135264.04 181.00
-9755443.82 5135262.82 181.02
-9755449.49 5135263.22 181.03
-9755446.22 5135260.86 181.01
-9755445.28 5135265.92 181.00
-9755445.56 5135265.57 181.01
-9755445.56 5135267.01 181.01
-9755447.97 5135270.60 181.01
-9755449.13 5135269.12 181.01
-9755449.82 5135266.12 181.02
-9755450.05 5135271.24 181.03
-9755445.69 5135262.53 181.01
-9755443.84 5135266.47 181.01
-9755445.39 5135263.83 181.00
-9755445.35 5135264.96 181.00
-9755445.92 5135270.60 181.03
-9755446.31 5135262.64 181.01
-9755449.44 5135263.44 181.02
-9755444.12 5135266.46 181.00
-9755444.77 5135267.88 180.98
-9755443.84 5135262.27 181.04
-9755449.48 5135267.99 181.02
-9755450.36 5135261.08 181.02
-9755443.79 5135269.99 181.00
-9755444.48 5135262.58 180.99
-9755446.30 5135266.17 180.99
-9755448.83 5135270.24 181.02
-9755449.10 5135267.68 181.02
-9755447.12 5135268.56 181.01
-9755444.81 5135263.45 181.01
-9755447.15 5135261.16 181.00
-9755443.57 5135270.66 181.01
-9755442.93 5135270.88 181.00
-9755430.53 5135272.52 181.01
-9755434.31 5135272.26 180.99
-9755440.59 5135272.56 181.00
-9755432.60 5135271.97 180.99
-9755433.17 5135272.91 180.98
-9755440.56 5135271.89 180.97
-9755429.39 5135272.51 181.02
-9755428.14 5135272.21 181.01
-9755436.72 5135278.50 180.99
-9755429.60 5135278.87 181.05
-9755439.92 5135278.61 181.00
-9755438.50 5135273.24 180.97
-9755442.24 5135275.54 181.01
-9755442.03 5135274.77 180.99
-9755434.67 5135273.80 180.99
-9755433.12 5135277.34 181.01
-9755431.71 5135277.29 181.02
-9755435.86 5135276.22 181.00
-9755441.69 5135278.27 181.01
-9755436.41 5135276.78 180.99
-9755432.91 5135275.80 181.01
-9755442.27 5135276.85 181.03
-9755437.34 5135277.08 181.01
-9755442.33 5135277.69 181.03
-9755440.83 5135275.00 180.99
-9755440.19 5135274.65 180.97
-9755435.51 5135278.15 181.02
-9755432.57 5135278.22 181.03
-9755440.57 5135278.26 181.01
-9755431.99 5135277.34 181.02
-9755432.33 5135276.35 181.00
-9755436.17 5135275.84 181.01
-9755442.39 5135278.22 181.02
-9755435.61 5135276.46 181.01
-9755435.20 5135276.41 181.00
-9755440.81 5135276.46 181.02
-9755430.78 5135277.26 181.02
-9755438.50 5135274.68 180.98
-9755437.32 5135276.74 180.99
-9755430.54 5135274.04 181.00
-9755432.02 5135274.03 180.98
-9755436.24 5135273.21 180.98
-9755430.29 5135275.53 181.03
-9755430.56 5135275.86 181.02
-9755437.62 5135275.87 181.03
-9755439.63 5135277.89 181.01
-9755430.85 5135277.01 181.02
-9755433.21 5135274.07 180.98
-9755439.06 5135276.16 180.99
-9755440.86 5135275.89 181.00
-9755429.10 5135273.19 181.00
-9755428.55 5135273.34 181.00
-9755429.69 5135278.22 181.05
-9755429.34 5135275.79 181.02
-9755428.24 5135273.73 181.01
-9755427.81 5135277.87 181.05
-9755428.44 5135275.79 181.03
-9755427.36 5135273.16 181.02
-9755417.59 5135271.88 181.10
-9755425.87 5135272.53 181.06
-9755424.94 5135272.83 181.04
-9755425.83 5135272.29 181.05
-9755417.88 5135271.67 181.09
-9755421.13 5135272.16 181.07
-9755419.44 5135273.13 181.07
-9755427.29 5135272.80 181.02
-9755425.50 5135272.22 181.03
-9755414.84 5135278.92 181.09
-9755415.13 5135272.13 181.10
-9755428.22 5135276.13 181.05
-9755419.91 5135278.40 181.09
-9755415.81 5135278.38 181.09
-9755421.11 5135277.57 181.06
-9755422.55 5135274.85 181.04
-9755421.64 5135277.20 181.10
-9755421.08 5135274.83 181.06
-9755424.11 5135274.87 181.05
-9755420.88 5135276.65 181.07
-9755418.42 5135275.14 181.09
-9755427.33 5135273.67 181.03
-9755425.52 5135274.65 181.03
-9755423.97 5135276.43 181.05
-9755418.37 5135278.52 181.08
-9755424.61 5135276.64 181.06
-9755419.25 5135277.82 181.07
-9755417.68 5135275.43 181.08
-9755424.02 5135278.48 181.06
-9755421.11 5135276.30 181.06
-9755416.93 5135274.29 181.09
-9755427.52 5135276.36 181.04
-9755422.32 5135275.75 181.06
-9755418.43 5135276.04 181.09
-9755422.85 5135277.20 181.08
-9755420.22 5135275.45 181.08
-9755416.91 5135273.37 181.08
-9755421.44 5135278.12 181.07
-9755427.32 5135277.04 181.05
-9755422.59 5135276.05 181.07
-9755426.67 5135278.44 181.05
-9755426.40 5135276.16 181.05
-9755425.85 5135274.34 181.03
-9755421.05 5135274.01 181.06
-9755420.17 5135275.82 181.08
-9755420.20 5135273.40 181.08
-9755416.86 5135276.93 181.08
-9755425.64 5135277.00 181.07
-9755417.18 5135275.71 181.08
-9755421.12 5135274.62 181.06
-9755421.40 5135275.81 181.08
-9755416.69 5135276.08 181.09
-9755416.64 5135277.25 181.07
-9755414.07 5135273.95 181.10
-9755413.74 5135273.93 181.10
-9755413.77 5135273.30 181.09
-9755414.04 5135278.38 181.08
-9755413.44 5135276.62 181.10
-9755414.30 5135274.91 181.10
-9755414.02 5135277.48 181.09
-9755415.17 5135276.86 181.07
-9755415.48 5135276.59 181.10
-9755416.10 5135274.59 181.11
-9755437.35 5135259.29 181.00
-9755436.78 5135259.28 180.95
-9755430.96 5135259.20 180.99
-9755433.88 5135259.30 180.91
-9755440.39 5135259.32 181.01
-9755442.66 5135262.63 181.01
-9755437.11 5135260.72 180.97
-9755442.41 5135260.18 181.04
-9755442.41 5135268.83 181.00
-9755433.21 5135265.45 180.99
-9755435.83 5135272.34 180.99
-9755437.61 5135260.18 181.00
-9755439.65 5135268.98 180.98
-9755442.59 5135270.56 181.01
-9755440.34 5135271.66 180.98
-9755442.53 5135263.12 181.01
-9755430.65 5135261.93 181.01
-9755439.06 5135272.13 181.00
-9755431.40 5135263.45 180.99
-9755432.10 5135260.10 180.99
-9755434.73 5135265.75 180.98
-9755433.83 5135269.64 180.98
-9755438.28 5135260.13 181.01
-9755440.60 5135267.27 180.97
-9755433.23 5135262.48 180.99
-9755436.70 5135267.58 180.92
-9755438.90 5135265.24 180.99
-9755442.03 5135269.08 181.01
-9755439.04 5135271.40 180.98
-9755442.40 5135269.04 181.00
-9755442.02 5135264.87 181.00
-9755431.74 5135266.04 180.99
-9755438.86 5135267.83 180.95
-9755439.18 5135261.04 180.99
-9755436.60 5135262.50 180.98
-9755434.68 5135261.02 180.99
-9755435.66 5135264.56 180.97
-9755438.26 5135265.50 180.97
-9755432.65 5135263.06 181.00
-9755435.24 5135264.89 180.98
-9755437.17 5135261.05 180.98
-9755434.38 5135270.57 181.00
-9755430.58 5135271.36 181.01
-9755436.79 5135271.40 180.99
-9755433.79 5135261.96 180.98
-9755440.90 5135261.41 181.01
-9755439.85 5135261.14 181.00
-9755438.85 5135269.32 180.97
-9755442.29 5135269.67 180.98
-9755440.62 5135265.60 180.98
-9755435.85 5135268.14 180.96
-9755432.65 5135263.42 181.00
-9755435.56 5135266.66 180.93
-9755431.68 5135267.73 181.00
-9755438.22 5135268.44 180.94
-9755433.49 5135266.71 180.96
-9755433.23 5135263.97 180.98
-9755432.07 5135263.42 180.99
-9755439.45 5135268.18 180.95
-9755437.99 5135263.77 180.98
-9755433.86 5135263.92 180.98
-9755430.02 5135268.97 180.99
-9755442.25 5135266.74 180.98
-9755440.87 5135262.53 180.99
-9755438.90 5135262.29 180.98
-9755434.96 5135270.17 180.98
-9755442.39 5135267.57 180.98
-9755431.20 5135261.01 180.97
-9755433.00 5135261.56 181.00
-9755439.19 5135263.42 180.99
-9755442.08 5135262.59 181.02
-9755440.90 5135268.16 180.98
-9755437.37 5135266.98 180.97
-9755437.72 5135265.84 180.96
-9755430.60 5135266.03 180.98
-9755438.86 5135261.05 180.98
-9755437.73 5135262.50 180.99
-9755430.63 5135270.22 180.98
-9755436.44 5135267.58 180.94
-9755439.38 5135270.79 180.99
-9755440.33 5135267.64 180.97
-9755435.51 5135271.13 180.96
-9755438.27 5135270.22 180.95
-9755433.54 5135261.01 180.98
-9755439.75 5135266.33 180.98
-9755433.76 5135268.20 180.98
-9755438.87 5135263.42 180.99
-9755439.68 5135263.82 180.98
-9755430.84 5135260.15 181.00
-9755442.06 5135260.60 180.99
-9755435.27 5135265.77 180.95
-9755439.99 5135263.43 180.98
-9755441.47 5135268.56 180.99
-9755432.69 5135265.78 180.98
-9755435.08 5135264.60 180.97
-9755430.05 5135263.08 181.01
-9755430.62 5135266.93 180.97
-9755428.82 5135272.24 181.04
-9755428.16 5135270.17 181.02
-9755429.10 5135270.51 181.00
-9755429.69 5135269.00 180.99
-9755428.22 5135260.75 181.01
-9755429.07 5135271.37 181.03
-9755428.79 5135260.75 180.98
-9755428.18 5135269.61 181.02
-9755429.72 5135266.38 181.00
-9755429.69 5135268.45 180.99
-9755429.10 5135269.01 181.00
-9755428.13 5135271.65 181.02
-9755427.64 5135270.87 181.00
-9755427.66 5135269.96 181.04
-9755425.93 5135259.53 181.03
-9755427.43 5135259.83 181.01
-9755421.82 5135259.18 181.06
-9755425.01 5135259.51 181.05
-9755417.38 5135259.85 181.09
-9755416.65 5135272.21 181.08
-9755422.85 5135272.12 181.05
-9755416.41 5135271.60 181.09
-9755420.85 5135259.48 181.10
-9755413.48 5135272.15 181.09
-9755427.95 5135261.81 181.01
-9755425.93 5135259.87 181.02
-9755422.30 5135268.66 181.08
-9755427.56 5135267.21 181.02
-9755419.10 5135268.94 181.07
-9755420.33 5135265.14 181.09
-9755417.63 5135262.66 181.09
-9755421.80 5135270.82 181.09
-9755423.58 5135261.79 181.06
-9755424.09 5135259.55 181.07
-9755420.75 5135271.02 181.10
-9755423.89 5135265.77 181.07
-9755424.38 5135271.36 181.06
-9755420.07 5135260.39 181.11
-9755417.02 5135260.88 181.10
-9755420.66 5135263.60 181.10
-9755426.47 5135262.43 181.05
-9755422.33 5135266.61 181.05
-9755424.99 5135265.43 181.06
-9755427.30 5135271.59 181.03
-9755422.34 5135265.99 181.09
-9755417.57 5135270.66 181.09
-9755424.92 5135268.95 181.05
-9755419.92 5135267.77 181.08
-9755417.59 5135269.47 181.10
-9755422.38 5135260.13 181.10
-9755426.43 5135270.76 181.03
-9755419.69 5135267.38 181.10
-9755417.89 5135260.10 181.09
-9755417.07 5135267.45 181.08
-9755423.56 5135270.93 181.06
-9755426.47 5135269.93 181.02
-9755422.33 5135269.91 181.08
-9755417.28 5135265.06 181.10
-9755424.66 5135263.44 181.04
-9755426.42 5135268.94 181.04
-9755425.53 5135269.29 181.02
-9755423.49 5135265.45 181.07
-9755425.94 5135260.43 181.04
-9755427.10 5135260.78 181.04
-9755420.33 5135266.60 181.04
-9755420.87 5135261.26 181.07
-9755421.78 5135265.67 181.08
-9755420.30 5135261.86 181.08
-9755422.76 5135260.97 181.07
-9755427.37 5135264.46 181.04
-9755417.02 5135262.34 181.11
-9755421.56 5135261.77 181.09
-9755423.82 5135268.35 181.09
-9755422.55 5135268.99 181.07
-9755426.48 5135264.24 181.03
-9755425.19 5135263.97 181.06
-9755423.25 5135271.35 181.08
-9755420.31 5135264.23 181.07
-9755417.68 5135262.44 181.09
-9755420.31 5135268.64 181.06
-9755426.47 5135265.39 181.00
-9755419.13 5135266.31 181.10
-9755419.32 5135270.38 181.08
-9755425.26 5135271.27 181.05
-9755422.48 5135269.83 181.09
-9755423.45 5135268.95 181.06
-9755421.79 5135267.49 181.07
-9755423.50 5135263.05 181.09
-9755418.51 5135268.90 181.09
-9755425.02 5135261.93 181.05
-9755418.01 5135268.27 181.09
-9755425.58 5135263.36 181.05
-9755422.05 5135262.52 181.08
-9755416.93 5135266.58 181.09
-9755417.84 5135266.59 181.09
-9755421.12 5135270.41 181.07
-9755424.10 5135266.37 181.05
-9755423.50 5135262.57 181.08
-9755423.44 5135269.62 181.08
-9755417.66 5135264.46 181.09
-9755419.70 5135261.50 181.09
-9755424.42 5135266.36 181.05
-9755417.63 5135268.32 181.12
-9755420.91 5135263.98 181.06
-9755419.34 5135267.78 181.10
-9755427.40 5135260.94 181.02
-9755426.45 5135268.10 181.02
-9755416.78 5135265.76 181.09
-9755420.29 5135269.03 181.09
-9755422.68 5135261.78 181.09
-9755413.35 5135271.86 181.07
-9755413.72 5135270.66 181.07
-9755414.28 5135266.83 181.09
-9755416.50 5135262.65 181.10
-9755414.41 5135271.52 181.09
-9755414.04 5135269.76 181.06
-9755416.15 5135268.95 181.10
-9755415.21 5135270.43 181.08
-9755415.81 5135266.57 181.08
-9755413.52 5135268.65 181.09
-9755416.19 5135268.36 181.07
-9755413.52 5135266.21 181.10
-9755416.73 5135269.27 181.09
-9755414.66 5135264.76 181.12
-9755415.80 5135271.36 181.10
-9755416.74 5135267.44 181.09
-9755414.62 5135270.65 181.07
-9755415.02 5135260.34 181.06
-9755414.63 5135260.02 181.11
-9755414.11 5135260.33 181.11
-9755413.78 5135262.74 181.06
-9755413.73 5135260.95 181.12
-9755415.55 5135262.37 181.10
-9755414.26 5135270.72 181.07
-9755416.17 5135265.07 181.09
-9755405.19 5135272.54 180.98
-9755405.48 5135273.03 180.99
-9755408.41 5135272.17 181.04
-9755407.76 5135272.48 181.03
-9755410.80 5135272.35 181.05
-9755409.61 5135272.43 181.07
-9755409.30 5135272.20 181.06
-9755406.10 5135272.50 181.01
-9755412.57 5135272.13 181.07
-9755401.67 5135272.85 180.98
-9755402.29 5135271.52 180.97
-9755403.43 5135272.14 180.98
-9755406.05 5135273.07 181.00
-9755411.39 5135277.29 181.08
-9755413.11 5135277.51 181.08
-9755412.58 5135273.40 181.08
-9755403.74 5135273.88 180.96
-9755402.29 5135272.38 181.01
-9755411.74 5135277.51 181.07
-9755409.25 5135276.34 181.05
-9755406.93 5135278.37 181.02
-9755412.28 5135273.90 181.07
-9755407.85 5135273.29 181.03
-9755404.31 5135276.82 180.97
-9755404.61 5135276.24 180.98
-9755404.33 5135275.64 180.97
-9755408.10 5135274.02 181.04
-9755411.72 5135273.95 181.06
-9755405.81 5135274.20 181.02
-9755409.04 5135276.29 181.05
-9755408.79 5135273.28 181.05
-9755406.72 5135275.38 181.00
-9755405.41 5135275.93 180.99
-9755405.11 5135277.16 180.98
-9755411.70 5135274.46 181.08
-9755404.28 5135275.01 180.98
-9755403.75 5135276.26 180.97
-9755410.25 5135277.67 181.05
-9755410.75 5135273.35 181.06
-9755407.20 5135273.94 181.02
-9755407.51 5135274.71 181.01
-9755411.99 5135275.99 181.05
-9755408.72 5135275.62 181.03
-9755402.83 5135275.33 180.98
-9755402.88 5135274.75 180.95
-9755402.79 5135277.99 180.98
-9755403.46 5135274.20 180.96
-9755402.46 5135278.02 180.96
-9755401.37 5135274.81 180.98
-9755403.42 5135275.68 180.96
-9755403.40 5135277.57 180.98
-9755402.48 5135277.21 180.97
-9755401.06 5135271.59 180.98
-9755398.72 5135272.72 180.96
-9755398.22 5135271.52 180.98
-9755399.26 5135272.92 180.97
-9755398.39 5135272.40 180.97
-9755401.03 5135272.72 180.98
-9755399.67 5135275.41 180.98
-9755397.82 5135273.30 180.97
-9755400.41 5135274.20 180.95
-9755398.34 5135278.22 180.95
-9755400.83 5135275.76 180.96
-9755399.55 5135274.52 180.97
-9755399.60 5135277.47 180.94
-9755400.73 5135276.20 180.95
-9755398.12 5135274.76 180.94
-9755399.31 5135275.65 180.97
-9755400.98 5135277.25 180.92
-9755398.70 5135275.12 180.95
-9755410.88 5135259.71 181.09
-9755405.29 5135259.31 181.03
-9755412.62 5135259.45 181.11
-9755410.50 5135259.40 181.10
-9755408.50 5135259.38 181.07
-9755402.88 5135259.42 181.06
-9755403.47 5135271.81 180.98
-9755408.25 5135259.39 181.07
-9755406.30 5135271.60 181.03
-9755404.16 5135259.96 181.04
-9755408.47 5135262.31 181.07
-9755410.00 5135260.63 181.06
-9755410.27 5135271.89 181.06
-9755412.35 5135271.53 181.07
-9755403.78 5135261.67 181.03
-9755410.78 5135268.34 181.07
-9755405.47 5135267.33 181.04
-9755411.06 5135263.76 181.08
-9755411.09 5135270.90 181.06
-9755404.32 5135271.20 180.99
-9755408.46 5135260.87 181.07
-9755404.38 5135268.28 181.01
-9755405.86 5135268.20 181.01
-9755411.96 5135265.76 181.06
-9755405.49 5135264.98 181.03
-9755409.29 5135268.92 181.05
-9755410.95 5135261.84 181.05
-9755409.00 5135270.61 181.03
-9755404.54 5135266.13 181.03
-9755413.23 5135263.65 181.09
-9755405.05 5135261.08 181.05
-9755411.81 5135264.43 181.10
-9755407.52 5135271.20 181.02
-9755410.30 5135263.20 181.07
-9755409.26 5135270.05 181.03
-9755402.07 5135259.33 181.06
-9755407.57 5135264.74 181.04
-9755412.62 5135262.39 181.07
-9755409.63 5135266.51 181.05
-9755409.65 5135268.32 181.05
-9755413.14 5135270.71 181.08
-9755404.41 5135267.12 181.01
-9755407.54 5135268.58 181.03
-9755406.09 5135266.81 181.02
-9755412.60 5135260.02 181.10
-9755402.87 5135271.46 180.99
-9755404.40 5135264.75 181.02
-9755406.15 5135264.93 181.04
-9755407.70 5135260.28 181.10
-9755408.14 5135261.80 181.04
-9755408.40 5135268.81 181.04
-9755407.62 5135262.70 181.05
-9755410.31 5135265.57 181.06
-9755404.62 5135263.85 180.99
-9755404.09 5135267.47 181.00
-9755405.49 5135270.64 181.01
-9755412.01 5135262.60 181.08
-9755408.17 5135265.08 181.05
-9755410.20 5135264.15 181.08
-9755404.39 5135260.26 181.03
-9755408.13 5135263.23 181.05
-9755408.52 5135267.41 181.05
-9755411.63 5135261.75 181.10
-9755407.58 5135261.84 181.06
-9755409.26 5135267.11 181.07
-9755411.70 5135260.62 181.09
-9755403.83 5135261.45 181.03
-9755412.60 5135265.90 181.08
-9755403.79 5135260.19 181.04
-9755406.05 5135270.32 181.01
-9755409.98 5135268.30 181.06
-9755405.82 5135267.35 181.02
-9755412.62 5135263.31 181.09
-9755410.00 5135269.79 181.05
-9755404.22 5135262.67 181.04
-9755410.18 5135267.98 181.06
-9755410.56 5135267.43 181.04
-9755404.26 5135270.71 180.99
-9755408.72 5135263.60 181.07
-9755407.58 5135265.62 181.03
-9755408.53 5135265.94 181.06
-9755409.99 5135262.10 181.06
-9755404.08 5135267.14 181.01
-9755407.02 5135264.16 181.05
-9755409.07 5135266.51 181.06
-9755412.96 5135260.54 181.07
-9755410.36 5135263.89 181.06
-9755408.15 5135264.18 181.05
-9755404.62 5135262.41 181.05
-9755407.26 5135265.12 181.03
-9755407.89 5135261.43 181.06
-9755411.96 5135270.92 181.07
-9755408.82 5135265.05 181.07
-9755410.91 5135264.45 181.08
-9755403.47 5135265.90 181.01
-9755402.84 5135269.70 180.99
-9755402.69 5135262.02 181.03
-9755402.01 5135271.28 180.96
-9755401.94 5135270.59 180.97
-9755403.22 5135265.54 181.02
-9755401.97 5135267.40 180.96
-9755401.93 5135269.12 180.99
-9755402.58 5135266.28 181.01
-9755401.97 5135267.09 180.98
-9755401.20 5135261.13 181.05
-9755402.13 5135260.25 181.07
-9755402.87 5135263.17 181.03
-9755402.84 5135266.76 181.00
-9755401.98 5135263.53 181.02
-9755401.75 5135264.98 181.03
-9755402.86 5135268.23 181.01
-9755402.30 5135266.75 181.00
-9755402.21 5135269.84 181.01
-9755402.64 5135263.17 181.04
-9755400.42 5135259.61 181.09
-9755400.87 5135259.19 181.09
-9755397.95 5135261.67 181.06
-9755398.74 5135262.58 181.03
-9755399.70 5135261.46 181.06
-9755399.87 5135264.92 181.02
-9755400.47 5135263.23 181.05
-9755399.35 5135264.44 181.01
-9755399.68 5135271.45 180.96
-9755397.82 5135266.42 181.02
-9755400.12 5135270.66 180.97
-9755397.82 5135270.00 180.99
-9755399.68 5135262.02 181.05
-9755401.01 5135270.97 180.97
-9755400.48 5135265.58 180.99
-9755400.48 5135267.39 180.97
-9755401.07 5135264.15 181.01
-9755399.70 5135266.49 181.00
-9755400.85 5135268.31 181.00
-9755399.28 5135271.45 180.97
-9755397.82 5135267.31 181.01
-9755397.95 5135260.75 181.07
-9755399.88 5135265.83 181.03
-9755400.43 5135268.52 180.99
-9755400.84 5135263.20 181.03
-9755398.77 5135267.39 181.01
-9755400.86 5135265.89 181.00
-9755397.96 5135263.14 181.06
-9755399.09 5135260.21 181.05
-9755398.18 5135268.20 181.01
-9755397.97 5135260.19 181.06
-9755503.10 5135363.85 181.10
-9755501.73 5135355.57 181.07
-9755501.68 5135360.90 181.07
-9755501.67 5135361.72 181.06
-9755502.29 5135357.95 181.07
-9755501.61 5135358.02 181.07
-9755503.14 5135362.71 181.09
-9755501.70 5135355.93 181.08
-9755501.64 5135362.40 181.09
-9755503.15 5135356.47 181.09
-9755502.53 5135354.68 181.08
-9755501.70 5135362.72 181.07
-9755502.58 5135354.11 181.09
-9755501.72 5135359.42 181.09
-9755502.29 5135354.10 181.08
-9755501.76 5135341.65 181.08
-9755502.04 5135347.31 181.08
-9755502.65 5135340.81 181.10
-9755502.93 5135342.27 181.09
-9755501.75 5135350.25 181.08
-9755503.22 5135346.38 181.09
-9755502.59 5135351.19 181.09
-9755502.64 5135349.67 181.09
-9755502.64 5135346.39 181.09
-9755503.19 5135345.48 181.10
-9755503.14 5135351.73 181.09
-9755502.66 5135343.17 181.09
-9755501.77 5135348.78 181.08
-9755502.31 5135351.73 181.09
-9755501.40 5135352.11 181.08
-9755501.39 5135353.77 181.06
-9755497.97 5135353.78 181.07
-9755497.53 5135353.51 181.06
-9755499.98 5135352.64 181.09
-9755499.68 5135353.22 181.07
-9755494.02 5135353.20 181.03
-9755486.74 5135353.09 180.98
-9755491.96 5135353.76 181.01
-9755485.22 5135353.69 180.98
-9755485.83 5135353.14 181.01
-9755486.27 5135352.87 181.02
-9755489.00 5135353.36 181.00
-9755490.82 5135352.84 181.01
-9755491.65 5135352.32 181.02
-9755489.06 5135352.55 180.98
-9755483.42 5135353.10 180.99
-9755491.38 5135353.78 181.01
-9755482.77 5135352.52 181.01
-9755481.95 5135352.84 181.00
-9755498.10 5135358.79 181.07
-9755500.26 5135354.69 181.09
-9755499.90 5135354.35 181.08
-9755496.63 5135360.67 181.06
-9755500.84 5135356.12 181.08
-9755501.39 5135361.52 181.08
-9755496.06 5135359.65 181.07
-9755500.19 5135358.93 181.05
-9755500.77 5135356.73 181.10
-9755500.23 5135356.17 181.08
-9755498.70 5135362.08 181.07
-9755498.73 5135359.77 181.08
-9755500.78 5135360.57 181.06
-9755496.37 5135354.60 181.05
-9755500.50 5135361.48 181.06
-9755499.00 5135358.23 181.08
-9755499.93 5135356.17 181.09
-9755499.84 5135358.79 181.07
-9755500.77 5135364.41 181.05
-9755496.69 5135354.96 181.05
-9755498.41 5135364.46 181.05
-9755497.58 5135354.92 181.07
-9755499.34 5135353.81 181.07
-9755499.38 5135355.25 181.07
-9755496.70 5135355.86 181.05
-9755501.10 5135355.61 181.06
-9755500.82 5135364.19 181.05
-9755498.39 5135359.17 181.08
-9755499.97 5135361.45 181.04
-9755500.44 5135363.89 181.05
-9755498.18 5135363.87 181.06
-9755496.65 5135356.09 181.05
-9755500.34 5135354.08 181.09
-9755496.90 5135363.61 181.05
