-9755607.20 5135360.04 181.07
-9755604.84 5135356.72 181.02
-9755608.12 5135360.00 181.09
-9755605.14 5135357.68 181.05
-9755603.66 5135359.10 181.04
-9755608.20 5135358.57 181.09
-9755603.37 5135356.74 180.97
-9755602.46 5135357.69 181.03
-9755605.68 5135356.84 181.07
-9755606.02 5135364.21 181.04
-9755606.56 5135355.58 181.07
-9755603.40 5135362.41 181.03
-9755604.58 5135362.44 181.05
-9755601.90 5135357.70 181.03
-9755591.02 5135360.75 189.49
-9755591.58 5135359.86 189.48
-9755595.17 5135360.78 187.81
-9755591.16 5135362.57 185.45
-9755593.39 5135361.59 189.07
-9755590.80 5135362.47 190.30
-9755590.21 5135356.00 190.18
-9755591.78 5135358.31 191.41
-9755593.42 5135356.08 188.67
-9755593.39 5135356.19 188.10
-9755592.64 5135358.37 187.87
-9755591.12 5135360.11 188.59
-9755591.91 5135361.42 188.58
-9755600.77 5135359.03 181.05
-9755591.70 5135362.44 186.76
-9755598.11 5135361.78 181.09
-9755591.90 5135359.94 187.68
-9755591.04 5135358.38 190.52
-9755589.98 5135356.81 191.38
-9755590.83 5135354.93 188.85
-9755590.67 5135356.73 188.01
-9755595.13 5135362.28 181.06
-9755593.23 5135355.18 188.51
-9755589.86 5135360.93 189.40
-9755592.53 5135360.12 188.74
-9755591.83 5135360.85 181.10
-9755591.89 5135364.08 187.89
-9755591.12 5135361.79 190.53
-9755591.03 5135358.15 187.95
-9755591.60 5135364.39 186.46
-9755591.92 5135362.68 187.63
-9755599.01 5135364.37 181.10
-9755596.81 5135359.02 181.12
-9755592.87 5135356.62 189.60
-9755591.80 5135355.14 188.60
-9755590.69 5135359.26 187.20
-9755592.89 5135359.35 188.01
-9755591.05 5135363.21 186.95
-9755592.72 5135361.15 187.11
-9755590.49 5135358.55 191.16
-9755598.92 5135361.85 181.09
-9755590.36 5135362.43 185.55
-9755594.22 5135357.54 187.42
-9755594.18 5135358.48 187.89
-9755597.71 5135362.95 181.10
-9755591.05 5135364.06 187.15
-9755590.88 5135356.84 188.94
-9755590.61 5135362.40 190.91
-9755591.91 5135359.20 190.24
-9755594.98 5135358.65 186.12
-9755590.12 5135360.07 190.13
-9755595.43 5135361.47 188.56
-9755590.17 5135360.24 191.45
-9755592.61 5135357.39 191.14
-9755595.23 5135359.05 186.20
-9755591.28 5135361.98 187.12
-9755599.86 5135360.90 181.09
-9755594.91 5135359.61 188.29
-9755591.13 5135361.17 187.26
-9755591.69 5135357.72 190.31
-9755590.35 5135362.58 187.24
-9755593.39 5135360.41 188.74
-9755591.01 5135361.60 189.69
-9755592.69 5135361.45 187.01
-9755591.76 5135356.84 190.50
-9755590.12 5135361.26 190.53
-9755592.14 5135358.01 184.85
-9755599.85 5135362.36 181.08
-9755593.43 5135358.31 190.37
-9755591.75 5135354.98 189.30
-9755599.26 5135359.76 181.08
-9755598.38 5135364.13 181.09
-9755600.13 5135359.37 181.07
-9755592.27 5135357.04 190.45
-9755591.91 5135361.80 185.19
-9755598.63 5135355.22 181.07
-9755591.09 5135356.19 191.22
-9755595.16 5135359.34 188.41
-9755592.38 5135363.22 187.59
-9755594.11 5135358.39 188.69
-9755595.74 5135363.19 181.11
-9755591.69 5135355.34 190.79
-9755591.75 5135362.05 187.13
-9755593.49 5135362.62 189.53
-9755590.60 5135356.46 190.30
-9755597.78 5135360.93 181.07
-9755593.45 5135356.68 187.23
-9755595.98 5135359.65 188.49
-9755590.14 5135362.60 186.29
-9755590.19 5135356.91 190.14
-9755590.16 5135358.58 190.23
-9755592.86 5135359.22 190.45
-9755590.93 5135361.98 181.09
-9755594.01 5135359.33 188.52
-9755593.21 5135359.33 188.67
-9755601.04 5135357.41 181.07
-9755595.65 5135359.01 181.11
-9755593.44 5135359.34 187.99
-9755599.87 5135356.14 181.08
-9755595.71 5135362.65 181.12
-9755595.51 5135358.47 187.25
-9755590.90 5135362.98 184.47
-9755591.79 5135361.70 181.09
-9755593.59 5135359.20 186.27
-9755599.22 5135363.26 181.08
-9755601.11 5135355.27 181.03
-9755591.78 5135356.45 191.20
-9755593.06 5135357.83 191.11
-9755591.30 5135362.45 187.75
-9755591.91 5135359.99 184.95
-9755590.80 5135358.34 189.96
-9755592.44 5135364.24 186.48
-9755591.63 5135356.21 191.26
-9755590.24 5135361.36 189.84
-9755592.49 5135359.92 189.37
-9755590.03 5135355.20 190.35
-9755590.08 5135361.96 192.06
-9755590.45 5135362.07 187.34
-9755594.85 5135361.52 187.43
-9755596.60 5135358.42 181.11
-9755599.86 5135359.98 181.08
-9755591.21 5135358.58 188.85
-9755590.31 5135355.28 186.34
-9755590.46 5135356.23 190.92
-9755593.98 5135359.35 186.99
-9755592.02 5135358.57 187.06
-9755590.31 5135359.17 191.04
-9755600.17 5135355.27 181.08
-9755592.24 5135360.87 185.71
-9755590.28 5135357.76 189.84
-9755598.60 5135358.59 181.09
-9755592.51 5135359.48 190.91
-9755592.02 5135358.35 188.41
-9755590.14 5135362.62 190.98
-9755592.12 5135361.47 188.29
-9755590.12 5135362.67 192.20
-9755590.67 5135359.28 190.72
-9755593.45 5135361.24 187.46
-9755593.67 5135361.40 188.26
-9755593.43 5135355.66 189.78
-9755591.23 5135357.49 191.66
-9755608.12 5135339.30 181.07
-9755604.08 5135341.07 181.06
-9755604.99 5135341.33 181.05
-9755604.08 5135339.30 181.06
-9755592.60 5135340.10 181.12
-9755594.85 5135339.57 181.10
-9755596.71 5135339.26 181.12
-9755599.96 5135340.17 181.09
-9755597.30 5135339.61 181.11
-9755596.71 5135340.17 181.11
-9755594.30 5135341.23 181.10
-9755600.25 5135339.54 181.09
-9755594.34 5135340.48 181.10
-9755599.14 5135340.45 181.10
-9755591.04 5135340.53 181.12
-9755597.85 5135340.14 181.12
-9755604.36 5135346.13 181.05
-9755608.45 5135352.07 181.08
-9755606.36 5135348.48 181.06
-9755604.93 5135346.11 181.04
-9755603.21 5135347.01 181.05
-9755602.55 5135352.95 181.01
-9755604.35 5135347.93 181.03
-9755608.15 5135347.80 181.08
-9755602.57 5135343.70 181.04
-9755604.12 5135342.57 181.05
-9755607.53 5135352.38 181.08
-9755605.23 5135346.73 181.04
-9755608.24 5135345.25 181.06
-9755606.61 5135350.32 181.05
-9755603.53 5135342.22 181.04
-9755607.27 5135350.13 181.05
-9755605.11 5135351.14 181.07
-9755607.29 5135343.48 181.06
-9755603.18 5135343.74 181.04
-9755606.71 5135347.61 181.04
-9755604.29 5135346.97 181.03
-9755607.64 5135346.10 181.08
-9755607.63 5135342.90 181.06
-9755606.73 5135349.33 181.06
-9755601.69 5135342.61 181.05
-9755601.66 5135347.84 181.05
-9755601.69 5135349.35 181.04
-9755600.75 5135350.84 181.06
-9755600.85 5135348.43 181.08
-9755598.48 5135342.53 181.06
-9755600.74 5135347.86 181.07
-9755595.80 5135341.89 181.10
-9755594.94 5135350.16 181.11
-9755595.15 5135344.33 181.10
-9755600.75 5135350.23 181.07
-9755598.42 5135352.54 181.09
-9755591.63 5135346.28 181.15
-9755594.24 5135350.78 181.09
-9755594.02 5135347.81 181.15
-9755591.00 5135347.18 181.16
-9755600.90 5135342.82 181.08
-9755594.31 5135349.33 181.11
-9755594.39 5135345.20 181.11
-9755591.88 5135351.08 181.12
-9755600.19 5135343.50 181.06
-9755595.85 5135344.59 181.12
-9755594.24 5135348.76 181.12
-9755599.91 5135345.20 181.07
-9755595.25 5135341.87 181.11
-9755593.47 5135350.18 181.12
-9755599.92 5135346.11 181.08
-9755596.59 5135352.81 181.11
-9755593.43 5135348.37 181.15
-9755599.04 5135345.48 181.07
-9755594.91 5135351.13 181.11
-9755594.26 5135351.69 181.09
-9755597.84 5135351.77 181.10
-9755599.07 5135348.43 181.07
-9755594.93 5135347.77 181.14
-9755591.96 5135349.87 181.12
-9755601.11 5135343.41 181.05
-9755597.53 5135343.71 181.08
-9755599.02 5135352.58 181.08
-9755591.04 5135350.45 181.11
-9755598.42 5135350.18 181.07
-9755592.57 5135352.87 188.18
-9755596.04 5135345.23 181.11
-9755594.39 5135343.72 181.11
-9755597.57 5135346.63 181.09
-9755590.25 5135348.41 181.16
-9755600.19 5135351.70 181.06
-9755599.08 5135345.81 181.07
-9755592.58 5135350.47 181.13
-9755591.73 5135343.41 181.14
-9755594.34 5135341.91 181.09
-9755592.56 5135349.56 181.12
-9755592.13 5135351.97 181.12
-9755591.32 5135345.15 181.13
-9755595.78 5135349.33 181.12
-9755590.40 5135352.31 184.82
-9755589.27 5135354.17 187.99
-9755588.52 5135353.40 188.73
-9755589.27 5135353.63 188.10
-9755589.34 5135354.49 188.83
-9755589.95 5135353.53 187.57
-9755588.61 5135353.24 185.42
-9755587.78 5135354.04 181.29
-9755586.95 5135354.51 189.51
-9755589.26 5135355.10 188.63
-9755589.33 5135360.01 189.81
-9755589.23 5135356.62 190.33
-9755588.52 5135355.13 188.86
-9755589.65 5135358.57 188.13
-9755589.37 5135357.65 191.23
-9755589.09 5135356.98 192.10
-9755589.30 5135359.31 186.86
-9755589.29 5135362.61 186.40
-9755588.43 5135360.91 190.98
-9755589.41 5135361.11 191.99
-9755588.39 5135356.06 188.77
-9755588.27 5135358.36 192.39
-9755588.36 5135359.42 191.98
-9755588.41 5135358.57 191.08
-9755588.44 5135364.21 185.12
-9755589.45 5135364.11 184.75
-9755589.32 5135355.11 190.49
-9755589.44 5135362.36 192.09
-9755589.47 5135363.44 181.22
-9755589.37 5135357.72 189.54
-9755589.69 5135363.11 187.18
-9755588.53 5135361.80 192.79
-9755588.38 5135363.27 186.20
-9755588.33 5135355.41 191.31
-9755588.64 5135362.80 192.18
-9755588.43 5135355.88 191.22
-9755588.44 5135357.59 190.35
-9755589.79 5135361.30 187.09
-9755588.28 5135358.36 187.39
-9755589.33 5135362.82 188.61
-9755588.75 5135360.95 190.45
-9755588.77 5135356.56 190.48
-9755588.35 5135355.03 190.08
-9755588.73 5135361.99 191.84
-9755589.37 5135357.67 192.21
-9755589.70 5135358.99 187.85
-9755588.58 5135359.28 181.33
-9755588.46 5135357.56 186.79
-9755588.45 5135358.74 192.81
-9755588.37 5135358.43 189.76
-9755588.50 5135355.18 185.90
-9755588.35 5135360.15 189.11
-9755589.60 5135361.63 192.06
-9755588.40 5135356.20 192.15
-9755588.97 5135355.89 191.22
-9755589.32 5135357.58 192.48
-9755589.27 5135355.44 187.68
-9755588.34 5135363.88 191.57
-9755588.50 5135359.36 186.24
-9755589.28 5135364.10 186.93
-9755588.77 5135359.95 187.53
-9755588.79 5135360.90 192.62
-9755589.03 5135356.11 189.70
-9755588.42 5135363.65 185.10
-9755589.31 5135358.53 191.16
-9755588.26 5135361.20 187.56
-9755588.39 5135363.55 191.45
-9755588.47 5135360.32 187.45
-9755588.45 5135362.68 189.78
-9755589.34 5135358.17 192.56
-9755587.83 5135360.87 188.46
-9755587.55 5135357.75 191.78
-9755587.58 5135360.21 189.24
-9755586.76 5135359.27 192.78
-9755587.70 5135361.81 191.20
-9755586.94 5135363.95 191.38
-9755587.59 5135361.23 186.43
-9755587.86 5135360.96 190.34
-9755586.98 5135358.55 190.34
-9755586.97 5135360.92 191.71
-9755586.85 5135355.76 190.15
-9755587.51 5135360.85 191.13
-9755587.89 5135360.88 191.66
-9755587.75 5135355.14 181.29
-9755587.57 5135359.28 191.03
-9755587.13 5135364.06 181.27
-9755587.69 5135357.82 191.10
-9755587.56 5135354.90 188.28
-9755587.64 5135362.69 191.09
-9755586.88 5135364.31 185.62
-9755586.89 5135357.50 187.44
-9755587.56 5135362.42 190.13
-9755587.96 5135358.33 189.55
-9755588.27 5135362.98 189.81
-9755586.69 5135360.90 190.59
-9755586.71 5135360.12 188.62
-9755586.99 5135356.88 190.52
-9755587.14 5135364.23 189.42
-9755587.84 5135362.66 191.85
-9755586.99 5135355.12 189.60
-9755586.84 5135362.57 189.73
-9755587.47 5135359.92 181.37
-9755587.80 5135360.85 181.31
-9755587.60 5135359.39 193.09
-9755586.89 5135362.55 181.26
-9755587.47 5135359.38 189.63
-9755587.13 5135356.45 188.51
-9755586.64 5135358.41 181.37
-9755586.96 5135355.19 188.15
-9755587.58 5135363.40 189.35
-9755587.77 5135362.31 186.87
-9755587.12 5135363.51 181.27
-9755587.02 5135363.12 185.56
-9755586.98 5135359.35 186.98
-9755587.47 5135362.67 185.72
-9755586.85 5135362.64 190.57
-9755586.91 5135364.23 190.10
-9755586.79 5135357.29 190.89
-9755587.95 5135359.15 185.79
-9755586.86 5135362.58 185.54
-9755586.52 5135360.53 186.56
-9755586.61 5135359.36 188.90
-9755587.70 5135363.18 181.27
-9755585.13 5135353.46 188.61
-9755586.18 5135354.26 189.19
-9755586.44 5135353.47 190.34
-9755582.79 5135353.66 181.33
-9755581.30 5135354.25 181.32
-9755585.84 5135354.43 191.08
-9755577.17 5135354.27 181.19
-9755586.03 5135354.22 188.19
-9755580.39 5135354.29 181.33
-9755578.66 5135353.67 181.35
-9755579.52 5135353.65 181.34
-9755569.54 5135354.43 180.98
-9755565.30 5135354.22 180.98
-9755566.25 5135352.62 180.94
-9755573.63 5135353.39 181.09
-9755568.03 5135352.77 180.92
-9755563.98 5135354.48 180.99
-9755572.10 5135354.18 181.03
-9755572.72 5135353.97 181.06
-9755586.13 5135355.91 188.09
-9755583.66 5135357.82 191.35
-9755584.50 5135359.79 188.73
-9755583.50 5135355.71 189.48
-9755582.76 5135361.85 189.95
-9755586.08 5135357.70 185.60
-9755586.02 5135359.21 190.27
-9755583.86 5135359.14 186.80
-9755583.67 5135364.23 189.01
-9755582.87 5135356.41 189.74
-9755582.85 5135355.89 190.43
-9755582.52 5135360.83 189.66
-9755585.10 5135356.83 190.49
-9755585.23 5135355.08 190.23
-9755584.31 5135361.80 191.34
-9755581.94 5135355.03 189.05
-9755585.98 5135364.23 189.86
-9755585.84 5135356.01 188.66
-9755585.12 5135358.13 188.98
-9755583.38 5135361.77 185.42
-9755581.28 5135357.49 181.28
-9755583.79 5135361.89 188.40
-9755584.28 5135355.25 184.44
-9755584.32 5135360.77 189.67
-9755583.36 5135362.27 185.38
-9755585.84 5135360.56 188.05
-9755585.73 5135360.89 187.44
-9755581.08 5135359.15 189.39
-9755582.45 5135357.54 181.27
-9755582.17 5135360.85 181.14
-9755581.99 5135362.42 188.62
-9755583.37 5135358.23 191.88
-9755583.43 5135360.84 191.81
-9755585.47 5135359.05 191.01
-9755584.31 5135356.92 185.41
-9755577.06 5135364.25 181.06
-9755583.62 5135355.23 184.41
-9755581.87 5135362.61 181.10
-9755585.47 5135360.32 186.76
-9755581.10 5135360.14 188.93
-9755584.34 5135359.23 191.30
-9755576.05 5135355.14 181.12
-9755585.69 5135363.17 185.33
-9755579.48 5135363.47 181.08
-9755581.11 5135359.44 190.32
-9755583.62 5135360.14 190.52
-9755582.12 5135360.58 188.10
-9755582.69 5135361.08 190.40
-9755584.40 5135358.36 190.48
-9755581.27 5135358.37 181.15
-9755580.41 5135355.09 181.33
-9755583.65 5135360.94 191.02
-9755585.29 5135364.34 181.12
-9755581.85 5135362.45 190.11
-9755582.13 5135359.32 181.13
-9755582.84 5135356.82 191.09
-9755582.79 5135359.87 181.14
-9755585.76 5135363.12 188.82
-9755585.08 5135361.70 181.10
-9755582.77 5135361.68 187.02
-9755581.80 5135360.98 189.07
-9755582.30 5135361.90 186.86
-9755585.24 5135363.44 188.73
-9755580.42 5135359.10 181.13
-9755581.73 5135359.98 181.10
-9755583.07 5135362.56 181.10
-9755584.18 5135361.83 185.55
-9755576.28 5135359.22 181.10
-9755583.69 5135355.19 187.99
-9755576.24 5135361.88 181.06
-9755580.34 5135360.91 181.12
-9755585.11 5135362.58 181.09
-9755579.23 5135356.94 181.22
-9755583.43 5135358.58 185.08
-9755586.11 5135362.55 190.46
-9755583.66 5135358.49 191.19
-9755584.28 5135358.79 187.13
-9755580.41 5135358.39 181.19
-9755583.47 5135355.15 188.70
-9755580.28 5135359.23 188.74
-9755581.04 5135359.26 188.69
-9755585.60 5135360.50 189.87
-9755585.77 5135355.31 191.19
-9755580.37 5135356.04 181.32
-9755577.04 5135359.84 181.12
-9755584.30 5135359.51 190.61
-9755581.64 5135356.73 189.33
-9755578.34 5135356.62 181.15
-9755585.74 5135363.89 190.70
-9755584.48 5135364.04 181.06
-9755586.15 5135358.52 190.57
-9755584.52 5135362.56 181.06
-9755583.59 5135360.07 191.27
-9755584.85 5135360.84 191.46
-9755579.53 5135356.03 181.31
-9755584.34 5135362.97 191.37
-9755585.41 5135360.80 186.42
-9755582.98 5135362.23 185.38
-9755585.44 5135357.56 181.30
-9755584.37 5135360.26 191.84
-9755580.12 5135356.93 181.28
-9755583.24 5135359.93 187.79
-9755584.93 5135354.95 184.46
-9755583.37 5135362.53 188.05
-9755583.46 5135358.23 187.02
-9755586.13 5135358.10 187.86
-9755584.54 5135363.15 181.03
-9755583.40 5135363.48 181.09
-9755581.39 5135356.25 189.39
-9755586.04 5135360.94 190.68
-9755575.48 5135355.34 181.12
-9755582.78 5135355.12 181.32
-9755582.85 5135357.60 190.54
-9755585.98 5135362.58 181.25
-9755584.50 5135361.75 186.12
-9755584.33 5135355.92 189.26
-9755584.97 5135362.61 189.35
-9755585.81 5135358.28 191.38
-9755585.37 5135363.17 184.65
-9755583.42 5135360.14 181.06
-9755578.63 5135363.62 181.08
-9755582.74 5135356.90 188.79
-9755575.39 5135355.77 181.11
-9755586.08 5135358.16 185.60
-9755583.48 5135361.96 188.14
-9755583.41 5135354.88 189.14
-9755582.72 5135362.46 190.20
-9755580.31 5135357.57 189.26
-9755582.78 5135361.90 181.08
-9755582.91 5135359.20 189.68
-9755582.06 5135359.16 188.78
-9755580.23 5135360.16 181.12
-9755582.10 5135360.84 187.07
-9755581.58 5135360.50 189.48
-9755582.55 5135357.53 186.13
-9755585.15 5135361.40 189.27
-9755582.62 5135361.79 190.46
-9755579.51 5135358.42 181.13
-9755583.49 5135359.36 185.78
-9755583.62 5135360.85 185.42
-9755586.28 5135359.28 181.29
-9755586.21 5135363.18 181.25
-9755581.02 5135355.10 181.33
-9755584.86 5135360.85 188.75
-9755583.40 5135355.93 184.19
-9755584.32 5135358.52 191.69
-9755575.40 5135362.53 181.08
-9755582.51 5135355.32 188.31
-9755582.50 5135360.86 187.05
-9755580.50 5135356.72 188.84
-9755581.31 5135360.18 181.12
-9755582.60 5135359.01 192.00
-9755582.85 5135363.05 187.87
-9755580.41 5135356.75 189.33
-9755583.45 5135359.06 190.56
-9755584.30 5135360.24 186.13
-9755583.94 5135355.93 184.21
-9755585.28 5135355.01 188.31
-9755583.40 5135364.06 181.09
-9755582.68 5135363.82 189.21
-9755583.49 5135362.32 190.50
-9755576.86 5135363.33 181.06
-9755585.46 5135363.20 185.33
-9755585.86 5135359.99 187.94
-9755584.79 5135360.70 191.90
-9755583.11 5135362.47 191.21
-9755582.66 5135355.01 184.38
-9755580.15 5135360.75 188.56
-9755566.54 5135354.44 180.94
-9755574.79 5135355.22 181.12
-9755571.30 5135363.42 181.06
-9755562.66 5135359.19 181.00
-9755565.67 5135359.16 181.00
-9755568.05 5135360.92 181.03
-9755564.75 5135358.28 181.01
-9755574.43 5135360.98 181.07
-9755564.44 5135364.22 181.06
-9755574.45 5135358.38 181.07
-9755571.92 5135360.07 181.05
-9755566.79 5135355.04 180.96
-9755569.48 5135363.47 181.04
-9755573.87 5135355.13 181.08
-9755572.77 5135364.26 181.05
-9755567.93 5135364.31 181.05
-9755571.81 5135356.01 181.03
-9755565.37 5135362.46 181.05
-9755566.57 5135363.32 181.07
-9755571.86 5135358.39 181.05
-9755563.04 5135356.54 181.00
-9755571.27 5135355.12 181.02
-9755569.45 5135362.67 181.05
-9755572.74 5135357.79 181.05
-9755567.10 5135362.39 181.06
-9755568.84 5135356.84 180.99
-9755571.79 5135355.13 181.01
-9755568.02 5135358.38 180.99
-9755569.81 5135357.77 181.01
-9755564.49 5135359.12 181.01
-9755563.01 5135357.66 181.01
-9755573.68 5135355.99 181.07
-9755569.79 5135356.87 181.03
-9755566.79 5135363.37 181.07
-9755571.30 5135363.98 181.06
-9755572.79 5135359.25 181.04
-9755563.57 5135359.13 181.00
-9755564.82 5135354.45 180.98
-9755572.35 5135356.85 181.01
-9755563.02 5135355.97 180.98
-9755568.85 5135364.26 181.04
-9755573.63 5135356.59 181.07
-9755570.36 5135356.61 181.02
-9755562.95 5135358.32 180.99
-9755565.31 5135355.08 180.96
-9755572.18 5135361.58 181.07
-9755562.08 5135355.90 180.99
-9755562.10 5135363.64 181.06
-9755570.33 5135357.78 181.02
-9755569.01 5135354.53 180.95
-9755561.51 5135354.40 181.01
-9755560.35 5135354.11 181.00
-9755561.28 5135364.21 181.05
-9755561.23 5135360.35 181.00
-9755560.44 5135360.99 181.01
-9755589.00 5135339.50 181.13
-9755587.61 5135340.39 181.12
-9755589.38 5135343.45 181.19
-9755588.59 5135352.76 185.43
-9755588.40 5135350.13 181.10
-9755589.29 5135344.24 181.16
-9755588.46 5135352.70 188.73
-9755588.46 5135349.37 181.10
-9755588.49 5135352.47 187.95
-9755586.99 5135352.98 187.81
-9755587.81 5135345.39 181.16
-9755587.50 5135351.84 181.22
-9755587.70 5135351.86 187.73
-9755586.90 5135352.78 188.42
-9755587.60 5135341.88 181.13
-9755587.78 5135348.35 181.16
-9755587.58 5135345.73 181.16
-9755587.04 5135351.58 187.23
-9755586.93 5135343.65 181.17
-9755586.91 5135347.11 181.15
-9755587.27 5135352.71 188.39
-9755577.87 5135340.58 181.10
-9755582.55 5135339.45 181.12
-9755582.53 5135340.33 181.12
-9755577.22 5135339.39 181.09
-9755585.51 5135339.53 181.13
-9755581.39 5135339.42 181.13
-9755576.93 5135340.31 181.11
-9755575.80 5135339.89 185.21
-9755581.03 5135340.97 181.14
-9755576.09 5135341.21 181.11
-9755584.28 5135339.23 181.10
-9755579.62 5135341.33 181.11
-9755570.25 5135339.56 184.54
-9755570.22 5135340.48 184.61
-9755571.18 5135339.52 184.86
-9755574.61 5135340.38 181.09
-9755569.41 5135339.14 183.94
-9755572.91 5135340.45 184.65
-9755572.80 5135339.37 184.09
-9755572.00 5135340.12 185.02
-9755564.55 5135340.94 181.05
-9755567.75 5135341.09 181.05
-9755572.86 5135339.28 187.43
-9755572.91 5135340.98 184.65
-9755573.78 5135338.49 187.77
-9755572.72 5135340.40 181.09
-9755570.21 5135339.43 185.32
-9755570.28 5135340.11 185.54
-9755570.43 5135338.71 183.92
-9755572.10 5135340.28 181.09
-9755570.54 5135339.47 181.07
-9755574.35 5135339.30 184.90
-9755567.88 5135339.69 181.05
-9755572.82 5135338.66 184.82
-9755574.42 5135338.75 185.39
-9755574.31 5135339.27 187.76
-9755571.08 5135340.12 185.21
-9755570.47 5135341.15 181.05
-9755572.11 5135338.71 184.45
-9755573.67 5135341.14 181.10
-9755562.21 5135339.32 181.07
-9755572.50 5135339.68 181.14
-9755567.99 5135338.72 181.07
-9755569.61 5135339.66 181.07
-9755570.50 5135338.72 181.10
-9755563.68 5135341.14 181.05
-9755562.27 5135338.76 181.08
-9755561.29 5135341.38 181.04
-9755581.67 5135341.84 181.14
-9755586.03 5135350.40 181.21
-9755585.48 5135344.52 181.17
-9755583.75 5135347.13 181.16
-9755582.49 5135341.85 181.12
-9755581.90 5135352.52 181.31
-9755585.79 5135344.51 181.15
-9755579.33 5135346.84 181.16
-9755576.39 5135344.38 181.10
-9755580.16 5135351.26 181.30
-9755578.39 5135350.92 181.30
-9755584.53 5135348.65 181.13
-9755576.91 5135345.98 181.13
-9755585.87 5135348.71 181.15
-9755583.89 5135352.61 192.90
-9755582.52 5135350.44 181.27
-9755582.49 5135351.03 181.25
-9755582.73 5135352.72 182.12
-9755582.47 5135345.34 181.17
-9755583.71 5135350.43 181.24
-9755584.68 5135345.06 181.16
-9755575.13 5135344.39 181.09
-9755577.01 5135342.69 181.11
-9755576.95 5135345.43 181.13
-9755585.89 5135352.53 188.48
-9755576.29 5135343.64 181.09
-9755585.19 5135343.39 181.16
-9755578.73 5135348.35 181.15
-9755584.23 5135347.52 181.14
-9755582.20 5135342.75 181.11
-9755581.62 5135345.91 181.18
-9755576.90 5135351.87 181.24
-9755577.75 5135350.98 181.29
-9755581.10 5135343.30 181.14
-9755583.38 5135351.02 181.26
-9755578.08 5135345.98 181.14
-9755576.91 5135350.38 181.17
-9755583.40 5135341.83 181.13
-9755583.21 5135352.25 181.93
-9755586.13 5135352.18 188.53
-9755569.56 5135341.18 181.06
-9755564.56 5135351.54 180.94
-9755574.31 5135347.68 181.11
-9755562.21 5135352.64 180.98
-9755569.44 5135343.84 181.04
-9755574.51 5135346.81 181.12
-9755567.17 5135345.28 181.01
-9755574.57 5135349.51 181.03
-9755564.46 5135351.20 180.97
-9755572.18 5135345.02 181.04
-9755573.57 5135347.97 181.09
-9755570.70 5135346.14 181.02
-9755571.36 5135347.71 181.05
-9755566.30 5135342.00 181.04
-9755568.67 5135342.12 181.05
-9755571.05 5135343.52 181.05
-9755567.26 5135343.72 181.04
-9755571.26 5135347.05 181.06
-9755565.66 5135349.19 180.99
-9755571.30 5135348.86 181.05
-9755566.29 5135347.70 180.99
-9755562.78 5135345.88 181.00
-9755573.73 5135348.60 181.10
-9755568.64 5135344.73 181.03
-9755562.73 5135351.23 180.98
-9755567.20 5135344.16 181.03
-9755568.09 5135346.15 181.01
-9755569.38 5135342.95 181.05
-9755574.58 5135344.44 181.07
-9755568.91 5135350.01 180.98
-9755564.61 5135347.99 180.98
-9755562.81 5135342.61 181.05
-9755568.66 5135349.43 180.97
-9755564.55 5135343.50 181.01
-9755571.32 5135349.18 181.06
-9755565.99 5135343.51 181.03
-9755574.54 5135348.62 181.11
-9755571.30 5135342.99 181.07
-9755568.70 5135347.04 181.01
-9755566.92 5135347.10 180.99
-9755567.81 5135348.55 180.96
-9755572.72 5135348.69 181.07
-9755574.32 5135342.92 181.10
-9755562.21 5135350.86 180.97
-9755571.31 5135351.21 181.04
-9755572.20 5135349.57 181.07
-9755564.82 5135349.17 180.99
-9755562.12 5135350.35 180.97
-9755571.94 5135346.61 181.08
-9755564.82 5135342.92 181.03
-9755562.79 5135346.79 181.01
-9755567.18 5135352.42 180.90
-9755572.16 5135350.16 181.05
-9755560.16 5135351.75 180.99
-9755561.57 5135349.40 180.98
-9755561.54 5135352.09 180.98
-9755560.37 5135352.84 181.01
-9755560.58 5135353.64 181.00
-9755559.44 5135359.12 181.04
-9755556.29 5135353.26 181.02
-9755555.68 5135354.45 181.05
-9755542.65 5135353.19 181.07
-9755539.13 5135352.53 181.01
-9755542.97 5135352.84 181.07
-9755551.50 5135354.36 181.08
-9755548.87 5135354.18 181.09
-9755558.63 5135355.97 181.03
-9755557.41 5135362.43 181.09
-9755557.13 5135364.58 181.09
-9755550.53 5135361.58 181.11
-9755556.26 5135360.61 181.08
-9755557.11 5135360.06 181.07
-9755555.66 5135357.89 181.08
-9755555.67 5135355.25 181.05
-9755558.59 5135360.95 181.06
-9755552.10 5135355.08 181.07
-9755558.90 5135363.31 181.05
-9755551.16 5135356.78 181.09
-9755549.71 5135354.93 181.08
-9755557.41 5135356.76 181.04
-9755553.84 5135361.81 181.12
-9755549.10 5135363.47 181.13
-9755551.21 5135355.24 181.08
-9755552.95 5135360.12 181.09
-9755552.92 5135354.45 181.06
-9755550.81 5135358.30 181.12
-9755554.97 5135360.92 181.09
-9755549.12 5135355.89 181.07
-9755553.82 5135362.39 181.09
-9755556.50 5135356.80 181.05
-9755554.50 5135356.78 181.05
-9755556.26 5135359.15 181.07
-9755553.86 5135357.02 181.08
-9755557.15 5135355.90 181.07
-9755548.23 5135358.29 181.12
-9755553.87 5135358.47 181.06
-9755551.49 5135360.92 181.09
-9755550.64 5135356.71 181.09
-9755553.00 5135357.62 181.09
-9755557.96 5135360.62 181.06
-9755551.54 5135356.17 181.07
-9755554.74 5135358.24 181.09
-9755549.81 5135355.81 181.09
-9755552.98 5135363.54 181.10
-9755550.60 5135359.33 181.12
-9755548.84 5135359.15 181.09
-9755554.78 5135354.75 181.06
-9755551.53 5135359.11 181.08
-9755548.86 5135361.79 181.13
-9755552.35 5135356.71 181.07
-9755551.21 5135360.05 181.11
-9755536.77 5135354.28 180.99
-9755546.22 5135355.88 181.11
-9755538.23 5135355.73 181.03
-9755545.84 5135359.97 181.11
-9755534.94 5135356.92 180.97
-9755539.08 5135362.61 181.05
-9755544.98 5135363.52 181.10
-9755544.16 5135359.92 181.09
-9755539.39 5135354.08 181.01
-9755542.38 5135356.75 181.09
-9755538.17 5135363.51 181.04
-9755543.46 5135359.09 181.07
-9755535.53 5135361.74 181.02
-9755546.25 5135355.30 181.10
-9755545.61 5135357.56 181.09
-9755546.47 5135359.08 181.11
-9755548.21 5135360.87 181.14
-9755541.67 5135360.85 181.09
-9755547.34 5135356.12 181.07
-9755540.03 5135359.15 181.06
-9755540.60 5135360.90 181.10
-9755541.51 5135356.20 181.04
-9755538.23 5135360.24 181.02
-9755542.12 5135358.51 181.09
-9755542.61 5135359.06 181.10
-9755537.95 5135362.61 181.05
-9755539.47 5135356.76 181.03
-9755536.45 5135362.61 181.04
-9755536.64 5135363.44 181.02
-9755540.86 5135355.46 181.04
-9755535.58 5135355.16 180.99
-9755535.50 5135364.08 181.04
-9755539.72 5135356.07 181.09
-9755538.47 5135356.68 181.03
-9755536.69 5135361.75 180.99
-9755537.37 5135358.49 181.00
-9755545.82 5135361.70 181.12
-9755541.44 5135360.01 181.06
-9755544.14 5135362.63 181.10
-9755538.29 5135354.91 181.01
-9755547.37 5135356.79 181.08
-9755544.68 5135355.23 181.05
-9755537.41 5135361.44 181.03
-9755536.42 5135356.17 181.00
-9755534.95 5135358.76 181.00
-9755535.82 5135362.85 181.03
-9755539.97 5135361.39 181.07
-9755544.41 5135356.73 181.09
-9755537.28 5135357.55 180.99
-9755548.28 5135354.43 181.09
-9755534.06 5135363.24 180.98
-9755534.02 5135364.03 181.02
-9755534.42 5135359.09 181.01
-9755532.37 5135353.27 180.98
-9755531.66 5135360.91 181.00
-9755532.27 5135360.85 181.00
-9755531.77 5135364.35 181.00
-9755530.91 5135359.88 181.00
-9755530.97 5135358.37 180.98
-9755530.89 5135356.89 180.95
-9755530.89 5135361.91 181.00
-9755530.87 5135364.36 180.99
-9755560.44 5135344.30 181.02
-9755560.71 5135347.61 180.98
-9755558.69 5135340.48 181.08
-9755557.81 5135339.36 181.09
-9755554.81 5135339.65 181.09
-9755555.35 5135339.32 181.09
-9755557.18 5135338.48 181.06
-9755556.41 5135339.02 181.08
-9755558.72 5135339.33 181.09
-9755551.30 5135339.01 181.11
-9755545.65 5135339.23 181.09
-9755543.05 5135339.29 181.10
-9755541.26 5135341.31 181.06
-9755538.93 5135339.55 181.08
-9755538.99 5135340.39 181.09
-9755540.16 5135339.27 181.09
-9755538.15 5135339.47 181.07
-9755548.40 5135341.01 181.10
-9755543.34 5135340.21 181.10
-9755538.61 5135340.08 181.09
-9755540.66 5135340.10 181.08
-9755547.23 5135339.55 181.07
-9755542.52 5135338.90 181.09
-9755543.13 5135338.68 181.09
-9755547.51 5135339.02 181.09
-9755534.23 5135340.38 181.07
-9755556.26 5135352.98 181.00
-9755558.00 5135352.72 181.03
-9755557.07 5135348.74 181.01
-9755549.83 5135341.00 181.08
-9755553.90 5135344.26 181.06
-9755554.89 5135342.88 181.06
-9755553.07 5135342.58 181.09
-9755557.76 5135350.86 181.01
-9755554.45 5135350.24 181.05
-9755549.75 5135345.20 181.08
-9755558.88 5135350.33 181.00
-9755552.09 5135349.37 181.06
-9755554.84 5135347.85 181.03
-9755549.57 5135342.45 181.06
-9755552.09 5135345.17 181.08
-9755556.29 5135348.52 181.03
-9755556.27 5135344.37 181.04
-9755559.51 5135350.85 181.01
-9755556.22 5135349.10 181.03
-9755550.64 5135351.08 181.05
-9755549.15 5135342.90 181.10
-9755558.94 5135351.86 181.00
-9755559.52 5135348.51 180.98
-9755555.41 5135342.85 181.06
-9755555.38 5135344.94 181.04
-9755558.59 5135346.73 180.99
-9755554.79 5135345.87 181.05
-9755551.54 5135351.16 181.06
-9755553.03 5135349.37 181.04
-9755549.12 5135351.10 181.09
-9755558.13 5135341.94 181.07
-9755557.28 5135341.66 181.06
-9755555.46 5135351.97 181.05
-9755548.84 5135348.77 181.08
-9755557.97 5135346.76 181.02
-9755556.29 5135346.19 181.04
-9755557.16 5135347.70 181.02
-9755553.96 5135351.16 181.05
-9755555.43 5135343.46 181.07
-9755554.87 5135341.98 181.06
-9755555.72 5135346.14 181.02
-9755556.27 5135346.70 181.03
-9755549.02 5135346.63 181.07
-9755550.67 5135342.25 181.05
-9755550.62 5135350.27 181.08
-9755558.02 5135349.11 181.01
-9755555.35 5135346.74 181.06
-9755552.99 5135348.43 181.05
-9755548.67 5135347.59 181.06
-9755551.23 5135346.09 181.06
-9755554.80 5135344.63 181.05
-9755554.47 5135344.00 181.06
-9755553.99 5135343.46 181.08
-9755559.47 5135352.44 181.01
-9755555.44 5135341.43 181.07
-9755544.19 5135342.55 181.09
-9755538.88 5135351.08 181.03
-9755544.13 5135349.55 181.09
-9755546.50 5135351.68 181.05
-9755539.77 5135343.33 181.04
-9755541.80 5135349.60 181.05
-9755537.98 5135350.23 181.03
-9755543.01 5135351.72 181.07
-9755546.51 5135344.60 181.09
-9755538.30 5135346.91 181.03
-9755537.38 5135345.08 181.04
-9755543.94 5135343.66 181.06
-9755546.54 5135343.46 181.05
-9755542.46 5135341.29 181.10
-9755543.29 5135340.99 181.09
-9755546.33 5135342.82 181.06
-9755537.68 5135342.74 181.05
-9755548.28 5135351.11 181.09
-9755536.50 5135346.94 181.03
-9755541.78 5135347.78 181.06
-9755546.27 5135346.93 181.07
-9755547.45 5135342.84 181.09
-9755538.98 5135349.34 181.03
-9755541.56 5135349.93 181.04
-9755538.31 5135344.31 181.05
-9755542.14 5135344.58 181.06
-9755536.80 5135348.72 181.02
-9755538.02 5135342.67 181.06
-9755536.04 5135342.10 181.06
-9755538.30 5135349.59 181.05
-9755542.07 5135347.80 181.05
-9755539.24 5135347.52 181.03
-9755547.98 5135346.04 181.06
-9755539.74 5135347.77 181.04
-9755540.05 5135340.99 181.07
-9755540.60 5135350.18 181.04
-9755545.07 5135344.61 181.07
-9755536.54 5135342.50 181.05
-9755546.86 5135348.15 181.09
-9755540.71 5135343.68 181.06
-9755548.36 5135347.92 181.07
-9755547.47 5135351.10 181.08
-9755538.32 5135343.71 181.03
-9755540.63 5135347.58 181.05
-9755534.24 5135345.07 181.03
-9755534.83 5135347.78 181.00
-9755533.16 5135350.13 180.97
-9755533.93 5135343.32 181.06
-9755534.11 5135351.96 180.96
-9755534.77 5135346.25 181.01
-9755535.06 5135351.66 180.98
-9755534.55 5135341.05 181.07
-9755531.60 5135340.05 181.08
-9755532.51 5135340.13 181.07
-9755531.52 5135345.03 181.04
-9755532.51 5135340.93 181.08
-9755531.60 5135341.80 181.06
-9755531.49 5135344.50 181.02
-9755533.29 5135347.73 181.00
-9755533.33 5135345.10 181.03
-9755530.88 5135345.37 181.01
-9755531.88 5135349.49 180.98
-9755530.65 5135343.69 181.05
-9755531.51 5135346.09 181.03
-9755532.41 5135350.44 180.97
-9755525.25 5135353.37 180.96
-9755524.03 5135353.42 180.97
-9755529.06 5135353.01 180.90
-9755528.30 5135352.77 180.91
-9755529.91 5135353.02 180.92
-9755524.31 5135352.71 180.97
-9755523.28 5135352.73 180.96
-9755511.75 5135353.34 181.08
-9755518.15 5135353.61 181.05
-9755520.87 5135353.37 180.99
-9755517.61 5135354.53 181.06
-9755509.37 5135352.69 181.10
-9755521.74 5135353.34 180.98
-9755520.58 5135352.81 180.98
-9755511.14 5135353.56 181.09
-9755525.85 5135358.37 180.98
-9755529.93 5135363.51 181.01
-9755523.56 5135354.92 180.98
-9755522.63 5135355.15 180.98
-9755523.51 5135361.03 181.00
-9755525.92 5135357.77 180.99
-9755524.31 5135363.45 181.02
-9755529.13 5135355.76 180.94
-9755528.45 5135355.17 180.94
-9755526.66 5135356.56 180.98
-9755526.73 5135359.88 180.99
-9755527.60 5135358.41 181.00
-9755523.25 5135359.86 180.99
-9755523.50 5135358.98 181.00
-9755527.33 5135362.60 181.01
-9755529.45 5135357.52 180.94
-9755524.35 5135356.87 180.98
-9755525.87 5135360.75 181.00
-9755522.54 5135363.99 181.03
-9755525.27 5135356.93 180.98
-9755522.64 5135356.05 180.97
-9755515.24 5135361.58 181.09
-9755518.24 5135358.34 181.05
-9755514.44 5135356.19 181.07
-9755521.13 5135360.14 181.01
-9755509.62 5135361.84 181.13
-9755518.80 5135363.32 181.08
-9755513.52 5135354.94 181.10
-9755510.26 5135355.03 181.09
-9755520.23 5135356.88 181.01
-9755518.79 5135361.87 181.05
-9755513.68 5135364.18 181.10
-9755520.85 5135359.27 181.02
-9755511.98 5135357.76 181.10
-9755516.10 5135360.61 181.05
-9755517.85 5135362.78 181.05
-9755515.00 5135358.38 181.11
-9755514.96 5135360.07 181.08
-9755512.86 5135360.68 181.10
-9755518.44 5135360.45 181.07
-9755511.96 5135361.63 181.09
-9755509.62 5135363.93 181.14
-9755512.66 5135356.77 181.09
-9755517.80 5135363.38 181.06
-9755513.50 5135363.39 181.08
-9755508.73 5135364.24 181.13
-9755515.85 5135362.47 181.05
-9755520.23 5135359.23 181.01
-9755509.59 5135358.58 181.11
-9755516.15 5135360.10 181.05
-9755521.13 5135364.03 181.04
-9755510.25 5135357.41 181.09
-9755511.70 5135355.95 181.10
-9755516.75 5135355.99 181.04
-9755514.57 5135363.99 181.09
-9755517.60 5135360.80 181.04
-9755513.47 5135360.67 181.09
-9755513.48 5135361.57 181.08
-9755513.72 5135359.82 181.08
-9755510.23 5135364.21 181.12
-9755510.21 5135363.29 181.13
-9755509.29 5135362.43 181.12
-9755516.25 5135356.50 181.07
-9755508.72 5135360.97 181.13
-9755508.45 5135357.67 181.12
-9755520.27 5135355.99 181.01
-9755508.79 5135356.52 181.10
-9755507.85 5135359.13 181.12
-9755507.89 5135360.94 181.13
-9755506.94 5135364.21 181.13
-9755507.00 5135356.77 181.13
-9755503.46 5135352.61 181.09
-9755503.77 5135353.52 181.09
-9755505.51 5135354.43 181.11
-9755506.41 5135357.69 181.11
-9755505.20 5135364.14 181.12
-9755506.09 5135356.79 181.11
-9755506.37 5135361.83 181.12
-9755505.47 5135360.66 181.12
-9755505.49 5135363.28 181.12
-9755504.62 5135358.29 181.10
-9755506.14 5135355.30 181.11
-9755503.43 5135355.93 181.10
-9755504.64 5135354.99 181.11
-9755504.65 5135356.79 181.10
-9755525.14 5135338.81 181.09
-9755524.23 5135339.47 181.06
-9755527.68 5135339.45 181.07
-9755522.68 5135340.28 181.07
-9755524.19 5135340.59 181.07
-9755527.63 5135340.02 181.09
-9755517.42 5135339.37 181.06
-9755521.52 5135340.41 181.07
-9755513.51 5135340.05 181.08
-9755511.46 5135338.52 181.08
-9755510.35 5135338.51 181.04
-9755514.23 5135339.59 181.06
-9755520.14 5135340.35 181.07
-9755517.73 5135338.45 181.08
-9755517.64 5135340.33 181.09
-9755510.04 5135340.53 181.07
-9755518.31 5135338.79 181.06
-9755512.81 5135339.30 181.08
-9755507.67 5135339.59 181.08
-9755530.02 5135345.99 181.02
-9755524.99 5135344.40 181.04
-9755527.67 5135341.21 181.05
-9755526.84 5135341.20 181.05
-9755524.40 5135348.61 180.98
-9755524.44 5135344.19 181.03
-9755528.61 5135351.58 180.94
-9755526.53 5135346.88 181.00
-9755526.73 5135347.69 181.01
-9755526.70 5135350.44 180.96
-9755530.12 5135343.30 181.04
-9755529.16 5135341.24 181.05
-9755524.20 5135341.85 181.09
-9755527.70 5135343.65 181.04
-9755528.25 5135345.96 181.03
-9755523.26 5135343.85 181.05
-9755524.38 5135345.94 181.02
-9755524.14 5135350.95 180.98
-9755522.96 5135348.08 180.99
-9755524.33 5135349.55 180.97
-9755522.66 5135341.87 181.05
-9755528.58 5135341.80 181.05
-9755521.84 5135344.41 181.04
-9755525.71 5135343.56 181.04
-9755523.56 5135346.23 181.01
-9755527.70 5135351.62 180.95
-9755528.32 5135350.74 180.94
-9755510.23 5135349.11 181.08
-9755512.70 5135343.87 181.10
-9755520.05 5135342.63 181.04
-9755517.00 5135352.69 181.07
-9755519.20 5135344.09 181.07
-9755518.29 5135341.20 181.08
-9755520.60 5135346.85 181.00
-9755516.81 5135341.24 181.09
-9755517.07 5135351.59 181.06
-9755520.12 5135345.32 181.02
-9755512.66 5135350.38 181.11
-9755519.17 5135343.55 181.04
-9755520.96 5135351.57 181.01
-9755509.43 5135351.18 181.09
-9755515.83 5135351.84 181.06
-9755517.15 5135344.48 181.06
-9755513.59 5135344.38 181.09
-9755517.73 5135351.81 181.04
-9755510.30 5135350.05 181.07
-9755509.40 5135349.36 181.09
-9755515.91 5135344.36 181.08
-9755512.83 5135350.82 181.10
-9755516.11 5135350.28 181.06
-9755511.16 5135340.83 181.10
-9755515.30 5135345.31 181.06
-9755511.76 5135350.33 181.07
-9755514.47 5135347.93 181.08
-9755517.05 5135346.83 181.05
-9755519.13 5135342.67 181.06
-9755519.14 5135345.04 181.04
-9755519.23 5135350.09 181.02
-9755513.65 5135341.98 181.09
-9755513.50 5135350.04 181.11
-9755518.31 5135345.03 181.04
-9755518.77 5135348.57 181.03
-9755511.16 5135350.24 181.07
-9755520.92 5135343.52 181.04
-9755515.01 5135341.20 181.46
-9755515.25 5135350.91 181.07
-9755509.38 5135350.32 181.09
-9755514.62 5135349.13 181.08
-9755509.46 5135341.36 181.08
-9755520.02 5135351.23 181.02
-9755513.81 5135348.28 181.09
-9755513.81 5135345.89 181.09
-9755510.95 5135344.62 181.06
-9755511.19 5135346.75 181.10
-9755510.22 5135351.21 181.08
-9755513.54 5135342.95 181.08
-9755507.01 5135350.89 181.10
-9755507.94 5135350.29 181.11
-9755508.48 5135347.03 181.10
-9755508.55 5135344.70 181.09
-9755508.21 5135350.86 181.10
-9755507.90 5135351.44 181.09
-9755508.53 5135348.46 181.10
-9755507.93 5135349.38 181.11
-9755507.04 5135342.01 181.10
-9755503.58 5135338.74 181.09
-9755503.54 5135339.58 181.09
-9755505.63 5135340.26 181.10
-9755504.45 5135340.46 181.10
-9755506.23 5135340.23 181.10
-9755503.57 5135340.20 181.10
-9755506.17 5135347.60 181.12
-9755505.92 5135343.74 181.10
-9755505.59 5135348.52 181.11
-9755504.35 5135350.24 181.10
-9755506.21 5135344.37 181.11
-9755503.79 5135348.76 181.10
-9755505.57 5135349.09 181.11
-9755504.71 5135345.23 181.11
-9755603.29 5135327.11 181.08
-9755605.04 5135326.99 181.11
-9755602.68 5135328.01 181.09
-9755608.27 5135328.08 181.08
-9755596.49 5135327.09 181.23
-9755600.93 5135328.04 181.03
-9755600.31 5135328.00 181.02
-9755599.16 5135327.16 181.05
-9755595.00 5135327.69 181.26
-9755590.31 5135327.10 181.26
-9755593.54 5135326.51 181.25
-9755596.80 5135327.70 181.24
-9755605.63 5135332.21 181.08
-9755604.09 5135328.95 181.10
-9755602.66 5135336.94 181.05
-9755603.29 5135336.10 181.03
-9755608.52 5135337.82 181.07
-9755608.50 5135334.52 181.07
-9755606.54 5135328.70 181.08
-9755602.75 5135329.49 181.06
-9755605.89 5135329.55 181.08
-9755605.64 5135333.20 181.06
-9755603.48 5135335.41 181.04
-9755603.49 5135337.78 181.04
-9755608.29 5135336.99 181.07
-9755602.35 5135337.80 181.05
-9755604.38 5135336.92 181.05
-9755605.02 5135336.69 181.05
-9755608.19 5135331.30 181.08
-9755603.44 5135330.40 181.05
-9755602.66 5135333.02 181.01
-9755601.75 5135328.90 181.07
-9755603.24 5135332.83 181.05
-9755608.49 5135333.11 181.05
-9755605.04 5135328.99 181.09
-9755602.39 5135336.36 181.03
-9755607.61 5135336.05 181.06
-9755601.81 5135331.25 181.02
-9755605.59 5135333.41 181.07
-9755607.43 5135330.69 181.05
-9755606.49 5135329.53 181.09
-9755603.94 5135329.54 181.06
-9755606.47 5135336.99 181.06
-9755603.56 5135328.92 181.07
-9755601.77 5135336.91 181.06
-9755591.20 5135334.60 187.07
-9755592.60 5135332.74 187.18
-9755597.31 5135338.72 181.11
-9755591.80 5135330.38 188.81
-9755592.69 5135331.08 187.01
-9755594.21 5135330.50 189.70
-9755597.60 5135335.41 181.24
-9755594.15 5135328.72 185.11
-9755591.51 5135332.87 185.20
-9755590.00 5135332.72 185.48
-9755594.10 5135334.65 185.90
-9755595.01 5135337.78 181.10
-9755593.60 5135332.89 188.81
-9755591.08 5135332.91 189.20
-9755592.35 5135334.45 188.08
-9755594.31 5135333.55 187.86
-9755590.89 5135334.60 186.32
-9755592.38 5135334.67 184.58
-9755592.46 5135332.89 188.84
-9755592.05 5135338.62 181.10
-9755591.29 5135330.47 185.50
-9755592.38 5135332.87 185.36
-9755600.59 5135338.63 181.09
-9755594.23 5135330.40 188.56
-9755593.99 5135328.74 187.57
-9755591.81 5135333.86 187.79
-9755593.55 5135330.59 188.68
-9755592.70 5135328.75 186.27
-9755592.70 5135333.84 187.91
-9755590.73 5135333.04 187.18
-9755591.83 5135330.51 189.43
-9755591.19 5135334.41 187.75
-9755592.55 5135335.31 185.24
-9755591.79 5135333.45 186.29
-9755593.70 5135337.75 181.08
-9755594.22 5135332.86 189.17
-9755593.56 5135333.03 187.20
-9755592.03 5135333.07 186.23
-9755590.84 5135332.73 184.67
-9755595.91 5135335.95 181.15
-9755592.53 5135332.81 189.70
-9755591.85 5135332.88 189.63
-9755592.50 5135331.37 189.61
-9755594.21 5135329.48 187.71
-9755591.10 5135338.89 181.09
-9755592.64 5135335.59 184.78
-9755596.66 5135338.59 181.12
-9755593.76 5135329.67 184.90
-9755592.47 5135328.87 187.79
-9755595.13 5135333.08 185.38
-9755590.93 5135329.78 186.98
-9755599.07 5135336.29 181.12
-9755595.07 5135331.10 189.51
-9755593.40 5135338.70 181.12
-9755596.77 5135332.17 184.93
-9755590.74 5135333.85 183.91
-9755593.47 5135335.43 185.96
-9755591.21 5135333.66 186.51
-9755593.49 5135335.77 185.50
-9755591.77 5135331.18 188.58
-9755590.00 5135332.09 185.08
-9755593.41 5135332.04 188.78
-9755593.62 5135332.90 189.83
-9755596.41 5135333.38 186.52
-9755599.98 5135329.79 181.20
-9755590.42 5135334.71 186.55
-9755593.38 5135332.15 190.32
-9755593.32 5135333.68 189.78
-9755595.96 5135337.21 181.09
-9755591.14 5135333.35 181.31
-9755591.79 5135336.00 181.20
-9755591.31 5135330.23 189.76
-9755594.40 5135334.29 185.40
-9755595.80 5135331.39 186.91
-9755593.43 5135335.14 186.96
-9755594.30 5135338.63 181.10
-9755591.51 5135335.12 187.63
-9755593.57 5135331.40 189.49
-9755595.08 5135332.19 186.19
-9755595.85 5135332.06 184.70
-9755598.26 5135330.35 181.26
-9755590.20 5135330.45 186.50
-9755594.12 5135336.92 181.09
-9755599.12 5135330.97 181.25
-9755593.89 5135334.49 188.84
-9755593.19 5135329.52 188.32
-9755597.57 5135336.89 181.10
-9755593.32 5135331.41 190.01
-9755590.27 5135333.02 187.79
-9755594.16 5135335.22 185.89
-9755597.66 5135333.00 181.27
-9755590.94 5135328.46 186.13
-9755597.63 5135336.27 181.09
-9755593.14 5135336.26 181.10
-9755596.72 5135329.59 183.62
-9755595.15 5135328.76 184.65
-9755596.69 5135332.55 184.92
-9755596.27 5135333.30 185.57
-9755600.58 5135334.54 181.23
-9755591.76 5135335.10 181.26
-9755592.69 5135333.87 188.37
-9755590.04 5135333.76 184.10
-9755598.21 5135337.77 181.09
-9755590.04 5135333.63 185.35
-9755591.77 5135331.06 188.00
-9755590.25 5135330.34 181.27
-9755590.03 5135334.42 186.82
-9755596.77 5135335.40 181.23
-9755592.66 5135334.41 188.36
-9755590.29 5135335.49 184.89
-9755592.66 5135335.11 186.57
-9755590.77 5135331.81 186.12
-9755599.68 5135336.28 181.11
-9755590.27 5135334.47 187.63
-9755590.31 5135328.56 181.27
-9755595.55 5135332.13 187.76
-9755593.40 5135332.63 190.09
-9755592.36 5135335.35 188.11
-9755592.71 5135335.95 185.33
-9755590.02 5135330.98 185.15
-9755590.54 5135334.02 184.21
-9755595.22 5135332.66 187.71
-9755594.22 5135329.09 186.03
-9755591.53 5135331.36 190.14
-9755590.79 5135335.50 185.07
-9755593.59 5135335.10 187.87
-9755590.29 5135335.82 185.00
-9755594.12 5135335.80 185.71
-9755592.35 5135332.49 184.38
-9755596.52 5135333.60 185.67
-9755603.58 5135312.33 181.12
-9755606.86 5135311.46 181.11
-9755602.76 5135314.69 181.12
-9755608.11 5135309.72 181.09
-9755607.78 5135313.28 181.11
-9755607.30 5135309.70 181.12
-9755605.44 5135311.44 181.11
-9755604.19 5135313.21 181.12
-9755604.84 5135314.77 181.11
-9755597.51 5135312.32 181.12
-9755601.52 5135310.53 181.10
-9755595.06 5135313.18 181.09
-9755601.85 5135311.37 181.14
-9755591.93 5135310.83 181.07
-9755596.57 5135313.84 181.12
-9755599.21 5135314.94 181.11
-9755595.98 5135314.77 181.09
-9755600.88 5135314.73 181.13
-9755601.83 5135309.73 181.12
-9755595.74 5135311.45 181.09
-9755600.12 5135314.68 181.11
-9755597.52 5135313.24 181.12
-9755590.11 5135311.42 181.04
-9755596.09 5135313.84 181.11
-9755607.42 5135326.05 181.06
-9755607.34 5135324.85 181.06
-9755603.33 5135323.57 181.12
-9755604.80 5135321.15 181.10
-9755602.42 5135323.61 181.13
-9755607.23 5135315.60 181.14
-9755605.78 5135317.11 181.10
-9755606.31 5135315.65 181.11
-9755607.77 5135323.02 181.09
-9755602.41 5135324.52 181.10
-9755603.93 5135316.50 181.11
-9755603.06 5135325.37 181.09
-9755607.18 5135320.46 181.11
-9755608.39 5135316.53 181.09
-9755604.21 5135320.34 181.09
-9755605.70 5135315.67 181.12
-9755606.86 5135323.07 181.08
-9755603.36 5135321.53 181.10
-9755605.09 5135325.74 181.09
-9755607.52 5135316.58 181.10
-9755606.58 5135317.94 181.05
-9755601.82 5135316.51 181.11
-9755604.80 5135316.47 181.09
-9755604.18 5135321.47 181.10
-9755593.55 5135325.32 181.10
-9755592.61 5135322.75 181.10
-9755596.55 5135318.14 181.08
-9755594.17 5135320.29 181.07
-9755599.77 5135325.42 181.06
-9755594.25 5135321.44 181.08
-9755591.81 5135316.40 181.09
-9755595.07 5135321.29 181.09
-9755590.93 5135318.25 181.08
-9755600.58 5135322.17 181.09
-9755596.57 5135318.80 181.05
-9755595.95 5135317.07 181.10
-9755600.06 5135318.08 181.10
-9755596.82 5135323.91 181.08
-9755596.04 5135320.31 181.10
-9755600.63 5135319.00 181.09
-9755598.33 5135319.74 181.08
-9755598.29 5135321.45 181.10
-9755591.55 5135320.49 181.11
-9755599.24 5135317.34 181.10
-9755591.24 5135322.92 181.09
-9755596.78 5135322.95 181.09
-9755595.88 5135322.98 181.07
-9755595.93 5135324.41 181.09
-9755600.19 5135316.52 181.13
-9755597.67 5135320.37 181.05
-9755599.84 5135319.51 181.10
-9755594.46 5135322.97 181.08
-9755592.64 5135325.62 181.14
-9755593.14 5135315.54 181.09
-9755599.46 5135320.33 181.10
-9755590.36 5135323.13 181.07
-9755593.58 5135317.30 181.10
-9755594.48 5135315.60 181.09
-9755596.83 5135322.43 181.08
-9755595.66 5135316.46 181.09
-9755600.60 5135323.79 181.08
-9755590.91 5135325.61 181.13
-9755596.74 5135325.25 181.08
-9755599.05 5135321.15 181.09
-9755593.59 5135323.53 181.09
-9755600.13 5135317.31 181.10
-9755592.75 5135321.12 181.08
-9755589.40 5135327.92 181.94
-9755589.50 5135327.47 181.95
-9755588.26 5135327.98 181.91
-9755588.60 5135327.13 181.83
-9755587.95 5135327.35 181.94
-9755586.79 5135327.35 181.28
-9755587.61 5135326.17 181.24
-9755587.62 5135327.93 181.94
-9755586.72 5135327.94 181.27
-9755586.78 5135326.45 181.23
-9755590.04 5135330.06 185.33
-9755589.38 5135335.39 181.26
-9755589.48 5135332.11 183.76
-9755589.54 5135331.00 185.31
-9755589.40 5135332.97 186.22
-9755590.09 5135332.27 183.73
-9755589.23 5135332.79 183.64
-9755589.56 5135331.88 188.78
-9755590.02 5135331.49 189.44
-9755590.20 5135333.45 188.43
-9755589.44 5135333.09 184.74
-9755590.31 5135332.05 181.29
-9755589.40 5135331.53 181.27
-9755589.67 5135330.21 184.85
-9755589.11 5135332.99 181.28
-9755589.44 5135331.53 187.02
-9755590.10 5135331.80 189.45
-9755588.81 5135334.65 186.34
-9755589.08 5135334.57 184.58
-9755589.52 5135332.79 185.57
-9755589.36 5135334.49 186.28
-9755589.29 5135329.12 183.66
-9755588.42 5135337.11 181.09
-9755588.52 5135331.56 181.28
-9755588.68 5135332.10 183.98
-9755589.40 5135333.46 184.24
-9755589.41 5135333.71 186.42
-9755589.39 5135328.93 185.63
-9755588.75 5135332.59 184.01
-9755589.61 5135333.67 183.73
-9755588.57 5135331.85 185.93
-9755589.39 5135333.93 186.73
-9755588.22 5135329.73 181.27
-9755588.22 5135333.58 181.26
-9755588.51 5135333.00 181.28
-9755588.83 5135332.96 185.68
-9755587.66 5135334.48 181.28
-9755587.93 5135332.11 181.29
-9755587.55 5135338.60 181.11
-9755587.00 5135337.68 181.09
-9755587.33 5135333.60 181.28
-9755586.67 5135336.22 181.15
-9755586.76 5135331.22 181.28
-9755587.03 5135330.58 181.28
-9755587.11 5135327.35 181.93
-9755577.55 5135327.04 186.19
-9755581.84 5135326.29 185.43
-9755581.22 5135327.86 187.73
-9755576.22 5135326.89 183.84
-9755583.91 5135327.22 185.09
-9755576.18 5135326.45 185.49
-9755577.73 5135326.16 185.23
-9755584.41 5135327.82 185.29
-9755578.53 5135326.23 185.96
-9755580.04 5135327.33 188.03
-9755575.32 5135327.83 183.28
-9755578.19 5135327.91 186.27
-9755575.56 5135326.84 185.15
-9755586.16 5135327.03 181.26
-9755583.58 5135327.78 184.98
-9755575.29 5135327.27 181.27
-9755562.95 5135327.15 181.94
-9755566.14 5135326.36 181.25
