-9755043.06 5135708.58 186.24
-9755042.39 5135705.22 182.32
-9755038.95 5135715.89 176.05
-9755043.75 5135711.73 176.12
-9755039.89 5135705.36 182.62
-9755040.89 5135707.69 185.44
-9755041.64 5135716.16 176.11
-9755039.01 5135708.32 185.45
-9755044.00 5135716.18 176.13
-9755044.70 5135706.84 185.49
-9755040.77 5135715.28 176.08
-9755042.17 5135703.97 186.04
-9755039.01 5135705.87 182.17
-9755040.93 5135708.89 184.98
-9755044.44 5135705.63 182.38
-9755035.90 5135701.02 182.18
-9755038.24 5135702.81 182.37
-9755037.35 5135706.82 185.71
-9755038.42 5135714.97 176.03
-9755036.65 5135712.00 177.06
-9755035.85 5135707.72 185.57
-9755035.85 5135713.45 176.42
-9755038.39 5135715.60 176.04
-9755036.66 5135705.20 182.44
-9755036.47 5135708.50 185.54
-9755035.86 5135704.30 182.46
-9755036.59 5135716.67 177.11
-9755035.76 5135715.24 176.38
-9755035.76 5135714.37 176.44
-9755038.25 5135706.82 185.70
-9755037.57 5135709.49 184.96
-9755038.21 5135708.27 186.46
-9755035.89 5135705.15 182.46
-9755038.24 5135705.21 182.41
-9755036.75 5135704.31 182.43
-9755038.39 5135714.38 176.03
-9755035.63 5135708.53 186.52
-9755036.79 5135702.81 182.41
-9755037.33 5135705.25 182.44
-9755036.96 5135709.83 185.00
-9755038.25 5135704.44 186.12
-9755036.77 5135705.90 185.90
-9755037.39 5135703.74 182.40
-9755036.75 5135703.68 182.43
-9755038.23 5135707.70 185.52
-9755037.44 5135703.94 186.16
-9755037.68 5135707.67 186.43
-9755036.48 5135709.17 185.03
-9755035.89 5135702.78 182.43
-9755038.59 5135703.94 186.15
-9755035.75 5135716.13 177.10
-9755062.15 5135697.07 181.55
-9755058.87 5135700.31 181.56
-9755061.22 5135698.54 181.55
-9755058.88 5135697.63 181.60
-9755060.41 5135700.36 181.51
-9755061.22 5135699.46 181.52
-9755058.06 5135697.65 181.62
-9755058.02 5135700.33 181.57
-9755058.02 5135698.54 181.61
-9755061.25 5135697.11 181.57
-9755061.30 5135695.26 181.58
-9755061.33 5135694.41 181.59
-9755060.39 5135695.30 181.58
-9755059.79 5135697.05 181.58
-9755058.92 5135691.15 181.66
-9755058.90 5135696.18 181.62
-9755059.52 5135692.93 181.65
-9755060.36 5135692.00 181.65
-9755059.81 5135692.05 181.65
-9755061.33 5135693.53 181.60
-9755058.02 5135697.05 181.64
-9755058.02 5135692.88 181.68
-9755058.03 5135691.14 181.69
-9755057.98 5135692.04 181.68
-9755060.42 5135689.65 181.66
-9755058.04 5135690.53 181.71
-9755051.49 5135700.29 181.74
-9755054.75 5135697.89 181.70
-9755053.90 5135700.33 181.69
-9755055.64 5135700.33 181.62
-9755052.97 5135700.28 181.70
-9755057.16 5135697.91 181.64
-9755048.87 5135698.51 181.84
-9755051.52 5135698.51 181.76
-9755048.82 5135699.34 181.84
-9755053.29 5135698.50 181.71
-9755049.77 5135700.26 181.79
-9755054.76 5135699.35 181.67
-9755052.41 5135700.25 181.72
-9755052.13 5135698.54 181.76
-9755052.09 5135697.91 181.76
-9755050.64 5135697.04 181.83
-9755051.53 5135697.04 181.78
-9755053.60 5135697.59 181.73
-9755049.75 5135697.02 181.85
-9755048.02 5135698.72 181.87
-9755047.35 5135700.22 181.87
-9755047.40 5135697.90 181.90
-9755046.52 5135697.91 181.93
-9755046.52 5135700.25 181.90
-9755047.44 5135696.95 181.91
-9755046.52 5135696.98 181.94
-9755040.60 5135697.84 182.12
-9755044.12 5135700.30 181.96
-9755039.17 5135698.67 182.13
-9755044.79 5135697.88 181.98
-9755040.02 5135697.80 182.12
-9755040.64 5135698.66 182.10
-9755039.16 5135700.14 182.12
-9755044.18 5135699.33 181.99
-9755040.03 5135699.57 182.09
-9755039.71 5135696.90 182.14
-9755040.63 5135696.96 182.12
-9755052.14 5135694.61 181.81
-9755052.98 5135690.48 181.83
-9755050.63 5135693.70 181.84
-9755050.66 5135692.82 181.87
-9755048.87 5135696.12 181.88
-9755048.90 5135695.24 181.88
-9755054.77 5135693.78 181.74
-9755053.92 5135694.39 181.76
-9755054.77 5135695.25 181.73
-9755053.92 5135696.10 181.74
-9755053.93 5135691.14 181.80
-9755052.18 5135693.83 181.81
-9755053.06 5135689.63 181.84
-9755056.27 5135695.30 181.69
-9755052.96 5135695.24 181.77
-9755048.89 5135691.05 181.94
-9755051.53 5135693.78 181.83
-9755048.90 5135692.89 181.92
-9755056.24 5135692.84 181.72
-9755049.77 5135691.04 181.91
-9755048.92 5135693.78 181.89
-9755051.25 5135691.11 181.87
-9755055.67 5135694.39 181.72
-9755052.16 5135690.23 181.85
-9755053.89 5135695.21 181.75
-9755051.27 5135690.49 181.87
-9755055.42 5135691.98 181.75
-9755054.82 5135694.39 181.74
-9755052.15 5135696.10 181.77
-9755051.54 5135696.07 181.79
-9755054.80 5135692.91 181.75
-9755051.54 5135694.60 181.81
-9755057.12 5135695.26 181.67
-9755049.80 5135695.19 181.87
-9755053.01 5135694.64 181.78
-9755052.18 5135689.60 181.85
-9755048.89 5135689.58 181.95
-9755055.08 5135694.36 181.72
-9755055.38 5135694.73 181.73
-9755048.01 5135691.31 181.96
-9755048.01 5135693.77 181.94
-9755046.59 5135693.77 181.98
-9755046.57 5135691.37 182.00
-9755047.43 5135692.82 181.97
-9755047.18 5135690.44 181.99
-9755046.58 5135691.92 181.99
-9755046.55 5135690.44 182.01
-9755046.54 5135694.62 181.98
-9755047.37 5135696.07 181.91
-9755046.52 5135695.19 181.95
-9755045.66 5135689.53 182.03
-9755044.79 5135695.47 182.01
-9755043.88 5135694.53 182.05
-9755042.40 5135692.84 182.12
-9755041.52 5135693.64 182.13
-9755042.46 5135689.54 182.15
-9755043.27 5135695.46 182.06
-9755040.67 5135690.39 182.21
-9755044.77 5135691.89 182.04
-9755042.41 5135691.28 182.14
-9755039.17 5135695.45 182.17
-9755039.79 5135691.31 182.20
-9755042.41 5135691.91 182.13
-9755044.81 5135691.07 182.05
-9755043.28 5135691.31 182.10
-9755040.60 5135696.04 182.13
-9755041.58 5135689.51 182.17
-9755040.65 5135695.48 182.13
-9755040.00 5135692.72 182.19
-9755039.76 5135696.05 182.16
-9755044.78 5135693.69 182.03
-9755041.52 5135695.45 182.11
-9755043.06 5135689.53 182.14
-9755043.30 5135692.82 182.09
-9755041.54 5135691.31 182.15
-9755043.87 5135695.18 182.04
-9755042.44 5135695.42 182.08
-9755039.76 5135690.40 182.23
-9755040.69 5135689.51 182.20
-9755040.66 5135691.90 182.19
-9755039.78 5135689.54 182.23
-9755038.25 5135700.18 182.13
-9755038.26 5135698.70 182.16
-9755036.47 5135700.18 182.18
-9755037.39 5135699.56 182.19
-9755036.49 5135693.71 182.28
-9755036.78 5135696.06 182.23
-9755036.51 5135694.50 182.26
-9755038.26 5135692.79 182.24
-9755035.91 5135693.62 182.29
-9755037.43 5135690.40 182.28
-9755037.41 5135696.03 182.22
-9755035.67 5135692.74 182.31
-9755035.91 5135695.43 182.26
-9755035.66 5135692.17 182.31
-9755037.36 5135689.47 182.30
-9755035.02 5135701.02 182.19
-9755034.96 5135701.67 182.27
-9755025.84 5135700.95 182.37
-9755034.12 5135701.04 182.22
-9755025.84 5135701.86 182.62
-9755028.23 5135701.89 182.58
-9755030.85 5135700.98 182.30
-9755034.16 5135701.63 182.28
-9755033.26 5135701.02 182.25
-9755031.51 5135701.61 182.31
-9755026.75 5135701.83 182.60
-9755028.52 5135701.62 182.36
-9755032.35 5135701.04 182.27
-9755027.64 5135701.86 182.58
-9755021.65 5135701.00 182.46
-9755025.54 5135701.09 184.23
-9755019.99 5135701.24 182.49
-9755033.95 5135716.97 176.35
-9755034.99 5135707.08 185.73
-9755035.07 5135704.40 186.21
-9755035.04 5135705.04 186.11
-9755034.73 5135708.56 186.54
-9755035.01 5135707.72 186.52
-9755034.97 5135702.79 182.47
-9755034.90 5135712.58 176.29
-9755035.00 5135704.28 182.46
-9755035.20 5135708.99 186.56
-9755034.93 5135710.05 185.05
-9755034.97 5135709.20 185.03
-9755021.61 5135716.94 176.56
-9755029.08 5135703.67 182.60
-9755033.50 5135707.64 186.57
-9755024.36 5135705.84 186.20
-9755032.34 5135709.08 185.15
-9755022.63 5135704.95 186.39
-9755025.85 5135705.34 182.68
-9755034.13 5135702.83 182.48
-9755024.28 5135716.64 176.53
-9755030.85 5135704.37 186.32
-9755022.56 5135711.61 176.51
-9755034.98 5135705.74 182.48
-9755034.08 5135705.08 182.51
-9755024.95 5135706.16 186.14
-9755029.10 5135702.74 182.59
-9755029.99 5135708.55 186.63
-9755030.01 5135702.75 182.57
-9755027.53 5135711.69 176.46
-9755031.88 5135713.43 176.39
-9755026.00 5135711.04 176.48
-9755029.08 5135704.37 186.34
-9755024.34 5135705.10 182.68
-9755034.19 5135708.59 185.59
-9755024.57 5135711.87 176.50
-9755026.70 5135708.42 185.73
-9755022.59 5135704.46 182.70
-9755033.20 5135705.16 182.53
-9755022.68 5135704.38 186.41
-9755035.14 5135706.86 182.53
-9755029.11 5135705.25 186.22
-9755031.73 5135704.24 182.56
-9755031.79 5135705.16 182.57
-9755022.63 5135705.79 186.22
-9755031.77 5135704.35 186.29
-9755031.62 5135714.34 176.42
-9755024.97 5135704.54 182.66
-9755030.00 5135703.64 182.58
-9755024.10 5135703.58 182.67
-9755024.99 5135710.05 185.21
-9755030.86 5135708.48 185.67
-9755024.56 5135712.51 176.51
-9755023.51 5135704.34 186.39
-9755022.57 5135705.69 182.78
-9755032.64 5135702.78 182.52
-9755025.89 5135704.53 182.64
-9755029.14 5135705.11 182.62
-9755029.10 5135704.25 182.61
-9755027.58 5135705.09 182.64
-9755030.95 5135705.92 186.06
-9755025.87 5135706.14 186.10
-9755028.70 5135712.56 176.45
-9755032.64 5135704.23 182.53
-9755023.21 5135707.56 185.89
-9755025.85 5135707.57 185.83
-9755032.42 5135705.04 186.18
-9755028.47 5135705.12 182.63
-9755023.49 5135706.30 182.91
-9755024.41 5135705.27 186.30
-9755034.14 5135705.93 185.97
-9755029.30 5135710.15 185.17
-9755025.14 5135705.33 182.67
-9755025.93 5135709.24 184.18
-9755021.56 5135715.13 176.54
-9755030.75 5135714.36 176.43
-9755029.02 5135714.87 176.46
-9755025.02 5135704.97 186.35
-9755021.74 5135706.14 186.17
-9755027.48 5135713.12 176.47
-9755032.60 5135707.68 186.54
-9755021.70 5135708.49 185.81
-9755025.84 5135703.64 182.65
-9755034.29 5135711.99 176.30
-9755032.47 5135711.94 176.35
-9755023.67 5135711.91 176.50
-9755021.93 5135713.36 176.53
-9755033.52 5135709.74 185.04
-9755033.26 5135707.10 185.78
-9755029.91 5135709.24 185.16
-9755030.88 5135705.16 182.59
-9755029.76 5135703.92 186.25
-9755034.08 5135703.65 182.49
-9755030.17 5135712.79 176.43
-9755032.95 5135706.76 185.86
-9755032.33 5135709.95 185.06
-9755029.25 5135712.83 176.44
-9755033.40 5135715.85 176.36
-9755026.43 5135707.88 186.66
-9755025.16 5135712.54 176.49
-9755021.59 5135710.97 176.52
-9755024.38 5135707.96 186.69
-9755024.19 5135704.30 186.42
-9755031.11 5135707.08 185.82
-9755033.24 5135705.30 186.11
-9755026.03 5135714.88 176.50
-9755033.56 5135707.64 185.46
-9755030.92 5135709.97 185.12
-9755023.51 5135704.53 182.69
-9755026.88 5135713.44 176.49
-9755030.76 5135711.65 176.41
-9755021.69 5135704.49 182.72
-9755028.50 5135707.63 185.78
-9755027.53 5135708.52 185.72
-9755025.43 5135706.02 182.99
-9755033.45 5135705.71 182.69
-9755026.49 5135706.77 185.98
-9755020.88 5135704.31 186.46
-9755024.81 5135714.02 176.51
-9755021.92 5135714.31 176.54
-9755021.75 5135705.39 182.74
-9755029.41 5135705.65 182.77
-9755030.09 5135714.03 176.44
-9755022.32 5135706.96 186.02
-9755024.03 5135709.72 185.22
-9755025.78 5135706.01 182.80
-9755033.22 5135704.28 182.52
-9755031.19 5135702.81 182.54
-9755034.42 5135707.69 185.63
-9755024.36 5135705.69 182.73
-9755027.62 5135706.15 186.06
-9755031.50 5135710.01 185.15
-9755030.87 5135702.23 182.55
-9755026.58 5135714.92 176.50
-9755027.80 5135714.00 176.47
-9755022.85 5135706.22 182.22
-9755027.55 5135705.78 182.76
-9755022.01 5135710.01 185.26
-9755023.10 5135709.46 184.50
-9755031.78 5135706.82 185.85
-9755020.85 5135704.47 182.72
-9755034.32 5135715.82 176.34
-9755021.14 5135705.21 186.38
-9755023.58 5135709.92 185.20
-9755024.43 5135709.37 184.28
-9755031.46 5135705.67 182.60
-9755026.48 5135707.92 185.77
-9755030.51 5135706.13 182.54
-9755027.50 5135714.89 176.48
-9755031.39 5135707.08 185.83
-9755023.49 5135708.98 186.73
-9755029.31 5135711.63 176.42
-9755029.87 5135705.78 182.63
-9755030.61 5135705.76 182.81
-9755020.89 5135710.06 185.24
-9755025.00 5135709.11 185.30
-9755020.85 5135708.44 186.74
-9755020.26 5135705.79 186.28
-9755020.23 5135708.47 185.82
-9755020.19 5135704.27 186.48
-9755020.27 5135705.18 186.41
-9755020.20 5135709.99 185.28
-9755019.89 5135705.73 182.81
-9755021.38 5135708.97 186.75
-9755026.00 5135716.06 176.50
-9755021.60 5135715.77 176.56
-9755025.71 5135716.68 176.52
-9755016.74 5135702.08 182.75
-9755016.73 5135701.78 182.53
-9755017.65 5135701.82 182.68
-9755019.27 5135713.34 176.52
-9755016.00 5135716.92 176.50
-9755016.71 5135708.40 185.91
-9755017.61 5135702.67 182.76
-9755018.46 5135702.68 182.75
-9755016.77 5135707.50 186.04
-9755019.38 5135705.31 182.77
-9755017.55 5135704.41 182.77
-9755019.38 5135706.12 186.24
-9755017.64 5135708.55 185.83
-9755016.14 5135706.96 186.15
-9755017.59 5135705.36 182.81
-9755017.64 5135703.57 182.77
-9755018.50 5135709.07 185.43
-9755016.13 5135707.56 186.03
-9755019.10 5135708.44 186.78
-9755019.40 5135709.01 186.78
-9755018.44 5135704.48 182.89
-9755017.62 5135707.57 186.01
-9755016.14 5135705.16 186.49
-9755018.48 5135705.15 186.44
-9755018.51 5135707.58 185.98
-9755019.40 5135707.02 186.06
-9755017.62 5135704.32 186.52
-9755017.03 5135706.06 186.31
-9755018.36 5135715.13 176.51
-9755016.94 5135713.34 176.50
-9755019.38 5135704.39 186.50
-9755017.46 5135713.37 176.50
-9755018.47 5135710.24 185.29
-9755019.12 5135708.22 185.88
-9755016.01 5135715.13 176.49
-9755016.86 5135714.53 176.51
-9755016.75 5135709.32 184.75
-9755017.61 5135706.99 186.11
-9755016.99 5135708.43 186.81
-9755016.77 5135709.01 186.83
-9755016.07 5135705.32 182.82
-9755017.78 5135712.19 176.49
-9755016.21 5135709.90 184.91
-9755019.08 5135709.68 184.52
-9755017.10 5135708.84 185.80
-9755015.99 5135713.34 176.49
-9755016.15 5135701.46 182.54
-9755014.39 5135701.18 182.56
-9755015.24 5135701.22 182.55
-9755011.99 5135702.02 182.76
-9755010.28 5135702.11 182.77
-9755007.71 5135716.99 186.73
-9755009.06 5135706.98 186.24
-9755011.98 5135705.32 182.85
-9755011.97 5135703.56 182.82
-9755012.57 5135704.39 182.82
-9755013.47 5135703.53 182.81
-9755012.74 5135713.31 176.43
-9755015.20 5135705.06 182.81
-9755015.11 5135714.23 176.47
-9755009.33 5135708.21 189.32
-9755015.26 5135706.94 186.15
-9755014.39 5135705.28 182.82
-9755011.73 5135706.90 186.24
-9755009.39 5135707.35 182.86
-9755015.27 5135708.38 186.84
-9755014.08 5135708.37 186.86
-9755013.51 5135702.66 182.80
-9755009.31 5135704.41 182.82
-9755012.81 5135712.45 176.42
-9755013.48 5135704.33 186.60
-9755009.05 5135710.07 189.31
-9755013.64 5135712.72 176.45
-9755011.92 5135711.54 176.41
-9755013.48 5135709.03 186.88
-9755014.30 5135711.83 176.44
-9755009.31 5135707.58 183.76
-9755015.29 5135703.54 182.79
-9755013.49 5135705.37 182.83
-9755012.56 5135706.95 186.22
-9755009.11 5135701.12 189.41
-9755010.20 5135706.19 182.86
-9755015.25 5135710.10 185.37
-9755016.11 5135703.55 182.78
-9755010.27 5135709.13 186.93
-9755009.11 5135702.02 189.38
-9755009.34 5135702.99 189.39
-9755010.14 5135706.79 182.87
-9755009.39 5135709.34 185.63
-9755010.30 5135709.45 183.80
-9755011.16 5135710.26 185.39
-9755010.95 5135714.80 176.41
-9755009.33 5135711.53 189.34
-9755015.53 5135708.96 186.85
-9755013.47 5135708.05 186.85
-9755014.04 5135704.57 186.58
-9755009.60 5135704.46 186.62
-9755010.75 5135709.10 186.04
-9755009.32 5135709.11 189.33
-9755009.13 5135703.49 189.38
-9755010.28 5135708.48 185.97
-9755009.05 5135712.41 189.31
-9755014.31 5135705.84 182.83
-9755012.75 5135709.16 185.50
-9755008.49 5135706.17 182.83
-9755015.43 5135712.45 176.47
-9755014.38 5135706.05 186.36
-9755009.46 5135707.33 189.35
-9755011.28 5135712.74 176.41
-9755010.75 5135711.84 176.39
-9755016.01 5135709.94 185.33
-9755008.41 5135708.00 182.82
-9755009.92 5135707.63 183.79
-9755009.57 5135709.15 186.94
-9755009.12 5135705.29 189.35
-9755013.44 5135709.96 184.90
-9755012.52 5135704.27 186.62
-9755009.36 5135708.06 184.23
-9755009.09 5135709.89 184.56
-9755008.51 5135703.50 189.38
-9755014.36 5135708.98 186.86
-9755008.85 5135704.34 189.36
-9755015.51 5135708.47 185.75
-9755012.75 5135715.97 176.44
-9755013.64 5135715.70 176.46
-9755012.16 5135715.67 176.45
-9755035.03 5135699.55 182.23
-9755034.14 5135700.15 182.24
-9755035.01 5135696.90 182.27
-9755027.39 5135700.38 183.60
-9755030.90 5135697.74 182.35
-9755022.77 5135698.76 184.26
-9755022.63 5135697.68 182.51
-9755028.52 5135697.72 182.40
-9755022.61 5135698.60 182.51
-9755032.37 5135697.78 182.31
-9755022.65 5135699.48 182.45
-9755029.13 5135700.16 182.34
-9755024.99 5135699.42 184.24
-9755023.26 5135699.40 184.30
-9755022.62 5135697.13 182.52
-9755028.53 5135698.63 182.39
-9755031.79 5135697.74 182.33
-9755026.76 5135698.53 183.60
-9755033.25 5135696.94 182.30
-9755025.88 5135697.69 182.46
-9755024.99 5135699.98 184.26
-9755025.25 5135698.46 183.64
-9755021.72 5135698.53 183.52
-9755024.40 5135699.37 184.28
-9755024.67 5135698.80 184.23
-9755025.60 5135698.48 183.64
-9755021.47 5135700.15 182.51
-9755027.66 5135696.82 182.43
-9755024.14 5135697.73 182.49
-9755025.90 5135696.81 182.45
-9755021.95 5135699.34 182.49
-9755030.90 5135700.19 182.32
-9755023.90 5135698.51 183.58
-9755029.11 5135696.87 182.41
-9755020.91 5135698.55 182.53
-9755020.83 5135700.38 182.50
-9755021.81 5135697.08 182.53
-9755020.29 5135700.40 182.48
-9755019.36 5135700.32 182.52
-9755020.89 5135697.10 182.54
-9755020.29 5135699.49 182.53
-9755021.18 5135696.80 182.55
-9755020.30 5135698.27 182.55
-9755035.01 5135695.98 182.27
-9755035.04 5135690.38 182.34
-9755025.95 5135694.43 182.49
-9755024.10 5135694.46 182.52
-9755023.47 5135695.31 182.52
-9755023.30 5135692.09 182.57
-9755023.53 5135696.24 182.51
-9755031.77 5135694.52 182.38
-9755024.47 5135693.01 182.55
-9755025.95 5135693.58 182.50
-9755028.17 5135694.52 183.01
-9755030.91 5135696.27 182.37
-9755030.90 5135693.60 182.40
-9755028.26 5135692.09 182.48
-9755024.12 5135692.09 182.56
-9755033.23 5135692.72 182.37
-9755029.98 5135696.22 182.40
-9755030.06 5135695.38 182.40
-9755033.26 5135696.29 182.31
-9755024.14 5135695.31 182.52
-9755024.95 5135695.33 182.50
-9755028.31 5135691.22 182.49
-9755022.70 5135690.28 182.61
-9755028.21 5135694.49 182.44
-9755026.79 5135691.23 182.51
-9755030.00 5135693.62 182.42
-9755027.70 5135691.20 182.51
-9755033.31 5135691.21 182.38
-9755022.33 5135695.35 182.54
-9755032.35 5135696.01 182.34
-9755034.11 5135696.25 182.30
-9755032.43 5135691.24 182.40
-9755030.04 5135692.76 182.43
-9755021.77 5135693.54 182.56
-9755030.92 5135695.38 182.38
-9755024.11 5135695.78 184.22
-9755030.07 5135691.23 182.45
-9755030.03 5135690.31 182.47
-9755024.20 5135690.27 182.58
-9755021.77 5135695.91 182.55
-9755023.51 5135694.72 182.54
-9755027.67 5135695.34 182.46
-9755021.79 5135690.32 182.61
-9755033.30 5135692.16 182.37
-9755025.75 5135693.22 183.17
-9755028.26 5135692.95 182.46
-9755023.31 5135689.41 182.61
-9755033.30 5135689.52 182.40
-9755027.71 5135689.45 182.51
-9755023.81 5135693.78 182.53
-9755020.93 5135689.68 182.63
-9755020.89 5135694.38 182.58
-9755020.84 5135696.19 182.56
-9755020.90 5135693.53 182.59
-9755020.01 5135695.33 182.58
-9755020.02 5135691.17 182.63
-9755021.16 5135696.49 182.54
-9755020.22 5135689.28 182.98
-9755019.40 5135698.58 182.56
-9755019.36 5135699.43 182.54
-9755016.73 5135700.31 182.56
-9755017.65 5135697.65 182.59
-9755018.50 5135700.32 182.54
-9755018.49 5135698.61 182.55
-9755018.52 5135699.48 182.54
-9755017.60 5135700.03 182.55
-9755018.20 5135699.41 182.56
-9755016.72 5135697.05 182.60
-9755013.50 5135700.28 182.58
-9755015.26 5135699.44 182.59
-9755014.41 5135700.30 182.57
-9755011.11 5135698.50 182.64
-9755012.08 5135698.53 182.62
-9755015.89 5135697.69 182.61
-9755011.99 5135699.43 182.62
-9755009.37 5135697.04 182.65
-9755013.47 5135699.43 182.60
-9755013.53 5135697.01 182.65
-9755012.65 5135697.03 182.65
-9755009.13 5135697.91 189.43
-9755017.60 5135696.19 182.57
-9755018.50 5135696.16 182.58
-9755018.59 5135689.56 183.03
-9755017.66 5135692.96 182.64
-9755019.43 5135695.32 182.58
-9755017.68 5135692.01 182.65
-9755016.82 5135691.17 182.67
-9755018.54 5135691.16 182.65
-9755018.57 5135692.93 182.62
-9755016.79 5135693.82 182.62
-9755016.75 5135694.40 182.64
-9755018.55 5135693.53 182.62
-9755016.71 5135696.22 182.61
-9755016.76 5135692.04 182.67
-9755019.45 5135690.31 182.65
-9755015.92 5135689.60 183.15
-9755013.52 5135691.14 182.94
-9755015.88 5135693.82 182.66
-9755011.74 5135693.77 182.70
-9755014.40 5135695.23 182.65
-9755011.84 5135691.44 183.00
-9755015.27 5135694.64 182.65
-9755015.29 5135693.79 182.66
-9755015.26 5135696.19 182.64
-9755011.74 5135695.26 182.69
-9755010.31 5135690.49 183.24
-9755012.66 5135692.87 182.69
-9755009.40 5135693.76 182.71
-9755009.40 5135695.08 183.77
-9755014.37 5135692.89 182.68
-9755013.56 5135690.23 183.15
-9755015.28 5135692.05 182.68
-9755011.17 5135692.88 182.72
-9755009.35 5135694.50 183.77
-9755009.12 5135694.37 189.46
-9755009.23 5135696.04 183.68
-9755013.49 5135695.26 182.65
-9755010.27 5135696.09 182.68
-9755009.98 5135694.24 183.77
-9755012.66 5135690.49 183.16
-9755015.89 5135691.12 182.70
-9755012.66 5135693.74 182.69
-9755013.53 5135692.88 182.69
-9755014.38 5135694.39 182.66
-9755011.17 5135690.53 183.21
-9755015.29 5135692.86 182.67
-9755010.27 5135692.86 182.72
-9755009.46 5135693.76 183.72
-9755009.13 5135693.78 189.45
-9755010.33 5135694.65 182.69
-9755008.64 5135691.99 189.48
-9755008.36 5135692.85 189.45
-9755008.86 5135696.06 189.44
-9755008.88 5135694.72 183.79
-9755010.23 5135694.03 183.68
-9755007.61 5135701.12 189.40
-9755008.61 5135702.89 189.36
-9755002.79 5135701.15 182.63
-9755005.28 5135700.85 190.22
-9755004.42 5135701.06 190.15
-9755006.76 5135701.67 189.40
-9755001.72 5135701.08 189.48
-9755006.13 5135702.09 188.96
-9755007.03 5135702.01 182.62
-9755005.31 5135700.63 189.39
-9755008.43 5135708.33 182.81
-9755007.82 5135707.65 182.83
-9755007.53 5135706.76 182.82
-9755007.90 5135707.64 189.35
-9755008.45 5135712.63 189.30
-9755007.77 5135708.48 182.86
-9755008.44 5135715.22 186.86
-9755007.89 5135710.17 185.43
-9755006.22 5135701.75 189.37
-9755007.82 5135702.91 189.39
-9755007.91 5135706.13 182.83
-9755007.61 5135703.53 189.38
-9755007.75 5135712.41 186.81
-9755008.20 5135709.57 184.76
-9755007.64 5135712.87 186.65
-9755002.85 5135704.37 189.45
-9755004.41 5135708.44 189.39
-9755003.80 5135710.12 186.64
-9755007.01 5135702.59 188.97
-9755007.12 5135707.75 183.89
-9755004.36 5135706.13 189.42
-9755007.04 5135707.81 183.24
-9755004.39 5135703.50 189.46
-9755001.06 5135713.32 186.70
-9755007.08 5135704.11 188.95
-9755001.94 5135713.34 186.69
-9755002.92 5135706.17 189.40
-9755005.16 5135707.72 190.13
-9755006.31 5135708.46 188.93
-9755002.28 5135704.36 189.47
-9755006.42 5135705.27 188.93
-9755006.97 5135714.87 186.69
-9755001.98 5135711.00 186.67
-9755006.12 5135709.24 186.67
-9755004.34 5135711.90 186.65
-9755006.90 5135707.72 184.53
-9755002.03 5135703.46 189.48
-9755003.37 5135712.62 189.31
-9755001.28 5135710.24 186.08
-9755003.40 5135709.54 186.47
-9755006.98 5135710.19 186.72
-9755006.04 5135704.37 189.17
-9755004.65 5135709.34 190.07
-9755004.36 5135709.33 189.42
-9755005.25 5135702.65 182.66
-9755007.19 5135703.72 189.39
-9755002.84 5135709.45 189.39
-9755001.37 5135715.16 186.69
-9755003.72 5135712.11 189.31
-9755001.15 5135705.25 189.41
-9755006.05 5135712.51 186.65
-9755006.41 5135704.37 188.96
-9755006.95 5135702.81 186.30
-9755001.08 5135714.28 186.70
-9755002.51 5135715.14 186.68
-9755006.37 5135710.14 186.68
-9755001.12 5135706.06 189.43
-9755001.95 5135711.89 186.68
-9755004.36 5135707.63 188.88
-9755003.75 5135710.79 189.43
-9755005.24 5135705.48 190.07
-9755005.57 5135709.88 189.07
-9755001.11 5135702.60 189.43
-9755001.17 5135703.73 189.47
-9755005.14 5135711.83 189.32
-9755005.87 5135711.91 189.28
-9755003.75 5135706.94 182.79
-9755003.76 5135709.44 189.37
-9755000.17 5135714.24 186.71
-9755003.13 5135712.74 186.66
-9755002.82 5135712.46 186.67
-9755004.36 5135712.60 189.31
-9755005.20 5135708.52 182.82
-9755005.84 5135710.76 189.19
-9755005.23 5135711.01 186.65
-9755006.17 5135705.28 189.34
-9755001.92 5135714.29 186.69
-9755003.79 5135708.75 189.39
-9755006.67 5135715.16 186.66
-9755004.71 5135704.03 189.04
-9755002.56 5135713.39 186.67
-9755007.01 5135707.63 185.22
-9755007.43 5135710.46 186.71
-9755000.49 5135711.86 186.70
-9755001.99 5135705.92 182.85
-9755002.61 5135710.84 189.35
-9755002.57 5135712.05 189.28
-9755003.86 5135708.83 190.06
-9755006.38 5135709.98 189.27
-9755006.71 5135704.01 189.48
-9755001.75 5135707.98 188.83
-9755001.14 5135712.89 189.31
-9755007.27 5135708.10 185.68
-9755007.08 5135705.81 189.35
-9755005.15 5135707.76 182.79
-9755007.48 5135706.01 189.09
-9755007.25 5135713.99 186.71
-9755005.26 5135702.94 189.38
-9755002.54 5135711.92 186.67
-9755003.87 5135703.45 188.83
-9755006.52 5135703.55 186.20
-9755007.98 5135715.79 186.79
-9755001.93 5135715.73 186.69
-9755002.84 5135716.03 186.67
-9755003.67 5135716.05 186.65
-9755006.67 5135716.09 186.65
-9755000.73 5135700.96 182.80
-9754996.98 5135701.94 182.65
-9754996.09 5135701.94 182.63
-9754996.90 5135701.04 182.67
-9754996.39 5135701.10 189.47
-9754997.52 5135701.13 182.65
-9755000.26 5135701.96 189.48
-9755000.28 5135701.02 189.49
-9754994.64 5135701.08 182.66
-9754994.57 5135701.98 182.64
-9754994.70 5135700.99 189.39
-9754993.81 5135701.11 182.64
-9754995.26 5135701.02 189.40
-9754995.31 5135701.90 189.44
-9754995.58 5135701.89 190.14
-9754994.24 5135700.68 189.07
-9754999.68 5135700.20 189.49
-9754997.81 5135702.01 182.82
-9754994.71 5135701.86 189.39
-9754992.89 5135701.06 189.38
-9754988.16 5135700.98 182.62
-9754988.67 5135701.04 182.62
-9754991.35 5135701.07 182.62
-9754989.61 5135701.10 182.62
-9754992.87 5135701.09 182.64
-9754992.27 5135701.04 182.62
-9754989.60 5135701.89 182.61
-9754988.69 5135701.93 182.61
-9754992.05 5135701.00 189.40
-9754989.62 5135700.14 182.64
-9754991.20 5135701.93 189.39
-9754987.23 5135701.00 182.62
-9754988.71 5135700.17 182.65
-9754988.13 5135700.15 182.63
-9754988.14 5135701.94 182.61
-9754995.38 5135702.93 189.39
-9754999.00 5135701.57 182.79
-9755000.22 5135704.35 189.45
-9754998.70 5135715.11 186.69
-9754996.35 5135703.44 182.81
-9754998.72 5135713.33 186.69
-9754994.68 5135703.71 189.38
-9754995.57 5135702.87 182.79
-9754994.31 5135707.83 189.34
-9754996.34 5135702.79 182.80
-9754995.53 5135710.04 186.65
-9754996.30 5135706.95 182.81
-9754994.55 5135707.54 182.81
-9754997.95 5135703.40 189.47
-9754994.60 5135703.46 182.80
-9754997.79 5135704.18 182.85
-9754995.62 5135704.33 189.42
-9754996.75 5135712.15 189.28
-9755000.27 5135706.14 189.45
-9754996.96 5135707.54 182.81
-9754999.58 5135715.13 186.70
-9754995.33 5135703.68 190.12
-9754997.90 5135707.60 189.43
-9754995.51 5135705.95 182.77
-9754996.21 5135702.79 190.11
-9754994.69 5135703.42 188.96
-9754994.72 5135702.81 188.90
-9754994.51 5135702.85 182.83
-9754996.35 5135708.47 182.83
-9754995.49 5135705.26 189.42
-9754996.27 5135710.99 189.33
-9755000.21 5135711.74 189.30
-9754996.47 5135707.60 189.39
-9754997.18 5135706.10 182.80
-9754999.59 5135710.98 186.68
-9754998.72 5135712.62 189.31
-9754995.54 5135707.56 190.09
-9754993.72 5135707.59 188.92
-9754998.79 5135706.09 189.44
-9754996.99 5135702.80 182.79
-9754995.34 5135707.64 189.38
-9754999.66 5135702.89 189.47
-9754997.73 5135703.40 182.80
-9754995.68 5135708.48 182.84
-9754994.63 5135706.72 182.81
-9754996.92 5135704.34 182.79
-9754993.72 5135704.29 188.97
-9754996.99 5135706.73 182.81
-9754997.89 5135704.59 189.45
-9754998.46 5135709.34 189.38
-9754994.58 5135709.19 182.88
-9754999.61 5135712.46 186.70
-9754997.89 5135706.97 189.44
-9754999.41 5135703.44 189.45
-9754996.36 5135704.31 182.81
-9754994.56 5135706.15 182.80
-9754994.65 5135708.47 188.91
-9754994.66 5135705.27 182.81
-9754996.35 5135706.15 182.81
-9754999.39 5135710.04 186.39
-9754996.38 5135707.67 182.82
-9754996.38 5135709.36 190.05
-9754995.44 5135714.82 186.63
-9754994.60 5135709.50 186.64
-9754993.77 5135706.71 188.95
-9754996.36 5135710.22 189.36
-9754994.01 5135714.20 186.65
-9754996.28 5135714.94 176.87
-9754993.72 5135702.82 182.81
-9754996.10 5135708.68 190.07
-9754997.18 5135707.70 188.86
-9754996.35 5135710.07 186.66
-9754995.47 5135711.83 186.66
-9754996.89 5135715.08 186.64
-9754996.36 5135711.82 186.64
-9754997.90 5135705.80 189.46
-9754996.15 5135706.03 190.06
-9754994.72 5135708.69 186.69
-9754996.23 5135714.28 176.84
-9754997.64 5135706.68 182.87
-9754994.33 5135712.12 189.30
-9754998.65 5135711.96 189.29
-9754997.29 5135703.45 189.45
-9754997.25 5135712.76 186.66
-9754994.58 5135712.72 186.65
-9754995.98 5135710.36 190.06
-9754998.73 5135709.92 189.35
-9754994.62 5135710.77 189.23
-9754994.45 5135711.77 177.22
-9754996.97 5135712.64 189.31
-9754995.53 5135704.28 190.13
-9754997.62 5135706.12 182.80
-9754994.08 5135707.84 189.34
-9754997.57 5135709.94 189.41
-9754994.01 5135713.59 186.66
-9754998.45 5135707.58 189.43
-9754996.10 5135707.22 190.09
-9754996.09 5135708.99 182.83
-9754997.20 5135708.49 182.82
-9754994.75 5135704.32 188.91
-9754993.62 5135705.27 182.81
-9754993.60 5135712.81 177.24
-9754995.55 5135706.98 189.12
-9754997.51 5135715.10 186.66
-9754994.50 5135708.42 183.24
-9754997.21 5135708.96 186.74
-9754995.13 5135702.89 188.90
-9754997.52 5135707.83 182.80
-9754996.09 5135703.80 190.13
-9754997.28 5135710.82 189.34
-9754996.91 5135709.07 182.84
-9754993.68 5135702.84 188.98
-9754993.86 5135714.93 177.26
-9754993.85 5135713.23 177.24
-9754994.69 5135703.14 189.34
-9754997.92 5135708.88 186.70
-9754993.75 5135710.93 186.69
-9754993.04 5135713.48 177.78
-9754992.07 5135713.52 176.46
-9754993.63 5135708.50 183.50
-9754992.92 5135708.41 184.03
-9754992.81 5135714.36 177.22
-9754993.77 5135708.34 189.35
-9754993.74 5135712.58 182.96
-9754989.54 5135706.14 182.87
-9754993.91 5135714.43 183.76
-9754993.21 5135702.00 188.28
-9754993.80 5135714.21 182.98
-9754993.14 5135710.39 186.72
-9754990.35 5135711.99 176.38
-9754988.11 5135703.68 182.83
-9754993.04 5135703.50 186.35
-9754993.04 5135705.24 182.83
-9754993.67 5135715.22 182.94
-9754993.69 5135712.68 186.68
-9754988.15 5135702.80 182.84
-9754991.24 5135712.70 176.37
-9754991.34 5135702.82 182.83
-9754993.62 5135713.30 182.92
-9754991.38 5135708.39 189.33
-9754989.62 5135709.87 185.45
-9754993.21 5135708.68 189.36
-9754992.29 5135712.13 189.33
-9754990.81 5135704.00 189.39
-9754991.46 5135705.12 189.36
-9754993.58 5135712.57 183.73
-9754993.21 5135703.42 188.94
-9754989.52 5135713.14 176.41
-9754992.98 5135712.60 177.75
-9754988.68 5135704.31 182.84
-9754989.50 5135709.17 185.93
-9754991.41 5135706.11 189.36
-9754993.13 5135706.11 189.37
-9754992.25 5135702.87 182.83
-9754989.66 5135706.97 182.88
-9754990.40 5135705.16 182.85
-9754988.36 5135712.06 176.41
-9754992.40 5135711.95 177.21
-9754993.06 5135713.17 177.23
-9754990.47 5135704.35 182.83
-9754991.12 5135704.27 189.37
-9754991.40 5135709.95 189.32
-9754989.60 5135704.27 182.84
-9754987.99 5135706.00 182.89
-9754993.03 5135714.31 177.76
-9754992.20 5135709.95 185.38
-9754993.35 5135714.20 185.99
-9754988.75 5135709.88 184.72
-9754992.98 5135703.46 187.21
-9754991.27 5135706.27 186.43
-9754992.85 5135703.45 182.83
-9754990.21 5135709.25 183.66
-9754992.74 5135709.38 182.82
-9754991.37 5135707.06 186.31
-9754992.71 5135705.16 188.91
-9754991.34 5135707.80 189.34
-9754988.86 5135714.35 176.42
-9754989.88 5135708.83 186.91
-9754992.13 5135714.40 176.42
-9754992.83 5135708.62 182.98
-9754992.38 5135714.05 177.35
-9754992.85 5135702.83 182.82
-9754990.58 5135710.15 184.68
-9754992.40 5135714.09 177.76
-9754992.30 5135707.79 189.33
-9754992.68 5135715.24 177.30
-9754992.24 5135705.20 182.84
-9754993.28 5135712.88 182.90
-9754991.37 5135712.00 189.34
-9754991.29 5135713.06 189.37
-9754991.56 5135715.25 176.37
-9754992.83 5135705.48 189.35
-9754989.81 5135709.84 183.72
-9754993.36 5135715.25 182.93
-9754991.56 5135702.76 189.44
-9754992.23 5135709.82 183.70
-9754991.37 5135703.44 189.38
-9754993.45 5135704.04 189.41
-9754992.98 5135711.93 177.26
-9754992.45 5135711.92 177.77
-9754989.88 5135704.68 186.60
-9754987.22 5135705.17 182.85
-9754993.64 5135703.13 189.36
-9754992.33 5135705.84 189.36
-9754991.21 5135709.46 185.65
-9754989.34 5135709.76 186.90
-9754987.30 5135705.05 186.58
-9754988.25 5135715.28 176.44
-9754991.02 5135704.65 186.63
-9754987.27 5135708.48 186.86
-9754992.79 5135711.02 189.06
-9754993.16 5135707.86 184.58
-9754988.68 5135708.87 186.90
-9754990.24 5135709.47 185.54
-9754991.83 5135712.04 176.36
-9754988.66 5135710.14 185.40
-9754990.50 5135709.46 186.93
-9754993.18 5135712.15 189.32
-9754993.37 5135710.75 185.46
-9754990.83 5135711.81 189.31
-9754990.78 5135708.87 186.91
-9754991.10 5135705.54 186.56
-9754991.98 5135713.05 189.35
-9754993.21 5135704.02 189.41
-9754993.65 5135707.99 185.25
-9754993.81 5135714.94 183.75
-9754993.41 5135708.26 185.23
-9754996.25 5135715.97 176.81
-9754998.09 5135716.03 186.68
-9754996.33 5135716.02 186.63
-9754994.56 5135715.97 186.63
-9754993.99 5135715.97 186.65
-9754993.89 5135715.89 177.27
-9754993.82 5135715.77 182.95
-9754996.12 5135716.68 176.80
-9754995.60 5135716.85 176.69
-9754988.59 5135715.90 176.43
-9754987.96 5135716.16 176.43
-9754992.03 5135715.91 176.44
-9754989.77 5135715.87 176.42
-9754992.17 5135715.86 177.73
-9754986.33 5135701.95 182.60
-9754983.96 5135700.98 182.58
-9754984.60 5135701.01 182.58
-9754982.23 5135701.01 182.55
-9754983.12 5135700.11 182.58
-9754984.01 5135700.10 182.59
-9754985.45 5135701.89 182.58
-9754982.22 5135701.88 182.54
-9754984.62 5135701.89 182.57
-9754982.54 5135701.88 182.55
-9754984.16 5135713.45 176.49
-9754986.33 5135705.05 186.58
-9754981.32 5135701.89 182.53
-9754984.87 5135706.07 182.84
-9754983.10 5135706.15 186.39
-9754985.49 5135705.14 182.81
-9754984.58 5135705.18 182.80
-9754984.02 5135705.14 182.80
-9754986.33 5135708.67 186.85
-9754987.54 5135710.01 184.89
-9754983.12 5135707.09 186.21
-9754985.48 5135706.10 182.85
-9754983.97 5135702.78 182.78
-9754983.90 5135706.08 182.83
-9754984.72 5135714.36 176.49
-9754983.05 5135704.26 182.78
-9754982.98 5135714.02 176.50
-9754982.82 5135709.33 185.87
-9754986.35 5135704.27 182.83
-9754986.41 5135705.95 186.43
-9754982.21 5135706.19 186.38
-9754986.53 5135713.18 176.45
-9754982.21 5135703.62 182.77
-9754983.12 5135705.99 182.81
-9754983.19 5135705.28 186.53
-9754985.64 5135710.09 184.68
-9754983.10 5135709.41 186.83
-9754981.37 5135706.07 182.78
-9754985.45 5135709.41 186.87
-9754986.30 5135705.98 182.86
-9754981.35 5135709.51 183.58
-9754981.31 5135702.79 182.72
-9754981.22 5135713.47 176.53
-9754981.22 5135714.06 176.53
-9754981.40 5135705.06 186.49
-9754982.26 5135709.39 186.82
-9754982.38 5135715.17 176.52
-9754982.37 5135714.34 176.52
-9754982.14 5135709.15 185.86
-9754982.13 5135704.72 186.53
-9754984.06 5135708.55 186.78
-9754981.35 5135704.24 182.76
-9754981.32 5135708.53 185.92
-9754981.36 5135702.45 182.53
-9754982.97 5135715.82 176.51
-9755007.92 5135699.39 182.63
-9755007.69 5135699.28 189.47
-9755007.57 5135697.93 188.94
-9755007.05 5135699.40 182.64
-9755005.29 5135698.55 182.67
-9755000.29 5135700.23 189.48
-9754997.24 5135700.28 182.67
-9755002.07 5135700.19 189.49
-9755001.17 5135700.20 189.44
-9755003.79 5135700.24 189.46
-9755004.44 5135699.61 189.47
-9755007.45 5135700.54 189.24
-9755004.40 5135700.20 190.15
-9755001.19 5135698.65 189.47
-9755004.99 5135700.38 190.17
-9755003.56 5135696.97 189.49
-9755007.38 5135699.50 188.95
-9755007.03 5135698.75 188.95
-9755005.24 5135699.41 190.17
-9755004.40 5135698.67 190.17
-9755005.26 5135697.02 189.46
-9755008.01 5135697.00 189.44
-9755000.93 5135696.95 189.47
-9755007.39 5135698.52 188.91
-9755008.92 5135695.55 183.77
-9755007.96 5135693.80 189.33
-9755008.63 5135689.63 189.49
-9755007.70 5135693.71 182.72
-9755007.67 5135691.34 183.24
-9755007.60 5135694.56 189.45
-9755007.62 5135696.09 183.76
-9755007.60 5135694.53 183.78
-9755007.10 5135691.97 183.20
-9755005.99 5135693.81 188.97
-9755001.20 5135692.86 189.48
-9755003.51 5135691.09 182.78
-9755005.24 5135692.91 182.72
-9755001.23 5135691.27 189.49
-9755007.06 5135695.48 183.85
-9755002.78 5135689.45 189.55
-9755007.05 5135693.79 189.38
-9755003.85 5135694.49 190.16
-9755007.08 5135690.48 189.04
-9755004.44 5135696.31 190.17
-9755004.45 5135691.26 190.22
-9755002.74 5135691.33 189.54
-9755006.19 5135689.51 189.49
-9755001.85 5135689.54 189.56
-9755006.01 5135696.07 188.98
-9755007.05 5135690.46 183.21
-9755004.44 5135694.57 190.18
-9755006.02 5135691.98 189.47
-9755003.58 5135695.47 189.50
-9755005.66 5135695.19 188.92
-9755007.01 5135693.75 182.70
-9755007.04 5135694.56 184.39
-9755004.42 5135696.14 189.49
-9755002.12 5135692.20 189.56
-9755002.89 5135693.69 189.50
-9755006.24 5135690.43 189.04
-9755005.40 5135693.94 189.45
-9755003.50 5135690.39 190.13
-9755002.06 5135689.58 182.79
-9755003.88 5135692.80 189.51
-9755001.31 5135689.54 189.54
-9755007.01 5135696.81 183.66
-9755007.07 5135696.06 188.98
-9755006.97 5135696.09 183.75
-9755003.89 5135693.69 190.19
-9755002.12 5135690.48 189.56
-9755007.09 5135691.65 189.02
-9755006.22 5135695.53 188.96
-9755006.45 5135695.51 184.32
-9755005.30 5135690.15 189.48
-9755006.18 5135692.65 187.67
-9755006.50 5135694.48 183.75
-9755005.69 5135693.56 187.79
-9755007.19 5135689.59 189.49
-9755004.50 5135691.91 190.22
-9755006.22 5135693.51 187.82
-9755007.02 5135696.04 184.36
-9755006.23 5135691.37 189.02
-9755005.92 5135694.10 187.82
-9755004.21 5135689.51 190.23
-9755001.55 5135692.08 182.88
-9755006.21 5135694.03 189.43
-9755004.93 5135692.84 190.20
-9755007.56 5135695.36 184.33
-9755006.86 5135695.37 184.36
-9755006.22 5135691.98 189.01
-9755006.71 5135694.68 183.78
-9755007.54 5135695.39 183.80
-9755001.26 5135690.36 182.60
-9754997.09 5135700.18 189.46
-9754992.90 5135700.44 188.97
-9755000.92 5135699.00 182.92
-9754994.82 5135700.30 190.11
-9754997.49 5135700.24 182.65
-9754996.12 5135697.79 182.70
-9754994.62 5135699.34 182.67
-9754997.93 5135699.56 189.50
-9754997.04 5135697.74 182.72
-9754994.76 5135700.51 189.33
-9754997.09 5135696.92 182.73
-9754994.58 5135698.68 182.64
-9754997.96 5135698.67 189.49
-9754995.30 5135698.75 189.43
-9754996.96 5135699.36 182.66
-9754998.80 5135698.71 189.46
-9754997.06 5135697.74 189.47
-9754998.55 5135697.15 189.50
-9754996.35 5135699.33 182.69
-9754997.00 5135698.69 182.69
-9754994.68 5135698.46 189.42
-9754998.80 5135697.74 189.47
-9755000.32 5135698.74 189.49
-9754995.59 5135699.56 189.52
-9754996.14 5135698.56 190.13
-9755000.26 5135696.94 189.50
-9754996.13 5135696.93 182.71
-9754997.54 5135697.83 182.69
-9754993.73 5135697.85 182.69
-9754993.79 5135699.33 182.68
-9754994.74 5135697.53 189.40
-9754998.88 5135697.85 182.84
-9754994.58 5135696.80 182.71
-9754997.56 5135696.89 182.74
-9754992.84 5135698.71 182.67
-9754988.09 5135698.68 182.65
-9754993.74 5135699.59 189.47
-9754990.49 5135697.83 182.68
-9754993.74 5135699.61 188.99
-9754991.99 5135696.91 182.70
-9754989.64 5135699.57 182.64
-9754991.42 5135698.60 189.43
-9754992.25 5135698.44 189.45
-9754991.42 5135696.91 182.69
-9754989.56 5135698.67 182.66
-9754992.32 5135696.94 189.04
-9754987.86 5135696.94 182.67
-9754991.14 5135699.53 189.41
-9754991.44 5135696.88 189.44
-9754984.61 5135699.54 182.62
-9754985.49 5135698.63 182.63
-9754984.59 5135698.69 182.63
-9754983.16 5135699.56 182.59
-9754983.13 5135697.76 182.59
-9754982.20 5135697.73 182.61
-9754985.49 5135696.91 182.65
-9754986.41 5135696.88 182.66
-9754985.51 5135697.76 182.65
-9754981.37 5135700.08 182.58
-9754982.26 5135696.87 182.62
-9754997.02 5135694.57 182.73
-9754997.11 5135696.07 189.50
-9754996.33 5135696.09 182.70
-9754994.73 5135696.10 182.72
-9754995.59 5135695.40 182.72
-9754994.58 5135691.30 182.82
-9754995.60 5135694.56 182.74
-9754997.13 5135694.55 189.51
-9755000.31 5135691.39 189.54
-9754996.14 5135690.40 182.79
-9754996.22 5135691.87 189.52
-9754994.71 5135692.75 182.80
-9754994.13 5135696.32 189.46
-9754994.65 5135693.63 182.78
-9754996.19 5135694.57 182.73
-9754998.78 5135694.57 182.94
-9754996.11 5135695.23 182.72
-9754997.03 5135690.39 182.80
-9754994.91 5135696.90 190.18
-9754997.62 5135695.24 182.76
-9754995.35 5135693.91 190.20
-9754995.32 5135692.75 189.54
-9754995.34 5135689.49 190.24
-9754994.70 5135690.42 182.82
-9754994.51 5135696.43 189.44
-9754995.31 5135694.46 190.20
-9754998.02 5135692.19 189.54
-9754995.32 5135692.13 189.50
-9754995.41 5135696.08 182.73
-9754997.04 5135689.53 182.78
-9754995.00 5135691.21 189.56
-9754997.94 5135694.57 189.51
-9754994.47 5135692.69 189.51
-9754996.91 5135695.43 182.75
-9754994.61 5135694.52 182.74
-9754997.03 5135696.03 182.72
-9754993.72 5135692.87 183.03
-9754994.84 5135690.94 190.22
-9754995.39 5135696.37 189.47
-9754996.27 5135692.75 189.52
-9754995.68 5135690.38 189.57
-9754998.72 5135691.21 182.78
-9754994.66 5135689.47 182.85
-9754996.06 5135696.05 190.17
-9754998.52 5135689.52 189.54
-9754994.62 5135695.40 182.74
-9754993.81 5135695.45 182.72
-9754996.47 5135690.38 189.53
-9754997.57 5135691.25 182.79
-9754997.50 5135690.34 182.79
-9754993.78 5135696.20 189.01
-9754997.12 5135691.30 182.77
-9755001.46 5135692.94 182.75
-9754993.87 5135689.51 183.23
-9754993.82 5135689.74 189.43
-9754995.92 5135691.24 190.23
-9754998.35 5135695.12 182.84
-9754994.82 5135694.99 189.48
-9754993.76 5135696.02 182.71
-9754995.93 5135690.63 190.22
-9754993.80 5135691.29 183.24
-9754993.81 5135694.51 189.47
-9754993.79 5135690.39 189.50
-9754987.90 5135691.25 183.22
-9754993.85 5135692.72 189.50
-9754989.70 5135690.35 183.31
-9754987.91 5135692.73 183.19
-9754992.05 5135690.40 183.29
-9754987.88 5135694.46 182.72
-9754990.55 5135692.14 183.24
-9754990.54 5135693.00 183.08
-9754992.06 5135692.92 183.16
-9754993.54 5135694.51 189.02
-9754989.65 5135693.05 182.98
-9754991.19 5135696.30 189.46
-9754992.95 5135689.50 183.25
-9754992.01 5135693.64 182.75
-9754991.34 5135696.01 182.72
-9754987.87 5135696.02 182.69
-9754991.23 5135693.62 189.49
-9754987.28 5135695.40 182.70
-9754988.72 5135693.64 182.73
-9754992.91 5135694.50 182.72
-9754992.88 5135692.74 189.47
-9754991.21 5135695.40 189.47
-9754990.57 5135696.06 182.68
-9754991.17 5135692.13 183.23
-9754991.16 5135692.72 189.49
-9754990.53 5135696.01 189.43
-9754991.16 5135694.54 189.46
-9754990.65 5135690.35 189.50
-9754993.77 5135693.88 189.01
-9754993.78 5135695.22 189.03
-9754993.73 5135691.81 189.05
-9754987.01 5135689.46 183.18
-9754985.53 5135696.27 182.67
-9754983.12 5135696.27 182.63
-9754984.67 5135690.36 183.13
-9754983.80 5135692.98 183.13
-9754983.20 5135690.29 183.13
-9754982.25 5135693.62 182.67
-9754983.78 5135690.35 183.14
-9754982.27 5135695.38 182.62
-9754985.56 5135689.45 183.15
-9754983.76 5135694.49 182.65
-9754982.27 5135689.44 182.69
-9754983.79 5135689.48 182.83
-9754984.64 5135689.48 183.04
-9754985.53 5135693.00 183.11
-9754985.55 5135692.14 183.14
-9754980.48 5135700.13 182.56
-9754977.27 5135700.40 182.50
-9754979.91 5135700.39 182.54
-9754979.89 5135701.88 182.51
-9754980.44 5135706.01 182.76
-9754980.48 5135705.12 182.76
-9754980.72 5135702.81 182.74
-9754981.21 5135712.81 176.52
-9754980.75 5135710.34 185.32
-9754980.61 5135714.94 176.55
-9754980.45 5135704.28 182.75
-9754980.35 5135709.02 186.32
-9754980.50 5135710.04 184.42
-9754978.95 5135702.51 182.49
-9754977.81 5135708.81 185.82
-9754977.47 5135709.85 183.91
-9754979.92 5135705.25 186.48
-9754976.63 5135702.74 182.65
-9754976.65 5135710.03 185.22
-9754978.99 5135706.01 182.75
-9754980.45 5135709.38 186.80
-9754976.59 5135709.32 186.74
-9754979.56 5135709.44 186.79
-9754976.35 5135708.56 185.84
-9754977.19 5135706.02 182.73
-9754978.74 5135706.65 182.99
-9754978.96 5135702.76 182.71
-9754979.01 5135705.15 182.74
-9754978.11 5135705.14 182.73
-9754976.59 5135706.04 182.73
-9754978.97 5135706.16 186.34
-9754978.98 5135706.71 186.23
-9754978.96 5135705.25 186.44
-9754978.86 5135714.34 176.56
-9754979.89 5135706.73 186.24
-9754980.02 5135715.21 176.56
-9754976.62 5135705.07 182.70
-9754977.39 5135713.72 176.55
-9754980.02 5135713.42 176.54
-9754978.14 5135709.09 185.78
-9754977.38 5135714.54 176.55
-9754976.71 5135709.95 186.71
-9754978.11 5135702.42 182.49
-9754978.97 5135708.82 186.77
-9754978.81 5135715.22 176.57
-9754977.39 5135710.92 185.28
-9754976.08 5135708.78 186.70
-9754978.28 5135713.45 176.55
-9754977.24 5135706.71 186.18
-9754976.62 5135706.73 186.18
-9754979.83 5135710.63 185.28
-9754977.75 5135704.79 186.43
-9754979.88 5135706.13 186.34
-9754976.20 5135715.17 176.53
-9754980.11 5135706.48 182.84
-9754979.01 5135708.20 185.95
-9754978.00 5135714.26 176.55
-9754977.26 5135708.82 186.71
-9754978.87 5135715.82 176.57
-9754976.50 5135716.07 176.54
-9754977.93 5135715.80 176.56
-9754981.62 5135694.76 182.50
-9754981.42 5135692.07 183.16
-9754980.73 5135699.47 182.57
-9754980.49 5135698.63 182.57
-9754980.50 5135697.74 182.58
-9754980.43 5135696.84 182.58
-9754979.87 5135697.12 182.59
-9754976.39 5135696.83 182.52
-9754978.40 5135698.63 182.55
-9754979.84 5135699.51 182.55
-9754977.25 5135698.61 182.54
-9754978.96 5135699.49 182.53
-9754978.09 5135697.14 182.54
-9754980.74 5135693.53 182.51
-9754978.14 5135696.29 182.57
-9754976.42 5135690.34 182.61
-9754977.28 5135689.44 182.61
-9754977.32 5135696.22 182.56
-9754978.16 5135692.07 183.14
-9754978.98 5135693.49 182.83
-9754977.31 5135690.28 182.62
-9754979.05 5135691.18 183.01
-9754976.40 5135693.57 182.74
-9754979.04 5135694.43 182.59
-9754976.34 5135695.36 182.55
-9754977.55 5135696.55 182.54
-9755081.06 5135686.25 181.43
-9755077.83 5135688.61 181.46
-9755081.13 5135682.95 181.40
-9755078.74 5135684.75 181.41
-9755080.15 5135686.26 181.44
-9755078.73 5135682.94 181.38
-9755079.33 5135683.87 181.38
-9755077.87 5135686.19 181.44
-9755080.17 5135683.88 181.40
-9755078.71 5135687.12 181.44
-9755079.59 5135687.12 181.43
-9755081.11 5135684.48 181.41
-9755079.32 5135682.14 181.37
-9755078.70 5135682.07 181.38
-9755079.60 5135688.61 181.46
-9755080.18 5135688.90 181.46
-9755078.67 5135689.46 181.46
-9755077.79 5135689.46 181.44
-9755076.04 5135686.20 181.44
-9755076.98 5135685.37 181.43
-9755076.03 5135685.58 181.41
-9755076.96 5135684.73 181.41
-9755076.96 5135688.58 181.45
-9755074.60 5135687.13 181.45
-9755075.15 5135687.96 181.46
-9755075.43 5135683.80 181.39
-9755074.57 5135685.34 181.45
-9755074.55 5135687.95 181.47
-9755075.26 5135682.98 181.38
-9755076.06 5135689.42 181.45
-9755075.45 5135689.47 181.46
-9755062.21 5135689.63 181.62
-9755067.23 5135687.06 181.68
-9755069.55 5135687.09 181.53
-9755073.67 5135686.20 181.45
-9755071.96 5135685.57 181.46
-9755066.31 5135682.89 181.51
-9755073.74 5135687.97 181.46
-9755071.95 5135684.71 181.46
-9755066.93 5135685.29 181.60
-9755066.03 5135685.82 181.94
-9755070.46 5135683.82 181.45
-9755066.30 5135687.91 181.56
-9755071.06 5135683.77 181.46
-9755073.73 5135682.93 181.42
-9755067.83 5135684.68 181.50
-9755071.07 5135682.90 181.44
-9755067.21 5135686.18 181.67
-9755064.58 5135682.88 181.51
-9755065.49 5135684.68 181.52
-9755068.74 5135683.77 181.48
-9755071.94 5135682.94 181.43
-9755067.85 5135685.26 181.57
-9755067.77 5135688.82 181.54
-9755063.68 5135685.61 181.83
-9755065.48 5135681.97 181.49
-9755072.82 5135687.99 181.48
-9755066.32 5135685.30 181.60
-9755073.69 5135682.05 181.41
-9755068.67 5135688.79 181.54
-9755071.92 5135686.18 181.46
-9755069.56 5135686.18 181.51
-9755071.04 5135684.71 181.46
-9755072.83 5135687.13 181.47
-9755071.28 5135685.60 181.46
-9755069.59 5135685.61 181.49
-9755063.65 5135688.83 181.60
-9755069.58 5135684.68 181.46
-9755072.86 5135685.32 181.45
-9755073.70 5135684.74 181.44
-9755068.72 5135685.24 181.52
-9755065.46 5135686.15 182.02
-9755068.72 5135682.91 181.47
-9755063.66 5135687.88 181.60
-9755063.11 5135687.03 182.07
-9755067.20 5135684.72 181.51
-9755067.24 5135687.91 181.55
-9755072.81 5135688.87 181.49
-9755071.06 5135687.94 181.50
-9755063.08 5135686.40 182.08
-9755063.06 5135683.79 181.56
-9755071.30 5135688.83 181.51
-9755063.08 5135685.54 181.84
-9755071.09 5135682.10 181.42
-9755070.47 5135681.99 181.43
-9755066.33 5135687.33 181.69
-9755066.32 5135689.43 181.57
-9755073.64 5135689.43 181.49
-9755064.55 5135689.69 181.59
-9755077.01 5135681.44 181.37
-9755071.06 5135681.21 181.42
-9755068.71 5135681.45 181.44
-9755066.33 5135681.40 181.48
-9755070.47 5135681.48 181.43
-9755073.75 5135681.47 181.40
-9755066.97 5135681.37 181.47
-9755062.23 5135685.21 181.62
-9755062.25 5135683.71 181.56
-9755062.23 5135684.64 181.58
-9755062.19 5135687.90 181.62
-9755062.13 5135687.60 181.80
-9755061.29 5135686.99 182.08
-9755058.95 5135686.13 182.11
-9755059.82 5135687.57 181.82
-9755060.42 5135685.24 181.65
