-9755004.40 5135301.84 179.75
-9755010.60 5135298.90 179.85
-9755007.56 5135305.09 179.77
-9755008.53 5135304.24 179.80
-9755006.13 5135302.70 179.78
-9755004.39 5135304.19 179.73
-9755009.39 5135299.22 179.84
-9755004.12 5135299.77 179.77
-9755008.53 5135298.63 179.85
-9755011.99 5135307.52 179.80
-9755011.08 5135306.63 179.81
-9755009.94 5135305.71 179.79
-9755005.23 5135306.62 179.73
-9755005.19 5135308.05 179.72
-9755007.53 5135306.33 179.78
-9755004.34 5135306.62 179.71
-9755005.25 5135305.68 179.73
-9755006.15 5135307.50 179.74
-9755006.08 5135305.70 179.75
-9755007.85 5135307.50 179.77
-9755006.93 5135307.50 179.75
-9755002.89 5135301.85 179.71
-9755003.74 5135303.32 179.74
-9755002.01 5135302.43 179.68
-9754998.74 5135300.59 179.85
-9754998.21 5135300.90 179.84
-9755003.78 5135299.75 179.76
-9754998.77 5135298.24 179.85
-9755003.80 5135297.34 179.78
-9755001.14 5135303.30 179.65
-9755000.50 5135302.11 179.67
-9754999.58 5135299.11 179.88
-9754996.98 5135302.99 179.84
-9755003.78 5135304.23 179.73
-9755001.96 5135300.05 179.70
-9755000.52 5135301.51 179.65
-9754999.65 5135298.82 180.72
-9755001.09 5135304.81 179.63
-9755002.92 5135304.19 179.71
-9754998.52 5135301.55 179.86
-9755000.06 5135302.34 181.34
-9754999.66 5135300.99 180.30
-9754999.71 5135297.62 180.73
-9755001.12 5135302.15 179.65
-9754999.71 5135297.67 179.85
-9754999.63 5135304.24 179.83
-9754999.64 5135303.01 179.83
-9755002.57 5135305.69 179.66
-9755000.54 5135303.33 179.64
-9755002.01 5135301.84 179.70
-9754997.29 5135304.11 179.83
-9755002.92 5135299.76 179.74
-9754999.67 5135305.05 180.67
-9754999.75 5135302.62 181.34
-9754999.73 5135300.04 180.71
-9755001.44 5135298.54 179.69
-9754998.76 5135304.13 179.82
-9754999.63 5135299.67 179.87
-9754996.94 5135301.77 179.84
-9754999.56 5135305.06 179.81
-9754997.00 5135300.83 179.83
-9754998.80 5135305.03 179.82
-9754997.30 5135298.22 179.87
-9754996.98 5135297.65 179.88
-9754994.09 5135301.76 179.86
-9754994.08 5135298.42 179.86
-9754995.50 5135304.14 179.82
-9754992.01 5135300.56 179.84
-9754995.51 5135302.35 179.83
-9754993.22 5135297.34 179.85
-9754992.21 5135304.09 179.80
-9754992.22 5135299.70 179.84
-9754995.53 5135298.13 179.86
-9754992.05 5135297.31 179.85
-9754996.43 5135299.73 179.86
-9754996.41 5135304.72 179.83
-9754996.98 5135305.63 179.81
-9754990.25 5135299.06 179.86
-9754996.38 5135304.14 179.83
-9754991.45 5135303.22 179.83
-9754993.30 5135298.99 180.16
-9754993.12 5135301.81 179.83
-9754991.11 5135297.59 179.88
-9754991.97 5135302.62 179.83
-9754992.33 5135301.43 179.84
-9754993.45 5135299.73 180.16
-9754991.02 5135301.51 179.84
-9754990.50 5135298.19 179.88
-9754996.38 5135302.64 179.87
-9754990.51 5135300.89 179.84
-9754993.63 5135301.15 180.15
-9754995.22 5135297.30 179.87
-9754993.68 5135298.89 180.17
-9754995.50 5135300.90 179.84
-9755002.85 5135307.48 179.67
-9755000.44 5135305.63 179.77
-9755001.67 5135308.33 179.63
-9755001.08 5135305.68 179.62
-9755000.40 5135306.52 180.66
-9754998.74 5135307.46 179.80
-9754997.84 5135307.45 179.81
-9754998.43 5135306.56 179.82
-9755001.94 5135307.43 179.64
-9754996.93 5135307.45 179.80
-9754999.60 5135307.39 179.78
-9754999.67 5135307.82 181.12
-9754999.88 5135307.50 181.32
-9755001.99 5135305.66 179.66
-9754996.40 5135306.56 179.81
-9754992.81 5135307.39 179.79
-9754995.51 5135306.50 179.81
-9754994.89 5135305.64 179.80
-9754993.09 5135306.48 179.81
-9754989.64 5135303.84 179.82
-9754989.40 5135300.52 179.84
-9754986.39 5135303.24 179.86
-9754985.48 5135298.88 180.87
-9754984.64 5135299.33 180.31
-9754984.64 5135298.04 180.48
-9754984.66 5135301.42 179.71
-9754989.66 5135297.31 179.87
-9754986.66 5135304.06 179.84
-9754987.83 5135305.00 179.83
-9754986.12 5135301.69 179.85
-9754985.48 5135300.82 179.85
-9754987.89 5135298.22 179.87
-9754985.28 5135297.70 181.20
-9754984.86 5135301.70 180.71
-9754984.59 5135302.65 179.71
-9754989.65 5135298.17 179.87
-9754984.92 5135303.20 180.39
-9754987.96 5135299.02 179.87
-9754984.62 5135304.11 180.72
-9754989.59 5135303.51 179.83
-9754988.94 5135304.11 179.83
-9754989.66 5135301.43 179.84
-9754989.65 5135297.05 179.88
-9754987.00 5135297.60 179.87
-9754985.03 5135301.36 181.21
-9754989.97 5135299.06 179.86
-9754988.16 5135304.13 179.83
-9754988.81 5135297.57 179.87
-9754987.87 5135299.64 179.86
-9754986.36 5135298.44 179.86
-9754985.29 5135303.17 181.25
-9754985.37 5135302.55 180.73
-9754986.99 5135300.78 179.85
-9754984.59 5135305.01 179.68
-9754984.61 5135303.53 179.69
-9754988.77 5135302.94 179.85
-9754987.86 5135296.41 179.88
-9754985.45 5135305.45 180.71
-9754986.32 5135306.48 179.82
-9754987.24 5135307.36 179.81
-9754988.99 5135306.41 179.81
-9754986.32 5135307.40 179.82
-9754987.25 5135306.47 179.83
-9754989.34 5135306.48 179.80
-9755011.84 5135291.82 179.92
-9755012.06 5135289.15 179.93
-9755011.80 5135290.91 179.92
-9755006.23 5135289.96 179.87
-9755009.46 5135289.15 179.91
-9755008.84 5135289.13 179.91
-9755004.45 5135290.64 179.84
-9755007.70 5135290.94 179.87
-9755008.59 5135291.78 179.89
-9755007.06 5135289.10 179.88
-9755004.42 5135290.02 179.83
-9755009.46 5135288.23 179.92
-9755007.68 5135291.80 179.86
-9755004.42 5135288.19 179.85
-9755011.19 5135295.06 179.90
-9755011.20 5135295.98 179.88
-9755004.42 5135296.79 179.77
-9755007.64 5135295.01 179.85
-9755009.99 5135296.54 179.87
-9755004.41 5135294.41 179.80
-9755005.30 5135293.57 179.83
-9755007.03 5135295.96 179.83
-9755009.46 5135295.65 179.86
-9755005.91 5135295.93 179.80
-9755010.31 5135293.59 179.89
-9755006.11 5135295.02 179.83
-9755010.36 5135294.71 179.88
-9755009.40 5135296.52 179.87
-9755005.28 5135296.77 179.80
-9755010.90 5135293.91 179.90
-9755009.69 5135294.17 179.88
-9755007.05 5135296.77 179.83
-9755009.36 5135294.76 179.87
-9755007.64 5135292.38 179.86
-9755007.62 5135295.67 179.85
-9755005.30 5135292.66 179.82
-9755010.99 5135281.72 179.97
-9755010.96 5135284.40 179.95
-9755005.37 5135284.34 179.89
-9755010.09 5135283.55 179.96
-9755005.94 5135283.49 179.88
-9755009.46 5135284.40 179.95
-9755008.58 5135285.91 179.92
-9755005.05 5135282.02 179.89
-9755005.37 5135286.77 179.86
-9755006.84 5135283.47 179.91
-9755007.09 5135282.38 179.94
-9755010.43 5135282.00 179.97
-9755008.53 5135282.01 179.95
-9755005.92 5135287.61 179.88
-9755010.42 5135287.67 179.92
-9755004.45 5135282.55 179.88
-9755005.36 5135284.95 179.87
-9755008.92 5135280.81 179.96
-9754994.65 5135296.78 179.88
-9754999.40 5135289.35 180.75
-9755000.26 5135290.11 180.72
-9754999.55 5135290.79 180.45
-9754999.71 5135290.86 179.65
-9754998.84 5135289.93 179.89
-9755000.32 5135289.09 179.76
-9754997.99 5135290.01 179.92
-9755003.56 5135288.78 179.83
-9755002.06 5135291.72 179.77
-9755001.48 5135291.73 179.75
-9754997.69 5135289.33 179.92
-9754999.67 5135288.44 179.97
-9755001.15 5135290.26 179.75
-9755000.34 5135289.95 179.74
-9754999.47 5135291.66 180.78
-9755001.17 5135289.38 179.75
-9754998.83 5135288.48 179.91
-9754997.91 5135288.46 179.91
-9755003.28 5135289.09 179.83
-9754997.96 5135291.12 179.90
-9754997.06 5135290.82 179.90
-9754999.69 5135291.36 181.17
-9754998.82 5135291.42 179.90
-9755002.96 5135290.24 179.81
-9755002.97 5135291.48 179.80
-9754992.97 5135290.87 179.90
-9754991.10 5135291.91 179.90
-9754994.67 5135290.81 179.92
-9754995.57 5135289.92 179.91
-9754995.26 5135291.66 179.91
-9754995.26 5135291.12 179.89
-9754991.18 5135288.43 179.93
-9755001.15 5135296.46 179.69
-9755002.94 5135294.10 179.77
-9754999.44 5135296.53 179.88
-9755003.53 5135293.56 179.79
-9755001.13 5135293.20 179.72
-9755001.16 5135295.02 179.71
-9754999.69 5135294.40 179.91
-9754998.80 5135294.12 179.88
-9755001.17 5135292.65 179.71
-9754997.86 5135296.76 179.88
-9754999.57 5135295.62 179.75
-9755002.92 5135292.34 179.80
-9755001.14 5135294.15 179.70
-9755002.00 5135295.31 179.73
-9754999.69 5135293.48 179.89
-9755000.28 5135295.01 179.74
-9754998.78 5135293.21 179.88
-9754999.39 5135295.05 179.88
-9755000.55 5135294.12 179.71
-9754997.69 5135294.93 179.89
-9755000.20 5135295.82 180.73
-9754997.28 5135295.03 179.89
-9755003.54 5135294.42 179.80
-9755002.00 5135296.84 179.73
-9755002.93 5135294.79 179.77
-9754997.00 5135293.47 179.89
-9755003.82 5135295.31 179.79
-9754995.55 5135296.75 179.87
-9754996.45 5135295.56 179.88
-9754993.35 5135297.26 180.20
-9754992.87 5135294.09 179.90
-9754994.41 5135294.91 179.88
-9754995.27 5135294.39 179.89
-9754992.06 5135295.51 179.87
-9754994.37 5135293.46 179.90
-9754993.25 5135295.82 180.14
-9754992.89 5135295.56 179.87
-9754993.77 5135292.63 179.90
-9754995.54 5135295.29 179.89
-9754994.04 5135294.96 179.88
-9754995.23 5135292.57 179.90
-9754994.42 5135295.82 179.88
-9754993.32 5135294.07 180.12
-9754990.54 5135294.11 179.91
-9754989.40 5135290.15 179.91
-9754985.27 5135289.00 179.95
-9754988.81 5135288.71 179.91
-9754985.30 5135291.20 180.38
-9754987.91 5135291.65 179.91
-9754987.95 5135289.31 179.91
-9754986.40 5135291.03 179.92
-9754987.89 5135290.75 179.93
-9754989.14 5135291.66 179.90
-9754984.72 5135288.63 180.81
-9754985.29 5135291.95 180.79
-9754985.08 5135288.62 181.18
-9754987.83 5135295.24 179.88
-9754984.96 5135295.72 181.28
-9754987.01 5135296.72 179.88
-9754984.62 5135296.38 179.88
-9754985.62 5135293.96 179.88
-9754987.31 5135292.52 179.92
-9754989.66 5135292.54 179.90
-9754988.23 5135292.60 179.92
-9754984.69 5135293.36 180.43
-9754988.76 5135294.28 179.91
-9754989.68 5135295.20 179.88
-9754984.40 5135291.72 180.54
-9754984.99 5135293.03 181.51
-9754984.75 5135292.53 180.47
-9754985.22 5135295.15 180.77
-9754984.71 5135294.91 179.89
-9754998.03 5135284.33 179.94
-9754999.49 5135283.80 180.52
-9754999.72 5135286.75 180.29
-9755002.10 5135287.60 179.81
-9754999.50 5135281.96 180.45
-9754999.47 5135284.34 179.93
-9755000.66 5135287.56 179.76
-9754999.71 5135286.74 179.94
-9754999.51 5135282.52 180.82
-9755000.36 5135285.23 179.76
-9754998.85 5135286.65 179.91
-9754999.39 5135287.50 179.91
-9755003.58 5135286.13 179.85
-9754999.79 5135284.28 180.80
-9754998.63 5135281.95 179.92
-9754999.37 5135285.78 179.91
-9754996.83 5135285.24 179.94
-9755000.11 5135281.97 180.83
-9755002.08 5135285.51 179.81
-9754997.69 5135281.96 179.96
-9754997.11 5135286.05 179.95
-9755002.97 5135286.74 179.83
-9755003.86 5135286.45 179.85
-9754997.13 5135282.54 179.96
-9754998.85 5135287.57 179.91
-9755000.03 5135285.12 180.76
-9754997.98 5135285.84 179.93
-9755001.25 5135284.30 179.80
-9754999.79 5135281.09 179.95
-9754998.89 5135285.81 179.91
-9754999.75 5135282.21 181.16
-9754996.55 5135284.28 179.95
-9754993.51 5135285.17 179.93
-9754996.19 5135285.16 179.95
-9754991.15 5135285.44 179.94
-9754991.24 5135282.81 179.97
-9754991.21 5135285.76 179.95
-9754996.51 5135283.48 179.94
-9754996.21 5135287.83 179.93
-9754992.38 5135283.73 179.93
-9754990.35 5135285.77 179.95
-9754992.98 5135284.59 179.93
-9754993.84 5135287.52 179.92
-9754994.49 5135281.97 179.96
-9754992.94 5135287.55 179.95
-9754993.83 5135286.10 179.98
-9754991.46 5135284.29 179.94
-9754995.57 5135286.05 179.93
-9754995.41 5135281.03 179.96
-9754994.42 5135285.15 179.93
-9754992.01 5135286.69 179.96
-9754993.95 5135280.99 179.98
-9754992.10 5135286.12 179.95
-9754995.43 5135281.93 179.95
-9754996.28 5135281.94 179.97
-9754990.34 5135285.18 179.96
-9754992.34 5135281.01 179.98
-9754992.96 5135280.99 180.31
-9754989.75 5135284.31 179.95
-9754989.82 5135281.66 179.98
-9754985.60 5135285.71 179.97
-9754984.78 5135282.47 180.54
-9754988.85 5135281.00 179.96
-9754986.19 5135286.05 179.97
-9754987.97 5135281.93 179.98
-9754987.07 5135286.65 179.95
-9754988.20 5135286.66 179.95
-9754989.09 5135286.62 179.93
-9754989.73 5135282.81 179.97
-9754987.12 5135281.03 179.99
-9754985.34 5135283.36 179.97
-9754987.04 5135281.92 179.99
-9754984.88 5135284.05 180.48
-9754986.20 5135283.09 179.97
-9754987.11 5135283.07 179.98
-9754985.28 5135287.23 180.86
-9754985.58 5135287.52 179.96
-9754985.27 5135284.92 180.84
-9754985.63 5135282.84 179.95
-9754986.17 5135286.55 179.96
-9754984.01 5135303.19 179.69
-9754984.65 5135297.57 179.78
-9754983.74 5135301.72 179.70
-9754983.68 5135304.13 179.69
-9754976.65 5135300.17 179.85
-9754976.67 5135298.13 179.86
-9754979.88 5135304.93 179.77
-9754980.53 5135301.38 179.78
-9754982.22 5135300.23 179.77
-9754982.22 5135303.48 179.74
-9754981.37 5135298.47 179.80
-9754982.29 5135297.55 179.78
-9754976.38 5135299.01 179.86
-9754977.83 5135304.96 179.80
-9754980.72 5135304.37 179.77
-9754979.60 5135299.92 179.80
-9754977.87 5135297.50 179.84
-9754976.74 5135297.49 179.86
-9754981.38 5135299.92 179.79
-9754977.53 5135303.46 179.80
-9754976.65 5135300.74 179.85
-9754977.22 5135304.92 179.80
-9754979.06 5135299.92 179.80
-9754978.17 5135300.17 179.83
-9754977.57 5135301.42 179.82
-9754980.77 5135297.24 179.80
-9754980.52 5135300.47 179.79
-9754978.39 5135301.68 179.80
-9754981.38 5135297.30 179.80
-9754982.25 5135301.74 179.76
-9754979.91 5135297.55 179.80
-9754978.09 5135303.46 179.79
-9754981.39 5135296.63 179.81
-9754979.03 5135302.59 179.79
-9754983.75 5135296.69 179.73
-9754978.18 5135296.31 179.85
-9754983.75 5135307.36 179.67
-9754976.63 5135307.28 179.81
-9754979.87 5135306.72 179.76
-9754981.38 5135305.57 179.74
-9754983.12 5135307.40 179.69
-9754979.01 5135305.54 179.77
-9754982.22 5135307.33 179.71
-9754981.33 5135306.20 179.75
-9754976.32 5135306.37 179.82
-9754977.24 5135307.31 179.80
-9754984.81 5135281.61 181.08
-9754984.67 5135291.90 179.96
-9754983.88 5135290.12 179.77
-9754981.43 5135288.94 179.83
-9754978.24 5135288.93 179.88
-9754979.12 5135289.25 179.87
-9754982.93 5135290.79 179.80
-9754982.31 5135289.23 179.82
-9754979.66 5135289.83 179.86
-9754977.29 5135290.08 179.89
-9754978.23 5135288.36 179.88
-9754981.43 5135290.74 179.84
-9754981.45 5135288.38 179.85
-9754976.41 5135291.01 179.91
-9754981.40 5135291.89 179.83
-9754976.38 5135291.92 179.90
-9754984.65 5135295.82 179.87
-9754983.76 5135293.43 179.75
-9754983.77 5135292.55 179.75
-9754979.05 5135296.68 179.82
-9754980.49 5135292.81 179.84
-9754977.33 5135292.48 179.88
-9754979.97 5135292.20 179.85
-9754979.62 5135294.92 179.83
-9754977.28 5135293.97 179.87
-9754978.14 5135293.05 179.87
-9754977.85 5135295.19 179.85
-9754976.76 5135292.48 179.89
-9754979.91 5135293.39 179.83
-9754976.73 5135293.41 179.89
-9754980.54 5135296.06 179.81
-9754979.03 5135293.40 179.85
-9754976.40 5135296.06 179.88
-9754984.60 5135282.61 181.41
-9754983.83 5135286.61 179.79
-9754983.90 5135283.10 180.37
-9754983.86 5135285.98 179.79
-9754984.21 5135285.56 180.83
-9754984.10 5135281.27 180.47
-9754984.25 5135284.54 180.37
-9754983.26 5135284.26 179.82
-9754978.19 5135282.69 179.93
-9754976.18 5135281.79 179.97
-9754979.72 5135284.22 179.88
-9754981.53 5135281.85 179.88
-9754978.24 5135281.84 179.92
-9754980.60 5135280.97 179.91
-9754978.82 5135285.97 179.90
-9754978.22 5135284.51 179.91
-9754978.23 5135286.53 179.89
-9754976.16 5135283.63 179.94
-9754977.32 5135286.56 179.91
-9754980.55 5135286.59 179.87
-9754981.49 5135283.61 179.87
-9754976.50 5135285.06 179.93
-9754980.62 5135285.12 179.89
-9754982.08 5135282.74 179.85
-9754978.20 5135287.46 179.89
-9754979.14 5135282.76 179.91
-9754979.07 5135286.56 179.89
-9754979.70 5135283.32 179.90
-9754982.98 5135282.76 179.83
-9754981.52 5135280.94 179.89
-9754979.07 5135287.48 179.88
-9754978.25 5135280.92 179.93
-9754980.86 5135284.21 179.89
-9754982.94 5135286.90 179.81
-9754982.97 5135281.85 179.84
-9754981.47 5135286.56 179.86
-9755078.53 5135278.51 181.57
-9755079.43 5135281.17 181.55
-9755079.41 5135279.35 181.55
-9755080.34 5135280.26 181.52
-9755079.70 5135280.33 181.53
-9755077.92 5135281.10 181.58
-9755070.25 5135279.36 181.34
-9755074.69 5135281.10 182.63
-9755074.47 5135280.01 182.08
-9755074.70 5135279.29 182.64
-9755073.30 5135279.98 182.15
-9755077.01 5135281.11 181.58
-9755066.40 5135280.87 181.01
-9755075.83 5135280.23 181.77
-9755072.13 5135280.97 181.85
-9755075.84 5135278.81 181.76
-9755072.90 5135280.27 181.70
-9755075.29 5135280.72 182.63
-9755074.68 5135280.98 182.10
-9755067.70 5135279.30 181.56
-9755073.17 5135281.07 182.22
-9755075.84 5135281.13 181.77
-9755071.14 5135281.14 181.42
-9755077.01 5135280.21 181.59
-9755067.04 5135278.42 181.28
-9755077.59 5135278.74 181.58
-9755076.49 5135279.36 181.60
-9755069.50 5135279.19 184.10
-9755081.24 5135262.83 181.50
-9755081.23 5135269.61 181.50
-9755081.21 5135274.38 181.52
-9755080.98 5135266.95 181.51
-9755081.21 5135267.80 181.50
-9755080.93 5135266.08 181.51
-9755081.27 5135261.62 181.49
-9755079.49 5135262.79 181.54
-9755078.31 5135261.35 181.54
-9755078.61 5135264.31 181.54
-9755078.06 5135262.78 181.56
-9755080.38 5135266.05 181.52
-9755079.41 5135276.68 181.55
-9755080.31 5135273.48 181.54
-9755079.45 5135265.19 181.54
-9755079.18 5135272.83 181.54
-9755078.32 5135265.16 181.56
-9755078.54 5135273.50 181.55
-9755078.58 5135267.27 181.56
-9755078.79 5135275.59 181.55
-9755077.94 5135276.99 181.54
-9755077.97 5135271.36 181.57
-9755077.73 5135261.35 181.56
-9755068.74 5135260.21 184.35
-9755068.94 5135261.14 183.03
-9755069.00 5135259.95 184.21
-9755068.57 5135260.28 183.18
-9755074.49 5135259.44 182.65
-9755068.65 5135261.96 183.48
-9755068.85 5135261.01 181.40
-9755074.50 5135261.27 182.65
-9755076.81 5135262.86 181.58
-9755069.91 5135262.60 183.06
-9755068.01 5135261.26 181.26
-9755070.04 5135260.54 184.48
-9755071.24 5135261.58 181.44
-9755075.12 5135262.93 182.65
-9755074.31 5135262.16 182.17
-9755074.47 5135261.83 182.65
-9755072.10 5135260.40 181.53
-9755068.62 5135261.89 181.40
-9755069.43 5135261.84 181.41
-9755076.27 5135262.79 181.59
-9755078.00 5135265.15 181.55
-9755072.74 5135259.53 181.67
-9755070.34 5135262.73 181.43
-9755068.01 5135262.19 181.27
-9755069.49 5135259.34 182.92
-9755073.96 5135261.24 182.64
-9755069.46 5135262.73 181.33
-9755068.85 5135260.40 181.37
-9755074.47 5135263.69 181.78
-9755074.49 5135260.36 182.65
-9755071.14 5135260.54 184.36
-9755070.33 5135259.88 183.17
-9755070.41 5135261.84 181.43
-9755076.84 5135260.40 181.57
-9755075.69 5135259.53 181.69
-9755068.62 5135259.67 182.53
-9755071.19 5135264.54 181.46
-9755071.25 5135263.61 181.48
-9755075.68 5135261.91 181.72
-9755077.14 5135261.91 181.60
-9755073.89 5135259.45 182.59
-9755068.58 5135263.66 181.24
-9755069.81 5135260.29 184.54
-9755070.99 5135259.91 183.60
-9755073.92 5135264.24 182.61
-9755067.11 5135264.83 181.10
-9755075.68 5135261.55 181.71
-9755077.96 5135270.47 181.57
-9755068.63 5135277.69 183.29
-9755067.10 5135265.11 181.12
-9755071.09 5135277.54 184.00
-9755068.48 5135276.80 184.31
-9755074.45 5135275.47 181.76
-9755071.42 5135277.84 181.56
-9755069.46 5135271.94 181.23
-9755073.67 5135265.65 182.00
-9755071.21 5135266.19 181.91
-9755069.71 5135276.02 183.71
-9755072.61 5135265.42 182.17
-9755068.00 5135266.01 181.17
-9755067.96 5135273.45 181.31
-9755068.80 5135276.98 181.21
-9755071.19 5135271.04 181.49
-9755066.73 5135268.86 185.51
-9755071.21 5135268.37 181.43
-9755067.33 5135269.38 185.21
-9755067.02 5135271.09 181.00
-9755067.11 5135270.26 185.41
-9755071.74 5135272.52 181.55
-9755075.23 5135276.03 182.65
-9755070.93 5135275.86 185.65
-9755071.21 5135266.27 181.47
-9755069.45 5135265.19 181.37
-9755074.64 5135276.29 182.14
-9755067.05 5135267.79 181.06
-9755068.82 5135275.82 181.21
-9755068.56 5135270.41 181.17
-9755070.28 5135276.07 185.33
-9755074.45 5135269.60 181.85
-9755074.34 5135276.73 181.76
-9755068.80 5135276.23 185.38
-9755069.46 5135268.09 181.25
-9755067.00 5135277.76 181.34
-9755067.74 5135268.65 181.28
-9755070.32 5135266.95 181.96
-9755069.68 5135276.08 181.31
-9755070.70 5135268.98 181.73
-9755071.23 5135265.43 181.46
-9755075.02 5135272.48 182.17
-9755073.59 5135267.16 181.80
-9755068.85 5135276.93 185.55
-9755066.85 5135271.29 184.31
-9755070.33 5135267.76 181.81
-9755074.71 5135274.55 181.78
-9755069.99 5135278.15 183.07
-9755072.64 5135268.56 182.08
-9755071.22 5135267.76 181.96
-9755067.10 5135271.20 183.85
-9755077.03 5135277.02 181.58
-9755067.67 5135272.07 181.48
-9755068.87 5135277.45 183.86
-9755076.78 5135277.89 181.58
-9755072.10 5135267.10 182.02
-9755066.17 5135273.73 181.33
-9755069.46 5135276.10 185.97
-9755069.54 5135266.25 181.77
-9755073.54 5135271.66 181.74
-9755070.56 5135276.07 181.48
-9755072.16 5135268.60 181.91
-9755071.56 5135276.63 184.72
-9755074.69 5135277.88 181.76
-9755073.85 5135268.08 181.80
-9755067.38 5135276.91 181.22
-9755076.78 5135268.66 181.57
-9755069.72 5135270.19 181.25
-9755075.92 5135270.48 181.65
-9755076.83 5135271.12 181.58
-9755072.69 5135268.69 181.63
-9755072.07 5135272.21 181.77
-9755076.22 5135266.02 181.60
-9755066.88 5135271.13 185.33
-9755076.82 5135270.21 181.58
-9755077.10 5135266.97 181.58
-9755069.93 5135275.22 185.86
-9755070.38 5135275.04 185.64
-9755069.39 5135276.75 185.30
-9755066.82 5135269.56 186.56
-9755069.74 5135265.67 181.84
-9755070.34 5135264.65 181.87
-9755071.98 5135276.80 184.99
-9755075.25 5135272.17 182.63
-9755065.85 5135270.22 183.92
-9755069.62 5135275.89 184.35
-9755072.15 5135266.04 181.56
-9755069.47 5135275.27 184.52
-9755072.70 5135267.17 181.65
-9755068.77 5135277.85 181.26
-9755067.88 5135276.98 181.14
-9755072.06 5135267.77 182.18
-9755073.54 5135274.59 181.73
-9755077.11 5135267.84 181.58
-9755068.78 5135274.94 181.19
-9755076.23 5135268.11 181.60
-9755070.62 5135277.36 185.59
-9755075.03 5135267.20 182.65
-9755066.49 5135268.74 185.53
-9755072.90 5135275.51 181.67
-9755067.62 5135271.69 184.41
-9755069.09 5135275.49 183.98
-9755070.27 5135277.60 185.89
-9755066.74 5135267.94 185.38
-9755077.09 5135265.24 181.57
-9755069.06 5135275.59 185.21
-9755068.62 5135266.54 181.73
-9755075.05 5135270.34 182.62
-9755066.22 5135270.48 186.17
-9755071.12 5135275.53 185.20
-9755068.86 5135277.08 181.77
-9755070.50 5135277.28 182.03
-9755066.23 5135271.01 185.42
-9755066.23 5135265.99 181.01
-9755069.42 5135277.83 181.31
-9755072.68 5135270.45 181.62
-9755063.75 5135278.45 180.78
-9755064.65 5135278.43 180.81
-9755063.15 5135278.71 180.60
-9755062.27 5135278.70 181.10
-9755065.33 5135280.46 181.18
-9755065.57 5135281.14 180.88
-9755065.68 5135279.50 180.70
-9755065.49 5135280.73 181.13
-9755062.28 5135280.20 180.62
-9755062.92 5135279.60 180.72
-9755063.16 5135279.28 181.04
-9755064.67 5135280.16 181.06
-9755064.37 5135280.89 180.94
-9755063.17 5135280.18 180.98
-9755064.69 5135279.23 181.32
-9755062.83 5135281.33 181.02
-9755062.22 5135281.33 180.94
-9755061.36 5135279.31 180.55
-9755061.39 5135280.19 180.54
-9755059.59 5135278.42 180.34
-9755061.33 5135278.43 180.92
-9755053.75 5135280.81 179.84
-9755055.57 5135278.74 180.03
-9755059.91 5135280.21 180.37
-9755056.69 5135278.43 180.12
-9755055.80 5135281.07 180.04
-9755055.73 5135279.92 180.03
-9755059.89 5135279.31 180.41
-9755052.01 5135279.28 179.64
-9755056.73 5135279.04 180.10
-9755053.75 5135279.90 179.82
-9755057.26 5135278.70 180.13
-9755054.63 5135279.88 179.93
-9755056.09 5135279.34 180.06
-9755061.45 5135279.37 180.92
-9755057.80 5135281.10 180.20
-9755056.70 5135281.97 180.11
-9755056.13 5135280.76 180.05
-9755050.47 5135279.59 179.64
-9755049.64 5135280.82 179.67
-9755044.90 5135279.27 179.77
-9755046.38 5135279.24 179.75
-9755042.24 5135279.27 179.79
-9755044.89 5135278.67 179.77
-9755048.09 5135280.17 179.72
-9755042.84 5135278.39 179.79
-9755066.50 5135265.42 181.07
-9755066.21 5135264.85 181.03
-9755064.78 5135261.27 180.91
-9755062.08 5135263.19 180.99
-9755062.95 5135264.51 180.69
-9755063.88 5135260.40 180.81
-9755064.49 5135263.65 180.85
-9755064.78 5135260.35 181.00
-9755063.82 5135264.52 180.84
-9755064.72 5135261.58 180.90
-9755065.67 5135269.36 185.61
-9755065.43 5135268.73 186.39
-9755065.26 5135276.86 181.23
-9755065.48 5135271.32 183.93
-9755066.26 5135268.17 184.16
-9755065.58 5135275.20 181.26
-9755065.33 5135268.71 183.67
-9755066.16 5135270.87 186.13
-9755065.50 5135270.17 185.62
-9755065.59 5135270.26 186.09
-9755066.21 5135273.13 180.64
-9755065.60 5135271.80 183.96
-9755066.19 5135268.57 183.86
-9755065.90 5135268.45 186.63
-9755066.14 5135267.65 183.15
-9755065.35 5135269.30 182.26
-9755063.23 5135265.36 180.73
-9755064.81 5135268.38 184.44
-9755065.37 5135272.95 180.65
-9755061.92 5135276.95 180.97
-9755065.32 5135268.94 180.97
-9755063.90 5135265.12 180.82
-9755062.28 5135275.47 180.58
-9755062.10 5135270.18 180.59
-9755064.61 5135272.73 181.20
-9755064.41 5135271.93 180.82
-9755064.93 5135270.19 182.77
-9755064.66 5135269.10 183.88
-9755064.51 5135269.24 184.70
-9755063.79 5135269.64 185.65
-9755062.04 5135268.07 180.59
-9755063.57 5135268.80 184.46
-9755063.17 5135276.70 180.50
-9755062.38 5135277.76 181.03
-9755062.94 5135268.73 183.91
-9755063.02 5135269.29 185.27
-9755064.73 5135268.64 183.00
-9755065.20 5135277.03 180.89
-9755062.10 5135267.18 180.95
-9755063.83 5135270.32 183.22
-9755063.76 5135272.86 180.70
-9755063.80 5135270.27 183.57
-9755062.02 5135271.04 180.58
-9755063.99 5135270.30 184.80
-9755064.54 5135270.59 185.52
-9755063.32 5135269.32 185.93
-9755063.11 5135270.00 184.04
-9755063.86 5135270.24 185.53
-9755064.26 5135268.69 185.30
-9755062.87 5135271.95 180.65
-9755063.55 5135268.72 180.71
-9755062.01 5135274.63 180.55
-9755062.93 5135270.41 180.65
-9755064.76 5135277.49 181.24
-9755064.65 5135272.25 181.23
-9755061.79 5135267.53 180.98
-9755064.72 5135269.54 180.86
-9755066.23 5135268.97 186.67
-9755064.46 5135269.67 185.58
-9755063.27 5135266.89 180.69
-9755063.67 5135271.38 184.09
-9755064.78 5135271.05 184.44
-9755064.13 5135273.91 180.91
-9755064.72 5135268.35 180.87
-9755062.02 5135265.32 181.07
-9755062.99 5135269.68 184.06
-9755063.69 5135271.63 184.16
-9755058.00 5135263.62 180.36
-9755056.46 5135262.69 180.57
-9755061.16 5135264.56 180.56
-9755061.42 5135262.15 181.02
-9755053.85 5135264.50 179.91
-9755054.45 5135263.02 180.01
-9755052.12 5135259.46 179.83
-9755059.48 5135263.05 180.48
-9755061.50 5135262.98 181.08
-9755052.04 5135263.89 179.77
-9755060.61 5135262.17 180.51
-9755052.37 5135261.24 179.87
-9755059.47 5135262.14 180.51
-9755058.96 5135259.48 180.65
-9755056.21 5135263.93 180.15
-9755055.88 5135264.51 180.12
-9755059.39 5135259.47 180.68
-9755054.78 5135259.45 180.03
-9755061.28 5135264.75 181.12
-9755057.99 5135260.08 180.29
-9755054.12 5135263.60 179.96
-9755051.19 5135263.64 179.75
-9755051.22 5135259.49 179.79
-9755050.60 5135264.50 179.73
-9755049.71 5135259.45 179.75
-9755051.15 5135261.12 180.39
-9755049.71 5135261.28 179.75
-9755049.71 5135260.37 179.75
-9755048.82 5135263.04 179.78
-9755050.88 5135259.48 180.39
-9755056.37 5135278.71 180.07
-9755058.20 5135265.37 180.69
-9755061.42 5135276.09 180.53
-9755058.21 5135271.04 180.28
-9755057.31 5135270.15 180.23
-9755060.55 5135276.01 180.60
-9755060.51 5135266.35 180.81
-9755054.68 5135271.07 179.97
-9755059.66 5135272.51 180.43
-9755058.02 5135272.22 180.66
-9755053.15 5135271.86 179.81
-9755057.03 5135269.23 180.19
-9755058.76 5135269.61 180.45
-9755058.81 5135266.29 180.46
-9755058.85 5135273.60 180.65
-9755054.66 5135270.17 179.96
-9755052.89 5135276.04 179.70
-9755058.82 5135266.77 180.51
-9755057.59 5135276.87 180.60
-9755059.44 5135271.06 180.65
-9755059.69 5135270.16 180.53
-9755052.03 5135267.75 179.71
-9755056.51 5135272.50 180.15
-9755056.76 5135265.22 180.58
-9755054.63 5135276.04 179.98
-9755057.36 5135266.84 180.53
-9755056.68 5135273.70 180.15
-9755059.68 5135268.97 180.39
-9755053.81 5135266.88 179.90
-9755060.61 5135270.12 180.47
-9755051.98 5135276.07 179.66
-9755056.14 5135271.29 180.13
-9755057.26 5135276.06 180.16
-9755057.35 5135272.86 180.29
-9755052.00 5135271.88 179.72
-9755058.26 5135267.74 180.61
-9755059.71 5135267.19 180.52
-9755058.74 5135276.96 180.66
-9755058.14 5135276.95 180.48
-9755058.85 5135267.77 180.57
-9755052.33 5135274.56 179.69
-9755053.13 5135275.47 179.72
-9755058.67 5135276.20 180.56
-9755058.53 5135277.73 180.57
-9755052.97 5135265.44 179.85
-9755061.28 5135266.94 180.98
-9755058.82 5135270.15 180.29
-9755053.80 5135268.64 179.92
-9755061.54 5135265.44 181.07
-9755053.54 5135265.98 179.90
-9755061.20 5135273.40 180.55
-9755058.23 5135273.63 180.30
-9755059.60 5135275.53 180.37
-9755060.59 5135274.30 180.46
-9755055.87 5135265.40 180.10
-9755058.88 5135270.98 180.43
-9755052.91 5135268.66 179.84
-9755055.31 5135266.28 180.06
-9755055.79 5135277.54 180.06
-9755054.90 5135277.55 179.95
-9755060.57 5135265.97 181.01
-9755054.69 5135266.88 179.97
-9755050.56 5135265.39 179.71
-9755049.04 5135271.00 179.73
-9755051.45 5135271.33 179.69
-9755051.45 5135272.23 179.71
-9755051.67 5135270.99 180.24
-9755051.11 5135274.54 179.65
-9755050.85 5135272.80 179.67
-9755049.66 5135269.50 179.72
-9755049.02 5135276.61 179.71
-9755051.39 5135272.79 179.69
-9755051.43 5135275.17 179.66
-9755049.61 5135275.73 179.68
-9755051.42 5135273.68 179.67
-9755049.94 5135271.93 179.70
-9755050.53 5135268.61 179.70
-9755051.47 5135266.28 179.72
-9755050.83 5135270.97 179.66
-9755045.62 5135261.23 179.85
-9755043.22 5135263.15 180.73
-9755044.68 5135262.09 179.85
-9755046.46 5135259.69 179.85
-9755043.25 5135259.71 179.87
-9755042.02 5135261.14 179.89
-9755043.24 5135264.47 179.88
-9755047.94 5135263.02 179.80
-9755043.18 5135263.59 179.88
-9755047.33 5135264.54 179.80
-9755042.49 5135262.86 183.81
-9755042.29 5135262.05 179.90
-9755044.00 5135277.83 179.79
-9755048.44 5135276.33 179.73
-9755044.99 5135267.74 179.83
-9755042.58 5135276.86 179.80
-9755047.89 5135270.11 179.77
-9755043.14 5135276.02 179.80
-9755048.19 5135272.47 179.76
-9755044.91 5135275.42 179.78
-9755047.32 5135267.73 179.77
-9755048.23 5135265.69 179.78
-9755047.30 5135270.98 179.77
-9755043.25 5135268.56 179.85
-9755043.39 5135274.52 179.81
-9755048.18 5135269.56 179.76
-9755048.47 5135267.73 179.77
-9755046.37 5135276.87 179.75
-9755045.57 5135266.28 179.83
-9755047.29 5135268.65 179.77
-9755042.26 5135276.02 179.81
-9755042.27 5135269.24 179.85
-9755044.97 5135270.12 179.82
-9755045.81 5135276.93 179.77
-9755046.39 5135272.52 179.78
-9755045.54 5135265.37 179.84
-9755044.06 5135268.88 179.83
-9755046.37 5135271.04 179.79
-9755047.23 5135275.99 179.74
-9755044.05 5135271.23 179.80
-9755046.42 5135265.37 179.82
-9755044.94 5135269.21 179.82
-9755042.27 5135275.09 179.82
-9755047.32 5135272.79 179.77
-9755042.54 5135271.83 179.83
-9755040.89 5135259.74 179.91
-9755041.47 5135260.57 179.91
-9755040.84 5135261.23 179.91
-9755039.68 5135259.68 179.89
-9755042.07 5135259.72 179.90
-9755041.71 5135264.43 179.88
-9755039.66 5135269.47 179.83
-9755039.62 5135276.00 179.81
-9755040.53 5135268.56 179.85
-9755039.67 5135268.54 179.85
-9755040.55 5135269.46 179.86
-9755040.51 5135275.98 179.81
-9755041.68 5135277.49 179.81
-9755041.38 5135268.57 179.86
-9755040.51 5135271.84 179.84
-9755039.94 5135265.35 179.87
-9755039.37 5135267.72 179.85
-9755039.35 5135270.93 179.83
-9755039.12 5135264.70 179.86
-9755039.08 5135267.10 179.85
-9755040.86 5135266.23 179.87
-9755028.41 5135277.70 179.61
-9755034.27 5135278.34 179.72
-9755032.53 5135278.31 179.70
-9755027.53 5135278.59 180.59
-9755028.45 5135277.71 180.62
-9755028.14 5135278.58 179.60
-9755026.61 5135280.94 179.75
-9755031.63 5135280.94 179.68
-9755027.48 5135278.66 179.80
-9755027.52 5135279.19 180.02
-9755035.77 5135279.22 179.73
-9755028.49 5135281.15 180.59
-9755035.72 5135280.11 179.73
-9755032.20 5135279.48 179.69
-9755027.76 5135279.42 180.59
-9755026.60 5135280.03 179.77
-9755028.35 5135280.39 179.61
-9755027.51 5135280.30 179.91
-9755026.57 5135278.62 179.77
-9755028.32 5135280.11 180.59
-9755033.93 5135280.05 179.71
-9755023.38 5135279.43 179.88
-9755023.38 5135280.34 179.88
-9755023.38 5135278.24 179.88
-9755022.50 5135277.62 179.90
-9755020.69 5135278.52 179.91
-9755022.79 5135279.20 179.88
-9755021.87 5135280.01 179.89
-9755022.79 5135278.29 179.89
-9755020.73 5135279.11 179.91
-9755021.61 5135279.40 179.90
-9755012.47 5135277.59 180.02
-9755015.69 5135277.91 179.99
-9755017.74 5135277.89 179.97
-9755012.74 5135278.45 180.01
-9755019.20 5135280.02 179.93
-9755012.75 5135280.26 180.00
-9755014.56 5135280.29 179.99
-9755016.04 5135280.25 179.97
-9755019.24 5135278.51 179.94
-9755038.78 5135265.27 179.86
-9755038.48 5135263.81 179.87
-9755038.19 5135260.26 179.87
-9755037.67 5135260.59 179.87
-9755035.55 5135261.48 179.84
-9755028.31 5135263.99 180.18
-9755028.13 5135263.03 180.69
-9755038.17 5135262.01 179.86
-9755034.10 5135262.03 179.82
-9755028.20 5135262.94 179.69
-9755034.96 5135261.42 179.83
-9755031.45 5135261.42 179.78
-9755026.73 5135259.43 180.52
-9755026.86 5135260.64 180.70
-9755027.61 5135261.37 180.68
-9755030.23 5135262.93 179.73
-9755031.69 5135262.01 179.79
-9755029.96 5135262.00 179.73
-9755025.86 5135259.63 179.88
-9755032.62 5135264.72 179.77
-9755029.08 5135261.41 179.71
-9755034.08 5135259.30 179.83
-9755029.09 5135262.00 179.72
-9755036.73 5135263.81 179.84
-9755028.50 5135260.55 179.72
-9755034.96 5135264.41 179.81
-9755036.38 5135261.15 179.86
-9755027.54 5135262.91 179.93
-9755029.10 5135259.62 179.73
-9755029.92 5135263.76 179.74
-9755026.41 5135261.10 179.86
-9755029.10 5135264.39 179.70
-9755026.96 5135264.27 179.89
-9755034.72 5135260.53 179.84
-9755030.57 5135261.99 179.76
-9755025.22 5135262.87 179.89
-9755024.97 5135259.61 179.92
-9755024.92 5135264.58 179.90
-9755024.38 5135260.42 179.94
-9755024.36 5135262.30 179.92
-9755023.46 5135263.76 179.95
-9755024.33 5135262.84 179.93
-9755024.35 5135261.38 179.93
-9755023.45 5135260.47 179.95
-9755038.46 5135266.17 179.84
-9755039.03 5135269.78 179.82
-9755038.44 5135275.10 179.79
-9755038.12 5135271.82 179.80
-9755037.31 5135265.27 179.82
-9755034.89 5135270.95 179.78
-9755027.49 5135277.05 180.60
-9755026.67 5135268.49 179.84
-9755029.38 5135267.04 179.69
-9755035.82 5135269.99 179.79
-9755035.77 5135273.29 179.79
-9755034.30 5135275.40 179.73
-9755027.52 5135267.94 179.67
-9755026.31 5135277.67 179.79
-9755025.19 5135266.13 179.88
-9755027.06 5135272.12 180.60
-9755034.89 5135273.88 179.75
-9755030.77 5135275.08 179.69
-9755035.19 5135275.38 179.76
-9755029.04 5135267.94 179.69
-9755028.17 5135266.14 179.68
-9755034.85 5135276.88 179.74
-9755030.83 5135265.29 179.75
-9755027.62 5135266.09 180.66
-9755037.61 5135264.38 179.85
-9755027.50 5135275.34 179.93
-9755034.06 5135265.27 179.80
-9755026.93 5135273.56 180.58
-9755025.78 5135273.27 179.82
-9755025.79 5135272.03 179.84
-9755029.33 5135265.25 179.70
-9755026.09 5135267.04 179.85
-9755033.40 5135274.46 179.72
-9755034.92 5135266.45 179.80
-9755027.77 5135276.25 179.80
-9755033.15 5135265.29 179.78
-9755036.42 5135265.27 179.83
-9755035.25 5135265.31 179.82
-9755026.69 5135275.32 179.78
-9755036.43 5135271.25 179.80
-9755032.21 5135271.78 179.74
-9755027.87 5135272.90 179.72
-9755034.28 5135277.73 179.71
-9755034.94 5135267.68 179.80
-9755028.24 5135269.28 180.63
-9755030.20 5135272.70 179.70
-9755034.89 5135270.04 179.79
-9755027.56 5135273.51 180.61
-9755034.02 5135273.57 179.75
-9755024.89 5135272.05 179.87
-9755030.78 5135268.50 179.73
-9755027.59 5135268.50 180.64
-9755028.29 5135276.36 180.60
-9755024.90 5135265.23 179.89
-9755036.42 5135266.19 179.82
-9755033.16 5135271.23 179.74
-9755034.33 5135266.18 179.80
-9755028.30 5135275.37 180.66
-9755028.07 5135274.41 180.61
-9755029.33 5135272.65 179.66
-9755027.55 5135272.60 180.61
-9755027.42 5135276.87 179.95
-9755025.21 5135268.76 179.88
-9755035.17 5135274.16 179.76
-9755026.66 5135273.51 179.80
-9755031.95 5135275.09 179.71
-9755034.04 5135270.93 179.76
-9755031.08 5135269.44 179.74
-9755036.70 5135268.51 179.82
-9755033.48 5135272.67 179.75
-9755030.21 5135273.60 179.68
-9755026.62 5135274.43 179.79
-9755033.14 5135270.32 179.76
-9755026.99 5135269.29 180.61
-9755025.10 5135276.15 179.84
-9755030.11 5135276.25 179.66
-9755032.00 5135270.31 179.74
-9755037.25 5135271.83 179.80
-9755036.11 5135266.17 179.83
-9755033.11 5135276.83 179.70
-9755028.06 5135266.18 180.68
-9755028.11 5135270.91 179.66
-9755030.15 5135275.05 179.66
-9755037.59 5135268.61 179.82
-9755025.21 5135267.65 179.87
-9755027.02 5135271.11 180.62
-9755034.06 5135267.68 179.79
-9755035.49 5135269.75 179.79
-9755023.41 5135270.61 179.91
-9755024.31 5135269.67 179.90
-9755023.36 5135276.82 179.88
-9755023.44 5135271.72 179.91
-9755023.41 5135269.66 179.92
-9755023.44 5135266.71 179.93
-9755023.45 5135265.23 179.95
-9755024.27 5135272.03 179.88
-9755022.31 5135261.40 179.98
-9755022.58 5135264.33 179.97
-9755022.89 5135263.75 179.96
-9755020.83 5135261.95 180.01
-9755022.02 5135262.86 179.99
-9755022.59 5135260.48 179.99
-9755021.69 5135261.42 179.98
-9755021.16 5135260.48 180.00
-9755021.71 5135261.97 179.99
-9755020.24 5135260.44 180.02
-9755020.74 5135277.91 179.91
-9755019.92 5135266.08 179.98
-9755022.80 5135277.04 179.89
-9755021.07 5135265.18 179.98
-9755021.05 5135274.09 179.94
-9755020.15 5135272.87 179.95
-9755021.06 5135267.92 179.97
-9755022.56 5135268.44 179.94
-9755020.15 5135274.10 179.95
-9755021.67 5135270.57 179.95
-9755019.91 5135270.83 179.97
-9755021.65 5135274.43 179.92
-9755020.16 5135271.77 179.97
-9755021.08 5135267.01 179.98
-9755022.85 5135269.35 179.94
-9755022.58 5135265.25 179.97
-9755018.47 5135263.72 180.04
-9755015.17 5135263.97 180.08
-9755018.43 5135261.00 180.06
-9755013.47 5135260.44 180.09
-9755014.95 5135261.32 180.10
-9755015.21 5135261.93 180.09
-9755014.63 5135263.72 180.08
-9755018.49 5135262.18 180.04
-9755016.98 5135260.46 180.07
-9755019.10 5135261.97 180.03
-9755017.55 5135263.69 180.04
-9755014.32 5135262.83 180.08
-9755017.00 5135261.90 180.06
-9755018.46 5135262.82 180.03
-9755012.86 5135261.37 180.10
-9755016.67 5135262.78 180.05
-9755015.83 5135260.74 180.07
-9755013.71 5135271.69 180.05
-9755013.36 5135273.73 180.05
-9755015.09 5135276.10 180.00
-9755019.53 5135273.77 179.97
-9755016.07 5135271.99 180.02
-9755014.32 5135270.18 180.05
-9755014.52 5135273.72 180.03
-9755015.44 5135268.14 180.03
-9755016.66 5135267.24 180.03
-9755013.71 5135268.77 180.06
-9755016.65 5135277.04 179.98
-9755017.49 5135273.47 179.99
-9755015.21 5135264.26 180.07
-9755017.57 5135265.51 180.04
-9755019.53 5135272.92 179.97
-9755015.73 5135276.79 179.99
-9755016.90 5135273.43 180.01
-9755016.61 5135275.87 179.98
-9755018.67 5135275.84 179.97
-9755012.54 5135264.55 180.10
-9755016.69 5135265.51 180.04
-9755012.50 5135275.23 180.03
-9755016.11 5135266.07 180.05
-9755019.30 5135267.57 180.00
-9755017.84 5135275.29 179.99
-9755014.30 5135267.22 180.06
-9755015.74 5135272.60 180.02
-9755012.53 5135266.04 180.08
-9755015.47 5135270.18 180.05
-9755019.05 5135265.18 180.02
-9755019.00 5135267.24 180.00
-9755017.84 5135270.53 180.01
-9755016.62 5135271.10 180.01
-9755015.75 5135269.27 180.04
-9755014.30 5135265.20 180.07
-9755014.00 5135265.47 180.08
-9755017.77 5135276.77 179.98
-9755011.02 5135278.79 179.99
-9755005.95 5135280.20 179.91
-9755005.41 5135279.32 179.92
-9755007.77 5135279.57 179.94
-9755004.47 5135278.69 179.90
-9755008.60 5135280.28 179.96
-9755005.36 5135280.19 179.91
-9755009.50 5135279.35 179.97
-9755006.89 5135277.84 179.95
-9755004.47 5135279.60 179.90
-9755003.89 5135277.83 179.90
-9755001.30 5135279.55 179.82
-9754999.12 5135277.74 180.74
-9754998.04 5135279.54 179.95
-9754998.64 5135279.89 179.94
-9754996.89 5135278.65 179.98
-9755000.11 5135280.05 180.85
-9755003.59 5135278.47 179.89
-9754999.45 5135279.08 181.44
-9754999.34 5135278.77 181.34
-9755000.07 5135279.24 180.84
-9754996.28 5135277.77 180.00
-9754996.85 5135280.15 179.99
-9754991.84 5135278.72 179.96
-9754994.74 5135279.58 179.99
-9754992.69 5135278.69 179.98
-9754994.80 5135277.77 179.99
-9754995.63 5135278.63 179.99
-9754993.59 5135278.65 179.98
-9754992.68 5135277.78 180.00
-9754993.53 5135280.40 179.98
-9754991.49 5135280.42 179.97
-9754990.97 5135279.06 180.23
-9754985.64 5135277.47 180.00
-9754988.02 5135280.10 179.99
-9754988.03 5135279.51 179.98
-9754989.74 5135278.65 180.00
-9754984.76 5135278.30 180.03
-9754985.60 5135280.12 179.97
-9754989.50 5135279.25 180.00
-9755006.39 5135262.08 180.02
-9755004.91 5135259.51 180.01
-9755009.34 5135263.66 180.05
-9755007.55 5135262.78 180.05
-9755010.20 5135262.15 180.07
-9755006.10 5135264.24 180.02
-9755005.26 5135261.25 180.01
-9755007.02 5135260.39 180.05
-9755009.32 5135262.76 180.06
-9755008.42 5135261.25 180.06
-9755004.64 5135262.78 180.00
-9755006.98 5135263.62 180.02
-9755007.85 5135263.64 180.05
-9755004.69 5135259.46 180.02
-9755004.57 5135261.23 180.00
-9755010.23 5135261.03 180.08
-9755010.79 5135263.67 180.06
-9755006.94 5135259.51 180.05
-9755009.33 5135262.15 180.05
-9755011.93 5135265.43 180.07
-9755011.35 5135266.02 180.06
-9755011.64 5135264.56 180.07
-9755011.93 5135277.01 180.00
-9755011.97 5135268.41 180.07
-9755012.24 5135265.13 180.08
-9755011.02 5135276.67 180.00
-9755010.08 5135276.09 180.00
-9755006.35 5135265.40 180.01
-9755008.39 5135276.71 179.98
-9755004.56 5135265.43 179.96
-9755009.35 5135264.57 180.04
-9755006.88 5135272.22 179.98
-9755011.07 5135266.94 180.05
-9755006.33 5135271.06 179.99
-9755004.59 5135267.77 179.96
-9755006.93 5135267.77 180.01
-9755009.31 5135270.45 180.03
-9755008.42 5135267.19 180.04
-9755006.00 5135274.29 179.95
-9755006.92 5135273.43 179.97
-9755004.51 5135274.59 179.92
-9755006.87 5135276.66 179.95
-9755004.59 5135269.25 179.95
-9755011.01 5135277.60 180.00
-9755006.95 5135268.67 180.00
-9755008.95 5135270.48 180.02
-9755006.32 5135275.45 179.96
-9755005.40 5135275.72 179.93
-9755010.14 5135274.33 180.01
-9755008.96 5135274.33 180.00
-9755005.43 5135272.54 179.96
-9755005.08 5135276.98 179.91
-9755006.00 5135270.16 179.98
-9755005.44 5135274.60 179.93
-9755005.41 5135275.21 179.94
-9755008.40 5135271.95 180.00
-9755007.78 5135271.05 180.00
-9755010.42 5135272.54 180.01
-9755006.91 5135269.28 179.99
-9755005.48 5135266.31 179.98
-9755006.08 5135266.87 179.99
-9755009.29 5135272.83 180.01
-9755007.81 5135269.25 180.02
-9755008.39 5135272.86 179.99
-9755010.11 5135267.19 180.03
-9755010.15 5135269.55 180.04
-9755006.03 5135267.80 179.98
-9755010.17 5135265.69 180.06
-9755007.81 5135267.76 180.03
-9755004.62 5135264.51 179.98
-9755010.10 5135277.62 179.99
-9755003.71 5135262.13 179.98
-9754998.74 5135260.32 180.09
-9755002.23 5135263.62 179.95
-9755002.83 5135262.13 179.98
-9755000.47 5135262.71 179.89
-9755003.69 5135263.63 179.98
-9755002.26 5135261.20 179.96
-9754997.83 5135260.35 180.10
-9755001.34 5135259.79 179.95
-9755001.36 5135262.15 179.92
-9755000.49 5135259.74 179.91
-9755002.24 5135259.77 179.96
-9755002.58 5135260.38 179.98
-9754999.57 5135261.26 179.93
-9755003.74 5135259.71 180.00
-9754998.87 5135262.06 180.58
-9755001.07 5135263.28 179.91
-9755003.70 5135261.24 179.99
-9754999.06 5135261.23 180.10
-9754998.14 5135259.75 180.09
-9754999.00 5135262.03 180.94
-9755000.17 5135263.62 179.88
-9754999.16 5135262.90 181.59
-9754999.56 5135263.58 179.90
-9755003.71 5135260.40 179.99
-9754998.80 5135263.98 180.58
-9754998.92 5135263.23 180.74
-9754999.88 5135260.33 179.88
-9754998.92 5135263.02 181.45
-9755002.20 5135264.52 179.95
-9754995.18 5135260.58 180.09
-9754991.97 5135260.62 180.08
-9754991.32 5135260.29 180.09
-9754993.70 5135262.34 180.08
-9754991.37 5135262.09 180.08
-9754996.93 5135260.31 180.09
-9754991.97 5135259.72 180.09
-9754995.44 5135261.19 180.09
-9754994.58 5135261.18 180.08
-9754997.26 5135259.44 180.10
-9754994.56 5135262.14 180.09
-9754991.96 5135262.09 180.06
-9754992.83 5135261.29 180.07
-9754997.25 5135262.68 180.06
-9754991.31 5135259.72 180.09
-9754994.61 5135260.57 180.09
-9754993.72 5135263.54 180.09
-9754992.52 5135263.23 180.08
-9754996.32 5135262.70 180.08
-9754996.87 5135262.98 180.08
-9754993.09 5135262.68 180.09
-9754998.66 5135276.95 179.97
-9755002.20 5135270.99 179.90
-9755002.74 5135276.00 179.89
-9754998.91 5135268.66 180.43
-9754998.65 5135276.03 179.98
-9754998.97 5135265.36 180.02
-9755002.22 5135268.64 179.92
-9754999.47 5135273.66 180.40
-9755003.04 5135276.99 179.90
-9754998.68 5135267.74 180.01
-9755000.41 5135272.53 179.83
-9755003.69 5135271.00 179.94
-9754998.08 5135272.14 180.01
-9754997.72 5135269.21 180.02
-9754998.10 5135271.00 180.00
-9754997.81 5135265.04 180.03
-9754998.94 5135268.10 180.49
-9755002.80 5135269.28 179.93
-9754998.95 5135275.16 179.98
-9755000.37 5135273.66 179.82
-9755002.21 5135268.05 179.93
-9755001.85 5135276.93 179.86
-9755002.82 5135266.32 179.94
-9755000.98 5135272.83 179.84
-9755001.33 5135268.92 179.89
-9755000.98 5135275.18 179.83
-9754998.64 5135266.85 180.02
-9755000.44 5135277.08 180.52
-9754998.04 5135275.19 179.97
-9755003.73 5135265.05 179.96
-9755000.40 5135275.46 179.81
-9755001.91 5135265.10 179.94
-9755001.28 5135274.55 179.85
-9755003.69 5135266.87 179.97
-9754999.14 5135267.01 181.44
-9755001.31 5135268.07 179.88
-9754999.20 5135266.20 181.44
-9754997.99 5135276.32 179.98
-9755000.15 5135266.85 179.84
-9755002.21 5135273.41 179.89
-9754997.73 5135273.65 179.98
-9754999.03 5135273.52 180.36
-9755001.34 5135265.44 179.91
-9755002.79 5135271.29 179.91
-9755001.33 5135271.92 179.86
-9755002.23 5135265.97 179.93
-9754999.01 5135271.36 180.86
-9754997.15 5135274.20 180.00
-9754998.93 5135269.56 180.35
-9755002.78 5135270.44 179.93
-9754992.12 5135275.29 180.01
-9754994.81 5135272.49 180.02
-9754994.86 5135264.45 180.05
-9754996.25 5135275.14 180.01
-9754992.19 5135266.80 180.04
-9754995.42 5135271.33 180.03
-9754993.04 5135265.60 180.06
-9754996.35 5135270.37 180.04
-9754991.31 5135274.49 180.02
-9754995.66 5135272.72 180.04
-9754995.68 5135274.53 180.03
-9754992.76 5135270.28 180.03
-9754992.15 5135270.35 180.01
-9754991.03 5135264.44 180.06
-9754996.02 5135272.77 180.01
-9754991.25 5135273.37 180.01
-9754994.52 5135265.03 180.06
-9754992.74 5135271.21 180.02
-9754993.92 5135269.17 180.04
-9754991.57 5135271.81 180.02
-9754994.54 5135266.84 180.04
-9754997.20 5135271.00 180.01
-9754991.26 5135275.10 180.03
-9754996.07 5135264.45 180.06
-9754992.19 5135265.36 180.05
-9754993.85 5135276.57 180.02
-9754996.00 5135265.38 180.05
-9754996.67 5135264.15 180.08
-9754993.05 5135269.50 180.05
-9754991.36 5135267.96 180.03
-9754993.08 5135268.79 180.06
-9754994.79 5135274.51 180.01
-9754990.68 5135272.73 180.01
-9754994.83 5135268.63 180.03
-9754994.54 5135269.78 180.02
-9754997.28 5135264.75 180.05
-9754995.66 5135271.86 180.03
-9754996.89 5135269.43 180.03
-9754996.30 5135270.99 180.03
-9754993.02 5135275.62 180.34
-9754990.67 5135271.00 180.04
-9754990.42 5135267.74 180.06
-9754992.99 5135275.07 180.00
-9754994.82 5135270.07 180.03
-9754990.41 5135267.04 180.05
-9754990.69 5135268.88 180.05
-9754990.71 5135263.86 180.30
-9754990.47 5135259.70 180.10
-9754990.14 5135261.17 180.09
-9754987.16 5135263.22 180.06
-9754989.83 5135262.04 180.09
-9754986.33 5135262.09 180.07
-9754986.31 5135262.62 180.06
-9754985.99 5135261.16 180.07
-9754985.74 5135260.24 180.06
-9754986.03 5135260.54 180.07
-9754988.39 5135262.40 180.07
-9754988.96 5135259.38 180.09
-9754986.28 5135264.43 180.05
-9754986.96 5135260.91 180.06
-9754985.19 5135261.15 180.06
-9754985.44 5135266.19 180.04
-9754988.67 5135274.25 180.02
-9754989.83 5135268.57 180.04
-9754986.33 5135269.71 180.04
-9754987.14 5135276.88 180.01
-9754988.05 5135273.32 180.03
-9754990.38 5135265.33 180.04
-9754988.90 5135271.28 180.03
-9754985.35 5135267.13 180.03
-9754985.39 5135264.39 180.04
-9754989.85 5135265.33 180.05
-9754986.32 5135272.72 180.02
-9754988.64 5135269.42 180.03
-9754985.34 5135276.83 180.01
-9754987.97 5135277.17 180.00
-9754987.13 5135275.36 180.02
-9754987.19 5135271.81 180.02
-9754988.63 5135275.37 180.02
-9754986.31 5135276.58 180.00
-9754989.52 5135264.41 180.06
-9754986.28 5135270.92 180.02
-9754987.10 5135273.55 180.02
-9754984.50 5135276.74 179.77
-9754976.23 5135277.66 179.98
-9754979.12 5135277.71 179.94
-9754984.21 5135278.31 180.54
-9754984.92 5135280.39 181.16
-9754978.31 5135278.55 179.95
-9754976.49 5135278.29 179.98
-9754980.03 5135277.69 179.92
-9754979.46 5135278.58 179.92
-9754976.54 5135279.48 179.97
-9754981.50 5135278.55 179.90
-9754980.63 5135279.43 179.91
-9754981.52 5135279.46 179.90
-9754981.48 5135280.35 179.89
-9754978.91 5135278.57 179.93
-9754986.30 5135261.71 180.08
-9754984.84 5135259.62 180.05
-9754983.92 5135260.86 180.38
-9754984.57 5135261.99 180.97
-9754983.94 5135260.43 180.48
-9754983.93 5135263.79 180.45
