-9755230.21 5135606.18 205.37
-9755227.07 5135605.51 203.63
-9755229.79 5135603.39 203.52
-9755226.53 5135602.42 205.72
-9755230.66 5135606.04 204.60
-9755229.20 5135604.07 203.52
-9755229.64 5135598.39 204.22
-9755226.54 5135602.98 205.74
-9755226.55 5135604.48 206.26
-9755227.84 5135604.16 206.18
-9755226.80 5135605.44 206.33
-9755227.67 5135603.65 205.51
-9755228.61 5135599.41 204.47
-9755229.01 5135603.71 204.83
-9755227.45 5135605.50 203.61
-9755230.66 5135598.73 203.42
-9755228.28 5135605.48 203.59
-9755228.92 5135602.47 204.64
-9755230.34 5135604.88 203.52
-9755228.29 5135599.53 204.62
-9755230.97 5135603.48 203.51
-9755228.93 5135603.62 205.62
-9755227.73 5135599.47 205.35
-9755228.23 5135603.95 203.55
-9755226.53 5135605.61 206.45
-9755227.11 5135603.56 205.71
-9755228.33 5135601.60 204.61
-9755227.24 5135599.13 205.51
-9755230.05 5135605.17 203.53
-9755230.07 5135605.80 205.37
-9755226.91 5135604.34 203.77
-9755228.72 5135602.76 204.80
-9755227.18 5135599.79 204.59
-9755227.18 5135605.30 206.69
-9755230.76 5135601.96 203.69
-9755226.82 5135600.38 205.15
-9755229.18 5135603.67 204.79
-9755230.31 5135599.92 204.09
-9755228.69 5135604.06 203.53
-9755229.02 5135599.18 204.63
-9755229.49 5135601.31 204.05
-9755229.81 5135604.92 203.53
-9755226.51 5135605.19 203.62
-9755228.54 5135603.63 205.68
-9755226.21 5135607.70 206.82
-9755225.68 5135607.68 206.85
-9755221.59 5135607.63 220.86
-9755225.67 5135607.12 207.06
-9755222.71 5135606.95 208.52
-9755222.49 5135607.35 208.56
-9755222.37 5135607.29 208.64
-9755220.80 5135606.99 220.91
-9755221.10 5135606.95 220.92
-9755224.90 5135607.82 220.92
-9755226.27 5135607.93 206.82
-9755223.29 5135606.38 207.96
-9755224.77 5135607.06 207.55
-9755222.43 5135606.66 208.53
-9755224.76 5135606.70 207.46
-9755223.98 5135606.76 207.84
-9755225.00 5135606.75 207.39
-9755225.09 5135607.33 207.44
-9755224.51 5135607.65 207.76
-9755224.35 5135607.56 220.92
-9755225.36 5135607.39 207.29
-9755224.51 5135607.33 207.75
-9755225.94 5135606.77 206.90
-9755223.24 5135607.02 208.31
-9755224.82 5135607.33 207.57
-9755224.10 5135606.46 207.77
-9755223.06 5135607.28 208.45
-9755222.51 5135607.32 220.93
-9755224.04 5135607.95 220.96
-9755222.17 5135607.25 208.69
-9755222.28 5135608.47 220.94
-9755225.99 5135608.55 206.85
-9755218.38 5135609.62 220.79
-9755224.18 5135608.48 207.96
-9755222.78 5135609.25 220.89
-9755223.02 5135608.49 208.57
-9755225.75 5135608.71 221.03
-9755224.76 5135609.38 207.95
-9755225.57 5135609.68 220.96
-9755225.71 5135609.08 206.84
-9755222.14 5135608.75 220.89
-9755225.01 5135607.66 207.41
-9755221.73 5135608.43 220.90
-9755223.30 5135608.18 208.50
-9755222.95 5135608.17 208.67
-9755225.38 5135609.48 207.40
-9755225.97 5135610.03 207.40
-9755222.27 5135608.41 208.93
-9755225.02 5135608.28 207.40
-9755225.38 5135608.30 207.38
-9755223.61 5135608.27 208.36
-9755223.05 5135609.40 208.54
-9755223.72 5135608.19 208.31
-9755225.97 5135608.25 206.84
-9755220.81 5135609.36 220.88
-9755222.84 5135607.83 220.95
-9755226.04 5135608.52 220.49
-9755222.59 5135609.00 220.89
-9755223.95 5135608.81 207.96
-9755223.87 5135607.65 208.10
-9755222.81 5135608.46 220.94
-9755222.68 5135608.54 208.72
-9755222.45 5135608.69 208.83
-9755224.63 5135609.45 220.90
-9755217.14 5135606.97 220.80
-9755217.21 5135607.48 220.82
-9755218.10 5135606.97 220.85
-9755218.68 5135607.55 220.83
-9755214.27 5135606.64 220.75
-9755220.57 5135606.95 220.90
-9755214.82 5135606.32 220.78
-9755213.98 5135606.67 220.75
-9755217.33 5135606.77 220.85
-9755218.80 5135606.77 220.82
-9755213.38 5135606.37 220.74
-9755218.50 5135607.28 220.82
-9755212.80 5135607.00 220.73
-9755212.57 5135607.85 220.72
-9755212.59 5135606.71 220.74
-9755213.09 5135606.60 220.72
-9755218.76 5135607.80 220.85
-9755214.34 5135608.48 220.76
-9755214.98 5135607.87 220.78
-9755216.75 5135608.23 220.80
-9755216.41 5135607.81 220.77
-9755213.33 5135609.03 220.72
-9755216.95 5135608.48 220.83
-9755219.57 5135609.93 220.80
-9755218.05 5135609.35 220.81
-9755215.15 5135608.20 220.80
-9755215.83 5135608.37 220.81
-9755217.03 5135609.32 220.78
-9755218.67 5135609.01 220.84
-9755214.27 5135608.91 220.76
-9755212.80 5135608.68 220.71
-9755215.18 5135608.83 220.77
-9755212.18 5135607.79 220.71
-9755212.12 5135606.93 220.71
-9755210.71 5135606.67 220.70
-9755209.88 5135607.00 220.67
-9755210.23 5135606.93 220.66
-9755209.82 5135607.55 220.65
-9755211.68 5135607.29 220.68
-9755204.29 5135606.64 220.63
-9755203.25 5135607.08 220.68
-9755209.51 5135607.60 220.64
-9755208.92 5135606.88 220.63
-9755205.21 5135606.61 220.62
-9755204.56 5135606.12 220.62
-9755206.09 5135606.98 220.64
-9755208.07 5135606.89 220.65
-9755205.76 5135606.60 220.62
-9755203.37 5135607.73 220.77
-9755202.86 5135606.81 220.73
-9755204.47 5135606.55 220.61
-9755204.64 5135608.32 220.65
-9755207.49 5135608.35 220.58
-9755210.99 5135609.83 220.68
-9755204.30 5135607.80 220.62
-9755211.17 5135607.75 220.68
-9755203.88 5135607.76 220.66
-9755206.12 5135609.53 220.62
-9755212.23 5135608.11 220.72
-9755209.25 5135608.03 220.65
-9755209.32 5135608.35 220.64
-9755204.82 5135608.98 220.62
-9755211.03 5135608.71 220.68
-9755206.22 5135607.54 220.61
-9755208.89 5135609.28 220.65
-9755205.01 5135608.61 220.63
-9755206.89 5135608.75 220.58
-9755204.00 5135609.23 220.75
-9755208.09 5135607.81 220.60
-9755205.33 5135607.78 220.50
-9755211.36 5135608.93 220.66
-9755204.21 5135608.29 220.68
-9755205.84 5135608.06 220.58
-9755209.85 5135608.44 220.64
-9755222.25 5135588.29 203.31
-9755221.58 5135592.98 203.65
-9755221.63 5135588.63 204.88
-9755222.20 5135590.35 203.66
-9755220.71 5135590.07 203.65
-9755222.99 5135593.00 203.66
-9755223.22 5135592.15 203.83
-9755221.60 5135590.65 203.66
-9755222.46 5135589.80 203.66
-9755221.68 5135588.22 204.87
-9755222.45 5135590.97 203.66
-9755221.29 5135593.05 203.64
-9755222.99 5135593.89 203.64
-9755223.14 5135587.92 203.07
-9755221.00 5135590.30 203.65
-9755221.89 5135594.16 203.64
-9755221.30 5135591.84 203.65
-9755222.11 5135606.36 208.53
-9755226.28 5135605.88 206.60
-9755223.34 5135606.17 207.96
-9755224.02 5135605.49 220.98
-9755222.87 5135601.90 220.98
-9755221.70 5135601.11 207.42
-9755226.30 5135603.51 205.72
-9755222.03 5135602.54 220.91
-9755222.47 5135606.37 208.52
-9755226.17 5135599.57 205.50
-9755222.69 5135606.21 208.34
-9755221.84 5135601.73 207.43
-9755223.84 5135606.41 207.90
-9755223.99 5135600.28 207.29
-9755222.25 5135604.96 220.91
-9755223.85 5135600.71 207.43
-9755223.05 5135603.80 207.41
-9755225.12 5135600.25 205.73
-9755220.73 5135601.14 207.97
-9755223.42 5135602.65 206.85
-9755222.48 5135601.75 207.37
-9755223.07 5135605.08 207.40
-9755221.05 5135604.48 208.53
-9755222.02 5135605.21 208.48
-9755223.95 5135600.91 206.29
-9755223.99 5135602.55 221.10
-9755226.15 5135605.40 206.61
-9755220.98 5135601.06 207.97
-9755223.31 5135604.09 207.40
-9755223.14 5135603.47 220.96
-9755222.76 5135603.45 207.96
-9755221.69 5135604.51 220.90
-9755225.91 5135605.93 206.78
-9755222.82 5135601.06 220.99
-9755222.74 5135601.08 206.83
-9755224.27 5135601.16 206.84
-9755223.20 5135606.08 220.95
-9755224.17 5135603.52 206.84
-9755224.20 5135605.88 207.42
-9755225.96 5135601.82 205.72
-9755223.91 5135602.98 206.83
-9755221.00 5135594.47 203.61
-9755223.62 5135605.29 207.40
-9755221.01 5135601.98 207.97
-9755220.72 5135595.66 203.61
-9755222.71 5135605.25 207.96
-9755225.63 5135603.90 206.29
-9755221.35 5135605.20 220.90
-9755224.62 5135604.04 220.66
-9755223.62 5135600.85 206.81
-9755226.30 5135601.57 205.70
-9755225.98 5135599.76 205.69
-9755225.70 5135603.58 206.28
-9755222.95 5135598.10 204.75
-9755225.72 5135602.12 205.74
-9755225.40 5135606.43 207.17
-9755225.69 5135605.88 206.85
-9755225.73 5135600.04 205.12
-9755222.13 5135602.49 207.94
-9755223.03 5135602.56 207.40
-9755225.30 5135606.25 207.17
-9755222.15 5135605.21 208.00
-9755224.51 5135600.27 206.98
-9755223.30 5135603.53 207.40
-9755223.83 5135595.58 203.66
-9755223.82 5135603.11 221.06
-9755223.45 5135606.10 220.94
-9755223.68 5135600.99 206.33
-9755224.78 5135605.70 207.30
-9755221.85 5135602.54 207.96
-9755221.54 5135604.63 208.52
-9755223.00 5135604.71 207.93
-9755220.66 5135605.72 220.89
-9755222.01 5135605.23 220.90
-9755223.61 5135603.16 207.39
-9755225.99 5135600.89 205.70
-9755223.26 5135600.55 206.83
-9755225.68 5135600.05 205.70
-9755223.93 5135603.20 206.84
-9755223.42 5135605.30 220.92
-9755224.62 5135604.48 220.51
-9755221.31 5135602.67 207.99
-9755223.02 5135605.85 207.96
-9755222.90 5135602.81 220.96
-9755224.08 5135603.80 207.22
-9755225.10 5135604.99 206.84
-9755225.66 5135600.59 205.70
-9755225.37 5135601.23 205.70
-9755221.53 5135605.23 208.53
-9755222.14 5135601.14 207.40
-9755222.77 5135600.40 207.92
-9755226.26 5135604.74 206.28
-9755223.67 5135604.27 220.98
-9755223.36 5135600.82 207.65
-9755223.89 5135603.54 207.37
-9755225.42 5135600.01 206.62
-9755222.99 5135602.90 207.39
-9755224.15 5135604.95 207.38
-9755225.98 5135604.44 206.27
-9755225.35 5135603.53 206.29
-9755225.14 5135600.91 205.70
-9755222.17 5135602.28 207.94
-9755223.55 5135605.30 208.01
-9755222.69 5135600.84 208.00
-9755224.83 5135600.56 206.25
-9755223.40 5135603.20 220.98
-9755222.25 5135601.35 220.92
-9755222.17 5135606.15 208.54
-9755225.07 5135604.69 206.83
-9755221.50 5135605.72 208.57
-9755224.14 5135604.65 207.37
-9755224.28 5135603.50 220.66
-9755225.43 5135600.02 206.32
-9755224.47 5135603.55 206.84
-9755222.39 5135603.44 207.95
-9755222.76 5135601.12 208.00
-9755223.93 5135602.68 206.83
-9755223.92 5135605.83 207.80
-9755221.28 5135605.26 208.55
-9755223.37 5135604.92 207.71
-9755226.06 5135599.45 205.58
-9755224.02 5135603.38 221.09
-9755225.70 5135602.67 206.28
-9755223.04 5135600.52 207.83
-9755225.78 5135606.49 206.95
-9755223.87 5135605.26 207.41
-9755223.70 5135606.15 207.42
-9755223.32 5135597.46 203.65
-9755222.21 5135600.80 208.28
-9755225.87 5135599.74 205.95
-9755225.16 5135600.05 205.73
-9755225.35 5135604.20 206.31
-9755223.04 5135596.85 203.64
-9755224.97 5135600.01 206.23
-9755221.86 5135605.82 208.54
-9755225.10 5135605.30 206.85
-9755221.10 5135605.83 220.87
-9755223.29 5135598.08 203.65
-9755224.19 5135600.53 207.23
-9755223.02 5135600.38 206.85
-9755223.83 5135598.22 203.78
-9755224.84 5135605.24 221.13
-9755224.72 5135605.77 207.34
-9755223.41 5135603.98 220.98
-9755222.84 5135605.23 220.92
-9755222.38 5135603.09 220.94
-9755224.47 5135604.98 221.11
-9755222.15 5135605.78 208.53
-9755224.01 5135604.38 206.86
-9755221.81 5135605.69 208.45
-9755221.01 5135602.83 208.53
-9755221.83 5135605.25 208.51
-9755223.26 5135594.84 203.68
-9755223.94 5135604.14 207.38
-9755222.41 5135596.85 203.65
-9755221.36 5135601.08 208.17
-9755223.28 5135605.84 207.96
-9755226.01 5135600.18 205.15
-9755224.73 5135600.30 206.24
-9755223.81 5135599.16 204.79
-9755222.70 5135604.10 207.97
-9755220.97 5135597.76 203.62
-9755226.00 5135599.68 206.32
-9755225.93 5135604.11 206.27
-9755223.89 5135599.20 203.64
-9755217.50 5135591.85 203.55
-9755216.50 5135589.66 204.04
-9755217.22 5135588.59 203.66
-9755216.58 5135593.54 203.53
-9755217.46 5135590.12 203.66
-9755215.09 5135592.06 203.56
-9755220.13 5135588.58 203.66
-9755215.98 5135587.24 199.94
-9755213.94 5135589.72 204.68
-9755214.76 5135590.83 206.12
-9755217.70 5135589.50 203.60
-9755220.10 5135593.00 203.60
-9755214.96 5135591.51 203.58
-9755213.38 5135592.15 203.61
-9755218.14 5135590.94 203.60
-9755217.54 5135591.51 203.56
-9755216.84 5135592.69 203.55
-9755219.82 5135592.12 203.60
-9755216.59 5135591.82 203.57
-9755213.38 5135589.17 203.67
-9755215.98 5135588.99 199.94
-9755218.36 5135589.16 203.64
-9755213.93 5135587.82 199.93
-9755218.00 5135589.77 203.64
-9755219.23 5135592.70 203.57
-9755219.78 5135593.05 203.59
-9755220.40 5135590.34 203.64
-9755217.72 5135592.67 203.54
-9755214.24 5135589.39 203.66
-9755213.34 5135592.37 203.60
-9755218.08 5135592.40 203.55
-9755216.64 5135589.93 206.09
-9755218.33 5135591.24 203.59
-9755213.40 5135591.66 206.12
-9755218.91 5135591.82 203.59
-9755215.98 5135592.09 203.56
-9755214.77 5135592.37 203.56
-9755214.78 5135590.40 206.12
-9755219.77 5135593.91 203.57
-9755214.17 5135591.37 206.11
-9755215.19 5135590.80 206.12
-9755217.48 5135592.98 203.53
-9755216.28 5135592.70 203.55
-9755216.36 5135591.19 206.12
-9755215.39 5135591.00 206.12
-9755216.14 5135588.66 203.67
-9755216.62 5135589.14 203.63
-9755213.00 5135589.57 204.62
-9755214.80 5135593.26 203.56
-9755217.68 5135590.07 203.66
-9755216.55 5135593.87 203.52
-9755219.58 5135588.00 203.70
-9755212.80 5135589.69 204.80
-9755215.36 5135592.96 203.57
-9755220.13 5135593.92 203.59
-9755214.25 5135590.81 206.11
-9755215.41 5135591.77 203.57
-9755220.13 5135591.53 203.62
-9755215.69 5135587.23 199.94
-9755217.16 5135590.94 203.56
-9755215.41 5135592.71 203.57
-9755212.85 5135591.12 203.58
-9755216.53 5135591.39 206.08
-9755220.09 5135591.84 203.62
-9755217.45 5135590.45 206.10
-9755212.95 5135591.80 203.61
-9755218.00 5135591.21 206.05
-9755219.26 5135588.28 203.67
-9755217.74 5135592.99 203.53
-9755215.35 5135594.20 203.54
-9755213.02 5135587.81 199.93
-9755212.73 5135591.75 203.64
-9755213.27 5135591.96 206.08
-9755212.72 5135594.15 203.61
-9755216.85 5135606.66 220.80
-9755213.39 5135606.18 220.73
-9755220.65 5135601.45 208.49
-9755219.80 5135595.97 203.57
-9755220.55 5135601.68 220.97
-9755217.28 5135603.94 220.82
-9755219.82 5135595.67 203.58
-9755220.66 5135602.17 220.88
-9755213.28 5135596.17 203.58
-9755219.88 5135605.20 220.88
-9755219.90 5135603.74 220.87
-9755220.63 5135598.89 203.63
-9755218.40 5135605.17 220.85
-9755215.20 5135605.72 220.76
-9755220.07 5135599.23 203.62
-9755215.96 5135594.43 203.53
-9755213.44 5135605.09 220.76
-9755216.59 5135595.94 203.52
-9755217.42 5135606.35 220.85
-9755214.21 5135596.22 203.57
-9755213.98 5135604.91 220.81
-9755212.96 5135597.70 203.62
-9755213.29 5135595.04 203.59
-9755217.17 5135594.45 203.50
-9755214.77 5135597.72 203.58
-9755218.28 5135596.58 203.53
-9755213.31 5135597.16 203.61
-9755217.46 5135595.37 203.50
-9755215.09 5135606.01 220.77
-9755215.50 5135605.08 220.79
-9755219.32 5135604.26 220.88
-9755220.27 5135604.28 220.89
-9755214.19 5135597.13 203.59
-9755214.52 5135604.31 220.76
-9755220.11 5135595.09 203.58
-9755220.12 5135595.95 203.58
-9755217.52 5135603.64 220.84
-9755216.39 5135605.76 220.80
-9755216.56 5135597.44 203.56
-9755219.18 5135598.38 203.59
-9755212.73 5135604.82 220.75
-9755215.08 5135597.73 203.58
-9755213.03 5135597.09 203.61
-9755213.36 5135595.67 203.58
-9755216.66 5135602.76 220.85
-9755218.74 5135603.39 220.85
-9755220.41 5135601.67 208.50
-9755219.19 5135599.51 203.61
-9755218.43 5135602.91 220.87
-9755214.12 5135598.88 203.61
-9755216.82 5135595.65 203.50
-9755215.74 5135604.60 220.79
-9755214.22 5135598.30 203.60
-9755217.27 5135605.09 220.83
-9755219.90 5135604.19 220.85
-9755213.03 5135595.04 203.59
-9755215.83 5135604.85 220.81
-9755214.77 5135598.05 203.59
-9755218.28 5135599.20 203.60
-9755216.54 5135596.19 203.53
-9755212.75 5135605.75 220.75
-9755219.21 5135595.08 203.55
-9755217.17 5135595.39 203.50
-9755215.68 5135595.64 203.54
-9755220.05 5135596.86 203.60
-9755214.52 5135594.46 203.55
-9755212.74 5135596.20 203.60
-9755220.16 5135603.47 220.90
-9755215.99 5135605.47 220.82
-9755219.77 5135595.05 203.58
-9755213.02 5135599.48 203.64
-9755219.21 5135597.16 203.58
-9755219.77 5135598.04 203.61
-9755219.22 5135598.05 203.58
-9755219.18 5135599.74 203.61
-9755214.42 5135598.32 203.60
-9755218.02 5135598.33 203.58
-9755218.13 5135602.05 220.91
-9755219.22 5135596.21 203.55
-9755217.48 5135604.70 220.81
-9755220.49 5135601.95 220.89
-9755218.02 5135596.82 203.55
-9755215.52 5135603.15 220.86
-9755213.71 5135604.51 220.79
-9755217.69 5135597.69 203.56
-9755217.13 5135598.35 203.58
-9755218.02 5135606.07 220.83
-9755216.27 5135595.09 203.51
-9755217.41 5135596.24 203.52
-9755215.72 5135603.09 220.87
-9755212.42 5135595.60 203.60
-9755212.23 5135605.85 220.68
-9755212.40 5135597.96 203.62
-9755212.28 5135604.57 220.76
-9755212.40 5135590.74 206.08
-9755206.88 5135588.60 205.75
-9755206.62 5135587.94 208.09
-9755206.67 5135587.63 208.02
-9755208.36 5135591.84 201.84
-9755206.60 5135587.05 207.55
-9755212.14 5135587.18 199.92
-9755200.34 5135592.01 203.62
-9755207.35 5135592.40 202.44
-9755206.67 5135587.18 205.95
-9755206.64 5135587.48 205.96
-9755210.92 5135588.40 199.92
-9755201.85 5135588.30 200.11
-9755206.80 5135588.11 205.30
-9755206.56 5135588.61 208.09
-9755206.69 5135587.97 206.77
-9755206.59 5135588.77 205.92
-9755206.82 5135587.87 204.89
-9755208.97 5135589.98 203.78
-9755206.68 5135587.48 207.40
-9755206.68 5135589.78 208.02
-9755206.74 5135589.23 205.16
-9755206.57 5135588.72 204.79
-9755204.22 5135591.76 203.65
-9755204.77 5135590.28 203.66
-9755200.37 5135592.30 203.62
-9755206.86 5135590.26 203.70
-9755207.38 5135593.68 201.16
-9755209.50 5135593.61 202.51
-9755205.65 5135588.64 200.05
-9755212.43 5135590.95 204.05
-9755208.03 5135592.78 201.45
-9755201.83 5135590.18 200.14
-9755206.92 5135590.09 206.39
-9755208.35 5135588.05 200.00
-9755211.83 5135587.76 199.92
-9755206.66 5135587.22 207.04
-9755206.54 5135593.80 203.65
-9755206.66 5135589.40 208.09
-9755207.43 5135592.22 202.59
-9755208.29 5135593.96 200.97
-9755209.17 5135588.68 199.99
-9755200.70 5135590.20 204.28
-9755204.42 5135589.98 203.76
-9755206.51 5135588.21 209.91
-9755201.82 5135588.94 200.09
-9755206.94 5135588.52 207.23
-9755206.82 5135588.43 205.75
-9755206.73 5135588.34 205.75
-9755207.80 5135590.24 203.73
-9755200.95 5135587.29 204.31
-9755206.84 5135589.73 203.82
-9755200.99 5135589.95 204.30
-9755206.60 5135589.05 203.62
-9755209.46 5135587.20 199.99
-9755207.77 5135592.16 201.79
-9755201.83 5135591.12 203.65
-9755206.94 5135588.94 207.02
-9755208.52 5135590.31 202.91
-9755200.10 5135591.41 203.63
-9755206.61 5135587.72 210.72
-9755200.96 5135593.53 203.62
-9755207.00 5135588.40 206.35
-9755208.60 5135590.67 201.85
-9755201.54 5135588.92 200.12
-9755201.57 5135590.85 203.64
-9755201.16 5135587.78 200.30
-9755206.80 5135589.49 204.00
-9755208.70 5135592.11 202.82
-9755201.10 5135590.21 204.30
-9755208.32 5135587.45 200.01
-9755206.70 5135587.96 206.47
-9755206.55 5135589.71 204.71
-9755206.74 5135587.01 205.64
-9755211.63 5135593.56 203.64
-9755207.14 5135590.17 203.75
-9755201.49 5135589.23 200.14
-9755209.46 5135592.72 202.18
-9755206.66 5135588.97 204.58
-9755206.48 5135589.63 204.95
-9755206.94 5135589.38 207.93
-9755206.86 5135589.87 204.39
-9755206.60 5135588.59 207.70
-9755206.82 5135587.46 200.02
-9755208.88 5135592.43 201.64
-9755202.11 5135587.77 200.08
-9755201.57 5135589.20 200.12
-9755201.26 5135589.51 200.31
-9755206.83 5135589.60 204.64
-9755206.93 5135590.24 204.87
-9755207.68 5135588.36 200.01
-9755205.36 5135592.61 203.64
-9755206.94 5135589.43 207.12
-9755209.25 5135594.13 202.78
-9755206.63 5135587.78 207.76
-9755208.34 5135592.45 201.64
-9755206.86 5135590.28 204.34
-9755206.67 5135589.53 205.88
-9755206.84 5135591.27 201.88
-9755206.81 5135588.52 208.02
-9755206.74 5135588.04 206.23
-9755207.37 5135587.46 200.01
-9755201.53 5135593.48 203.61
-9755204.82 5135591.11 203.66
-9755206.36 5135587.66 208.13
-9755206.97 5135589.29 207.96
-9755207.08 5135592.99 202.58
-9755206.90 5135589.60 205.52
-9755206.56 5135587.18 205.38
-9755207.15 5135587.16 200.01
-9755207.47 5135590.34 201.84
-9755206.74 5135589.65 204.02
-9755201.53 5135589.54 200.15
-9755203.31 5135593.19 203.63
-9755211.19 5135593.77 204.74
-9755206.85 5135589.15 206.74
-9755206.89 5135590.53 203.68
-9755201.60 5135590.00 203.94
-9755207.42 5135592.55 201.53
-9755209.19 5135590.65 201.85
-9755202.54 5135590.73 204.76
-9755206.94 5135589.04 204.97
-9755205.38 5135588.65 200.07
-9755207.14 5135592.72 202.64
-9755201.53 5135593.79 203.61
-9755206.54 5135589.24 200.03
-9755208.05 5135593.55 201.16
-9755207.77 5135593.95 201.02
-9755209.64 5135590.23 202.79
-9755207.01 5135588.95 206.65
-9755206.77 5135588.04 207.70
-9755201.21 5135587.79 200.24
-9755206.84 5135588.67 206.42
-9755209.75 5135588.36 199.98
-9755204.79 5135593.48 203.63
-9755201.83 5135590.86 203.66
-9755206.98 5135592.35 204.76
-9755200.32 5135593.76 203.62
-9755208.60 5135587.19 200.01
-9755203.07 5135591.18 203.65
-9755200.64 5135592.92 203.63
-9755204.19 5135590.83 203.65
-9755206.90 5135588.07 207.49
-9755201.21 5135589.69 204.34
-9755204.49 5135591.18 203.65
-9755206.89 5135589.20 207.43
-9755208.38 5135588.96 199.99
-9755206.86 5135587.98 207.59
-9755206.57 5135588.29 208.11
-9755206.71 5135588.74 205.64
-9755201.51 5135593.19 203.62
-9755206.59 5135587.37 207.70
-9755206.64 5135589.55 206.02
-9755201.49 5135590.18 202.63
-9755206.81 5135589.53 206.83
-9755207.38 5135593.55 203.63
-9755206.15 5135591.04 200.03
-9755206.86 5135588.38 200.02
-9755201.24 5135587.94 200.19
-9755207.74 5135591.27 201.84
-9755211.03 5135592.96 203.59
-9755204.49 5135593.80 203.63
-9755202.72 5135593.83 203.62
-9755210.34 5135592.40 202.06
-9755206.78 5135588.75 203.90
-9755205.38 5135590.53 203.66
-9755200.90 5135590.54 203.68
-9755212.20 5135594.15 203.63
-9755205.11 5135587.76 200.06
-9755212.11 5135592.64 203.62
-9755209.22 5135591.58 201.85
-9755205.09 5135591.15 203.64
-9755199.49 5135593.80 203.61
-9755202.11 5135594.38 203.60
-9755212.14 5135599.20 203.63
-9755206.50 5135599.42 203.63
-9755199.78 5135593.78 203.61
-9755210.36 5135599.45 203.55
-9755202.13 5135595.29 203.58
-9755205.66 5135598.26 203.62
-9755207.47 5135594.05 201.01
-9755211.02 5135606.29 220.69
-9755211.25 5135606.04 220.69
-9755200.91 5135601.78 203.58
-9755199.39 5135602.36 203.60
-9755207.41 5135600.31 203.65
-9755202.67 5135600.59 203.59
-9755206.79 5135600.04 203.64
-9755201.49 5135602.67 203.60
-9755209.13 5135598.88 203.60
-9755199.39 5135601.80 203.59
-9755210.94 5135598.31 203.59
-9755206.83 5135594.58 199.97
-9755207.43 5135600.02 203.64
-9755199.47 5135594.94 203.59
-9755202.06 5135602.05 203.60
-9755209.87 5135606.05 220.68
-9755202.66 5135602.09 203.61
-9755202.10 5135596.13 203.57
-9755203.52 5135601.81 203.61
-9755208.02 5135594.58 200.67
-9755208.42 5135605.08 220.65
-9755206.81 5135597.37 203.64
-9755207.64 5135600.31 203.65
-9755203.55 5135597.61 203.59
-9755201.16 5135601.76 203.59
-9755211.92 5135604.52 220.73
-9755206.52 5135593.69 200.02
-9755207.12 5135594.38 203.65
-9755205.92 5135598.83 203.63
-9755202.69 5135596.75 203.58
-9755200.36 5135595.57 203.60
-9755210.62 5135599.77 203.57
-9755205.31 5135599.13 203.61
-9755210.01 5135598.26 203.60
-9755203.28 5135596.18 203.58
-9755205.36 5135596.75 203.63
-9755203.55 5135598.23 203.60
-9755205.89 5135599.13 203.63
-9755205.32 5135597.64 203.62
-9755209.48 5135599.45 203.58
-9755199.74 5135595.24 203.59
-9755203.56 5135598.83 203.60
-9755211.22 5135599.16 203.60
-9755202.69 5135599.96 203.58
-9755211.07 5135605.77 220.67
-9755202.36 5135598.25 203.58
-9755207.42 5135596.76 203.64
-9755211.83 5135598.58 203.62
-9755209.18 5135598.61 203.59
-9755204.67 5135597.86 205.46
-9755203.88 5135595.01 203.62
-9755202.37 5135597.05 203.58
-9755200.91 5135602.08 203.59
-9755200.63 5135597.61 203.56
-9755199.73 5135600.01 203.57
-9755204.97 5135605.44 220.50
-9755200.90 5135600.04 203.57
-9755206.51 5135597.68 203.64
-9755204.41 5135600.31 203.61
-9755202.65 5135601.49 203.59
-9755206.82 5135596.82 203.64
-9755201.78 5135600.89 203.59
-9755204.41 5135601.23 203.61
-9755200.63 5135594.65 203.59
-9755210.09 5135594.75 203.16
-9755210.67 5135595.04 203.18
-9755209.17 5135600.07 203.58
-9755203.29 5135597.32 203.59
-9755202.72 5135597.35 203.57
-9755200.90 5135595.24 203.59
-9755201.74 5135599.11 203.59
-9755209.78 5135596.40 204.52
-9755206.78 5135598.83 203.63
-9755212.13 5135595.00 203.62
-9755204.45 5135596.53 203.60
-9755203.24 5135602.09 203.61
-9755201.49 5135601.77 203.59
-9755205.36 5135600.93 203.62
-9755202.37 5135597.96 203.58
-9755207.71 5135597.97 203.63
-9755204.53 5135597.59 205.58
-9755210.65 5135598.25 203.59
-9755201.78 5135599.75 203.57
-9755206.82 5135595.30 203.64
-9755201.51 5135597.92 203.57
-9755202.64 5135601.79 203.59
-9755201.75 5135602.35 203.60
-9755202.08 5135601.23 203.59
-9755200.36 5135594.37 203.60
-9755209.20 5135598.27 203.61
-9755210.07 5135598.86 203.57
-9755199.76 5135596.12 203.59
-9755205.66 5135594.98 203.63
-9755207.74 5135595.66 203.62
-9755208.63 5135605.13 220.65
-9755206.56 5135594.71 203.65
-9755211.39 5135605.39 220.68
-9755203.87 5135599.15 203.60
-9755211.54 5135598.60 203.61
-9755206.57 5135605.67 220.63
-9755205.00 5135599.76 203.60
-9755207.64 5135595.89 203.66
-9755199.71 5135597.05 203.57
-9755208.03 5135594.20 200.88
-9755210.03 5135594.50 202.96
-9755211.58 5135596.22 203.63
-9755209.18 5135597.38 203.63
-9755209.60 5135605.12 220.70
-9755213.34 5135586.93 199.92
-9755215.32 5135585.50 199.96
-9755214.50 5135586.05 199.93
-9755216.26 5135586.98 199.95
-9755213.33 5135584.87 199.92
-9755213.35 5135585.75 199.92
-9755213.95 5135585.44 199.92
-9755213.39 5135583.91 199.99
-9755215.09 5135586.64 199.94
-9755214.82 5135586.66 199.93
-9755214.53 5135586.93 199.93
-9755213.03 5135585.43 199.92
-9755212.45 5135585.44 199.91
-9755208.96 5135586.89 199.98
-9755209.77 5135586.91 199.97
-9755209.81 5135583.32 199.92
-9755206.51 5135585.77 205.38
-9755206.84 5135587.74 207.40
-9755206.48 5135585.81 205.52
-9755205.97 5135584.81 200.03
-9755205.99 5135583.45 206.53
-9755206.38 5135585.28 207.84
-9755205.90 5135582.97 207.81
-9755206.30 5135584.79 207.40
-9755202.16 5135586.88 200.07
-9755209.77 5135586.32 199.96
-9755205.95 5135583.81 207.85
-9755201.57 5135586.82 200.08
-9755207.48 5135582.11 199.97
-9755206.27 5135582.78 200.01
-9755206.19 5135585.35 206.08
-9755206.20 5135583.76 205.35
-9755206.00 5135583.58 200.02
-9755206.00 5135583.59 206.34
-9755206.37 5135586.14 207.99
-9755206.49 5135585.06 204.93
-9755208.96 5135582.21 199.94
-9755205.78 5135582.36 207.43
-9755202.75 5135585.44 200.07
-9755206.01 5135586.45 208.23
-9755205.76 5135582.59 207.43
-9755205.93 5135582.09 205.49
-9755205.52 5135582.87 208.16
-9755206.48 5135584.82 204.90
-9755208.94 5135583.03 199.96
-9755206.25 5135583.94 205.72
-9755205.08 5135585.33 207.59
-9755206.43 5135585.58 207.32
-9755206.08 5135582.77 207.26
-9755206.18 5135584.86 207.40
-9755206.00 5135584.36 207.89
-9755206.22 5135585.26 204.69
-9755209.18 5135586.32 199.98
-9755206.64 5135582.74 200.00
-9755205.57 5135582.90 210.61
-9755206.54 5135586.78 210.66
-9755206.14 5135584.07 207.33
-9755200.90 5135586.36 204.32
-9755206.34 5135584.96 205.74
-9755205.94 5135583.88 208.02
-9755206.03 5135583.03 207.49
-9755206.08 5135583.82 206.34
-9755206.46 5135586.76 205.87
-9755207.99 5135583.63 199.97
-9755208.91 5135585.42 199.98
-9755206.21 5135583.81 206.15
-9755206.61 5135586.59 207.40
-9755206.86 5135583.93 200.00
-9755206.23 5135585.36 207.54
-9755206.16 5135583.11 205.74
-9755206.09 5135585.82 204.42
-9755207.72 5135586.58 200.02
-9755206.30 5135583.37 204.78
-9755207.17 5135583.89 199.99
-9755208.97 5135585.10 199.98
-9755211.53 5135586.90 199.93
-9755206.09 5135584.14 207.45
-9755211.85 5135585.43 199.92
-9755205.84 5135585.23 208.45
-9755206.23 5135586.75 208.18
-9755206.26 5135586.27 200.03
-9755206.84 5135585.42 200.02
-9755206.54 5135585.67 206.49
-9755206.02 5135582.50 205.59
-9755205.89 5135584.11 208.04
-9755205.70 5135582.15 200.03
-9755200.67 5135584.09 202.02
-9755206.53 5135585.40 205.28
-9755205.07 5135582.45 200.04
-9755207.71 5135582.16 199.97
-9755206.12 5135586.31 208.06
-9755212.44 5135584.83 199.91
-9755206.03 5135583.56 206.97
-9755205.76 5135582.13 207.22
-9755212.15 5135586.04 199.91
-9755204.18 5135585.39 200.07
-9755206.27 5135583.66 206.73
-9755206.10 5135585.06 207.11
-9755205.72 5135583.74 205.81
-9755200.98 5135585.32 200.18
-9755206.01 5135582.10 207.07
-9755206.05 5135583.58 206.88
-9755208.56 5135585.36 199.99
-9755205.71 5135583.60 208.42
-9755200.33 5135582.93 200.25
-9755206.43 5135586.03 207.12
-9755211.81 5135583.07 199.85
-9755208.64 5135584.50 199.98
-9755206.54 5135586.74 207.01
-9755205.67 5135583.01 211.40
-9755206.11 5135584.96 207.35
-9755200.92 5135585.90 200.16
-9755206.61 5135585.87 206.49
-9755209.50 5135585.11 199.95
-9755210.15 5135583.99 199.92
-9755205.08 5135584.79 200.03
-9755206.26 5135585.35 207.03
-9755210.95 5135585.72 199.92
-9755210.10 5135584.56 199.92
-9755208.06 5135582.16 199.97
-9755200.05 5135585.94 200.24
-9755209.81 5135582.78 199.92
-9755207.19 5135586.86 200.00
-9755205.86 5135582.64 207.86
-9755207.44 5135585.10 200.00
-9755206.50 5135585.97 206.01
-9755206.40 5135585.11 207.03
-9755206.32 5135584.23 204.79
-9755209.99 5135586.01 200.36
-9755210.94 5135586.91 199.93
-9755206.54 5135585.46 205.51
-9755205.83 5135582.23 206.23
-9755205.51 5135582.34 208.38
-9755206.02 5135583.85 207.37
-9755206.28 5135582.75 205.58
-9755206.00 5135583.09 206.76
-9755205.75 5135582.62 208.11
-9755206.47 5135585.13 205.74
-9755206.22 5135583.72 207.29
-9755206.50 5135586.63 208.01
-9755206.28 5135585.58 207.87
-9755206.48 5135585.79 203.75
-9755201.76 5135585.95 200.08
-9755206.01 5135582.68 207.42
-9755207.14 5135585.99 200.01
-9755206.02 5135582.34 207.18
-9755206.55 5135585.54 207.83
-9755201.22 5135586.28 200.10
-9755205.95 5135583.15 207.14
-9755209.82 5135582.18 199.92
-9755200.93 5135585.67 200.21
-9755206.02 5135583.80 206.90
-9755201.53 5135585.13 200.12
-9755206.37 5135585.02 207.11
-9755208.60 5135586.28 199.99
-9755211.30 5135583.05 199.93
-9755206.33 5135586.49 208.00
-9755211.86 5135584.29 199.92
-9755201.51 5135586.26 200.09
-9755206.11 5135585.09 207.86
-9755206.10 5135585.50 208.11
-9755210.69 5135583.66 199.92
-9755205.93 5135586.01 200.02
-9755206.14 5135583.25 206.97
-9755206.89 5135582.73 200.00
-9755206.51 5135585.12 205.28
-9755206.62 5135586.78 206.37
-9755206.55 5135585.40 200.02
-9755205.82 5135583.18 208.05
-9755206.20 5135583.15 205.74
-9755206.54 5135586.76 207.53
-9755206.37 5135585.60 204.09
-9755206.56 5135586.45 207.69
-9755206.33 5135585.96 208.09
-9755206.29 5135583.94 206.72
-9755208.64 5135582.75 199.97
-9755205.69 5135583.33 200.02
-9755201.81 5135586.56 200.08
-9755201.30 5135585.14 200.12
-9755206.38 5135586.86 207.54
-9755200.98 5135586.18 201.36
-9755206.10 5135586.48 211.01
-9755205.95 5135582.19 205.05
-9755205.94 5135586.59 200.03
-9755207.45 5135584.78 199.99
-9755205.94 5135582.67 207.81
-9755205.79 5135583.60 208.04
-9755206.07 5135585.26 207.91
-9755205.94 5135582.24 204.78
-9755208.04 5135583.91 199.98
-9755204.50 5135583.87 200.06
-9755204.48 5135582.14 200.05
-9755206.32 5135585.77 207.29
-9755207.46 5135586.60 200.00
-9755206.53 5135586.31 207.91
-9755206.33 5135584.85 206.69
-9755204.77 5135584.23 200.06
-9755206.06 5135583.20 206.90
-9755206.46 5135585.76 205.89
-9755206.27 5135584.72 205.98
-9755205.87 5135582.92 207.93
-9755209.74 5135586.29 200.41
-9755211.85 5135586.33 199.92
-9755206.51 5135585.32 206.84
-9755206.19 5135584.39 207.09
-9755205.95 5135583.64 207.91
-9755206.49 5135585.19 206.19
-9755209.22 5135584.27 199.98
-9755210.68 5135584.83 199.92
-9755207.47 5135582.50 199.97
-9755210.70 5135583.05 199.94
-9755210.07 5135586.60 199.94
-9755196.16 5135606.48 203.65
-9755196.09 5135607.33 203.65
-9755197.91 5135607.44 203.67
-9755195.56 5135607.40 203.64
-9755195.00 5135607.69 203.66
-9755194.97 5135607.36 203.66
-9755195.32 5135607.62 203.66
-9755196.14 5135608.00 203.65
-9755195.00 5135609.15 203.68
-9755196.74 5135608.27 203.64
-9755196.71 5135608.86 203.64
-9755195.24 5135608.87 203.67
-9755195.12 5135608.70 204.21
-9755196.13 5135608.27 203.65
-9755194.65 5135608.54 203.66
-9755193.89 5135607.71 203.71
-9755199.47 5135593.48 203.62
-9755199.45 5135588.90 200.26
-9755196.81 5135588.03 200.14
-9755197.07 5135588.58 200.18
-9755197.12 5135587.10 200.12
-9755193.88 5135590.34 200.28
-9755198.02 5135588.57 200.20
-9755198.59 5135592.89 203.63
-9755199.19 5135587.01 201.32
-9755198.34 5135590.08 200.27
-9755198.27 5135591.97 203.65
-9755193.65 5135591.80 204.73
-9755194.14 5135593.72 203.63
-9755195.92 5135591.98 203.64
-9755196.79 5135591.41 203.72
-9755196.58 5135591.02 204.66
-9755197.41 5135588.62 200.19
-9755194.39 5135588.59 200.23
-9755195.29 5135587.13 200.17
-9755199.17 5135592.27 203.64
-9755197.08 5135592.01 203.63
-9755194.16 5135587.39 200.21
-9755199.07 5135590.79 203.79
-9755198.89 5135591.73 203.64
-9755195.07 5135587.71 200.21
-9755198.89 5135588.61 200.23
-9755195.72 5135587.57 201.69
-9755196.84 5135590.58 203.47
-9755196.81 5135588.63 200.18
-9755194.18 5135588.83 200.24
-9755193.57 5135590.64 200.30
-9755193.57 5135593.13 203.64
-9755197.37 5135587.99 200.15
-9755193.58 5135588.25 200.24
-9755193.63 5135590.02 200.28
-9755199.15 5135589.15 200.25
-9755195.96 5135593.21 203.64
-9755198.59 5135591.68 203.65
-9755198.62 5135589.49 200.25
-9755195.29 5135591.68 203.66
-9755196.82 5135589.17 200.21
-9755198.30 5135593.77 203.62
-9755197.42 5135591.71 203.64
-9755193.26 5135592.52 203.63
-9755194.19 5135592.26 203.65
-9755198.87 5135593.48 203.63
-9755196.79 5135593.76 203.62
-9755194.38 5135587.03 201.61
-9755193.52 5135589.79 200.28
-9755199.44 5135598.49 203.57
-9755199.14 5135599.12 203.57
-9755199.15 5135600.01 203.58
-9755199.14 5135600.25 203.58
-9755199.18 5135595.53 203.58
-9755197.63 5135602.05 203.62
-9755194.44 5135601.19 203.62
-9755193.12 5135598.64 204.76
-9755193.80 5135605.89 204.83
-9755194.95 5135604.97 203.64
-9755196.13 5135603.49 203.63
-9755193.58 5135597.61 203.63
-9755198.22 5135602.08 203.59
-9755195.60 5135596.70 203.60
-9755194.47 5135604.82 204.93
-9755195.53 5135605.28 203.64
-9755194.73 5135595.23 203.62
-9755197.40 5135599.11 203.59
-9755196.49 5135602.06 203.63
-9755193.55 5135596.69 203.63
-9755198.22 5135601.19 203.61
-9755194.42 5135595.53 203.63
-9755194.74 5135601.75 203.61
-9755197.05 5135602.34 203.63
-9755194.45 5135594.62 203.62
-9755197.05 5135597.90 203.60
-9755193.53 5135601.96 204.76
-9755199.16 5135597.06 203.58
-9755194.03 5135603.39 204.75
-9755195.00 5135598.48 203.60
-9755194.09 5135598.17 203.63
-9755198.53 5135597.91 203.58
-9755195.56 5135605.89 203.64
-9755198.21 5135602.32 203.60
-9755197.97 5135599.38 203.59
-9755197.35 5135595.50 203.60
-9755193.88 5135595.25 203.63
-9755194.16 5135600.02 203.62
-9755194.98 5135603.53 203.63
-9755194.77 5135594.30 203.62
-9755195.55 5135603.53 203.63
-9755197.93 5135600.29 203.59
-9755195.03 5135595.83 203.62
-9755194.71 5135598.79 203.62
-9755196.49 5135595.85 203.61
-9755195.04 5135595.21 203.62
-9755193.89 5135605.38 204.83
-9755193.86 5135595.85 203.64
-9755196.78 5135597.59 203.59
-9755198.87 5135596.15 203.59
-9755195.29 5135601.77 203.62
-9755197.73 5135597.66 203.58
-9755195.87 5135601.16 203.61
-9755198.55 5135597.60 203.58
-9755194.12 5135601.73 203.64
-9755194.37 5135601.73 203.63
-9755197.98 5135599.97 203.59
-9755195.92 5135595.24 203.61
-9755194.14 5135599.10 203.63
-9755194.44 5135596.40 203.63
-9755196.48 5135597.00 203.59
-9755194.19 5135597.84 203.62
-9755196.48 5135603.51 203.62
-9755198.81 5135601.77 203.59
-9755199.13 5135599.69 203.58
-9755194.41 5135600.28 203.63
-9755193.85 5135597.00 203.62
-9755194.38 5135599.06 203.63
-9755197.42 5135594.94 203.61
-9755194.99 5135605.89 203.64
-9755197.97 5135597.01 203.59
-9755195.36 5135594.68 203.62
-9755194.22 5135602.68 203.63
-9755196.82 5135594.70 203.61
-9755198.56 5135600.57 203.59
-9755198.58 5135596.11 203.59
-9755198.26 5135595.25 203.60
-9755195.01 5135597.03 203.62
-9755194.27 5135602.33 203.74
-9755194.73 5135596.72 203.62
-9755198.26 5135598.77 203.59
-9755198.22 5135601.46 203.60
-9755198.28 5135599.70 203.58
-9755198.22 5135603.22 203.62
-9755193.61 5135594.95 203.63
-9755198.87 5135596.71 203.58
-9755197.08 5135595.21 203.60
-9755195.29 5135602.92 203.63
-9755195.59 5135601.14 203.62
-9755193.88 5135605.40 204.83
-9755197.98 5135595.88 203.60
-9755193.29 5135594.58 203.64
-9755195.56 5135604.12 203.63
-9755192.94 5135590.34 200.30
-9755192.18 5135591.96 204.78
-9755192.77 5135592.18 203.65
-9755192.64 5135587.34 200.26
-9755192.96 5135590.42 204.32
-9755192.68 5135588.89 200.28
-9755192.63 5135589.73 200.30
-9755192.98 5135588.91 200.26
-9755192.70 5135589.15 200.28
-9755192.69 5135587.13 200.25
-9755192.67 5135588.36 200.27
-9755192.53 5135588.85 204.27
-9755192.08 5135587.68 200.31
-9755192.96 5135590.06 200.30
-9755192.28 5135593.70 204.76
-9755192.41 5135588.53 200.29
-9755192.38 5135589.27 204.07
-9755191.74 5135589.52 200.31
-9755193.00 5135598.16 203.66
-9755192.59 5135596.93 203.74
-9755192.97 5135594.32 204.65
-9755192.52 5135587.17 204.42
-9755199.54 5135582.98 200.22
-9755200.10 5135584.07 201.67
-9755193.24 5135586.82 200.22
-9755195.11 5135586.77 200.18
-9755197.40 5135585.34 200.07
-9755196.88 5135585.02 200.06
-9755194.16 5135586.98 201.61
-9755195.08 5135582.42 200.16
-9755194.76 5135582.94 200.16
-9755197.71 5135585.64 200.07
-9755197.08 5135582.97 200.11
-9755195.09 5135583.56 200.14
-9755194.48 5135584.38 201.42
-9755198.90 5135586.19 201.98
-9755198.28 5135585.06 200.10
-9755196.54 5135585.36 200.07
-9755197.39 5135585.69 200.06
-9755196.33 5135584.71 201.50
-9755196.78 5135585.31 200.07
-9755199.19 5135584.51 204.25
-9755198.54 5135586.27 200.14
-9755194.20 5135584.64 201.42
-9755196.80 5135585.01 201.61
-9755195.04 5135586.69 201.72
-9755196.57 5135582.08 200.11
-9755198.05 5135582.09 200.17
-9755197.44 5135583.51 200.11
-9755196.78 5135585.24 201.61
-9755193.57 5135584.14 200.22
-9755195.32 5135586.22 200.10
-9755196.50 5135585.01 201.61
-9755194.70 5135585.92 200.16
-9755197.94 5135586.82 200.12
-9755196.91 5135584.75 204.60
-9755193.63 5135582.64 200.21
-9755196.83 5135584.19 200.07
-9755194.17 5135582.64 200.20
-9755194.79 5135584.04 200.72
-9755193.58 5135582.36 200.21
-9755197.66 5135585.30 204.25
-9755196.60 5135586.42 202.03
-9755194.20 5135583.23 200.19
-9755197.42 5135582.09 200.14
-9755193.59 5135586.19 200.21
-9755197.11 5135585.35 200.05
-9755198.34 5135584.16 200.13
-9755198.64 5135583.56 200.14
-9755196.26 5135583.61 200.11
-9755194.48 5135582.97 200.17
-9755193.33 5135585.32 200.23
-9755192.98 5135582.95 200.22
-9755193.24 5135586.20 200.23
-9755192.72 5135582.44 200.23
-9755192.42 5135585.17 200.28
-9755192.15 5135582.90 200.27
-9755191.89 5135582.35 200.28
-9755192.70 5135585.00 200.26
-9755192.67 5135583.79 200.25
-9755192.45 5135586.18 200.28
-9755192.40 5135583.57 200.27
-9755192.42 5135582.96 200.25
-9755191.82 5135585.26 200.30
-9755192.21 5135586.12 204.44
-9755192.33 5135583.69 204.26
-9755191.76 5135582.87 200.29
-9755192.02 5135583.55 200.28
-9755191.49 5135582.64 204.46
-9755191.75 5135582.59 200.30
-9755191.48 5135582.83 204.59
-9755205.73 5135582.08 208.07
-9755205.78 5135581.80 206.31
-9755205.96 5135582.09 207.58
-9755205.77 5135581.89 206.69
-9755205.78 5135582.04 207.68
-9755205.75 5135581.70 208.08
-9755205.47 5135580.35 206.38
-9755205.05 5135576.55 206.29
-9755204.78 5135576.34 208.27
-9755205.13 5135576.36 204.89
-9755205.19 5135578.31 206.91
-9755205.27 5135577.87 206.91
-9755204.94 5135575.60 206.44
-9755205.11 5135578.90 200.04
-9755204.92 5135576.26 211.63
-9755205.27 5135576.87 205.42
-9755205.03 5135576.43 207.48
-9755205.28 5135577.29 206.96
-9755204.88 5135576.47 207.87
-9755205.30 5135578.53 206.91
-9755203.69 5135576.21 200.05
-9755204.57 5135579.76 200.05
-9755205.25 5135578.01 206.26
-9755205.15 5135577.41 200.03
-9755205.51 5135580.32 207.10
-9755204.91 5135576.82 211.59
-9755202.08 5135579.68 200.08
-9755205.22 5135578.65 204.59
-9755205.12 5135576.37 205.36
-9755205.45 5135578.00 206.89
-9755205.28 5135577.67 206.75
-9755204.92 5135576.81 204.31
-9755205.33 5135576.24 206.40
-9755204.97 5135575.61 205.56
-9755204.98 5135576.42 208.15
-9755200.49 5135576.24 200.19
-9755205.27 5135578.85 207.58
-9755205.12 5135577.27 204.08
-9755205.16 5135577.14 207.88
-9755206.61 5135580.07 199.99
-9755204.95 5135576.12 208.15
-9755206.90 5135580.38 199.98
-9755205.12 5135577.27 207.40
-9755205.74 5135580.06 212.10
-9755205.50 5135578.16 206.39
-9755205.43 5135577.98 206.05
-9755201.51 5135577.16 203.82
-9755205.48 5135578.33 204.82
-9755205.25 5135579.93 208.84
-9755205.10 5135580.05 200.04
-9755204.84 5135576.24 205.79
-9755205.24 5135578.07 204.92
-9755204.97 5135576.77 207.69
-9755205.66 5135579.84 206.11
-9755205.15 5135576.43 205.38
-9755205.05 5135575.64 205.20
-9755204.94 5135575.58 208.10
-9755205.31 5135578.55 207.73
-9755204.50 5135578.58 200.05
-9755205.45 5135577.34 208.03
-9755205.00 5135576.15 206.11
-9755205.42 5135578.61 206.96
-9755205.03 5135576.77 207.32
-9755205.03 5135577.93 207.56
-9755204.92 5135575.62 200.02
-9755201.57 5135577.92 203.66
-9755204.88 5135575.73 204.84
-9755205.39 5135578.86 206.81
-9755201.55 5135578.32 204.02
-9755205.66 5135580.38 205.89
-9755203.94 5135579.39 200.06
-9755205.49 5135579.10 207.32
-9755205.21 5135578.76 208.20
-9755205.23 5135576.89 206.38
-9755205.17 5135577.73 207.57
-9755204.98 5135576.12 207.89
-9755205.16 5135576.30 206.29
-9755205.17 5135577.30 207.90
-9755205.41 5135577.23 204.77
-9755204.95 5135575.62 206.98
-9755201.41 5135578.90 204.12
-9755205.58 5135578.62 205.79
-9755205.23 5135578.93 203.97
-9755204.93 5135575.53 207.72
-9755204.22 5135578.57 200.05
-9755204.84 5135577.93 200.05
-9755205.20 5135577.05 207.49
-9755204.97 5135575.93 206.50
-9755205.55 5135578.12 204.89
-9755205.47 5135577.32 204.76
-9755205.33 5135577.47 205.52
-9755205.40 5135579.15 207.16
-9755204.94 5135578.91 211.48
-9755205.10 5135575.69 205.56
-9755205.19 5135577.53 207.76
-9755204.85 5135577.15 200.03
-9755201.69 5135578.94 204.08
-9755205.15 5135576.74 205.30
-9755205.12 5135577.43 211.57
-9755204.97 5135577.16 205.41
-9755204.86 5135576.29 201.05
-9755205.45 5135579.70 206.77
-9755205.26 5135578.35 207.73
-9755205.11 5135578.29 200.03
-9755205.35 5135578.77 203.81
-9755204.96 5135575.89 208.05
-9755201.58 5135579.39 204.28
-9755205.17 5135576.99 206.02
-9755205.44 5135577.84 205.04
-9755205.19 5135577.76 206.09
-9755205.44 5135579.65 203.71
-9755201.70 5135577.90 204.18
-9755205.40 5135578.94 205.14
-9755204.90 5135577.33 208.40
-9755205.07 5135579.88 206.96
-9755201.67 5135577.66 200.11
-9755204.67 5135575.51 208.18
-9755201.33 5135578.70 204.10
-9755205.39 5135578.44 207.72
-9755205.46 5135578.38 205.60
-9755205.38 5135578.87 207.56
-9755204.94 5135576.18 205.67
-9755205.42 5135577.67 206.67
-9755206.05 5135579.49 200.01
-9755205.68 5135579.80 200.03
-9755205.38 5135579.03 206.67
-9755205.50 5135579.54 205.12
-9755205.34 5135576.40 205.13
-9755204.57 5135576.22 200.04
-9755205.04 5135576.14 206.45
-9755205.61 5135580.44 204.80
-9755204.34 5135575.77 208.43
-9755205.28 5135579.83 203.81
-9755205.93 5135581.71 205.50
-9755202.43 5135580.48 200.09
-9755205.76 5135581.91 205.50
-9755205.78 5135581.54 207.87
-9755205.83 5135581.15 207.92
-9755205.69 5135582.06 203.80
-9755205.73 5135581.79 207.51
-9755206.02 5135581.83 205.82
-9755205.74 5135580.61 205.60
-9755205.17 5135580.50 203.55
-9755205.08 5135580.65 200.04
-9755205.88 5135581.88 211.85
-9755205.73 5135580.68 207.73
-9755208.36 5135581.56 199.94
-9755205.56 5135581.19 205.74
-9755207.50 5135580.95 199.97
-9755205.46 5135580.56 208.21
-9755207.19 5135580.33 199.98
-9755200.06 5135582.05 200.26
-9755205.65 5135580.82 207.76
-9755205.51 5135580.49 203.79
-9755206.61 5135581.22 200.00
-9755208.94 5135581.89 199.94
-9755205.58 5135581.08 206.98
-9755205.76 5135581.43 204.77
-9755205.80 5135580.58 207.50
-9755205.77 5135581.04 204.26
-9755208.06 5135581.01 199.95
-9755207.77 5135581.25 199.96
-9755205.68 5135580.96 207.00
-9755205.79 5135581.52 207.32
-9755205.74 5135581.61 211.17
-9755205.69 5135581.15 208.01
-9755205.64 5135581.33 205.00
-9755207.47 5135581.58 199.98
-9755205.75 5135580.95 210.76
-9755206.92 5135580.68 199.99
-9755209.78 5135581.34 199.97
-9755205.61 5135581.25 205.74
-9755205.76 5135581.04 206.83
-9755205.54 5135581.50 208.07
-9755205.49 5135581.34 205.52
-9755205.73 5135581.54 206.70
-9755205.58 5135580.55 208.09
-9755205.74 5135580.95 208.05
-9755205.19 5135580.57 211.81
-9755205.92 5135580.89 205.67
-9755202.28 5135580.96 200.14
-9755209.90 5135581.28 199.95
-9755195.06 5135582.05 200.16
-9755199.51 5135578.24 200.27
-9755199.21 5135578.55 200.25
-9755196.86 5135579.38 200.17
-9755196.62 5135577.93 200.18
-9755196.90 5135576.44 200.21
-9755193.68 5135580.28 200.22
-9755196.58 5135577.00 200.20
-9755194.53 5135579.07 200.20
-9755194.75 5135577.89 200.21
-9755197.74 5135580.33 200.18
-9755194.25 5135579.99 200.20
-9755196.57 5135576.42 200.21
-9755198.04 5135579.42 200.21
-9755194.85 5135575.57 200.22
-9755199.22 5135576.75 200.26
-9755197.14 5135578.55 200.20
-9755198.67 5135579.40 200.24
-9755196.00 5135576.41 200.20
-9755194.22 5135577.09 200.22
-9755193.93 5135579.70 200.22
-9755196.90 5135576.78 200.20
-9755194.21 5135579.06 200.21
-9755193.36 5135578.80 200.24
-9755198.66 5135577.34 200.25
-9755196.03 5135575.54 200.21
-9755194.48 5135580.32 200.19
-9755194.26 5135576.12 200.23
-9755193.92 5135578.18 200.22
-9755194.23 5135575.62 200.24
-9755197.20 5135576.20 200.23
-9755196.93 5135578.55 200.18
-9755195.44 5135577.08 200.19
-9755194.21 5135576.74 200.22
-9755198.35 5135576.72 200.26
-9755195.99 5135579.98 200.14
-9755194.23 5135578.80 200.21
-9755198.35 5135575.58 200.26
-9755199.20 5135581.53 200.22
-9755198.61 5135581.76 200.20
-9755195.73 5135581.79 200.14
-9755198.34 5135581.20 200.19
-9755193.59 5135581.22 200.22
-9755196.88 5135580.65 200.14
-9755193.64 5135581.51 200.23
-9755197.16 5135580.65 200.16
-9755194.47 5135580.91 200.19
-9755193.67 5135580.56 200.22
-9755197.42 5135581.45 200.16
-9755191.89 5135582.02 200.28
-9755191.22 5135582.00 200.30
-9755190.94 5135582.03 200.34
-9755192.47 5135577.30 200.24
-9755193.06 5135578.77 200.24
-9755193.35 5135577.60 200.24
-9755192.74 5135580.31 200.25
-9755192.16 5135580.25 200.26
-9755191.92 5135577.63 200.26
-9755192.24 5135578.78 200.24
-9755191.95 5135575.81 200.27
-9755191.87 5135578.81 200.27
-9755193.05 5135577.89 200.23
-9755193.34 5135579.11 200.24
-9755193.36 5135575.84 200.25
-9755193.02 5135581.14 200.25
-9755191.86 5135581.13 200.25
-9755192.43 5135581.18 200.26
-9755192.47 5135581.47 200.26
-9755192.45 5135580.59 200.23
-9755192.72 5135581.43 200.25
-9755191.83 5135578.23 200.25
-9755191.86 5135576.18 200.28
-9755191.81 5135577.02 200.27
-9755191.22 5135580.26 200.30
-9755190.68 5135575.75 200.31
-9755190.97 5135578.79 200.29
-9755191.26 5135578.49 200.27
-9755190.62 5135576.20 204.22
-9755190.72 5135575.53 200.30
-9755191.59 5135580.30 200.28
-9755191.31 5135576.12 200.30
-9755191.50 5135576.38 200.28
-9755191.60 5135577.34 200.27
-9755191.58 5135579.66 200.28
-9755190.94 5135578.89 200.92
-9755191.85 5135580.29 200.28
-9755191.25 5135581.14 200.29
-9755191.21 5135580.63 204.07
-9755191.26 5135580.84 200.31
-9755291.98 5135664.58 207.03
-9755289.54 5135666.09 207.06
-9755291.00 5135666.65 207.11
-9755291.32 5135664.92 207.01
-9755289.86 5135666.41 207.09
-9755289.22 5135666.76 204.07
-9755291.92 5135665.49 207.03
-9755290.14 5135666.07 207.05
-9755289.85 5135664.92 207.02
-9755292.25 5135666.88 204.07
-9755290.48 5135665.81 207.04
-9755291.03 5135666.10 207.05
-9755288.94 5135665.50 207.04
-9755291.94 5135666.99 207.12
-9755289.60 5135665.21 207.03
-9755290.78 5135664.90 207.02
-9755292.26 5135667.31 204.06
-9755288.69 5135666.09 207.08
-9755288.39 5135666.42 207.11
-9755288.92 5135666.82 204.07
-9755288.98 5135666.34 207.09
-9755288.38 5135664.61 207.03
-9755288.12 5135664.60 207.03
-9755288.32 5135666.56 204.07
-9755282.76 5135666.19 203.46
-9755287.24 5135665.20 207.04
-9755282.19 5135666.07 207.12
-9755280.76 5135665.53 204.08
-9755286.60 5135665.79 207.06
-9755282.82 5135666.05 207.13
-9755282.53 5135666.04 207.13
-9755285.75 5135666.18 204.08
-9755286.04 5135665.18 207.03
-9755282.23 5135665.18 207.05
-9755286.60 5135666.56 204.05
-9755283.94 5135666.30 207.13
-9755288.08 5135665.80 207.05
-9755281.29 5135665.93 204.06
-9755287.19 5135666.78 204.04
-9755286.93 5135664.56 207.03
-9755287.83 5135666.05 207.07
-9755282.79 5135665.17 207.05
-9755287.56 5135666.52 204.09
-9755285.73 5135665.16 207.04
-9755284.30 5135666.36 204.05
-9755280.75 5135664.84 207.04
-9755280.15 5135665.57 204.09
