-9755681.09 5135396.34 186.87
-9755689.13 5135398.87 186.68
-9755687.27 5135398.92 186.72
-9755681.30 5135396.36 186.87
-9755690.75 5135396.76 186.75
-9755681.28 5135398.36 187.05
-9755688.95 5135398.50 185.19
-9755684.93 5135398.40 187.02
-9755685.35 5135399.63 186.99
-9755681.31 5135395.37 186.88
-9755685.45 5135396.45 185.17
-9755690.72 5135398.80 185.24
-9755686.97 5135398.39 186.25
-9755685.75 5135397.03 185.16
-9755681.35 5135397.18 186.89
-9755681.04 5135397.89 185.91
-9755679.84 5135397.22 186.48
-9755679.84 5135397.06 185.56
-9755678.09 5135398.80 185.13
-9755680.04 5135398.92 186.46
-9755678.93 5135397.87 185.57
-9755678.79 5135396.29 185.58
-9755680.16 5135396.28 186.48
-9755680.03 5135398.12 186.30
-9755678.40 5135397.86 185.58
-9755678.42 5135397.32 185.58
-9755707.70 5135371.64 185.13
-9755707.99 5135371.61 186.75
-9755707.73 5135370.76 185.15
-9755707.10 5135374.09 185.17
-9755701.21 5135373.13 185.17
-9755703.82 5135370.12 186.40
-9755699.71 5135370.91 186.34
-9755703.04 5135371.67 185.23
-9755704.88 5135370.77 186.10
-9755699.79 5135378.91 186.11
-9755703.83 5135372.50 186.38
-9755700.57 5135379.93 185.15
-9755704.67 5135377.94 185.56
-9755702.95 5135374.83 186.30
-9755705.43 5135374.85 186.29
-9755698.92 5135373.03 186.41
-9755695.57 5135377.47 186.54
-9755695.86 5135379.90 185.26
-9755704.76 5135376.60 186.30
-9755700.40 5135374.92 185.15
-9755703.79 5135378.33 186.38
-9755697.37 5135375.72 186.26
-9755703.91 5135376.63 186.39
-9755696.45 5135377.21 185.27
-9755697.39 5135377.29 185.22
-9755704.49 5135378.11 186.39
-9755704.45 5135371.55 186.41
-9755698.21 5135379.86 186.15
-9755699.50 5135376.64 186.28
-9755697.91 5135378.89 186.40
-9755703.88 5135374.86 186.41
-9755697.15 5135370.70 186.32
-9755705.68 5135376.55 186.28
-9755700.69 5135373.34 186.35
-9755705.93 5135374.87 186.50
-9755705.55 5135372.52 186.28
-9755704.57 5135374.06 186.39
-9755702.39 5135374.83 186.55
-9755698.86 5135376.65 186.42
-9755704.37 5135369.80 186.39
-9755704.78 5135375.71 186.32
-9755695.60 5135374.54 186.40
-9755700.61 5135373.13 185.16
-9755695.50 5135375.64 186.59
-9755707.40 5135369.91 185.16
-9755704.76 5135375.09 186.35
-9755695.58 5135378.34 186.42
-9755707.10 5135379.10 185.12
-9755702.38 5135377.50 186.32
-9755694.73 5135370.93 185.67
-9755695.61 5135376.34 185.23
-9755698.01 5135377.24 185.20
-9755694.72 5135379.90 185.70
-9755697.07 5135371.77 186.33
-9755695.35 5135370.70 185.24
-9755694.73 5135371.38 185.64
-9755703.76 5135377.22 186.39
-9755707.31 5135379.69 185.14
-9755700.63 5135370.75 186.44
-9755704.75 5135373.98 185.62
-9755694.67 5135378.95 185.70
-9755707.11 5135374.98 185.14
-9755700.61 5135376.71 185.16
-9755705.34 5135377.21 186.29
-9755699.73 5135378.18 185.57
-9755697.12 5135373.96 186.32
-9755700.62 5135370.68 185.17
-9755694.68 5135378.31 185.68
-9755701.22 5135374.91 185.16
-9755702.10 5135371.59 185.22
-9755703.03 5135369.99 186.33
-9755706.22 5135372.23 185.18
-9755700.61 5135374.00 185.18
-9755697.34 5135374.79 186.28
-9755694.88 5135370.03 186.76
-9755698.92 5135379.09 185.14
-9755700.53 5135372.52 186.29
-9755698.01 5135370.74 186.39
-9755704.69 5135372.46 186.35
-9755696.46 5135371.85 186.48
-9755702.23 5135373.95 186.20
-9755698.87 5135374.20 186.38
-9755705.38 5135379.02 186.27
-9755695.66 5135372.22 185.25
-9755701.47 5135376.38 185.18
-9755704.66 5135379.91 186.37
-9755694.73 5135375.73 185.68
-9755695.62 5135379.81 186.56
-9755697.88 5135370.48 185.23
-9755707.35 5135375.52 185.15
-9755705.37 5135373.36 186.28
-9755706.46 5135373.11 185.16
-9755702.11 5135378.06 186.53
-9755700.58 5135374.07 186.28
-9755700.60 5135376.57 186.26
-9755700.33 5135378.93 186.04
-9755698.00 5135370.08 186.40
-9755695.65 5135376.56 186.60
-9755701.21 5135378.46 185.16
-9755696.60 5135370.87 186.44
-9755696.73 5135375.15 186.34
-9755695.55 5135375.76 185.25
-9755705.65 5135375.75 186.25
-9755698.05 5135371.67 185.23
-9755696.50 5135371.64 185.27
-9755705.60 5135371.68 186.20
-9755695.57 5135371.26 186.78
-9755695.58 5135370.16 185.24
-9755694.13 5135378.99 185.70
-9755693.76 5135375.71 185.21
-9755692.97 5135375.66 185.70
-9755693.24 5135373.09 185.24
-9755694.08 5135373.33 185.25
-9755693.18 5135379.93 185.21
-9755693.00 5135373.96 185.22
-9755693.79 5135370.75 185.25
-9755682.34 5135373.26 185.68
-9755692.13 5135373.28 185.70
-9755683.80 5135373.31 185.20
-9755684.05 5135375.60 186.46
-9755683.44 5135378.43 185.62
-9755692.28 5135372.53 185.28
-9755683.22 5135379.87 185.67
-9755686.49 5135377.48 185.62
-9755690.64 5135372.76 185.24
-9755683.21 5135370.90 185.18
-9755689.97 5135377.22 185.24
-9755688.22 5135372.43 186.54
-9755688.74 5135374.81 186.65
-9755685.90 5135370.64 185.22
-9755682.36 5135370.08 185.17
-9755681.41 5135375.01 186.92
-9755684.20 5135375.98 186.94
-9755685.81 5135378.21 186.77
-9755688.66 5135370.11 186.59
-9755685.00 5135370.69 185.19
-9755687.35 5135379.21 185.66
-9755686.85 5135374.54 186.66
-9755692.34 5135370.62 186.38
-9755686.39 5135372.47 186.48
-9755681.74 5135379.80 185.20
-9755688.24 5135370.77 186.25
-9755689.72 5135374.82 185.24
-9755691.57 5135373.25 186.57
-9755691.49 5135371.61 185.22
-9755684.12 5135378.86 185.64
-9755691.31 5135370.67 186.77
-9755691.96 5135379.85 186.65
-9755684.15 5135378.04 186.88
-9755681.50 5135375.73 186.21
-9755681.74 5135378.22 186.91
-9755681.46 5135371.77 185.19
-9755687.21 5135378.25 185.53
-9755689.77 5135372.33 186.58
-9755691.53 5135375.79 185.75
-9755690.00 5135371.55 185.26
-9755685.70 5135375.03 186.76
-9755685.87 5135374.15 186.73
-9755682.35 5135377.46 186.94
-9755692.02 5135375.71 186.45
-9755690.66 5135371.31 185.24
-9755688.92 5135374.13 186.64
-9755686.48 5135379.84 185.70
-9755692.39 5135371.56 185.26
-9755692.33 5135370.85 185.66
-9755687.64 5135373.61 186.67
-9755681.48 5135375.50 186.93
-9755686.29 5135370.63 186.56
-9755689.47 5135370.35 186.61
-9755684.96 5135378.01 186.96
-9755689.38 5135375.71 186.78
-9755689.74 5135370.57 186.63
-9755688.32 5135371.59 186.32
-9755688.16 5135373.49 186.48
-9755691.50 5135373.97 185.75
-9755689.94 5135373.24 186.39
-9755685.71 5135377.58 186.82
-9755681.38 5135374.10 186.86
-9755683.24 5135374.97 186.91
-9755684.71 5135374.15 187.03
-9755688.23 5135373.86 186.51
-9755680.68 5135378.92 187.05
-9755684.88 5135372.61 187.02
-9755686.46 5135371.84 185.23
-9755681.41 5135376.80 186.11
-9755684.96 5135377.51 185.18
-9755685.91 5135375.63 186.75
-9755681.43 5135370.04 185.20
-9755687.48 5135369.77 186.48
-9755691.91 5135378.75 186.53
-9755689.88 5135378.86 186.15
-9755682.31 5135374.96 186.91
-9755688.33 5135374.25 186.89
-9755684.80 5135370.79 186.88
-9755684.74 5135373.26 187.02
-9755684.08 5135374.98 186.87
-9755682.64 5135376.51 186.89
-9755685.03 5135371.58 185.19
-9755684.12 5135374.23 186.87
-9755687.31 5135374.14 186.64
-9755686.71 5135373.01 186.65
-9755691.48 5135377.50 186.63
-9755691.63 5135372.36 185.70
-9755683.23 5135378.91 185.64
-9755688.73 5135370.68 186.61
-9755687.49 5135375.84 186.82
-9755683.22 5135376.53 186.96
-9755685.72 5135376.73 186.81
-9755684.97 5135374.80 185.18
-9755691.36 5135371.28 186.78
-9755684.11 5135376.48 186.94
-9755683.27 5135377.12 186.93
-9755691.18 5135372.02 186.78
-9755689.38 5135373.58 186.80
-9755684.73 5135371.69 187.00
-9755686.43 5135374.18 186.73
-9755686.73 5135373.22 186.69
-9755686.21 5135373.74 186.40
-9755686.67 5135374.97 186.76
-9755680.90 5135375.84 186.76
-9755686.40 5135378.93 186.67
-9755681.49 5135377.34 186.95
-9755686.42 5135378.55 186.61
-9755689.19 5135376.56 185.59
-9755689.77 5135378.23 186.80
-9755682.37 5135375.57 186.91
-9755686.14 5135377.33 186.75
-9755689.70 5135377.15 186.78
-9755682.94 5135375.61 186.99
-9755685.85 5135371.58 185.22
-9755685.98 5135370.58 186.54
-9755680.81 5135379.74 187.05
-9755683.22 5135374.06 186.88
-9755686.46 5135373.32 185.23
-9755684.49 5135375.52 186.89
-9755690.06 5135375.07 186.78
-9755686.35 5135376.26 186.76
-9755690.29 5135376.32 186.76
-9755684.42 5135371.20 186.90
-9755688.90 5135369.70 186.90
-9755689.82 5135373.56 186.76
-9755684.71 5135370.08 186.85
-9755691.96 5135371.47 186.69
-9755690.25 5135378.91 186.78
-9755680.87 5135379.75 185.70
-9755680.83 5135373.33 185.71
-9755689.36 5135373.78 186.80
-9755685.07 5135376.94 186.66
-9755686.39 5135376.89 186.64
-9755687.69 5135374.39 186.93
-9755680.85 5135370.89 185.64
-9755680.93 5135373.84 185.67
-9755680.54 5135376.59 185.15
-9755679.70 5135372.38 185.14
-9755679.65 5135377.12 186.80
-9755680.83 5135369.92 186.87
-9755680.86 5135373.20 187.05
-9755680.58 5135374.10 187.09
-9755679.05 5135379.87 185.60
-9755679.41 5135376.46 186.81
-9755680.93 5135370.01 185.67
-9755680.88 5135372.31 187.07
-9755680.60 5135373.20 185.96
-9755680.94 5135371.69 185.64
-9755680.90 5135374.93 186.64
-9755679.72 5135378.03 185.14
-9755680.36 5135374.56 187.07
-9755679.12 5135370.83 186.73
-9755679.70 5135377.14 185.15
-9755679.16 5135377.36 186.82
-9755680.57 5135370.66 185.92
-9755679.74 5135373.14 186.79
-9755679.63 5135371.43 186.69
-9755680.81 5135377.12 185.18
-9755670.70 5135380.62 185.54
-9755670.21 5135381.29 185.62
-9755673.43 5135380.59 185.56
-9755674.67 5135381.22 186.78
-9755677.35 5135380.68 185.61
-9755667.61 5135381.47 186.26
-9755669.99 5135380.61 186.84
-9755674.00 5135380.58 186.84
-9755675.13 5135381.06 186.88
-9755667.52 5135380.65 186.02
-9755666.70 5135381.40 186.29
-9755678.56 5135392.54 186.18
-9755668.39 5135382.38 185.04
-9755677.60 5135385.63 186.48
-9755677.53 5135388.78 186.46
-9755678.16 5135390.38 186.18
-9755674.00 5135382.37 185.58
-9755676.60 5135384.12 186.52
-9755672.60 5135394.89 186.38
-9755677.65 5135382.39 185.57
-9755676.09 5135393.93 185.57
-9755675.78 5135384.74 186.86
-9755670.75 5135392.39 186.41
-9755676.57 5135389.74 186.54
-9755670.18 5135382.31 185.59
-9755668.29 5135390.32 185.50
-9755670.87 5135382.39 185.46
-9755671.71 5135394.54 186.35
-9755670.11 5135393.68 185.07
-9755678.50 5135383.84 186.19
-9755673.12 5135392.27 186.03
-9755677.53 5135383.73 186.28
-9755678.06 5135388.27 186.35
-9755670.82 5135385.70 185.55
-9755671.04 5135387.19 185.57
-9755676.79 5135384.74 186.47
-9755676.53 5135392.95 186.10
-9755670.64 5135386.62 186.72
-9755671.89 5135383.88 185.60
-9755671.93 5135388.87 186.38
-9755672.35 5135390.57 186.38
-9755677.56 5135392.09 186.64
-9755673.31 5135393.71 185.46
-9755668.48 5135390.67 186.35
-9755672.50 5135391.61 186.28
-9755674.91 5135384.26 185.09
-9755668.12 5135384.15 185.04
-9755678.34 5135388.70 186.38
-9755674.00 5135395.73 186.45
-9755673.53 5135388.91 186.73
-9755674.03 5135384.66 186.85
-9755673.50 5135391.22 186.52
-9755669.23 5135394.83 184.99
-9755669.32 5135387.42 184.97
-9755675.79 5135392.46 186.75
-9755674.90 5135384.49 185.08
-9755673.07 5135388.05 186.76
-9755677.62 5135385.35 186.86
-9755676.62 5135391.29 186.55
-9755674.03 5135389.76 186.82
-9755676.68 5135385.67 186.47
-9755670.77 5135384.40 186.83
-9755676.44 5135384.43 186.88
-9755668.70 5135385.71 185.01
-9755672.52 5135392.41 186.33
-9755675.73 5135393.98 186.69
-9755671.70 5135388.26 186.44
-9755670.79 5135394.81 186.76
-9755671.64 5135387.17 186.38
-9755673.33 5135389.81 186.74
-9755669.98 5135383.77 186.85
-9755676.42 5135392.19 186.64
-9755670.71 5135389.77 186.79
-9755671.67 5135395.39 186.42
-9755677.47 5135384.20 185.44
-9755667.70 5135382.39 186.29
-9755678.18 5135383.35 186.43
-9755670.22 5135393.75 186.37
-9755674.91 5135386.59 185.10
-9755675.80 5135383.85 186.85
-9755667.84 5135392.97 186.28
-9755670.19 5135385.55 185.58
-9755675.93 5135389.55 186.25
-9755669.28 5135393.68 184.98
-9755669.33 5135384.55 184.98
-9755674.31 5135393.88 186.35
-9755678.25 5135383.01 185.57
-9755673.41 5135388.96 186.39
-9755676.09 5135394.57 185.59
-9755668.70 5135384.49 185.00
-9755676.40 5135388.89 186.45
-9755667.80 5135392.13 186.28
-9755674.14 5135392.55 186.39
-9755671.67 5135388.89 186.69
-9755677.61 5135383.00 186.32
-9755670.67 5135387.13 186.80
-9755676.36 5135393.07 186.72
-9755673.46 5135393.09 186.39
-9755677.32 5135386.18 186.45
-9755674.89 5135390.42 185.12
-9755672.52 5135393.03 186.38
-9755674.29 5135394.56 186.80
-9755678.11 5135387.11 186.64
-9755675.84 5135385.05 186.36
-9755667.53 5135388.18 185.55
-9755671.67 5135390.00 186.70
-9755674.07 5135385.65 186.88
-9755678.21 5135385.37 186.44
-9755674.85 5135385.44 185.08
-9755670.68 5135383.75 186.86
-9755670.32 5135388.09 186.36
-9755670.27 5135387.30 185.61
-9755671.70 5135385.37 185.61
-9755672.23 5135385.62 185.55
-9755674.32 5135389.80 186.41
-9755672.01 5135394.02 186.36
-9755673.54 5135387.23 186.77
-9755676.68 5135382.40 185.57
-9755675.72 5135395.41 185.11
-9755669.90 5135388.20 186.86
-9755670.21 5135390.41 186.22
-9755674.29 5135390.60 186.39
-9755677.62 5135387.16 186.44
-9755676.61 5135393.66 185.54
-9755677.49 5135389.82 186.50
-9755675.79 5135385.35 186.85
-9755668.66 5135394.82 185.03
-9755676.68 5135386.51 186.49
-9755674.00 5135387.43 185.19
-9755669.03 5135389.86 184.99
-9755670.93 5135391.31 186.80
-9755677.01 5135392.39 186.68
-9755673.44 5135393.29 186.71
-9755671.50 5135393.99 186.71
-9755671.62 5135391.61 185.14
-9755669.27 5135388.35 184.98
-9755678.12 5135385.53 186.89
-9755676.65 5135395.50 185.57
-9755673.99 5135395.59 186.88
-9755673.25 5135393.71 186.72
-9755667.46 5135391.22 186.28
-9755675.75 5135394.42 186.75
-9755671.68 5135394.75 186.70
-9755675.24 5135382.89 186.87
-9755668.36 5135395.38 186.28
-9755671.63 5135390.70 186.39
-9755670.73 5135388.04 186.41
-9755672.86 5135389.39 186.67
-9755667.77 5135393.86 186.28
-9755670.74 5135392.96 186.42
-9755670.77 5135395.44 186.42
-9755670.72 5135385.58 186.77
-9755676.08 5135385.69 186.50
-9755675.79 5135395.53 186.74
-9755677.72 5135392.48 186.68
-9755676.21 5135383.05 186.26
-9755676.43 5135391.03 186.74
-9755667.44 5135389.85 186.29
-9755676.32 5135387.69 186.59
-9755672.12 5135388.86 186.71
-9755670.28 5135389.76 186.13
-9755666.63 5135384.45 186.28
-9755666.92 5135384.55 185.54
-9755666.68 5135382.23 186.34
-9755666.76 5135388.67 185.57
-9755666.61 5135383.23 186.39
-9755666.92 5135387.89 186.28
-9755666.04 5135393.01 186.26
-9755666.06 5135389.76 186.28
-9755666.86 5135393.93 186.26
-9755666.05 5135387.02 186.28
-9755666.83 5135383.88 186.29
-9755666.65 5135394.55 186.26
-9755666.03 5135385.61 186.25
-9755666.00 5135390.59 186.28
-9755666.69 5135383.30 185.04
-9755667.46 5135395.69 186.26
-9755666.00 5135383.87 186.32
-9755665.89 5135386.40 186.28
-9755666.02 5135391.48 186.24
-9755666.92 5135388.83 186.25
-9755665.80 5135391.53 185.75
-9755665.75 5135392.08 186.25
-9755666.62 5135395.64 186.25
-9755671.60 5135398.70 185.15
-9755670.70 5135398.88 186.39
-9755668.59 5135397.18 185.03
-9755676.02 5135396.32 186.48
-9755668.33 5135397.13 186.28
-9755672.72 5135396.94 185.57
-9755676.11 5135398.13 185.62
-9755676.57 5135396.38 185.60
-9755668.37 5135396.25 186.29
-9755677.39 5135398.62 185.57
-9755676.50 5135397.24 185.57
-9755674.28 5135396.25 186.85
-9755676.63 5135398.12 185.60
-9755670.68 5135397.92 186.26
-9755677.35 5135396.34 185.58
-9755675.83 5135397.21 186.50
-9755676.54 5135398.86 186.45
-9755670.18 5135398.04 186.89
-9755670.23 5135395.41 186.90
-9755672.55 5135396.49 186.40
-9755677.50 5135397.84 185.59
-9755676.57 5135395.31 186.39
-9755676.06 5135396.32 185.66
-9755671.00 5135398.02 185.51
-9755674.76 5135398.70 185.13
-9755672.40 5135398.73 186.43
-9755676.09 5135397.20 185.64
-9755673.38 5135398.88 185.12
-9755670.92 5135398.71 185.49
-9755678.50 5135396.23 185.62
-9755676.00 5135398.68 186.49
-9755670.71 5135397.22 186.11
-9755674.84 5135397.84 185.11
-9755670.17 5135397.16 186.90
-9755676.72 5135398.80 186.97
-9755674.82 5135398.65 186.92
-9755673.18 5135396.79 186.39
-9755667.69 5135398.90 186.28
-9755673.54 5135395.63 186.81
-9755669.53 5135398.68 185.00
-9755667.40 5135397.17 186.25
-9755669.75 5135397.88 184.99
-9755665.98 5135397.73 186.22
-9755665.99 5135398.65 186.24
-9755666.63 5135398.68 186.24
-9755665.93 5135396.84 186.26
-9755664.97 5135381.44 186.26
-9755664.94 5135380.90 185.45
-9755655.22 5135380.51 185.15
-9755656.96 5135381.16 185.18
-9755662.55 5135381.50 185.13
-9755656.08 5135381.42 185.16
-9755655.18 5135381.70 185.16
-9755659.28 5135381.72 185.17
-9755659.87 5135380.85 185.17
-9755658.43 5135380.58 185.16
-9755656.09 5135380.54 185.16
-9755665.67 5135381.39 186.28
-9755665.10 5135380.61 186.28
-9755663.47 5135380.60 185.04
-9755664.03 5135381.48 185.00
-9755650.14 5135381.45 185.26
-9755651.15 5135381.46 185.67
-9755650.19 5135380.50 185.25
-9755653.40 5135380.80 185.22
-9755651.92 5135381.70 185.23
-9755654.32 5135380.86 185.18
-9755654.31 5135381.74 185.19
-9755665.08 5135392.12 186.24
-9755664.55 5135394.51 186.31
-9755661.07 5135393.03 185.16
-9755665.09 5135395.41 186.26
-9755659.27 5135383.01 185.18
-9755661.63 5135388.02 185.15
-9755665.24 5135390.60 186.26
-9755664.29 5135389.79 185.04
-9755662.80 5135382.37 185.13
-9755655.17 5135383.56 185.16
-9755661.97 5135384.71 185.16
-9755657.45 5135385.59 185.18
-9755663.65 5135390.70 185.04
-9755662.74 5135391.54 185.12
-9755655.09 5135392.96 185.15
-9755655.37 5135391.51 185.15
-9755660.75 5135387.13 185.17
-9755661.27 5135389.75 185.15
-9755664.51 5135393.85 186.30
-9755666.01 5135384.72 186.28
-9755656.85 5135393.93 185.15
-9755656.03 5135387.05 185.13
-9755656.01 5135386.21 185.13
-9755657.83 5135390.64 185.18
-9755662.73 5135393.93 185.14
-9755660.72 5135393.95 185.15
-9755657.18 5135384.71 185.18
-9755655.15 5135387.36 185.13
-9755656.60 5135388.83 185.13
-9755656.85 5135391.51 185.14
-9755656.89 5135389.78 185.13
-9755661.02 5135385.62 185.16
-9755663.65 5135389.51 185.04
-9755663.66 5135393.04 185.06
-9755658.39 5135386.25 185.15
-9755665.24 5135383.21 186.29
-9755661.01 5135392.45 185.16
-9755665.15 5135393.88 186.26
-9755659.26 5135390.62 185.16
-9755665.51 5135385.92 186.30
-9755664.49 5135392.30 186.41
-9755656.06 5135383.83 185.13
-9755659.25 5135388.01 185.18
-9755657.74 5135388.00 185.17
-9755661.90 5135394.78 185.16
-9755656.05 5135385.00 185.14
-9755663.67 5135391.57 185.04
-9755660.45 5135383.21 185.17
-9755665.18 5135391.19 186.27
-9755654.83 5135394.71 185.15
-9755656.91 5135392.14 185.14
-9755658.67 5135388.00 185.16
-9755656.00 5135392.96 185.15
-9755658.08 5135394.76 185.18
-9755664.87 5135388.89 185.94
-9755659.23 5135389.72 185.18
-9755665.28 5135387.97 186.20
-9755661.59 5135393.02 185.17
-9755658.66 5135387.42 185.17
-9755656.29 5135392.13 185.17
-9755665.34 5135387.46 185.99
-9755660.41 5135393.08 185.16
-9755662.53 5135388.90 185.10
-9755660.40 5135391.22 185.16
-9755656.94 5135382.66 185.17
-9755660.10 5135387.37 185.18
-9755662.81 5135393.02 185.14
-9755661.86 5135393.91 185.15
-9755660.47 5135387.99 185.18
-9755663.95 5135394.79 185.07
-9755659.26 5135387.34 185.18
-9755661.92 5135382.41 185.16
-9755657.55 5135383.24 185.18
-9755661.62 5135386.50 185.15
-9755664.38 5135395.79 186.38
-9755660.12 5135389.45 185.17
-9755663.64 5135395.45 185.11
-9755654.56 5135390.66 185.16
-9755654.27 5135390.03 185.15
-9755650.18 5135382.32 185.26
-9755651.67 5135381.64 186.91
-9755651.24 5135390.61 185.25
-9755654.24 5135386.52 185.15
-9755654.55 5135392.07 185.17
-9755652.81 5135385.89 185.20
-9755654.28 5135383.48 185.17
-9755651.33 5135392.93 185.29
-9755650.18 5135384.08 185.27
-9755650.12 5135393.02 185.25
-9755649.54 5135392.42 185.25
-9755651.92 5135390.55 186.86
-9755651.90 5135382.33 185.21
-9755652.16 5135394.46 185.21
-9755652.74 5135391.51 185.18
-9755649.57 5135387.29 185.23
-9755650.19 5135383.08 185.74
-9755649.60 5135385.81 185.25
-9755649.53 5135393.75 186.48
-9755651.96 5135383.06 186.95
-9755651.98 5135384.98 186.39
-9755651.88 5135392.39 185.22
-9755651.86 5135392.87 186.92
-9755651.94 5135388.16 186.94
-9755651.89 5135392.93 185.21
-9755649.50 5135388.25 185.24
-9755651.94 5135384.08 185.23
-9755654.28 5135384.67 185.17
-9755652.77 5135393.88 185.20
-9755651.87 5135393.80 185.22
-9755649.48 5135386.49 185.74
-9755650.14 5135393.80 186.51
-9755650.39 5135388.19 185.23
-9755654.16 5135394.75 185.17
-9755651.93 5135385.48 186.88
-9755650.38 5135385.57 185.24
-9755651.08 5135388.23 185.70
-9755649.62 5135393.42 186.35
-9755651.70 5135384.82 186.94
-9755651.25 5135393.85 185.24
-9755651.91 5135382.20 186.89
-9755651.88 5135388.20 185.22
-9755651.85 5135393.75 186.97
-9755651.30 5135388.82 185.23
-9755652.81 5135383.82 185.20
-9755665.06 5135397.13 186.24
-9755664.29 5135396.24 186.38
-9755660.93 5135396.22 185.16
-9755657.75 5135395.36 185.19
-9755659.51 5135397.14 185.16
-9755665.07 5135397.75 186.24
-9755655.98 5135396.26 185.14
-9755655.98 5135395.35 185.14
-9755660.05 5135398.94 185.18
-9755658.57 5135396.28 185.15
-9755665.09 5135398.66 186.22
-9755661.59 5135398.64 185.17
-9755664.19 5135397.74 185.06
-9755660.37 5135396.23 185.16
-9755655.39 5135398.03 185.14
-9755665.15 5135396.22 186.24
-9755654.19 5135395.64 185.16
-9755664.22 5135396.28 185.05
-9755654.51 5135397.69 185.15
-9755659.48 5135396.25 185.16
-9755654.44 5135396.78 185.17
-9755649.45 5135395.53 186.60
-9755650.97 5135396.26 186.86
-9755652.74 5135397.08 185.16
-9755652.74 5135395.35 185.18
-9755650.18 5135396.97 186.81
-9755650.35 5135398.88 186.51
-9755650.10 5135397.93 186.44
-9755652.73 5135398.62 185.18
-9755651.56 5135398.81 186.24
-9755653.60 5135396.86 185.20
-9755652.75 5135396.19 185.17
-9755649.48 5135398.87 186.29
-9755649.40 5135397.32 186.54
-9755651.89 5135395.54 186.90
-9755652.13 5135397.04 186.50
-9755649.30 5135395.50 186.81
-9755651.90 5135396.25 186.85
-9755650.90 5135396.08 186.51
-9755651.83 5135398.01 185.22
-9755651.27 5135396.89 186.89
-9755649.45 5135397.92 185.24
-9755649.49 5135398.58 185.25
-9755650.36 5135397.19 185.24
-9755650.91 5135397.95 185.23
-9755648.38 5135395.51 186.95
-9755670.92 5135370.58 185.57
-9755668.49 5135375.86 184.99
-9755669.36 5135373.25 184.98
-9755669.80 5135373.30 185.61
-9755675.84 5135373.30 185.61
-9755670.20 5135375.02 185.59
-9755675.74 5135374.86 186.81
-9755677.38 5135377.65 185.59
-9755671.63 5135377.36 185.60
-9755669.94 5135370.16 186.14
-9755668.52 5135374.19 187.01
-9755676.70 5135369.96 185.61
-9755675.89 5135374.14 185.58
-9755672.64 5135379.12 185.62
-9755670.26 5135370.89 185.58
-9755675.93 5135376.50 185.59
-9755671.59 5135374.09 185.63
-9755670.81 5135374.03 185.63
-9755678.17 5135379.87 185.58
-9755670.24 5135375.89 185.63
-9755676.72 5135370.61 185.58
-9755669.07 5135374.15 184.96
-9755675.81 5135372.30 185.62
-9755671.74 5135373.29 185.62
-9755670.85 5135376.47 185.59
-9755669.96 5135371.69 186.85
-9755670.00 5135372.39 185.61
-9755675.25 5135370.63 185.58
-9755670.72 5135377.11 185.55
-9755669.98 5135374.88 186.89
-9755668.15 5135379.65 186.53
-9755670.02 5135374.04 185.47
-9755672.64 5135369.92 185.58
-9755674.09 5135372.40 185.16
-9755674.11 5135371.65 185.47
-9755674.19 5135371.47 186.86
-9755669.96 5135371.13 186.13
-9755678.33 5135375.05 185.54
-9755677.33 5135373.37 185.61
-9755677.37 5135372.33 185.60
-9755668.33 5135375.87 186.20
-9755670.74 5135374.77 185.44
-9755669.97 5135378.27 185.61
-9755675.74 5135374.06 186.11
-9755669.43 5135372.45 184.82
-9755677.30 5135374.78 185.60
-9755671.76 5135372.37 185.17
-9755672.34 5135372.34 185.59
-9755676.72 5135379.17 185.60
-9755678.14 5135370.84 185.56
-9755667.64 5135373.22 186.43
-9755675.64 5135375.02 185.60
-9755674.09 5135375.68 185.17
-9755670.08 5135377.44 185.64
-9755670.19 5135376.50 185.61
-9755674.08 5135373.25 185.18
-9755670.84 5135369.98 185.15
-9755669.99 5135372.58 186.87
-9755677.38 5135370.58 185.58
-9755674.07 5135378.89 185.17
-9755674.08 5135376.49 186.87
-9755675.28 5135373.95 185.94
-9755668.23 5135375.83 186.76
-9755668.50 5135369.97 185.01
-9755671.69 5135376.51 185.65
-9755668.26 5135372.57 187.00
-9755669.96 5135378.03 186.21
-9755670.79 5135378.06 185.48
-9755668.13 5135375.62 185.03
-9755670.73 5135378.98 186.71
-9755677.29 5135370.01 185.61
-9755676.78 5135372.37 185.60
-9755669.77 5135374.06 186.87
-9755673.61 5135375.85 186.85
-9755675.87 5135371.77 185.61
-9755675.76 5135375.63 186.82
-9755669.95 5135379.06 186.88
-9755668.22 5135372.31 185.03
-9755670.57 5135377.63 186.80
-9755668.10 5135379.79 185.53
-9755675.84 5135379.07 186.24
-9755673.60 5135371.63 186.87
-9755673.83 5135375.96 186.43
-9755674.11 5135378.28 185.19
-9755668.47 5135372.03 185.00
-9755675.11 5135370.82 186.82
-9755669.99 5135369.88 186.85
-9755672.60 5135374.68 185.13
-9755675.84 5135370.08 185.60
-9755668.45 5135377.94 185.01
-9755673.54 5135373.41 186.83
-9755676.52 5135371.52 185.59
-9755674.82 5135369.87 186.85
-9755673.78 5135375.28 186.52
-9755669.81 5135371.64 185.96
-9755675.04 5135374.87 186.86
-9755668.20 5135374.72 185.03
-9755676.72 5135378.30 185.13
-9755671.07 5135376.38 186.46
-9755673.50 5135377.94 186.91
-9755668.20 5135370.82 185.04
-9755674.03 5135369.84 186.89
-9755670.19 5135379.93 186.85
-9755667.70 5135377.43 186.45
-9755670.46 5135379.95 186.85
-9755668.05 5135369.60 186.36
-9755668.76 5135374.68 184.97
-9755668.46 5135377.40 185.00
-9755675.37 5135379.68 186.81
-9755667.68 5135370.72 186.81
-9755667.62 5135375.17 187.04
-9755669.51 5135371.56 186.91
-9755667.61 5135376.17 186.93
-9755667.52 5135374.38 187.03
-9755667.75 5135369.83 186.34
-9755667.57 5135375.42 186.79
-9755666.74 5135373.16 185.55
-9755666.79 5135374.86 185.51
-9755667.73 5135373.22 187.00
-9755666.79 5135371.54 185.55
-9755666.71 5135380.02 186.33
-9755666.63 5135379.11 186.28
-9755666.64 5135375.86 186.81
-9755667.05 5135370.24 185.52
-9755666.16 5135378.46 186.28
-9755666.06 5135376.41 186.28
-9755665.83 5135373.22 185.52
-9755665.90 5135372.59 185.49
-9755667.13 5135374.18 186.06
-9755664.93 5135369.88 185.50
-9755665.25 5135379.66 186.32
-9755664.93 5135377.40 186.44
-9755659.39 5135370.77 185.18
-9755655.20 5135372.54 185.15
-9755665.91 5135374.60 185.50
-9755664.04 5135378.78 184.99
-9755657.62 5135370.78 185.19
-9755659.90 5135377.35 185.18
-9755665.02 5135373.73 185.53
-9755664.95 5135375.76 187.00
-9755659.06 5135374.08 185.18
-9755656.99 5135377.35 185.19
-9755665.20 5135374.81 187.03
-9755664.39 5135372.23 186.92
-9755661.99 5135377.94 185.17
-9755664.91 5135378.24 185.04
-9755657.59 5135377.28 185.18
-9755665.08 5135370.84 185.53
-9755664.43 5135373.11 186.95
-9755664.84 5135374.98 186.13
-9755664.43 5135371.69 185.48
-9755664.38 5135369.91 185.50
-9755657.59 5135371.67 185.20
-9755663.44 5135373.20 184.99
-9755661.06 5135377.33 185.15
-9755657.00 5135373.12 185.18
-9755655.24 5135370.22 185.13
-9755660.48 5135374.93 185.17
-9755656.68 5135375.84 185.15
-9755661.10 5135374.04 185.17
-9755660.22 5135374.06 185.16
-9755656.09 5135375.84 185.15
-9755664.44 5135374.33 185.97
-9755663.17 5135371.68 185.02
-9755657.00 5135370.75 185.18
-9755660.21 5135379.68 185.16
-9755664.00 5135379.45 184.99
-9755665.01 5135373.24 185.51
-9755661.16 5135369.92 185.17
-9755664.46 5135379.71 186.32
-9755664.30 5135372.29 185.48
-9755655.22 5135373.20 185.15
-9755656.06 5135376.68 185.15
-9755662.31 5135373.18 185.12
-9755664.37 5135374.95 186.20
-9755658.52 5135373.17 185.18
-9755661.07 5135376.47 185.15
-9755655.22 5135371.34 185.14
-9755656.36 5135372.57 185.14
-9755656.33 5135379.99 185.17
-9755657.59 5135369.90 185.18
-9755655.86 5135373.18 185.15
-9755658.46 5135375.52 185.17
-9755660.19 5135378.80 185.16
-9755662.28 5135370.83 185.12
-9755657.58 5135374.33 185.18
-9755660.77 5135374.65 185.17
-9755658.40 5135379.70 185.16
-9755660.23 5135369.91 185.18
-9755658.75 5135371.39 185.18
-9755656.12 5135374.06 185.16
-9755656.95 5135372.60 185.19
-9755664.39 5135372.34 185.01
-9755666.10 5135371.42 185.06
-9755661.47 5135372.33 185.15
-9755656.08 5135374.65 185.17
-9755663.73 5135371.58 186.98
-9755655.25 5135374.02 185.14
-9755657.47 5135380.59 185.19
-9755665.22 5135372.23 185.08
-9755661.97 5135379.96 185.16
-9755659.05 5135372.31 185.18
-9755656.96 5135379.08 185.18
-9755663.23 5135373.46 185.02
-9755664.60 5135371.40 185.00
-9755663.18 5135375.58 185.05
-9755663.85 5135372.87 187.00
-9755663.82 5135372.22 186.98
-9755664.70 5135373.11 186.89
-9755663.19 5135374.98 185.04
-9755664.31 5135373.60 186.44
-9755663.74 5135378.27 184.99
-9755664.77 5135376.40 186.69
-9755665.23 5135374.42 187.02
-9755654.33 5135377.57 185.17
-9755653.41 5135377.27 185.20
-9755654.58 5135378.44 185.16
-9755651.04 5135371.55 186.85
-9755654.36 5135372.58 185.14
-9755651.11 5135371.54 186.59
-9755649.62 5135377.22 185.25
-9755652.00 5135370.74 185.20
-9755650.18 5135375.18 185.26
-9755649.35 5135373.39 185.28
-9755652.00 5135373.12 185.21
-9755649.41 5135369.96 186.49
-9755652.01 5135371.58 185.21
-9755652.83 5135374.87 185.22
-9755651.19 5135370.91 187.12
-9755652.02 5135375.80 185.20
-9755649.59 5135374.26 185.25
-9755651.06 5135379.66 185.26
-9755650.26 5135370.07 186.90
-9755651.18 5135374.93 185.25
-9755650.20 5135374.05 185.25
-9755652.42 5135380.46 186.85
-9755651.04 5135376.70 185.29
-9755652.83 5135374.06 185.21
-9755649.31 5135372.51 185.25
-9755651.10 5135369.83 185.24
-9755651.14 5135369.83 186.27
-9755652.89 5135370.77 185.22
-9755652.84 5135378.45 185.23
-9755654.38 5135373.17 185.14
-9755652.81 5135379.02 185.23
-9755650.21 5135370.92 186.60
-9755652.82 5135377.57 185.24
-9755651.71 5135374.82 186.88
-9755650.27 5135370.59 186.97
-9755651.66 5135371.59 187.00
-9755653.72 5135373.20 185.16
-9755651.76 5135370.67 186.91
-9755650.86 5135370.97 186.59
-9755651.93 5135374.93 185.21
-9755649.40 5135370.03 187.09
-9755651.32 5135376.07 186.92
-9755649.36 5135370.93 187.14
-9755653.72 5135379.96 185.20
-9755650.47 5135372.52 185.23
-9755653.68 5135379.08 185.19
-9755651.86 5135372.49 186.85
-9755650.94 5135369.46 186.23
-9755650.25 5135369.19 186.86
-9755653.45 5135371.66 185.16
-9755651.44 5135381.07 186.85
-9755651.97 5135369.87 185.20
-9755652.35 5135380.05 186.66
-9755649.66 5135371.40 187.19
-9755650.09 5135371.19 187.14
-9755647.90 5135381.36 186.09
-9755646.29 5135381.68 185.41
-9755648.19 5135380.50 186.03
-9755641.89 5135380.45 185.26
-9755644.30 5135380.49 185.41
-9755647.67 5135380.76 186.94
-9755643.11 5135381.34 185.41
-9755647.16 5135381.70 185.29
-9755647.95 5135379.93 185.78
-9755644.60 5135379.57 185.41
-9755645.19 5135381.40 185.41
-9755645.48 5135382.56 185.41
-9755648.69 5135393.72 185.66
-9755646.91 5135382.00 185.33
-9755648.59 5135394.79 186.50
-9755642.12 5135387.23 185.27
-9755648.61 5135388.11 185.27
-9755644.55 5135384.90 185.39
-9755644.79 5135389.69 185.40
-9755647.79 5135381.61 186.94
-9755642.19 5135390.21 185.27
-9755648.65 5135384.93 185.25
-9755648.63 5135391.40 185.72
-9755645.05 5135390.52 185.39
-9755641.32 5135381.66 185.13
-9755643.64 5135393.81 185.40
-9755648.69 5135387.35 185.25
-9755644.22 5135385.84 185.40
-9755648.65 5135392.33 185.27
-9755647.18 5135384.67 185.28
-9755648.56 5135392.97 185.68
-9755648.61 5135393.83 186.55
-9755644.75 5135392.03 185.40
-9755648.13 5135393.43 186.64
-9755646.24 5135389.69 185.41
-9755645.15 5135386.66 185.41
-9755641.29 5135382.90 185.17
-9755646.83 5135394.70 185.36
-9755648.05 5135387.25 186.94
-9755647.20 5135387.27 185.28
-9755646.86 5135388.18 185.36
-9755646.31 5135384.03 185.40
-9755647.90 5135389.71 185.79
-9755645.94 5135394.68 185.40
-9755647.83 5135386.40 186.96
-9755648.80 5135392.34 187.10
-9755643.97 5135391.47 185.41
-9755641.56 5135391.45 185.15
-9755647.80 5135389.76 186.92
-9755643.60 5135392.89 185.40
-9755648.07 5135391.60 186.08
-9755646.24 5135392.67 185.40
-9755646.38 5135383.18 185.39
-9755645.09 5135391.40 185.42
-9755643.58 5135392.00 185.41
-9755647.74 5135388.73 185.93
-9755646.30 5135386.71 185.41
-9755647.11 5135389.06 185.32
-9755648.03 5135384.60 186.29
-9755643.91 5135389.93 185.40
-9755640.98 5135384.64 185.11
-9755648.12 5135389.39 186.14
-9755643.63 5135394.96 185.41
-9755641.27 5135390.51 185.11
-9755642.75 5135388.76 185.40
-9755640.99 5135389.66 185.08
-9755647.89 5135384.32 186.36
-9755645.98 5135391.45 185.42
-9755641.19 5135392.32 185.10
-9755646.91 5135383.19 185.35
-9755648.07 5135394.64 186.94
-9755642.16 5135384.90 185.30
-9755643.01 5135391.40 185.39
-9755647.95 5135393.78 186.95
-9755644.48 5135393.81 185.40
-9755641.29 5135386.39 185.17
-9755641.26 5135389.06 185.12
-9755640.42 5135385.51 185.06
-9755640.37 5135386.67 185.05
-9755640.40 5135388.20 185.05
-9755640.71 5135387.26 185.07
-9755640.17 5135391.12 185.02
-9755641.26 5135394.64 185.10
-9755639.56 5135387.31 185.03
-9755639.77 5135391.09 185.01
-9755643.55 5135397.04 185.40
-9755643.58 5135396.16 185.41
-9755647.94 5135398.27 185.23
-9755647.75 5135397.04 185.21
-9755643.88 5135395.59 185.41
-9755646.24 5135395.57 185.40
-9755648.55 5135397.03 186.46
-9755644.46 5135397.65 185.39
-9755642.72 5135397.93 185.37
-9755645.04 5135397.31 185.38
-9755648.10 5135395.35 186.96
-9755648.57 5135396.44 186.86
-9755646.24 5135397.32 185.39
-9755641.85 5135395.28 185.20
-9755645.61 5135397.90 185.39
-9755641.85 5135397.93 185.19
-9755641.19 5135398.86 185.11
-9755645.07 5135396.16 185.38
-9755641.25 5135397.98 185.09
-9755647.13 5135396.20 185.31
-9755644.45 5135396.21 185.40
-9755640.39 5135395.61 185.00
-9755640.09 5135397.91 185.00
-9755640.06 5135397.02 185.00
-9755639.41 5135398.56 185.01
-9755640.60 5135398.25 185.02
-9755639.82 5135381.38 184.95
-9755635.15 5135380.76 185.08
-9755630.40 5135380.66 185.21
-9755638.69 5135380.70 184.95
-9755632.87 5135381.21 186.47
-9755632.97 5135380.34 186.47
-9755629.49 5135380.67 185.13
-9755628.90 5135380.36 185.20
-9755634.53 5135380.77 185.20
-9755633.40 5135380.69 185.25
-9755631.28 5135380.98 185.25
-9755631.96 5135379.79 186.46
-9755638.65 5135379.59 184.97
-9755637.19 5135379.52 184.91
-9755636.93 5135381.32 184.98
-9755632.42 5135380.70 186.47
-9755629.83 5135381.27 185.11
-9755635.14 5135379.58 185.06
-9755628.05 5135380.10 185.23
-9755628.05 5135380.70 185.23
-9755627.14 5135380.08 185.23
-9755623.34 5135380.66 185.26
-9755622.15 5135381.24 185.25
-9755623.90 5135380.93 185.23
-9755623.98 5135380.07 185.23
-9755627.18 5135381.27 185.23
-9755624.78 5135380.66 185.24
-9755638.63 5135384.85 185.01
-9755633.93 5135385.71 186.46
-9755638.88 5135388.75 185.04
-9755636.21 5135392.89 185.03
-9755631.45 5135388.98 186.16
-9755632.98 5135391.27 186.46
-9755637.79 5135383.10 184.95
-9755634.45 5135390.22 185.20
-9755633.96 5135392.25 186.36
-9755634.50 5135393.77 185.20
-9755632.24 5135382.41 186.45
-9755632.19 5135387.42 186.47
-9755634.23 5135390.48 186.34
-9755633.92 5135393.63 186.36
-9755636.84 5135389.93 185.06
-9755633.03 5135386.42 185.23
-9755636.63 5135382.26 184.99
-9755632.22 5135384.73 186.49
-9755635.33 5135392.85 185.10
-9755634.56 5135393.97 186.46
-9755632.14 5135388.99 186.43
-9755632.14 5135394.87 186.30
-9755635.41 5135387.87 185.11
-9755633.97 5135391.99 185.23
-9755627.96 5135388.62 185.21
-9755636.81 5135391.40 185.05
-9755634.53 5135384.92 185.21
-9755632.05 5135390.44 186.43
-9755637.69 5135390.54 185.03
-9755632.93 5135389.81 186.43
-9755632.93 5135383.32 185.62
-9755631.26 5135393.07 186.32
-9755631.24 5135385.70 186.46
-9755630.67 5135388.99 185.21
-9755630.53 5135393.92 186.45
-9755634.14 5135393.77 185.22
-9755628.90 5135383.34 185.19
-9755628.87 5135393.10 185.17
-9755631.24 5135392.18 186.33
-9755637.75 5135381.32 184.96
-9755635.34 5135386.69 185.13
-9755633.53 5135391.35 186.36
-9755638.59 5135387.86 185.04
-9755636.50 5135392.28 185.03
-9755628.87 5135386.92 185.18
-9755635.36 5135393.73 185.11
-9755631.23 5135393.66 186.33
-9755632.98 5135383.99 186.48
-9755632.15 5135393.14 186.43
-9755634.44 5135392.24 186.46
-9755632.97 5135390.69 186.41
-9755630.71 5135391.71 186.37
-9755638.01 5135386.63 185.02
-9755638.59 5135392.28 185.06
-9755633.88 5135388.74 185.23
-9755634.44 5135391.65 186.41
-9755638.00 5135393.77 185.06
-9755633.95 5135390.45 186.34
-9755637.70 5135387.28 185.02
-9755631.27 5135390.38 186.33
-9755636.85 5135392.33 185.03
-9755632.72 5135382.68 186.45
-9755628.82 5135394.00 185.17
-9755638.56 5135387.29 185.02
-9755629.75 5135390.51 185.13
-9755633.92 5135394.69 186.36
-9755629.50 5135385.70 185.15
-9755633.70 5135388.10 186.12
-9755634.52 5135388.14 185.20
-9755630.58 5135390.42 186.46
-9755635.41 5135382.21 185.05
-9755630.70 5135383.91 185.20
-9755632.14 5135382.97 186.45
-9755630.67 5135382.20 185.22
-9755632.11 5135385.66 186.45
-9755630.56 5135394.64 186.45
-9755636.87 5135385.52 185.03
-9755633.10 5135386.26 186.40
-9755633.67 5135387.15 186.18
-9755636.25 5135386.94 185.05
-9755633.26 5135393.98 186.35
-9755628.83 5135392.22 185.19
-9755628.92 5135391.66 185.19
-9755632.00 5135386.58 186.50
-9755631.34 5135389.54 186.21
-9755631.52 5135391.26 186.33
-9755633.92 5135389.85 185.22
-9755637.19 5135382.51 184.98
-9755628.03 5135389.85 185.21
-9755634.45 5135391.44 185.21
-9755630.63 5135393.08 185.19
-9755627.98 5135386.66 185.22
-9755630.59 5135393.15 186.47
-9755633.60 5135386.59 185.95
-9755628.02 5135383.38 185.25
-9755637.15 5135385.19 185.03
-9755631.62 5135385.18 186.42
-9755632.39 5135386.11 186.94
-9755636.58 5135383.99 185.01
-9755627.98 5135393.15 185.21
-9755632.74 5135383.11 186.50
-9755633.94 5135391.10 185.22
-9755628.57 5135389.81 185.19
-9755629.44 5135394.00 185.15
-9755637.78 5135389.04 185.05
-9755628.81 5135394.61 185.18
-9755630.99 5135382.22 185.24
-9755627.43 5135388.09 185.21
-9755623.37 5135381.56 185.26
-9755622.08 5135392.19 185.25
-9755623.93 5135383.94 185.24
-9755621.23 5135388.66 185.28
-9755622.13 5135383.33 185.25
-9755624.51 5135381.56 185.26
-9755621.24 5135384.78 185.25
-9755623.00 5135390.70 185.26
-9755621.54 5135387.48 185.25
-9755621.55 5135393.65 185.26
-9755622.38 5135384.22 185.26
-9755625.58 5135394.62 185.19
-9755625.31 5135391.31 185.18
-9755623.83 5135388.04 185.24
-9755623.89 5135386.29 185.24
-9755623.93 5135388.64 185.25
-9755626.18 5135394.59 185.20
-9755624.78 5135387.48 185.23
-9755621.53 5135385.42 185.25
-9755627.16 5135384.55 185.22
-9755624.51 5135382.15 185.25
-9755620.64 5135391.58 185.23
-9755627.44 5135383.09 185.22
-9755627.38 5135394.64 185.19
-9755624.78 5135392.48 185.23
-9755619.72 5135384.81 185.00
-9755625.63 5135390.50 185.21
-9755620.39 5135388.93 185.25
-9755627.17 5135385.43 185.22
-9755621.54 5135389.81 185.24
-9755625.31 5135388.09 185.22
-9755619.72 5135389.77 185.00
-9755625.64 5135392.21 185.18
-9755624.77 5135383.34 185.23
-9755621.48 5135392.20 185.24
-9755625.01 5135391.33 185.21
-9755626.29 5135385.70 185.22
-9755627.45 5135387.19 185.19
-9755626.52 5135387.78 185.21
-9755621.23 5135386.51 185.25
-9755626.56 5135386.58 185.21
-9755620.39 5135383.31 185.23
-9755620.34 5135387.16 185.21
-9755622.12 5135390.40 185.25
-9755622.43 5135386.58 185.25
-9755620.70 5135382.16 185.25
-9755626.48 5135392.25 185.19
-9755622.39 5135394.60 185.27
-9755626.22 5135387.21 185.21
-9755622.41 5135388.03 185.25
-9755623.04 5135388.91 185.26
-9755627.97 5135398.81 185.19
-9755632.12 5135395.39 186.41
-9755631.44 5135395.58 185.24
-9755631.69 5135396.36 185.22
-9755632.14 5135398.08 186.27
-9755639.16 5135397.93 185.04
-9755633.87 5135396.40 186.38
-9755633.91 5135397.78 186.39
-9755629.75 5135395.50 185.12
-9755635.34 5135397.04 185.12
-9755638.57 5135396.44 185.05
-9755637.96 5135395.78 185.04
-9755634.44 5135395.45 186.39
-9755632.94 5135397.82 186.47
-9755637.96 5135397.08 185.02
-9755633.07 5135396.42 186.46
-9755632.89 5135397.23 186.48
-9755631.26 5135396.99 186.34
-9755631.24 5135396.33 186.32
-9755633.25 5135395.38 186.39
-9755639.18 5135394.93 185.03
-9755634.65 5135396.91 186.45
-9755633.82 5135396.95 186.38
-9755627.97 5135396.93 185.20
-9755628.83 5135397.87 185.19
-9755634.38 5135398.14 186.43
-9755635.31 5135398.15 185.13
-9755630.66 5135398.03 186.38
-9755635.63 5135395.59 185.06
-9755637.39 5135395.58 185.02
-9755634.41 5135398.81 185.21
-9755634.43 5135395.53 185.22
-9755632.23 5135396.33 186.45
-9755631.15 5135397.78 186.34
-9755638.55 5135397.04 185.05
-9755621.51 5135398.73 185.25
-9755625.61 5135395.51 185.17
-9755627.32 5135395.46 185.18
-9755625.63 5135396.38 185.17
-9755624.11 5135399.04 185.23
-9755626.48 5135397.86 185.19
-9755623.87 5135396.39 185.23
-9755619.97 5135394.88 185.09
-9755623.21 5135396.42 185.25
-9755626.47 5135395.52 185.19
-9755626.49 5135397.28 185.19
-9755622.95 5135397.88 185.25
-9755619.97 5135398.73 185.10
-9755619.69 5135396.35 184.98
-9755620.00 5135395.40 185.13
-9755624.15 5135395.47 185.21
-9755623.84 5135397.83 185.25
-9755648.42 5135371.62 186.60
-9755644.32 5135377.51 185.41
-9755648.47 5135373.98 185.28
-9755648.04 5135379.02 185.73
-9755646.90 5135378.09 185.31
-9755646.94 5135374.86 185.29
-9755647.88 5135373.38 185.26
-9755641.99 5135375.75 185.29
-9755647.65 5135371.54 186.97
-9755648.97 5135370.12 186.93
-9755646.95 5135370.71 185.25
-9755646.37 5135376.64 185.40
-9755643.70 5135372.19 185.42
-9755645.44 5135377.52 185.44
-9755645.50 5135373.04 185.43
-9755646.12 5135375.77 185.40
-9755647.66 5135374.67 186.29
-9755647.66 5135377.40 186.93
-9755644.64 5135373.37 185.42
-9755647.67 5135374.78 187.03
-9755644.30 5135374.86 185.41
-9755642.87 5135370.65 185.43
-9755641.92 5135376.61 185.26
-9755647.99 5135375.69 186.29
-9755643.72 5135370.09 185.43
-9755643.11 5135377.18 185.43
-9755641.99 5135373.36 185.32
-9755648.65 5135374.94 185.26
-9755646.71 5135376.37 185.34
-9755646.13 5135371.62 185.41
-9755648.35 5135375.62 186.25
-9755644.30 5135378.10 185.42
-9755647.89 5135370.93 186.66
-9755642.83 5135373.04 185.41
-9755642.89 5135371.60 185.42
-9755644.58 5135378.68 185.40
-9755648.43 5135372.25 185.62
-9755641.36 5135378.38 185.12
-9755646.43 5135370.68 185.36
-9755641.33 5135379.89 185.12
-9755641.97 5135374.85 185.27
-9755643.73 5135376.05 185.41
-9755645.48 5135379.57 185.41
-9755641.36 5135374.00 185.12
-9755640.50 5135373.98 184.96
-9755640.18 5135377.21 184.94
-9755639.57 5135371.58 184.90
-9755641.36 5135371.62 185.13
-9755640.18 5135371.59 184.94
-9755641.09 5135370.76 185.06
-9755639.32 5135370.94 184.89
-9755641.09 5135372.46 185.07
-9755639.55 5135379.63 184.90
-9755633.77 5135370.05 186.38
-9755632.18 5135378.07 186.50
-9755631.37 5135376.52 186.34
-9755635.44 5135376.27 184.99
-9755630.75 5135373.32 186.34
-9755634.58 5135374.80 185.11
-9755638.07 5135373.98 184.87
-9755634.62 5135370.69 185.13
-9755631.08 5135373.29 186.35
-9755631.33 5135375.65 186.33
-9755633.70 5135375.07 186.41
-9755629.55 5135376.53 185.12
-9755629.83 5135377.47 185.10
-9755638.73 5135374.89 184.88
-9755633.66 5135375.69 186.40
-9755631.44 5135370.92 186.33
-9755635.48 5135373.04 184.93
-9755630.48 5135375.09 186.36
-9755631.94 5135376.51 186.46
-9755635.49 5135377.49 184.97
-9755636.29 5135378.09 184.93
-9755633.73 5135373.29 186.40
-9755638.72 5135369.84 184.92
-9755631.31 5135374.99 186.33
-9755633.69 5135370.83 186.39
-9755635.45 5135379.24 185.01
-9755634.07 5135374.10 186.43
-9755632.87 5135370.65 186.40
-9755632.92 5135375.00 186.39
-9755631.30 5135379.79 185.26
-9755633.75 5135372.38 186.39
-9755633.77 5135371.55 186.41
-9755630.51 5135371.50 186.35
-9755630.69 5135376.57 186.34
-9755629.82 5135378.06 185.11
-9755635.45 5135371.58 184.98
-9755636.38 5135371.58 184.95
-9755634.60 5135370.33 185.13
-9755633.03 5135376.45 186.37
-9755634.25 5135372.99 186.45
-9755638.09 5135371.56 184.91
-9755636.34 5135375.40 184.93
-9755632.23 5135374.69 186.47
-9755633.16 5135375.65 186.39
-9755633.96 5135376.52 186.43
-9755633.71 5135377.46 186.39
-9755638.65 5135376.70 184.86
-9755628.96 5135377.52 185.19
-9755628.99 5135375.96 185.19
-9755632.23 5135369.04 186.47
-9755635.46 5135372.47 184.96
-9755631.35 5135371.39 186.34
-9755632.87 5135372.42 186.38
-9755632.00 5135374.18 186.49
-9755639.33 5135378.11 184.89
-9755634.00 5135373.83 185.24
-9755629.54 5135372.99 185.12
-9755633.75 5135369.16 186.43
-9755637.85 5135379.04 184.90
-9755628.07 5135377.12 185.24
-9755633.09 5135377.19 186.36
-9755633.08 5135374.22 186.39
-9755631.30 5135378.24 186.37
-9755636.93 5135378.11 184.90
-9755632.99 5135378.20 186.43
-9755631.69 5135379.21 186.47
-9755628.68 5135370.02 185.21
-9755632.27 5135370.89 186.45
-9755632.14 5135377.11 186.45
-9755629.97 5135370.52 186.45
-9755636.04 5135373.92 184.94
-9755634.59 5135371.51 185.12
-9755638.12 5135370.06 184.93
-9755628.99 5135371.49 185.18
-9755634.64 5135373.38 185.10
-9755634.59 5135373.90 185.12
-9755632.85 5135369.09 186.38
-9755634.25 5135375.02 186.51
-9755628.11 5135371.53 185.25
-9755629.86 5135378.95 185.11
-9755634.28 5135375.68 186.52
-9755628.11 5135370.63 185.25
-9755628.08 5135378.03 185.23
-9755621.34 5135380.06 185.25
-9755625.42 5135371.49 185.23
-9755623.96 5135372.35 185.19
-9755626.33 5135371.48 185.25
-9755622.24 5135373.53 185.25
-9755620.40 5135375.66 185.25
-9755624.52 5135378.89 185.23
-9755624.86 5135375.63 185.21
-9755619.86 5135376.50 185.19
-9755623.98 5135371.53 185.18
-9755627.19 5135377.12 185.23
-9755625.45 5135370.28 185.24
-9755620.42 5135377.10 185.25
-9755620.70 5135378.86 185.24
-9755619.83 5135375.01 185.20
-9755620.37 5135373.83 185.25
-9755626.60 5135380.08 185.21
-9755624.88 5135370.03 185.22
-9755625.78 5135372.44 185.22
-9755619.85 5135377.39 185.19
-9755623.96 5135374.73 185.19
-9755624.82 5135378.01 185.22
-9755626.60 5135372.41 185.23
-9755621.28 5135373.82 185.26
-9755619.85 5135373.82 185.21
-9755621.31 5135374.71 185.25
-9755625.11 5135376.55 185.23
-9755620.44 5135376.55 185.25
-9755621.33 5135376.49 185.26
-9755626.32 5135378.32 185.22
-9755627.22 5135369.73 185.24
-9755622.19 5135377.40 185.25
-9755620.12 5135378.26 185.24
-9755623.38 5135375.63 185.26
-9755620.45 5135373.24 185.27
-9755622.52 5135370.87 185.25
-9755623.70 5135370.00 185.19
-9755623.35 5135377.41 185.25
-9755627.22 5135370.91 185.25
-9755623.13 5135376.83 185.26
-9755625.40 5135378.02 185.23
-9755619.87 5135372.37 185.21
-9755619.49 5135381.26 185.00
-9755618.27 5135380.65 184.74
-9755616.52 5135381.55 184.65
-9755619.22 5135381.25 184.86
-9755615.94 5135381.26 184.60
-9755613.31 5135380.80 181.22
-9755619.14 5135390.40 184.80
-9755614.77 5135382.28 181.21
-9755616.48 5135390.42 184.64
-9755616.50 5135384.82 184.66
-9755618.25 5135385.69 184.70
-9755616.56 5135382.42 184.65
-9755617.39 5135386.29 184.68
-9755618.27 5135389.85 184.72
-9755617.97 5135393.13 184.72
-9755616.50 5135387.12 184.65
-9755618.02 5135382.45 184.73
-9755614.72 5135390.54 181.23
-9755618.00 5135384.82 184.69
-9755618.84 5135388.93 184.75
-9755618.26 5135388.36 184.72
-9755619.11 5135393.98 184.81
-9755617.07 5135393.08 184.66
-9755618.04 5135383.02 184.72
-9755618.29 5135386.56 184.73
-9755617.41 5135382.99 184.70
-9755614.97 5135389.69 181.21
-9755617.35 5135391.32 184.65
-9755614.99 5135387.92 181.21
-9755616.29 5135392.13 184.69
-9755615.73 5135385.28 184.63
-9755616.03 5135383.99 184.26
-9755618.30 5135383.89 184.72
-9755616.52 5135393.74 184.65
-9755614.62 5135392.37 181.23
-9755614.73 5135384.08 181.20
-9755615.63 5135389.67 181.24
-9755614.16 5135384.35 181.20
-9755613.77 5135393.82 181.22
-9755614.13 5135383.19 181.21
-9755613.19 5135387.28 181.20
-9755614.11 5135390.58 181.23
-9755614.67 5135394.75 181.22
-9755613.26 5135385.51 181.20
-9755614.11 5135392.35 181.23
-9755613.52 5135388.82 181.23
-9755614.07 5135389.69 181.23
-9755613.81 5135394.47 181.22
-9755619.08 5135397.27 184.80
-9755619.12 5135395.50 184.81
-9755616.44 5135396.33 184.64
-9755616.44 5135395.47 184.65
-9755615.59 5135397.11 181.26
-9755616.49 5135396.93 184.65
-9755615.52 5135396.48 181.24
-9755614.67 5135396.21 181.21
-9755613.20 5135396.21 181.23
-9755613.76 5135395.59 181.23
-9755613.16 5135397.39 181.22
-9755613.27 5135379.92 181.22
-9755611.42 5135379.93 181.06
-9755610.62 5135379.90 181.08
-9755610.68 5135380.57 181.06
-9755609.71 5135393.73 181.09
-9755609.15 5135390.45 181.08
-9755612.32 5135385.58 181.04
-9755609.12 5135393.09 181.05
-9755610.55 5135389.98 181.07
-9755608.89 5135383.14 181.09
-9755609.08 5135384.91 181.07
-9755610.92 5135384.99 181.04
-9755610.64 5135386.43 181.09
-9755609.76 5135392.90 181.06
-9755609.98 5135383.07 181.08
-9755610.01 5135389.73 181.06
-9755611.44 5135391.20 181.05
-9755610.90 5135387.30 181.06
-9755610.05 5135388.16 181.07
-9755609.02 5135387.98 181.07
-9755612.37 5135390.56 181.05
-9755612.35 5135387.33 181.05
-9755612.32 5135392.93 181.06
