-9755301.48 5135639.59 205.71
-9755296.51 5135639.02 206.07
-9755297.91 5135639.55 206.27
-9755304.00 5135638.20 205.33
-9755297.09 5135639.79 206.26
-9755296.83 5135639.47 206.15
-9755302.35 5135639.87 205.70
-9755300.33 5135639.31 205.72
-9755300.00 5135640.95 206.84
-9755305.65 5135640.11 206.25
-9755307.42 5135639.57 205.73
-9755304.78 5135640.17 206.28
-9755300.07 5135637.80 205.14
-9755305.03 5135638.07 205.15
-9755303.28 5135640.72 206.27
-9755295.26 5135639.06 203.63
-9755301.23 5135638.43 205.16
-9755299.15 5135638.96 205.71
-9755306.31 5135640.46 205.87
-9755307.09 5135640.78 206.29
-9755304.22 5135639.03 205.69
-9755304.75 5135639.29 205.71
-9755295.84 5135638.87 205.84
-9755295.00 5135638.41 203.60
-9755304.16 5135639.56 205.71
-9755300.07 5135639.26 205.71
-9755296.21 5135638.33 205.57
-9755297.49 5135638.89 205.75
-9755297.72 5135638.95 205.87
-9755302.98 5135640.75 206.27
-9755305.35 5135640.48 206.27
-9755302.39 5135638.17 205.12
-9755303.29 5135638.13 205.15
-9755297.11 5135640.64 206.29
-9755300.12 5135639.57 206.21
-9755306.22 5135640.21 206.29
-9755298.23 5135640.70 206.30
-9755297.92 5135639.25 205.71
-9755300.57 5135638.27 205.70
-9755295.66 5135638.92 206.25
-9755300.02 5135638.38 205.69
-9755295.28 5135637.84 203.57
-9755294.99 5135638.19 203.58
-9755299.49 5135639.80 205.73
-9755304.22 5135638.13 205.14
-9755307.07 5135637.85 204.60
-9755305.59 5135638.99 205.71
-9755297.37 5135639.83 206.26
-9755305.92 5135639.91 205.73
-9755307.39 5135639.23 205.60
-9755307.10 5135639.60 205.73
-9755301.84 5135639.00 205.69
-9755306.18 5135640.80 206.29
-9755300.60 5135640.42 206.28
-9755302.12 5135638.07 204.65
-9755305.32 5135639.89 205.73
-9755294.09 5135639.19 206.28
-9755299.75 5135640.15 206.27
-9755297.41 5135638.38 205.67
-9755295.61 5135639.50 206.26
-9755297.35 5135638.10 205.50
-9755296.28 5135638.03 206.31
-9755300.61 5135637.62 204.60
-9755305.08 5135639.57 205.72
-9755298.88 5135637.76 205.15
-9755295.90 5135638.06 205.51
-9755295.25 5135639.58 206.40
-9755295.04 5135639.07 203.63
-9755304.47 5135639.86 205.73
-9755294.63 5135639.55 203.65
-9755302.65 5135639.60 206.25
-9755302.70 5135639.55 205.71
-9755306.82 5135639.88 205.73
-9755307.44 5135637.88 204.64
-9755298.56 5135639.60 205.72
-9755295.95 5135638.05 206.16
-9755299.18 5135638.68 205.19
-9755295.93 5135637.42 205.66
-9755295.83 5135638.14 203.60
-9755304.86 5135639.36 205.23
-9755303.54 5135640.09 205.73
-9755304.15 5135638.71 205.16
-9755296.20 5135640.44 206.30
-9755301.24 5135637.81 205.16
-9755299.45 5135640.43 206.29
-9755295.20 5135639.78 206.44
-9755305.94 5135640.14 205.74
-9755298.59 5135639.23 205.71
-9755297.37 5135640.45 206.29
-9755297.98 5135637.81 205.15
-9755305.37 5135640.70 206.28
-9755304.73 5135640.72 206.29
-9755302.38 5135637.84 204.59
-9755306.48 5135640.18 205.74
-9755299.45 5135638.07 205.59
-9755298.26 5135638.45 205.16
-9755295.89 5135637.81 204.88
-9755302.37 5135640.13 206.27
-9755300.68 5135639.82 205.74
-9755297.44 5135640.33 206.81
-9755305.95 5135639.07 205.18
-9755300.01 5135640.41 206.29
-9755301.47 5135640.15 206.27
-9755299.75 5135639.85 205.76
-9755300.93 5135638.99 205.71
-9755297.08 5135637.77 205.30
-9755296.50 5135640.11 206.28
-9755307.05 5135638.16 204.62
-9755307.12 5135639.06 205.62
-9755306.53 5135639.62 205.72
-9755295.30 5135639.66 203.64
-9755301.55 5135639.87 206.26
-9755301.53 5135638.40 205.16
-9755295.24 5135640.04 206.56
-9755299.46 5135638.32 205.62
-9755301.51 5135639.31 205.70
-9755301.30 5135637.83 204.61
-9755299.69 5135639.26 205.71
-9755295.87 5135638.78 203.63
-9755299.14 5135640.66 206.28
-9755297.04 5135638.05 205.50
-9755306.25 5135640.17 205.74
-9755294.17 5135639.48 206.32
-9755294.29 5135640.26 206.70
-9755295.63 5135640.60 206.83
-9755295.60 5135637.91 203.58
-9755298.59 5135639.52 206.26
-9755306.23 5135638.15 204.61
-9755299.48 5135639.82 206.28
-9755305.13 5135639.62 206.26
-9755294.77 5135640.89 207.01
-9755304.18 5135637.88 205.14
-9755295.71 5135638.35 206.23
-9755305.64 5135638.36 204.59
-9755300.64 5135638.41 205.15
-9755297.11 5135638.94 205.88
-9755299.13 5135637.80 205.14
-9755302.96 5135640.43 206.27
-9755294.43 5135637.27 203.56
-9755293.51 5135638.28 206.41
-9755293.20 5135638.00 206.26
-9755292.38 5135637.42 205.36
-9755292.63 5135638.94 206.12
-9755292.68 5135638.35 205.88
-9755293.87 5135638.57 206.26
-9755292.98 5135639.80 206.27
-9755293.31 5135637.45 205.47
-9755293.54 5135637.41 205.55
-9755293.71 5135637.58 204.92
-9755293.85 5135637.60 203.57
-9755293.23 5135639.48 206.27
-9755293.28 5135637.42 205.90
-9755292.79 5135639.96 206.97
-9755293.94 5135639.90 206.62
-9755293.88 5135639.25 206.28
-9755292.98 5135638.61 205.93
-9755293.23 5135638.65 206.17
-9755292.43 5135639.18 206.25
-9755292.67 5135640.30 206.82
-9755292.77 5135637.27 203.72
-9755293.20 5135637.45 205.36
-9755293.59 5135639.79 206.33
-9755292.65 5135639.79 206.27
-9755293.86 5135640.06 206.70
-9755299.19 5135637.87 205.66
-9755302.12 5135634.88 204.06
-9755298.30 5135634.87 203.71
-9755307.16 5135634.67 204.03
-9755297.43 5135633.45 203.35
-9755300.69 5135635.27 203.96
-9755296.23 5135635.13 204.00
-9755307.42 5135635.54 204.05
-9755302.41 5135634.08 203.37
-9755306.28 5135635.53 203.43
-9755294.44 5135634.58 203.48
-9755304.71 5135635.20 204.00
-9755303.91 5135634.67 203.44
-9755307.43 5135634.08 203.81
-9755302.12 5135635.47 203.45
-9755299.76 5135635.80 204.02
-9755307.13 5135635.03 203.42
-9755298.84 5135634.93 203.44
-9755294.83 5135633.15 203.34
-9755300.71 5135634.52 204.02
-9755301.81 5135634.84 204.05
-9755294.74 5135633.41 204.00
-9755299.77 5135634.91 203.45
-9755298.03 5135633.81 203.38
-9755307.46 5135634.66 203.35
-9755295.89 5135635.49 203.50
-9755299.17 5135635.24 204.00
-9755302.73 5135635.47 203.45
-9755305.09 5135635.50 203.46
-9755295.91 5135634.61 203.49
-9755295.04 5135634.03 203.46
-9755302.35 5135634.65 204.02
-9755296.70 5135635.56 203.62
-9755306.50 5135634.92 204.03
-9755298.57 5135633.99 203.38
-9755296.23 5135635.53 204.16
-9755305.97 5135635.56 203.44
-9755294.10 5135635.54 203.50
-9755296.52 5135635.85 204.37
-9755304.77 5135635.88 204.00
-9755295.30 5135635.53 203.50
-9755297.10 5135635.71 204.22
-9755298.86 5135634.29 204.02
-9755297.43 5135633.68 203.37
-9755297.40 5135634.90 203.82
-9755307.15 5135633.81 203.81
-9755295.58 5135633.86 204.02
-9755294.47 5135633.12 203.34
-9755296.19 5135633.20 204.01
-9755299.38 5135635.52 203.46
-9755302.10 5135634.10 203.37
-9755303.31 5135635.60 203.46
-9755295.61 5135635.79 203.50
-9755295.89 5135635.50 204.24
-9755301.40 5135634.94 203.93
-9755302.42 5135634.36 203.42
-9755297.95 5135633.26 203.38
-9755300.85 5135633.98 203.36
-9755303.04 5135634.86 204.00
-9755299.39 5135634.08 203.41
-9755296.82 5135633.67 204.02
-9755306.83 5135634.27 203.94
-9755295.63 5135633.14 204.02
-9755305.36 5135634.95 204.02
-9755303.27 5135634.93 203.46
-9755298.49 5135633.71 203.32
-9755298.85 5135635.78 204.02
-9755297.95 5135633.73 204.01
-9755297.71 5135633.69 204.01
-9755296.23 5135634.93 203.62
-9755295.68 5135633.14 203.34
-9755301.14 5135634.72 204.01
-9755294.16 5135633.40 203.38
-9755303.00 5135633.76 203.36
-9755299.77 5135634.63 203.45
-9755304.83 5135633.80 203.29
-9755307.73 5135634.61 203.36
-9755300.64 5135634.01 204.02
-9755302.77 5135633.75 203.35
-9755305.35 5135635.54 203.45
-9755307.63 5135635.82 203.86
-9755303.91 5135634.04 203.35
-9755295.98 5135635.60 204.74
-9755295.42 5135633.16 204.02
-9755304.96 5135635.54 204.05
-9755306.55 5135635.52 203.43
-9755307.11 5135634.41 204.02
-9755299.47 5135633.76 203.33
-9755298.68 5135633.54 204.00
-9755300.33 5135633.71 204.00
-9755304.75 5135635.80 203.46
-9755296.29 5135634.33 203.55
-9755302.17 5135634.27 204.02
-9755297.70 5135633.94 204.01
-9755296.18 5135635.73 204.24
-9755294.16 5135635.14 203.48
-9755295.92 5135635.21 203.49
-9755298.50 5135635.50 204.02
-9755297.11 5135634.89 203.82
-9755295.86 5135633.72 203.43
-9755298.33 5135633.06 203.82
-9755298.00 5135633.47 203.35
-9755302.14 5135634.65 203.45
-9755301.21 5135634.03 203.35
-9755302.07 5135635.22 203.45
-9755306.51 5135634.65 203.41
-9755301.51 5135635.25 203.46
-9755307.05 5135633.26 203.60
-9755305.39 5135634.64 203.38
-9755297.08 5135634.34 203.63
-9755299.34 5135635.01 203.99
-9755305.33 5135634.18 204.01
-9755299.99 5135633.57 204.00
-9755296.51 5135634.31 203.59
-9755297.96 5135634.91 203.85
-9755294.74 5135635.80 203.51
-9755297.07 5135635.47 204.16
-9755298.05 5135634.89 203.71
-9755294.74 5135634.62 203.48
-9755297.98 5135635.15 203.94
-9755294.42 5135634.95 203.48
-9755298.01 5135633.37 203.99
-9755297.99 5135635.79 204.04
-9755292.97 5135632.67 203.31
-9755292.40 5135634.55 203.48
-9755293.89 5135632.84 203.99
-9755292.95 5135634.90 203.49
-9755293.59 5135634.02 203.47
-9755293.29 5135634.30 203.48
-9755293.86 5135633.80 204.02
-9755292.66 5135634.88 203.48
-9755293.82 5135634.89 203.49
-9755293.23 5135633.08 203.99
-9755292.66 5135632.87 203.36
-9755293.24 5135635.16 203.49
-9755293.19 5135633.43 203.43
-9755293.84 5135634.60 203.48
-9755293.59 5135634.88 203.48
-9755292.96 5135633.37 204.00
-9755300.37 5135635.78 204.02
-9755301.28 5135637.59 204.60
-9755302.09 5135636.42 204.02
-9755299.45 5135636.10 204.03
-9755298.16 5135637.54 204.65
-9755305.36 5135635.76 203.45
-9755295.03 5135636.69 203.54
-9755302.41 5135636.63 204.56
-9755305.05 5135637.93 204.61
-9755298.55 5135636.32 204.57
-9755296.20 5135637.32 205.99
-9755295.01 5135636.34 203.52
-9755295.97 5135636.37 205.19
-9755298.35 5135636.29 204.05
-9755296.17 5135637.30 203.61
-9755297.44 5135635.82 204.31
-9755307.74 5135637.00 204.42
-9755296.79 5135635.78 204.28
-9755295.93 5135636.58 205.44
-9755295.97 5135636.58 205.25
-9755296.12 5135636.93 204.90
-9755296.17 5135636.58 204.42
-9755298.95 5135637.55 204.61
-9755302.71 5135636.66 204.04
-9755298.50 5135635.86 204.58
-9755299.67 5135636.07 204.58
-9755306.50 5135637.25 204.59
-9755301.52 5135636.98 204.59
-9755304.27 5135637.05 204.03
-9755297.05 5135636.32 204.56
-9755304.39 5135637.22 204.08
-9755295.60 5135636.29 204.53
-9755302.98 5135636.39 204.03
-9755294.42 5135635.79 203.51
-9755297.99 5135636.95 204.84
-9755299.16 5135636.43 204.04
-9755306.44 5135636.96 204.05
-9755297.69 5135636.90 204.78
-9755297.39 5135637.26 205.00
-9755305.22 5135637.23 204.07
-9755296.06 5135636.94 204.90
-9755297.98 5135637.15 204.99
-9755297.39 5135636.66 204.65
-9755304.72 5135636.37 204.02
-9755299.03 5135636.71 204.04
-9755296.25 5135636.37 203.55
-9755295.90 5135636.10 203.51
-9755305.06 5135636.97 204.02
-9755296.53 5135637.12 205.06
-9755301.27 5135636.65 204.59
-9755303.27 5135635.76 204.01
-9755301.52 5135636.69 204.03
-9755305.95 5135635.85 204.04
-9755296.39 5135637.17 203.63
-9755297.99 5135637.21 205.03
-9755305.64 5135637.28 204.59
-9755297.96 5135636.65 204.59
-9755299.70 5135636.57 204.06
-9755300.38 5135636.66 204.04
-9755299.14 5135637.25 204.60
-9755302.05 5135636.91 204.04
-9755300.35 5135636.35 204.56
-9755298.85 5135636.66 204.58
-9755295.93 5135635.99 205.04
-9755306.49 5135636.73 204.03
-9755300.07 5135637.14 205.10
-9755305.08 5135637.01 204.58
-9755303.29 5135636.37 204.02
-9755295.90 5135636.68 203.54
-9755300.60 5135636.43 204.04
-9755297.95 5135636.06 204.42
-9755302.15 5135636.71 204.57
-9755298.81 5135636.10 204.03
-9755307.43 5135635.74 203.45
-9755299.47 5135636.61 204.58
-9755304.47 5135636.99 204.58
-9755300.92 5135637.26 204.59
-9755298.27 5135636.34 204.59
-9755301.82 5135636.69 204.03
-9755306.22 5135636.99 204.59
-9755293.88 5135635.77 203.50
-9755293.86 5135636.36 203.53
-9755293.48 5135637.20 205.60
-9755293.52 5135637.18 205.25
-9755292.62 5135636.70 203.51
-9755293.25 5135637.17 205.26
-9755293.02 5135637.17 205.70
-9755293.31 5135636.81 205.67
-9755293.24 5135636.87 203.55
-9755307.73 5135607.24 182.86
-9755307.70 5135603.12 182.20
-9755307.72 5135601.33 181.88
-9755338.31 5135617.99 184.52
-9755340.63 5135618.66 184.71
-9755339.78 5135618.01 184.54
-9755339.80 5135618.65 185.21
-9755332.39 5135618.83 184.72
-9755337.98 5135618.55 184.58
-9755340.64 5135627.74 186.45
-9755337.98 5135626.24 186.19
-9755337.09 5135625.24 186.43
-9755341.23 5135622.13 185.35
-9755342.13 5135621.00 185.11
-9755339.47 5135623.01 186.06
-9755333.80 5135625.30 186.00
-9755341.50 5135620.37 184.93
-9755338.90 5135620.38 184.94
-9755337.45 5135620.33 184.93
-9755339.71 5135621.17 185.62
-9755337.92 5135626.98 186.71
-9755337.38 5135627.68 186.42
-9755342.06 5135619.52 184.78
-9755338.05 5135624.40 186.37
-9755339.78 5135626.26 186.19
-9755335.39 5135620.36 184.97
-9755342.08 5135619.44 185.36
-9755334.92 5135627.14 186.83
-9755342.07 5135620.37 184.96
-9755340.63 5135623.57 185.57
-9755333.87 5135622.05 185.32
-9755339.73 5135625.37 186.02
-9755338.78 5135619.66 184.80
-9755338.88 5135620.38 185.48
-9755343.86 5135626.83 186.26
-9755334.74 5135624.39 185.77
-9755339.78 5135624.44 185.80
-9755338.00 5135620.39 185.43
-9755336.48 5135626.81 186.26
-9755321.47 5135618.52 184.74
-9755332.08 5135621.17 185.11
-9755323.49 5135621.23 185.67
-9755333.85 5135622.93 185.35
-9755333.85 5135622.88 186.02
-9755325.59 5135620.30 185.58
-9755329.72 5135621.13 185.58
-9755326.46 5135624.68 185.84
-9755332.33 5135627.94 186.44
-9755329.73 5135622.99 185.56
-9755322.64 5135626.98 186.42
-9755332.33 5135626.19 186.19
-9755327.37 5135621.42 185.25
-9755324.67 5135621.20 185.70
-9755330.60 5135622.05 185.36
-9755324.16 5135621.17 185.15
-9755331.54 5135620.26 184.93
-9755323.20 5135622.00 185.36
-9755329.13 5135624.40 185.80
-9755331.48 5135627.62 186.45
-9755331.28 5135619.51 184.85
-9755331.39 5135627.81 186.97
-9755324.17 5135622.95 186.07
-9755331.48 5135622.95 185.56
-9755321.73 5135627.01 186.43
-9755324.11 5135625.24 186.01
-9755323.02 5135626.89 186.97
-9755330.64 5135622.96 185.56
-9755327.35 5135622.63 185.50
-9755322.60 5135626.93 186.81
-9755324.73 5135626.16 186.23
-9755332.36 5135622.62 185.36
-9755321.46 5135619.37 184.87
-9755329.13 5135623.54 185.59
-9755326.73 5135626.12 186.23
-9755326.46 5135620.49 185.59
-9755330.54 5135624.64 186.29
-9755332.36 5135621.80 185.32
-9755334.19 5135625.03 185.83
-9755325.88 5135626.11 186.22
-9755333.31 5135619.72 185.26
-9755344.79 5135618.02 184.54
-9755344.58 5135605.46 182.32
-9755343.02 5135605.38 182.11
-9755337.46 5135604.74 182.21
-9755340.70 5135617.98 184.54
-9755341.30 5135609.74 183.03
-9755337.09 5135616.19 184.78
-9755334.68 5135617.20 184.86
-9755342.74 5135610.42 183.20
-9755334.77 5135611.52 183.95
-9755340.79 5135606.35 183.01
-9755344.79 5135614.55 183.93
-9755344.84 5135609.57 183.61
-9755335.69 5135609.46 183.01
-9755338.04 5135612.01 184.00
-9755334.75 5135615.30 184.02
-9755334.81 5135610.32 183.15
-9755334.84 5135606.25 182.40
-9755338.01 5135606.26 182.44
-9755340.78 5135607.27 183.19
-9755334.85 5135610.95 183.24
-9755343.06 5135608.94 182.95
-9755344.42 5135613.79 184.35
-9755344.58 5135608.72 182.89
-9755334.80 5135605.65 182.15
-9755341.34 5135614.49 184.39
-9755340.67 5135608.99 183.56
-9755342.11 5135611.26 183.37
-9755333.89 5135613.60 183.72
-9755343.05 5135606.28 182.51
-9755336.28 5135614.73 183.93
-9755344.80 5135611.23 183.37
-9755343.91 5135610.11 183.17
-9755337.15 5135606.39 183.03
-9755342.43 5135615.42 184.10
-9755333.86 5135616.19 184.14
-9755333.84 5135616.09 184.74
-9755342.78 5135612.11 183.50
-9755339.63 5135612.04 183.96
-9755330.67 5135609.78 183.11
-9755329.77 5135605.64 182.44
-9755324.10 5135612.95 183.71
-9755325.05 5135606.42 183.12
-9755330.61 5135617.20 184.76
-9755332.17 5135607.14 183.12
-9755333.90 5135610.34 183.14
-9755333.85 5135614.45 183.91
-9755334.28 5135613.59 184.29
-9755333.94 5135606.31 182.92
-9755329.63 5135616.20 184.63
-9755332.47 5135607.99 182.78
-9755324.11 5135614.72 183.94
-9755323.34 5135614.63 184.40
-9755323.91 5135608.82 182.98
-9755326.49 5135607.43 182.76
-9755333.02 5135607.19 183.23
-9755329.76 5135609.72 183.11
-9755321.56 5135607.32 182.73
-9755324.20 5135611.15 183.36
-9755324.80 5135612.96 183.72
-9755333.04 5135613.01 183.57
-9755330.74 5135605.33 182.31
-9755333.89 5135615.23 184.00
-9755325.08 5135610.56 183.21
-9755328.28 5135614.45 183.92
-9755328.94 5135612.07 183.54
-9755331.60 5135609.74 183.03
-9755332.44 5135616.18 184.75
-9755329.19 5135615.28 184.12
-9755325.68 5135607.94 182.80
-9755331.61 5135608.83 182.94
-9755324.24 5135606.04 183.07
-9755327.44 5135609.73 183.14
-9755324.19 5135615.27 184.12
-9755324.86 5135614.62 184.37
-9755327.45 5135606.47 182.60
-9755322.37 5135615.30 184.14
-9755325.61 5135611.41 183.88
-9755329.17 5135606.38 183.03
-9755331.57 5135615.07 183.92
-9755323.97 5135614.71 184.70
-9755330.66 5135612.06 183.52
-9755320.92 5135622.90 185.58
-9755319.98 5135625.21 186.02
-9755320.02 5135619.66 184.92
-9755319.97 5135626.96 186.38
-9755320.89 5135622.00 185.39
-9755318.75 5135624.45 185.67
-9755320.01 5135620.53 185.10
-9755319.06 5135626.99 186.40
-9755320.03 5135618.76 184.74
-9755310.01 5135617.82 184.73
-9755313.53 5135624.34 186.38
-9755310.89 5135619.00 185.59
-9755309.95 5135625.21 186.22
-9755310.80 5135626.28 186.41
-9755314.13 5135621.11 185.35
-9755314.88 5135622.85 185.94
-9755311.79 5135625.14 186.15
-9755314.99 5135619.67 184.95
-9755311.75 5135626.95 186.49
-9755307.83 5135621.08 185.96
-9755314.99 5135623.72 185.79
-9755313.27 5135618.47 184.82
-9755309.09 5135621.94 185.56
-9755314.97 5135626.10 186.24
-9755310.85 5135625.43 186.23
-9755308.38 5135626.06 186.34
-9755318.28 5135623.66 186.21
-9755309.98 5135621.36 185.37
-9755314.09 5135623.72 185.80
-9755309.32 5135623.94 186.39
-9755315.89 5135626.07 186.22
-9755311.01 5135620.43 185.72
-9755314.04 5135626.93 186.44
-9755319.10 5135612.11 183.90
-9755320.67 5135607.30 182.73
-9755320.09 5135612.87 183.69
-9755319.18 5135613.76 183.87
-9755320.02 5135609.71 183.14
-9755320.58 5135605.41 182.82
-9755317.95 5135604.95 182.97
-9755311.78 5135605.47 182.51
-9755308.21 5135614.57 184.13
-9755313.27 5135610.20 183.34
-9755318.28 5135606.44 183.13
-9755315.82 5135611.29 183.87
-9755313.25 5135613.68 183.95
-9755314.13 5135616.98 184.53
-9755308.26 5135608.69 183.14
-9755314.09 5135615.28 184.65
-9755312.71 5135611.38 183.54
-9755311.72 5135613.07 184.34
-9755312.68 5135608.15 182.98
-9755318.29 5135608.78 182.97
-9755317.38 5135612.83 183.74
-9755316.82 5135607.26 182.80
-9755314.18 5135607.89 182.94
-9755315.95 5135610.52 183.36
-9755311.00 5135605.38 183.06
-9755314.15 5135608.75 183.03
-9755308.23 5135609.36 183.18
-9755314.21 5135605.82 182.60
-9755312.36 5135612.87 183.80
-9755309.20 5135612.85 183.76
-9755308.29 5135616.82 185.36
-9755309.98 5135605.67 183.25
-9755308.52 5135605.48 183.09
-9755315.02 5135611.35 183.54
-9755308.51 5135607.82 183.64
-9755308.27 5135616.94 184.54
-9755313.22 5135614.62 184.14
-9755316.55 5135608.74 183.54
-9755309.12 5135617.79 184.73
-9755317.45 5135610.19 183.18
-9755309.42 5135609.58 183.21
-9755315.05 5135616.98 184.55
-9755317.35 5135606.49 183.21
-9755309.42 5135616.37 184.88
-9755308.26 5135610.49 183.37
-9755313.30 5135605.83 182.60
-9755311.82 5135612.25 183.73
-9755310.89 5135615.48 184.32
-9755338.71 5135591.83 181.48
-9755342.26 5135591.53 181.47
-9755324.87 5135591.72 181.43
-9755328.99 5135591.74 181.46
-9755332.53 5135591.78 181.46
-9755344.02 5135596.56 181.38
-9755338.33 5135603.83 182.02
-9755344.83 5135602.25 181.82
-9755341.94 5135600.61 181.33
-9755339.77 5135604.78 182.22
-9755344.59 5135599.80 182.42
-9755343.09 5135597.47 181.37
-9755338.08 5135602.98 182.27
-9755341.94 5135596.53 181.39
-9755334.81 5135603.88 182.02
-9755335.70 5135603.91 182.06
-9755344.88 5135600.59 182.46
-9755340.45 5135604.01 182.64
-9755335.37 5135600.69 182.14
-9755340.69 5135599.26 181.36
-9755337.54 5135599.76 182.21
-9755334.87 5135599.14 182.30
-9755341.39 5135596.26 181.39
-9755338.10 5135601.23 181.66
-9755343.96 5135601.37 181.69
-9755338.15 5135592.99 181.45
-9755337.83 5135597.98 181.41
-9755338.08 5135598.19 182.11
-9755328.31 5135602.35 181.89
-9755332.22 5135602.95 182.36
-9755323.33 5135599.12 182.20
-9755331.58 5135599.68 182.05
-9755333.07 5135603.31 182.01
-9755328.99 5135592.37 181.45
-9755323.99 5135594.11 181.40
-9755333.31 5135600.63 181.51
-9755330.79 5135597.64 182.10
-9755323.00 5135602.95 182.04
-9755324.90 5135599.12 182.08
-9755322.41 5135599.05 182.10
-9755329.25 5135595.65 181.40
-9755332.57 5135592.95 181.44
-9755324.90 5135595.83 181.36
-9755325.68 5135602.38 181.86
-9755327.51 5135600.68 181.60
-9755324.88 5135602.24 182.30
-9755323.95 5135592.89 181.41
-9755322.47 5135603.24 182.06
-9755326.52 5135599.11 182.16
-9755328.33 5135595.91 181.36
-9755322.44 5135599.70 181.54
-9755331.59 5135603.86 182.05
-9755325.81 5135600.36 182.10
-9755324.25 5135598.79 182.26
-9755333.07 5135594.71 181.42
-9755326.87 5135601.20 181.68
-9755331.64 5135596.50 181.38
-9755324.82 5135601.55 182.29
-9755328.95 5135599.70 182.05
-9755322.45 5135600.33 181.60
-9755326.60 5135603.84 182.07
-9755326.58 5135595.60 181.36
-9755330.64 5135603.26 182.03
-9755326.58 5135602.35 181.88
-9755332.19 5135594.70 181.41
-9755328.98 5135599.14 182.16
-9755325.75 5135598.24 182.25
-9755321.84 5135603.85 182.16
-9755333.07 5135600.63 182.04
-9755326.65 5135597.10 181.35
-9755330.72 5135595.92 181.40
-9755337.10 5135576.69 181.52
-9755340.33 5135577.60 181.52
-9755323.45 5135578.38 181.48
-9755325.55 5135576.01 181.48
-9755335.56 5135580.84 181.53
-9755341.99 5135585.86 181.55
-9755340.53 5135588.24 181.52
-9755343.81 5135583.20 181.53
-9755334.66 5135583.20 181.54
-9755337.84 5135584.11 181.55
-9755338.73 5135584.69 181.54
-9755344.04 5135584.16 181.55
-9755337.89 5135583.25 181.53
-9755334.93 5135586.47 181.52
-9755336.41 5135579.94 181.52
-9755335.50 5135588.23 181.51
-9755344.12 5135580.00 181.53
-9755337.27 5135584.95 181.54
-9755340.58 5135579.95 181.52
-9755343.14 5135588.88 181.51
-9755337.27 5135585.56 181.53
-9755342.90 5135583.23 181.53
-9755340.84 5135582.60 181.54
-9755340.50 5135586.43 181.54
-9755343.14 5135590.65 181.50
-9755334.05 5135582.60 181.54
-9755324.93 5135581.04 181.48
-9755326.68 5135584.92 181.48
-9755332.28 5135585.88 181.51
-9755324.02 5135587.57 181.46
-9755328.17 5135579.29 181.49
-9755333.16 5135585.52 181.51
-9755326.64 5135590.84 181.46
-9755330.46 5135589.99 181.48
-9755333.19 5135585.23 181.52
-9755331.68 5135589.68 181.49
-9755322.56 5135587.29 181.47
-9755321.56 5135596.73 181.35
-9755321.57 5135600.55 181.63
-9755320.71 5135599.11 181.76
-9755318.94 5135598.17 181.34
-9755321.00 5135596.39 181.36
-9755320.71 5135603.83 182.17
-9755319.20 5135599.97 181.53
-9755314.84 5135590.77 181.42
-9755318.10 5135594.94 181.40
-9755309.48 5135602.29 182.04
-9755310.71 5135599.64 181.53
-9755308.59 5135599.71 181.69
-9755315.08 5135603.18 182.67
-9755313.37 5135593.15 181.39
-9755317.43 5135604.54 182.83
-9755311.85 5135597.86 181.34
-9755317.74 5135596.44 181.37
-9755313.63 5135599.62 181.58
-9755316.54 5135598.77 181.32
-9755315.95 5135604.67 182.32
-9755310.26 5135601.50 182.42
-9755311.88 5135597.32 181.35
-9755315.93 5135601.35 181.70
-9755315.13 5135597.90 181.34
-9755308.30 5135600.78 181.79
-9755318.09 5135594.01 181.39
-9755311.02 5135592.53 181.38
-9755317.45 5135595.57 181.37
-9755313.36 5135592.25 181.39
-9755315.97 5135603.77 182.22
-9755310.96 5135603.72 182.24
-9755315.11 5135599.91 181.59
-9755308.65 5135593.45 181.39
-9755316.85 5135600.01 181.98
-9755315.78 5135603.10 182.65
-9755311.59 5135593.42 181.39
-9755320.27 5135575.74 181.46
-9755319.10 5135576.84 181.46
-9755319.08 5135578.65 181.46
-9755321.36 5135585.75 181.47
-9755318.98 5135589.00 181.44
-9755320.80 5135584.85 181.47
-9755320.81 5135579.26 181.48
-9755319.61 5135582.52 181.46
-9755319.32 5135582.51 181.46
-9755309.33 5135577.41 181.42
-9755313.48 5135578.34 181.44
-9755315.82 5135577.43 181.45
-9755317.58 5135576.88 181.45
-9755309.33 5135578.30 181.43
-9755314.95 5135575.96 181.44
-9755312.53 5135579.22 181.44
-9755316.94 5135582.49 181.45
-9755314.90 5135587.52 181.43
-9755313.62 5135589.90 181.42
-9755309.26 5135586.58 181.41
-9755308.95 5135588.98 181.42
-9755308.68 5135582.46 181.41
-9755312.53 5135586.03 181.43
-9755311.65 5135584.23 181.42
-9755312.48 5135587.49 181.43
-9755381.01 5135674.95 181.11
-9755380.11 5135674.96 181.14
-9755380.09 5135674.05 181.13
-9755380.30 5135677.97 181.03
-9755379.49 5135677.27 181.04
-9755375.95 5135679.68 181.11
-9755379.47 5135679.66 181.09
-9755376.87 5135679.12 181.10
-9755377.08 5135679.69 181.11
-9755374.47 5135676.40 181.04
-9755376.78 5135680.82 181.13
-9755376.54 5135674.70 181.16
-9755375.96 5135677.35 181.03
-9755378.35 5135679.62 181.09
-9755377.71 5135677.94 181.04
-9755375.38 5135676.40 181.01
-9755373.31 5135674.91 181.17
-9755372.70 5135674.65 181.19
-9755373.34 5135677.31 181.07
-9755371.85 5135676.39 181.05
-9755363.00 5135678.14 181.14
-9755362.98 5135676.33 181.12
-9755362.09 5135679.60 181.16
-9755364.50 5135676.93 181.13
-9755370.95 5135677.31 181.09
-9755366.20 5135680.49 181.17
-9755360.94 5135677.25 181.10
-9755363.89 5135677.21 181.15
-9755368.65 5135677.85 181.11
-9755370.12 5135676.40 181.09
-9755371.19 5135680.27 181.13
-9755367.66 5135680.50 181.16
-9755365.96 5135674.91 181.24
-9755354.72 5135678.96 181.14
-9755355.54 5135678.07 181.11
-9755351.45 5135677.19 181.04
-9755351.22 5135675.69 181.08
-9755353.55 5135679.54 181.14
-9755352.09 5135679.53 181.11
-9755351.18 5135680.47 181.14
-9755348.76 5135680.43 181.12
-9755349.67 5135680.40 181.11
-9755347.05 5135680.70 181.12
-9755345.58 5135676.53 180.94
-9755346.49 5135680.40 181.11
-9755391.66 5135631.93 197.82
-9755396.71 5135631.07 198.08
-9755391.73 5135629.62 196.87
-9755393.28 5135629.41 197.04
-9755389.03 5135631.05 196.23
-9755390.88 5135631.24 196.96
-9755397.25 5135630.15 197.65
-9755394.03 5135630.42 197.62
-9755391.70 5135630.43 197.14
-9755388.21 5135630.41 197.57
-9755390.80 5135631.07 196.26
-9755388.21 5135631.88 197.64
-9755386.66 5135630.42 197.01
-9755383.98 5135631.85 197.47
-9755381.68 5135628.66 196.71
-9755381.65 5135629.50 196.72
-9755384.03 5135628.65 196.10
-9755381.23 5135630.00 196.91
-9755385.19 5135632.71 197.93
-9755380.86 5135630.95 197.02
-9755386.67 5135632.76 197.92
-9755384.35 5135629.43 196.10
-9755384.95 5135628.42 196.11
-9755384.36 5135631.63 197.04
-9755381.62 5135630.95 197.04
-9755383.45 5135629.53 196.66
-9755380.86 5135628.65 196.12
-9755388.46 5135632.78 198.60
-9755382.77 5135632.71 197.95
-9755380.42 5135628.57 196.15
-9755376.04 5135628.51 186.85
-9755374.29 5135631.85 196.20
-9755376.15 5135630.07 196.47
-9755375.23 5135628.90 196.71
-9755378.46 5135628.86 196.71
-9755371.91 5135630.07 196.30
-9755373.42 5135629.54 196.12
-9755380.18 5135632.74 197.48
-9755376.11 5135633.58 197.87
-9755375.21 5135633.49 198.42
-9755375.12 5135632.72 197.47
-9755376.89 5135633.55 197.93
-9755374.55 5135632.77 196.24
-9755372.85 5135632.51 197.75
-9755373.41 5135633.34 196.27
-9755370.15 5135631.79 197.03
-9755365.19 5135631.20 196.61
-9755361.92 5135632.01 197.01
-9755366.85 5135629.45 196.15
-9755361.29 5135632.00 196.99
-9755367.75 5135629.43 196.14
-9755367.82 5135631.85 197.04
-9755370.13 5135629.16 196.09
-9755361.90 5135630.31 196.10
-9755363.65 5135630.87 196.56
-9755365.15 5135632.64 197.04
-9755360.41 5135630.83 196.25
-9755371.05 5135630.94 196.59
-9755352.78 5135631.06 196.68
-9755358.68 5135631.17 196.14
-9755356.33 5135631.21 196.36
-9755356.10 5135630.18 196.68
-9755352.28 5135631.06 196.70
-9755352.16 5135630.20 196.71
-9755352.14 5135628.41 186.58
-9755356.30 5135632.01 196.77
-9755356.24 5135628.69 186.65
-9755359.43 5135630.14 196.67
-9755360.40 5135632.06 196.88
-9755368.68 5135632.63 197.66
-9755366.85 5135634.13 197.93
-9755367.78 5135632.60 197.60
-9755366.07 5135632.93 197.54
-9755362.25 5135632.90 197.63
-9755362.22 5135634.34 197.91
-9755367.83 5135633.53 197.49
-9755362.80 5135633.52 197.46
-9755366.91 5135633.53 197.49
-9755369.24 5135634.42 197.95
-9755369.28 5135632.64 197.05
-9755355.28 5135634.37 197.94
-9755353.63 5135632.60 197.02
-9755352.82 5135634.65 197.92
-9755360.16 5135634.12 197.70
-9755352.14 5135632.94 197.02
-9755356.93 5135632.66 196.97
-9755350.92 5135633.46 197.52
-9755349.52 5135631.09 196.68
-9755347.99 5135628.61 186.63
-9755348.08 5135630.22 196.69
-9755347.52 5135630.26 196.10
-9755347.19 5135630.17 196.68
-9755345.43 5135630.20 196.69
-9755349.56 5135631.98 196.58
-9755345.39 5135632.82 197.00
-9755345.28 5135633.64 197.47
-9755344.68 5135679.82 181.07
-9755340.52 5135677.96 180.96
-9755337.89 5135679.76 181.05
-9755337.32 5135679.46 181.02
-9755337.89 5135678.85 181.01
-9755330.65 5135680.59 193.25
-9755325.63 5135677.92 193.19
-9755322.38 5135676.40 193.16
-9755323.31 5135677.31 193.19
-9755326.49 5135680.60 193.24
-9755330.06 5135678.83 193.21
-9755325.10 5135673.17 193.15
-9755331.54 5135679.74 193.23
-9755328.30 5135677.36 193.18
-9755321.79 5135679.66 193.32
-9755330.67 5135673.81 193.17
-9755331.54 5135674.69 193.18
-9755325.67 5135674.68 193.14
-9755327.45 5135675.56 193.15
-9755329.73 5135679.71 193.23
-9755324.19 5135674.68 193.15
-9755322.39 5135678.21 193.20
-9755328.93 5135674.09 193.14
-9755326.52 5135677.03 193.17
-9755330.66 5135678.82 193.21
-9755327.43 5135673.19 193.13
-9755323.32 5135672.29 193.15
-9755323.29 5135679.66 193.22
-9755331.54 5135676.45 193.18
-9755331.60 5135674.11 193.18
-9755322.40 5135677.34 193.19
-9755330.63 5135676.48 193.18
-9755316.70 5135677.25 180.97
-9755309.33 5135680.44 181.13
-9755308.40 5135679.56 181.11
-9755313.67 5135680.55 181.13
-9755312.53 5135678.72 181.05
-9755308.17 5135675.41 181.17
-9755307.50 5135678.11 181.05
-9755314.04 5135676.38 181.09
-9755317.58 5135675.49 181.11
-9755311.94 5135676.34 181.10
-9755309.90 5135678.09 181.04
-9755316.72 5135679.71 181.07
-9755316.10 5135676.36 181.10
-9755328.87 5135634.40 197.75
-9755339.22 5135631.15 196.71
-9755338.07 5135630.48 196.80
-9755340.39 5135630.14 196.72
-9755343.06 5135630.41 196.73
-9755342.98 5135628.59 186.61
-9755341.29 5135630.15 196.68
-9755344.02 5135630.17 196.72
-9755335.68 5135630.36 196.67
-9755330.67 5135631.90 197.07
-9755329.20 5135631.02 196.30
-9755331.54 5135631.05 196.10
-9755333.81 5135628.51 186.62
-9755325.64 5135632.16 197.00
-9755325.01 5135632.07 196.86
-9755331.64 5135631.08 196.72
-9755334.18 5135631.90 196.58
-9755323.37 5135629.48 196.68
-9755327.41 5135631.27 196.14
-9755330.56 5135628.50 186.64
-9755328.32 5135630.13 196.11
-9755328.34 5135631.04 196.31
-9755322.39 5135629.98 196.66
-9755334.78 5135632.77 197.01
-9755339.50 5135631.94 196.58
-9755324.79 5135632.70 197.13
-9755329.75 5135633.37 197.43
-9755333.04 5135633.37 197.55
-9755320.94 5135631.84 197.02
-9755320.05 5135630.04 196.10
-9755320.66 5135633.56 197.46
-9755320.06 5135632.69 197.01
-9755318.24 5135631.92 197.00
-9755310.88 5135630.34 196.14
-9755309.12 5135631.16 196.89
-9755315.63 5135629.42 196.10
-9755307.67 5135630.01 196.56
-9755314.16 5135631.67 197.01
-9755310.89 5135628.74 196.69
-9755310.09 5135630.83 196.89
-9755313.26 5135631.18 196.75
-9755317.26 5135631.06 196.97
-9755311.80 5135630.30 196.15
-9755315.03 5135629.46 196.70
-9755308.52 5135628.80 196.13
-9755317.70 5135629.40 196.08
-9755308.29 5135629.44 196.09
-9755315.04 5135633.72 197.96
-9755313.33 5135633.55 197.74
-9755317.42 5135632.74 197.53
-9755309.12 5135631.73 197.13
-9755393.34 5135672.30 207.53
-9755391.54 5135672.28 207.54
-9755389.17 5135672.30 207.52
-9755390.08 5135672.27 207.53
-9755397.47 5135672.32 207.71
-9755397.42 5135677.34 207.70
-9755392.69 5135678.78 207.61
-9755393.25 5135673.18 207.52
-9755392.67 5135679.67 207.60
-9755389.17 5135678.17 207.58
-9755395.66 5135672.32 207.55
-9755397.44 5135674.65 207.71
-9755390.64 5135680.59 207.60
-9755390.66 5135674.63 207.52
-9755394.75 5135675.55 207.54
-9755390.06 5135677.32 207.57
-9755390.91 5135679.66 207.59
-9755391.56 5135673.17 207.53
-9755395.04 5135674.68 207.55
-9755393.29 5135674.64 207.53
-9755397.48 5135673.22 207.71
-9755389.15 5135676.36 207.55
-9755397.42 5135676.13 207.70
-9755394.16 5135678.80 207.59
-9755386.82 5135677.24 207.67
-9755386.81 5135675.52 207.62
-9755386.83 5135674.03 207.58
-9755390.06 5135671.37 207.55
-9755391.55 5135669.02 207.71
-9755396.49 5135668.07 203.82
-9755393.92 5135666.55 203.65
-9755387.44 5135667.25 207.13
-9755389.17 5135670.51 207.56
-9755393.35 5135669.03 207.68
-9755396.58 5135664.90 207.03
-9755395.03 5135668.05 203.67
-9755387.45 5135671.39 207.54
-9755389.82 5135667.40 203.66
-9755388.28 5135668.08 203.67
-9755395.98 5135669.05 207.66
-9755397.14 5135669.07 207.70
-9755395.63 5135668.08 203.67
-9755381.02 5135665.53 207.11
-9755383.46 5135668.32 207.09
-9755385.96 5135665.69 207.04
-9755386.55 5135666.32 207.03
-9755382.38 5135666.61 207.04
-9755381.88 5135668.09 207.13
-9755385.98 5135666.35 207.04
-9755377.69 5135668.08 207.09
-9755377.74 5135666.64 207.02
-9755376.89 5135668.99 206.94
-9755374.40 5135668.90 207.13
-9755375.38 5135668.07 207.06
-9755375.94 5135667.15 207.03
-9755371.82 5135668.91 207.12
-9755372.66 5135667.44 207.04
-9755366.81 5135668.02 207.06
-9755362.99 5135667.40 207.04
-9755370.08 5135667.45 207.05
-9755364.46 5135669.17 207.14
-9755363.85 5135668.91 207.10
-9755370.90 5135666.57 207.04
-9755363.55 5135667.39 207.04
-9755362.05 5135667.98 207.06
-9755365.31 5135667.39 207.04
-9755370.33 5135668.92 207.12
-9755361.23 5135667.42 207.04
-9755359.42 5135668.24 207.06
-9755357.96 5135667.14 207.05
-9755352.93 5135669.74 207.13
-9755356.19 5135669.13 207.09
-9755355.28 5135667.95 207.04
-9755357.07 5135669.69 207.13
-9755356.21 5135668.25 207.05
-9755347.98 5135667.28 207.04
-9755349.75 5135666.46 207.03
-9755392.40 5135645.07 220.88
-9755397.39 5135645.97 220.83
-9755391.60 5135651.54 231.02
-9755391.83 5135652.44 231.00
-9755396.52 5135653.93 220.67
-9755395.64 5135647.38 220.84
-9755388.33 5135651.55 233.13
-9755389.91 5135647.73 220.84
-9755390.90 5135658.33 220.65
-9755396.59 5135646.74 220.84
-9755392.51 5135650.65 233.37
-9755393.26 5135656.76 220.68
-9755388.15 5135656.60 220.68
-9755394.21 5135648.24 220.83
-9755397.35 5135653.95 220.71
-9755397.42 5135650.93 220.75
-9755387.42 5135648.26 220.86
-9755389.21 5135648.54 220.86
-9755395.12 5135648.21 220.83
-9755395.95 5135653.46 220.65
-9755390.88 5135656.51 220.67
-9755396.48 5135651.81 220.73
-9755389.93 5135658.33 220.63
-9755391.81 5135649.10 220.80
-9755395.62 5135652.37 220.72
-9755396.57 5135655.95 220.65
-9755395.09 5135647.41 220.82
-9755390.98 5135645.80 220.90
-9755393.17 5135658.31 220.65
-9755395.88 5135654.20 220.66
-9755391.51 5135656.65 220.70
-9755391.67 5135658.89 220.69
-9755390.12 5135652.55 228.39
-9755388.50 5135658.37 220.65
-9755388.22 5135655.97 220.68
-9755392.73 5135647.65 220.87
-9755397.44 5135648.57 220.77
-9755394.03 5135655.03 220.67
-9755393.37 5135651.66 231.00
-9755390.07 5135657.70 220.67
-9755384.16 5135645.90 220.94
-9755381.18 5135649.08 220.85
-9755382.33 5135649.09 220.87
-9755384.09 5135652.31 231.01
-9755386.72 5135656.63 220.68
-9755385.00 5135656.60 220.67
-9755386.67 5135658.26 220.64
-9755380.82 5135646.71 220.90
-9755382.41 5135651.74 233.43
-9755385.07 5135645.87 220.92
-9755384.20 5135647.57 220.91
-9755382.67 5135647.59 220.89
-9755381.77 5135645.77 220.94
-9755385.65 5135651.70 233.07
-9755382.38 5135656.61 220.66
-9755383.35 5135651.62 220.92
-9755383.40 5135655.80 220.68
-9755380.83 5135656.50 220.65
-9755385.84 5135655.64 220.78
-9755385.07 5135646.76 220.94
-9755379.94 5135656.52 220.67
-9755383.90 5135651.08 233.33
-9755384.08 5135654.13 220.71
-9755385.09 5135649.05 220.95
-9755386.74 5135649.33 220.85
-9755379.90 5135651.76 233.39
-9755389.95 5135658.89 220.65
-9755391.74 5135662.19 220.79
-9755397.33 5135659.29 220.59
-9755388.46 5135659.87 220.60
-9755392.28 5135659.81 220.65
-9755394.00 5135660.18 220.65
-9755392.30 5135660.95 220.66
-9755397.15 5135664.93 207.02
-9755396.48 5135659.84 220.61
-9755394.02 5135661.56 220.71
-9755390.64 5135663.88 203.64
-9755389.92 5135661.63 220.65
-9755391.48 5135661.58 220.65
-9755396.59 5135661.79 220.78
-9755387.64 5135662.21 220.71
-9755388.57 5135660.71 220.61
-9755393.21 5135660.09 220.63
-9755382.62 5135661.01 220.63
-9755380.83 5135661.52 220.61
-9755386.68 5135659.80 220.61
-9755384.97 5135661.51 220.64
-9755385.89 5135661.49 220.61
-9755381.73 5135662.39 220.65
-9755386.52 5135660.72 220.60
-9755380.76 5135660.58 220.60
-9755384.12 5135659.18 220.63
-9755384.18 5135644.86 221.02
-9755389.14 5135641.64 221.14
-9755395.87 5135637.70 205.73
-9755388.52 5135635.17 204.02
-9755393.21 5135637.73 205.69
-9755395.88 5135636.89 205.15
-9755387.59 5135638.55 205.72
-9755395.62 5135641.14 221.07
-9755390.29 5135639.21 206.30
-9755395.21 5135635.14 204.56
-9755391.74 5135638.47 206.09
-9755392.31 5135636.00 204.59
-9755391.77 5135638.63 206.64
-9755391.50 5135640.09 206.31
-9755388.58 5135643.21 220.99
-9755391.57 5135637.54 206.03
-9755387.70 5135644.20 220.97
-9755395.71 5135642.60 220.96
-9755392.58 5135635.17 204.19
-9755387.32 5135637.70 205.17
-9755396.65 5135637.20 205.71
-9755389.34 5135636.93 203.55
-9755391.80 5135643.46 220.95
-9755394.04 5135635.47 204.58
-9755394.83 5135642.67 220.96
-9755393.55 5135635.23 204.62
-9755393.20 5135638.57 205.98
-9755394.75 5135643.42 220.91
-9755389.39 5135640.06 206.30
-9755389.94 5135636.92 203.56
-9755394.10 5135637.43 205.75
-9755388.33 5135642.65 221.04
-9755397.44 5135644.43 220.88
-9755392.55 5135640.06 206.30
-9755392.62 5135638.64 206.07
-9755390.02 5135642.57 221.01
-9755390.58 5135636.02 203.52
-9755388.27 5135636.01 204.43
-9755393.53 5135642.68 220.97
-9755397.28 5135635.17 204.59
-9755390.85 5135645.03 220.93
-9755388.80 5135636.28 205.12
-9755397.31 5135636.89 205.14
-9755388.48 5135640.08 206.30
-9755386.68 5135637.75 205.16
-9755385.22 5135636.88 204.59
-9755382.66 5135644.10 220.98
-9755381.69 5135640.87 206.27
-9755381.69 5135638.31 205.13
-9755380.85 5135637.68 205.12
-9755384.43 5135643.47 221.10
-9755380.85 5135638.75 205.75
-9755385.87 5135639.41 206.32
-9755385.82 5135640.04 206.29
-9755381.24 5135642.77 221.06
-9755384.09 5135635.94 204.04
-9755382.50 5135642.58 221.10
-9755382.33 5135637.68 205.14
-9755384.10 5135642.52 221.11
-9755379.34 5135645.21 220.97
-9755372.72 5135645.15 220.99
-9755380.94 5135650.92 232.67
-9755379.97 5135658.88 220.68
-9755377.67 5135646.71 220.91
-9755379.26 5135648.52 220.88
-9755375.18 5135649.92 220.87
-9755374.41 5135651.75 220.81
-9755377.36 5135651.80 233.46
-9755380.05 5135646.66 220.92
-9755375.87 5135649.85 220.87
-9755376.77 5135648.18 220.88
-9755379.15 5135647.58 220.91
-9755379.17 5135649.22 220.87
-9755375.31 5135651.72 220.85
-9755375.02 5135650.72 220.83
-9755380.25 5135649.32 220.87
-9755376.75 5135646.65 220.93
-9755374.97 5135645.71 220.98
-9755377.03 5135651.49 232.60
-9755378.33 5135654.97 220.69
-9755378.58 5135651.73 233.36
-9755375.87 5135647.58 220.90
-9755377.65 5135645.86 220.93
-9755378.61 5135645.77 220.99
-9755379.29 5135658.28 220.65
-9755374.46 5135650.91 220.81
-9755377.49 5135652.68 231.02
-9755372.66 5135651.59 220.82
-9755373.48 5135651.83 220.80
-9755372.85 5135650.74 220.82
-9755373.77 5135658.16 220.64
-9755373.38 5135652.26 220.79
-9755372.02 5135652.35 220.79
-9755373.49 5135650.88 220.86
-9755372.73 5135652.56 220.78
-9755372.61 5135650.13 220.85
-9755378.18 5135659.15 220.66
-9755374.33 5135659.75 220.61
-9755376.02 5135658.17 222.87
-9755378.51 5135662.39 220.62
-9755377.55 5135660.58 220.62
-9755374.28 5135660.69 220.63
-9755375.29 5135660.56 220.66
-9755377.59 5135663.32 220.76
-9755379.39 5135659.76 220.64
-9755376.93 5135659.06 220.66
-9755377.83 5135662.42 220.65
-9755376.72 5135662.43 220.60
-9755377.08 5135661.46 220.63
-9755379.09 5135660.90 220.63
-9755376.75 5135663.93 220.78
-9755373.71 5135660.03 220.63
-9755373.40 5135661.75 220.58
-9755371.68 5135663.85 220.79
-9755367.62 5135644.89 220.97
-9755379.97 5135635.08 203.45
-9755359.35 5135645.10 220.97
-9755355.25 5135645.12 220.98
-9755370.25 5135647.38 220.95
-9755366.99 5135655.87 220.68
-9755368.50 5135648.49 220.88
-9755366.20 5135654.33 220.76
-9755364.40 5135654.03 220.75
-9755371.09 5135658.47 220.65
-9755370.42 5135650.79 220.84
-9755363.74 5135654.29 220.76
-9755361.13 5135658.47 220.64
-9755368.42 5135653.98 220.73
-9755370.16 5135653.23 220.78
-9755367.06 5135652.52 220.80
-9755362.06 5135658.26 220.68
-9755370.13 5135655.71 220.71
-9755367.75 5135654.32 220.73
-9755364.46 5135650.13 220.84
-9755366.05 5135656.51 220.72
-9755369.47 5135651.65 220.83
-9755362.69 5135656.60 220.65
-9755364.39 5135647.46 220.93
-9755362.91 5135655.00 220.74
-9755369.37 5135650.30 220.85
-9755368.59 5135649.95 220.85
-9755366.15 5135651.65 220.78
-9755368.82 5135652.28 220.81
-9755367.00 5135651.71 220.80
-9755367.67 5135650.82 220.84
-9755369.15 5135646.63 220.96
-9755367.71 5135646.61 220.93
-9755360.38 5135658.16 220.68
-9755366.73 5135650.79 220.86
-9755369.39 5135648.35 220.93
-9755370.27 5135646.65 220.95
-9755365.29 5135647.49 220.89
-9755362.84 5135657.21 220.72
-9755367.68 5135645.72 220.97
-9755362.82 5135648.37 220.87
-9755365.30 5135655.56 220.73
-9755368.47 5135647.49 220.95
-9755367.93 5135651.81 220.81
-9755370.96 5135648.47 220.88
-9755357.89 5135653.11 220.82
-9755351.50 5135645.81 220.94
-9755360.26 5135645.75 220.98
-9755358.79 5135645.64 220.94
-9755358.05 5135645.16 220.96
-9755351.37 5135656.56 220.72
-9755353.66 5135657.29 220.68
-9755357.06 5135646.03 220.93
-9755357.67 5135654.83 220.75
-9755353.86 5135648.23 220.87
-9755353.73 5135649.86 220.84
-9755358.83 5135654.97 220.74
-9755354.63 5135658.11 220.64
-9755360.51 5135649.92 220.87
-9755356.29 5135655.80 220.70
-9755355.26 5135657.51 220.67
-9755359.40 5135650.20 220.84
-9755352.03 5135648.28 220.81
-9755357.89 5135651.58 220.83
-9755351.99 5135651.52 220.80
-9755354.61 5135654.16 220.78
-9755360.49 5135657.54 220.67
-9755350.40 5135646.60 220.89
-9755354.58 5135657.50 220.65
-9755359.55 5135655.78 220.71
-9755351.46 5135646.84 220.92
-9755360.51 5135656.77 220.72
-9755354.69 5135652.41 220.79
-9755358.73 5135649.17 220.89
-9755356.38 5135648.37 220.86
-9755351.38 5135655.79 220.72
-9755354.69 5135649.19 220.86
-9755355.24 5135650.98 220.84
-9755356.17 5135649.05 220.88
-9755371.10 5135661.41 220.60
-9755361.89 5135660.78 220.64
-9755360.42 5135663.98 220.66
-9755370.99 5135664.02 220.79
-9755364.58 5135661.47 220.65
-9755366.87 5135660.84 220.58
-9755362.81 5135661.71 220.64
-9755361.13 5135660.57 220.66
-9755367.79 5135664.12 220.72
-9755370.43 5135663.22 220.64
-9755368.44 5135663.26 220.65
-9755370.18 5135660.54 220.59
-9755362.07 5135659.04 220.68
-9755370.20 5135661.55 220.59
-9755367.06 5135662.45 220.62
-9755366.99 5135659.92 220.63
-9755368.52 5135659.15 220.68
-9755365.23 5135659.11 220.65
-9755361.01 5135664.07 220.72
-9755361.06 5135659.06 220.68
-9755367.81 5135662.32 220.59
-9755369.35 5135660.88 220.59
-9755365.23 5135662.57 220.62
-9755362.25 5135663.20 220.65
-9755352.79 5135659.87 220.65
-9755352.28 5135660.50 220.65
-9755351.36 5135662.19 220.59
-9755353.64 5135661.69 220.59
-9755354.66 5135659.07 220.62
-9755356.94 5135661.72 220.61
-9755356.89 5135664.04 220.71
-9755357.86 5135661.76 220.60
-9755350.45 5135664.27 220.68
-9755359.39 5135660.74 220.64
-9755359.50 5135659.98 220.65
-9755354.54 5135664.04 220.69
-9755377.69 5135644.29 221.00
-9755376.07 5135636.81 204.36
-9755377.04 5135637.69 204.59
-9755377.59 5135638.59 205.15
-9755377.57 5135635.05 203.46
-9755375.49 5135639.14 205.04
-9755378.50 5135639.97 206.29
-9755374.40 5135635.05 203.45
-9755378.49 5135636.66 204.62
-9755379.38 5135639.41 205.69
-9755375.19 5135640.08 203.63
-9755375.28 5135636.81 203.49
-9755375.24 5135635.93 203.58
-9755379.36 5135636.84 204.59
-9755379.32 5135638.55 205.12
-9755374.35 5135641.13 206.48
-9755380.08 5135643.56 221.01
-9755377.60 5135639.18 205.71
-9755378.72 5135635.36 203.47
-9755373.46 5135635.06 203.41
-9755371.96 5135639.12 205.36
-9755372.61 5135635.96 203.66
-9755374.28 5135640.30 206.69
-9755372.59 5135637.67 204.59
-9755371.89 5135640.21 205.88
-9755372.55 5135640.87 206.23
-9755373.27 5135643.31 221.13
-9755372.84 5135636.86 204.22
-9755372.84 5135640.07 205.91
-9755372.54 5135641.42 206.29
-9755370.18 5135635.35 203.47
-9755368.57 5135644.28 220.99
-9755365.01 5135644.21 221.05
-9755369.52 5135643.33 221.13
-9755369.39 5135635.31 203.41
-9755367.84 5135641.68 206.27
-9755366.16 5135636.20 203.48
-9755369.26 5135640.89 206.25
-9755363.45 5135635.28 203.39
-9755361.95 5135639.90 205.75
-9755365.19 5135640.25 205.71
-9755363.56 5135639.32 205.75
-9755364.26 5135641.69 206.27
-9755364.59 5135637.63 203.46
-9755364.36 5135635.27 203.39
-9755370.17 5135637.73 203.44
-9755371.01 5135638.31 204.49
-9755366.95 5135639.66 205.75
-9755371.09 5135637.06 204.91
-9755361.10 5135639.95 205.18
-9755370.91 5135644.27 221.01
-9755362.85 5135641.67 206.26
-9755361.37 5135639.36 205.15
-9755369.34 5135638.51 205.12
-9755366.10 5135638.29 203.45
-9755362.78 5135637.68 203.45
-9755371.25 5135639.39 205.20
-9755368.70 5135641.08 206.28
-9755368.70 5135635.38 203.41
-9755369.48 5135644.25 221.00
-9755370.25 5135635.95 203.45
-9755371.11 5135639.67 205.72
-9755361.32 5135638.30 203.48
-9755359.54 5135638.50 203.53
-9755353.73 5135635.78 203.38
-9755351.31 5135640.17 205.14
-9755357.23 5135636.13 203.45
-9755357.76 5135635.28 203.39
-9755356.06 5135636.75 203.66
-9755359.60 5135641.06 206.34
-9755353.11 5135636.75 203.45
-9755352.83 5135641.09 206.26
-9755356.95 5135641.11 206.08
-9755353.71 5135636.72 203.43
-9755355.41 5135638.15 204.37
-9755353.11 5135641.88 206.26
-9755357.82 5135637.01 203.48
-9755355.42 5135636.17 203.47
-9755351.30 5135641.93 206.26
-9755352.78 5135638.49 204.60
-9755353.67 5135637.86 204.03
-9755354.57 5135639.89 205.16
-9755356.90 5135638.60 205.22
-9755352.81 5135637.06 204.06
-9755359.54 5135640.14 206.13
-9755357.00 5135637.89 204.39
-9755354.76 5135639.32 204.61
-9755357.23 5135640.15 205.99
-9755352.95 5135644.35 221.01
-9755357.21 5135640.09 205.11
-9755352.21 5135640.16 205.15
-9755348.76 5135645.02 220.97
-9755346.37 5135645.10 220.89
-9755348.76 5135649.19 220.86
-9755347.90 5135652.38 220.78
-9755349.79 5135647.43 220.86
-9755350.50 5135655.73 220.72
-9755346.07 5135646.00 220.93
-9755348.67 5135656.62 220.71
-9755350.57 5135651.54 220.80
-9755349.57 5135650.89 220.88
-9755350.62 5135652.44 220.84
-9755349.58 5135655.77 220.74
-9755347.83 5135650.95 220.82
-9755349.64 5135646.10 220.96
-9755348.12 5135654.22 220.77
-9755347.37 5135649.16 220.85
-9755348.09 5135649.98 220.82
-9755347.21 5135653.34 220.78
-9755345.58 5135648.91 220.90
-9755345.81 5135650.96 220.81
-9755345.49 5135650.10 220.87
-9755346.29 5135658.38 220.66
-9755345.78 5135656.60 220.72
-9755349.50 5135661.63 220.63
-9755347.14 5135662.53 220.61
-9755348.09 5135658.98 220.66
-9755350.24 5135659.86 220.65
-9755348.95 5135663.97 220.66
-9755349.78 5135660.13 220.65
-9755346.28 5135661.60 220.64
-9755345.59 5135658.96 220.63
-9755346.33 5135662.13 220.63
-9755345.39 5135662.48 220.62
-9755347.15 5135663.11 220.63
-9755350.46 5135641.05 205.70
-9755350.44 5135642.44 206.28
-9755347.17 5135636.66 203.45
-9755349.56 5135641.57 206.24
-9755350.41 5135641.59 206.28
-9755348.66 5135636.10 204.04
-9755350.49 5135638.38 204.51
-9755347.26 5135641.61 206.28
-9755346.30 5135635.20 203.79
-9755346.10 5135636.11 203.41
-9755345.46 5135636.98 203.45
-9755346.47 5135643.52 221.13
-9755345.41 5135637.99 204.38
-9755395.88 5135633.64 203.46
-9755396.50 5135632.87 203.42
-9755394.10 5135633.36 203.42
-9755387.59 5135633.70 203.36
-9755394.35 5135632.74 204.02
-9755396.46 5135634.32 204.01
-9755397.31 5135632.85 204.03
-9755383.46 5135634.18 204.02
-9755384.08 5135633.65 203.32
-9755383.51 5135634.54 203.47
-9755384.96 5135634.30 203.45
-9755385.03 5135633.65 203.35
-9755376.84 5135634.20 203.37
-9755376.72 5135635.10 204.02
-9755378.44 5135634.23 203.37
-9755371.10 5135634.42 203.39
-9755344.68 5135667.91 207.03
-9755337.32 5135669.05 207.06
-9755339.70 5135668.17 207.04
-9755338.19 5135668.12 207.04
-9755338.72 5135664.81 220.80
-9755340.04 5135670.58 207.02
-9755338.19 5135669.02 207.07
