-9755137.02 5135445.24 181.31
-9755139.47 5135443.49 183.07
-9755142.68 5135443.82 181.65
-9755142.62 5135445.06 183.37
-9755138.30 5135444.89 183.57
-9755137.05 5135445.24 182.12
-9755143.98 5135443.97 183.31
-9755143.81 5135444.34 183.01
-9755139.78 5135443.36 183.09
-9755139.76 5135443.33 184.11
-9755139.72 5135443.40 183.38
-9755139.45 5135444.51 184.12
-9755139.67 5135444.50 183.40
-9755137.37 5135445.16 182.12
-9755141.78 5135445.18 184.10
-9755139.71 5135443.98 183.98
-9755143.12 5135445.21 184.17
-9755143.58 5135444.38 181.66
-9755141.24 5135445.44 184.11
-9755142.07 5135444.41 181.65
-9755144.77 5135444.25 181.97
-9755139.55 5135443.44 182.12
-9755139.70 5135443.44 182.77
-9755143.62 5135445.00 184.06
-9755140.69 5135443.23 182.03
-9755140.70 5135445.17 183.25
-9755139.41 5135444.33 181.55
-9755139.74 5135445.20 182.57
-9755146.57 5135434.07 181.37
-9755145.13 5135435.26 181.50
-9755140.66 5135434.31 181.54
-9755138.34 5135433.98 181.52
-9755142.47 5135433.40 181.56
-9755140.66 5135434.02 181.55
-9755137.75 5135433.11 181.54
-9755140.38 5135435.18 181.52
-9755138.00 5135434.55 181.51
-9755141.83 5135435.23 181.54
-9755142.44 5135434.05 181.53
-9755141.55 5135433.75 181.55
-9755139.20 5135434.87 181.51
-9755138.28 5135434.92 181.51
-9755137.41 5135434.01 181.52
-9755141.86 5135434.94 181.54
-9755137.00 5135438.17 181.32
-9755137.13 5135436.36 181.43
-9755135.56 5135437.74 181.98
-9755137.15 5135435.47 181.51
-9755135.65 5135441.38 181.25
-9755135.88 5135442.05 181.24
-9755136.82 5135440.55 181.24
-9755136.18 5135440.24 181.69
-9755135.07 5135440.17 181.84
-9755136.22 5135437.85 181.24
-9755135.60 5135442.85 181.24
-9755135.61 5135437.52 182.02
-9755135.51 5135437.77 181.92
-9755134.76 5135437.84 182.07
-9755136.17 5135441.01 182.48
-9755135.65 5135438.44 181.26
-9755136.53 5135437.46 182.20
-9755135.06 5135439.03 181.30
-9755136.20 5135437.80 182.20
-9755135.30 5135441.95 181.26
-9755135.89 5135442.84 181.25
-9755135.41 5135440.47 181.92
-9755136.53 5135437.54 181.23
-9755135.27 5135437.73 181.22
-9755135.94 5135436.16 182.54
-9755135.04 5135438.36 182.23
-9755135.68 5135439.86 182.12
-9755135.01 5135438.38 181.84
-9755134.75 5135438.81 181.64
-9755135.59 5135441.96 181.25
-9755135.57 5135440.21 182.12
-9755136.90 5135437.14 181.99
-9755136.54 5135439.97 181.90
-9755135.86 5135436.68 182.23
-9755134.81 5135436.20 183.53
-9755136.50 5135442.44 182.06
-9755135.22 5135435.72 183.86
-9755134.74 5135438.71 181.28
-9755134.75 5135440.65 181.68
-9755134.75 5135439.65 181.66
-9755136.48 5135437.06 182.23
-9755135.97 5135437.81 182.19
-9755134.82 5135435.73 182.13
-9755135.67 5135436.39 181.40
-9755136.80 5135437.09 182.07
-9755135.69 5135438.13 181.79
-9755136.77 5135440.88 181.26
-9755135.26 5135443.03 183.13
-9755134.74 5135443.59 181.71
-9755135.90 5135445.30 181.28
-9755136.48 5135445.02 182.53
-9755135.93 5135445.52 181.69
-9755134.68 5135443.84 181.55
-9755135.59 5135444.26 183.20
-9755136.80 5135443.46 181.25
-9755135.02 5135444.27 183.23
-9755135.62 5135445.17 183.22
-9755136.53 5135445.35 181.66
-9755135.89 5135443.37 183.16
-9755136.44 5135443.69 183.15
-9755134.74 5135443.49 181.53
-9755134.41 5135440.21 181.63
-9755134.49 5135437.17 182.31
-9755134.45 5135443.15 181.51
-9755134.23 5135437.83 181.28
-9755134.49 5135440.46 181.59
-9755134.45 5135439.32 181.61
-9755134.46 5135437.32 182.22
-9755134.49 5135443.14 182.68
-9755134.29 5135437.18 182.23
-9755134.46 5135437.78 182.09
-9755134.46 5135439.56 181.63
-9755134.34 5135440.54 181.25
-9755134.34 5135439.55 182.04
-9755134.43 5135439.83 181.95
-9755134.54 5135443.38 182.63
-9755134.38 5135444.73 181.80
-9755134.41 5135443.96 181.59
-9755134.64 5135444.65 181.44
-9755134.34 5135444.09 182.62
-9755134.29 5135444.51 181.69
-9755134.40 5135443.74 181.59
-9755134.38 5135444.10 181.62
-9755134.42 5135444.52 183.27
-9755134.37 5135443.64 182.56
-9755134.29 5135444.22 182.66
-9755134.54 5135444.67 181.44
-9755134.53 5135443.43 183.16
-9755134.23 5135444.02 182.51
-9755135.97 5135433.94 181.50
-9755136.81 5135434.02 181.51
-9755135.93 5135433.42 181.51
-9755136.21 5135433.09 181.51
-9755135.35 5135433.07 181.51
-9755134.22 5135433.06 181.51
-9755147.27 5135418.90 182.04
-9755146.56 5135427.54 181.34
-9755146.33 5135426.32 181.35
-9755146.34 5135423.13 181.35
-9755146.08 5135419.81 181.71
-9755140.75 5135423.08 181.38
-9755146.37 5135421.91 181.36
-9755143.07 5135426.00 181.36
-9755144.23 5135424.26 181.36
-9755143.12 5135418.88 181.80
-9755138.42 5135422.19 181.39
-9755141.64 5135421.28 181.39
-9755145.70 5135425.18 181.33
-9755141.60 5135425.48 181.35
-9755138.37 5135425.70 181.37
-9755143.73 5135420.74 181.38
-9755141.87 5135426.60 181.38
-9755141.89 5135420.70 181.38
-9755139.86 5135418.91 181.39
-9755139.00 5135419.81 181.38
-9755139.84 5135426.04 181.36
-9755142.50 5135420.35 181.39
-9755141.57 5135429.28 181.37
-9755145.14 5135424.22 181.35
-9755139.56 5135418.90 181.38
-9755140.46 5135425.74 181.36
-9755142.19 5135423.09 181.37
-9755144.59 5135418.89 181.94
-9755138.91 5135427.79 181.37
-9755145.07 5135426.94 181.36
-9755139.60 5135421.28 181.40
-9755137.52 5135418.55 181.39
-9755141.65 5135419.26 181.39
-9755144.51 5135426.94 181.35
-9755144.33 5135421.05 181.38
-9755140.43 5135427.22 181.37
-9755141.91 5135418.91 181.64
-9755138.36 5135423.98 181.38
-9755138.94 5135426.93 181.36
-9755143.96 5135429.28 181.36
-9755143.05 5135427.23 181.36
-9755139.54 5135423.32 181.38
-9755145.19 5135421.59 181.37
-9755141.28 5135428.67 181.37
-9755140.99 5135427.79 181.38
-9755139.85 5135426.89 181.38
-9755141.63 5135422.53 181.37
-9755145.15 5135423.12 181.36
-9755139.56 5135422.14 181.40
-9755141.04 5135425.45 181.35
-9755144.84 5135425.78 181.34
-9755140.12 5135428.41 181.37
-9755141.91 5135419.23 181.47
-9755140.93 5135429.58 181.39
-9755140.12 5135432.82 181.57
-9755137.12 5135432.19 181.54
-9755142.15 5135431.08 181.49
-9755140.99 5135431.34 181.56
-9755144.85 5135432.25 181.37
-9755144.24 5135429.94 181.37
-9755139.82 5135430.18 181.51
-9755145.71 5135430.49 181.34
-9755137.73 5135431.02 181.57
-9755145.75 5135429.63 181.34
-9755139.25 5135432.52 181.55
-9755143.32 5135429.29 181.38
-9755143.92 5135430.45 181.37
-9755139.22 5135430.78 181.57
-9755138.94 5135431.64 181.57
-9755142.44 5135430.48 181.37
-9755143.92 5135432.28 181.44
-9755145.39 5135432.83 181.39
-9755140.95 5135432.51 181.58
-9755141.88 5135432.26 181.55
-9755144.16 5135432.27 181.41
-9755137.50 5135422.14 181.38
-9755137.19 5135425.66 181.36
-9755136.01 5135428.03 181.36
-9755135.79 5135423.65 181.37
-9755137.16 5135426.28 181.37
-9755135.13 5135428.30 181.35
-9755136.92 5135422.14 181.38
-9755136.96 5135421.26 181.40
-9755135.40 5135428.97 181.36
-9755135.46 5135425.40 181.35
-9755136.65 5135423.64 181.38
-9755134.81 5135425.70 181.35
-9755136.00 5135419.80 181.39
-9755135.76 5135423.34 181.37
-9755134.86 5135419.79 181.39
-9755136.00 5135429.82 181.36
-9755135.96 5135431.01 181.54
-9755135.94 5135431.33 181.53
-9755136.90 5135429.25 181.37
-9755134.81 5135430.99 181.49
-9755134.52 5135421.58 181.38
-9755134.23 5135426.63 181.35
-9755134.53 5135427.14 181.35
-9755134.25 5135423.32 181.37
-9755134.55 5135421.27 181.37
-9755134.79 5135430.72 181.40
-9755134.82 5135432.20 181.52
-9755134.23 5135429.56 181.35
-9755179.11 5135418.84 181.85
-9755184.98 5135418.88 181.77
-9755176.12 5135417.32 182.41
-9755186.16 5135418.57 181.83
-9755186.49 5135417.37 182.29
-9755185.29 5135417.35 182.37
-9755186.78 5135417.99 182.05
-9755176.19 5135417.62 182.35
-9755184.43 5135417.61 182.39
-9755186.17 5135418.24 181.98
-9755180.56 5135417.66 182.35
-9755181.14 5135418.49 181.98
-9755184.73 5135417.35 182.42
-9755178.47 5135417.88 182.20
-9755185.88 5135418.34 181.93
-9755174.43 5135418.76 181.95
-9755175.29 5135418.19 182.16
-9755166.44 5135418.67 182.09
-9755167.31 5135418.77 182.03
-9755169.07 5135418.13 182.26
-9755168.20 5135418.41 182.18
-9755173.52 5135418.20 182.12
-9755172.92 5135418.74 181.97
-9755168.82 5135417.83 182.39
-9755172.88 5135418.16 182.19
-9755172.33 5135418.24 182.20
-9755167.91 5135417.57 182.47
-9755164.92 5135418.38 182.19
-9755163.78 5135417.53 182.47
-9755162.90 5135417.79 182.39
-9755162.00 5135417.82 182.40
-9755161.36 5135417.52 182.45
-9755161.12 5135418.10 182.34
-9755156.65 5135418.37 182.17
-9755156.97 5135418.05 182.30
-9755155.78 5135418.10 182.27
-9755152.27 5135418.07 182.36
-9755146.69 5135417.74 182.46
-9755152.87 5135418.04 182.36
-9755146.39 5135417.67 182.46
-9755143.13 5135418.35 181.97
-9755140.79 5135417.47 181.99
-9755137.53 5135417.95 181.40
-9755138.40 5135417.71 181.55
-9755134.83 5135417.38 181.39
-9755175.67 5135378.68 212.87
-9755175.69 5135376.94 212.89
-9755175.75 5135376.12 212.72
-9755175.23 5135378.51 212.45
-9755175.25 5135377.63 212.47
-9755175.39 5135378.23 212.92
-9755174.62 5135377.91 212.44
-9755174.89 5135379.12 212.90
-9755175.05 5135379.27 212.93
-9755175.47 5135377.62 212.55
-9755175.57 5135379.22 210.26
-9755174.97 5135378.79 212.90
-9755175.42 5135375.54 212.88
-9755175.45 5135375.88 212.87
-9755175.21 5135376.75 212.47
-9755175.22 5135376.15 212.45
-9755175.47 5135376.21 212.87
-9755176.10 5135371.99 212.89
-9755180.30 5135368.77 212.37
-9755186.78 5135367.36 212.35
-9755181.14 5135369.41 212.39
-9755178.80 5135367.59 212.36
-9755181.43 5135365.53 212.33
-9755180.57 5135372.01 212.93
-9755176.31 5135371.77 212.45
-9755180.90 5135364.63 212.34
-9755182.32 5135367.35 212.35
-9755183.79 5135369.73 212.39
-9755175.76 5135373.66 212.89
-9755181.45 5135365.24 212.33
-9755184.08 5135366.43 212.34
-9755186.16 5135367.63 212.35
-9755175.87 5135368.79 212.40
-9755182.38 5135366.44 212.33
-9755177.24 5135371.77 212.47
-9755178.81 5135364.95 212.36
-9755179.08 5135366.41 212.36
-9755178.49 5135369.07 212.38
-9755175.84 5135372.86 212.64
-9755181.98 5135370.87 212.42
-9755182.05 5135368.23 212.36
-9755178.30 5135371.90 212.90
-9755176.90 5135372.16 212.87
-9755181.13 5135368.18 212.36
-9755179.66 5135366.40 212.34
-9755177.05 5135371.88 212.89
-9755186.74 5135364.75 212.35
-9755186.46 5135367.05 212.35
-9755186.45 5135366.15 212.33
-9755176.40 5135371.16 212.44
-9755183.82 5135364.71 212.31
-9755184.68 5135366.46 212.32
-9755178.51 5135366.42 212.37
-9755183.42 5135371.16 212.93
-9755178.51 5135367.34 212.37
-9755184.13 5135367.04 212.34
-9755183.85 5135367.61 212.34
-9755177.04 5135369.09 212.44
-9755176.23 5135371.70 212.89
-9755176.11 5135366.10 212.40
-9755183.50 5135364.67 212.31
-9755180.54 5135367.31 212.34
-9755184.97 5135371.18 212.44
-9755184.65 5135368.81 212.38
-9755176.58 5135364.83 212.98
-9755177.02 5135370.85 212.42
-9755178.20 5135369.68 212.39
-9755182.89 5135371.47 212.91
-9755180.56 5135365.25 212.34
-9755179.38 5135369.97 212.40
-9755182.96 5135366.71 212.33
-9755182.39 5135371.22 212.85
-9755184.99 5135370.29 212.42
-9755176.44 5135367.87 212.39
-9755182.69 5135371.78 212.46
-9755178.77 5135371.43 212.43
-9755184.99 5135367.05 212.33
-9755180.25 5135371.17 212.41
-9755183.80 5135368.23 212.35
-9755177.92 5135369.97 212.41
-9755180.89 5135367.95 212.36
-9755176.19 5135364.65 213.33
-9755179.48 5135371.19 212.81
-9755175.84 5135375.55 212.59
-9755186.19 5135371.47 212.43
-9755177.00 5135368.52 212.39
-9755182.63 5135369.37 212.39
-9755177.33 5135366.42 212.38
-9755182.36 5135366.11 212.33
-9755181.41 5135369.15 212.39
-9755183.85 5135366.44 212.33
-9755177.03 5135366.10 212.38
-9755176.99 5135371.74 212.46
-9755179.39 5135368.20 212.38
-9755184.69 5135366.79 212.34
-9755176.45 5135370.24 212.44
-9755181.12 5135369.11 212.39
-9755182.64 5135364.93 212.32
-9755181.41 5135371.70 212.89
-9755179.65 5135367.30 212.36
-9755180.21 5135369.94 212.39
-9755182.91 5135369.10 212.39
-9755179.68 5135364.65 212.34
-9755176.99 5135369.36 212.44
-9755186.16 5135369.70 212.39
-9755177.59 5135371.12 212.43
-9755186.64 5135371.67 212.46
-9755183.89 5135371.64 212.92
-9755185.49 5135371.22 212.44
-9755185.58 5135366.21 212.32
-9755185.60 5135365.52 212.33
-9755186.45 5135368.79 212.38
-9755184.39 5135370.88 212.42
-9755182.62 5135369.99 212.40
-9755183.83 5135365.54 212.32
-9755182.88 5135370.61 212.41
-9755183.79 5135370.57 212.41
-9755184.36 5135369.42 212.37
-9755178.49 5135370.56 212.41
-9755177.00 5135367.60 212.39
-9755183.10 5135371.77 212.48
-9755177.61 5135367.30 212.38
-9755186.74 5135370.65 212.41
-9755185.03 5135367.96 212.35
-9755175.80 5135370.51 212.44
-9755186.74 5135368.55 212.37
-9755185.56 5135370.25 212.42
-9755176.13 5135367.60 212.39
-9755184.33 5135371.54 212.46
-9755180.28 5135366.41 212.34
-9755184.07 5135365.60 212.33
-9755177.63 5135369.99 212.42
-9755183.49 5135366.16 212.33
-9755177.31 5135371.70 212.92
-9755184.38 5135369.98 212.40
-9755181.71 5135368.55 212.36
-9755175.80 5135372.08 212.39
-9755177.92 5135371.74 212.47
-9755181.17 5135370.57 212.40
-9755180.57 5135370.27 212.40
-9755179.65 5135371.12 212.80
-9755175.52 5135375.26 212.48
-9755186.13 5135369.41 212.39
-9755181.37 5135371.18 212.42
-9755180.24 5135367.92 212.36
-9755176.77 5135364.85 212.53
-9755186.77 5135365.87 212.34
-9755176.11 5135368.49 212.40
-9755184.98 5135370.63 212.42
-9755181.72 5135370.56 212.41
-9755182.63 5135366.77 212.34
-9755183.53 5135369.11 212.38
-9755179.98 5135365.54 212.34
-9755185.28 5135369.72 212.41
-9755177.92 5135368.18 212.38
-9755180.94 5135371.40 212.86
-9755183.83 5135371.51 212.44
-9755181.15 5135368.49 212.37
-9755176.39 5135370.54 212.44
-9755182.62 5135370.61 212.40
-9755184.69 5135364.68 212.31
-9755178.47 5135371.64 212.88
-9755184.38 5135371.40 212.94
-9755175.78 5135375.16 212.89
-9755175.48 5135372.95 212.50
-9755174.69 5135368.39 214.96
-9755174.69 5135368.32 215.16
-9755174.66 5135369.93 212.42
-9755174.69 5135366.34 215.09
-9755174.93 5135375.27 212.44
-9755175.67 5135372.29 212.53
-9755175.21 5135372.91 212.47
-9755175.24 5135370.24 212.44
-9755174.36 5135373.81 212.43
-9755174.63 5135371.16 212.45
-9755174.64 5135367.44 215.11
-9755175.22 5135372.88 212.91
-9755174.37 5135372.58 212.43
-9755174.34 5135373.50 212.43
-9755174.84 5135374.87 212.95
-9755175.52 5135373.76 212.87
-9755175.27 5135370.81 212.45
-9755174.64 5135374.38 212.43
-9755174.94 5135370.52 212.45
-9755175.13 5135374.06 212.90
-9755174.98 5135372.70 212.90
-9755174.03 5135377.93 212.45
-9755173.60 5135378.63 212.84
-9755167.23 5135379.14 212.92
-9755169.00 5135378.53 212.44
-9755170.50 5135378.82 212.44
-9755172.23 5135378.23 212.42
-9755172.81 5135378.58 212.85
-9755172.25 5135377.63 212.42
-9755169.58 5135378.81 212.43
-9755173.14 5135378.77 212.93
-9755166.64 5135379.28 212.91
-9755169.58 5135377.65 212.40
-9755170.65 5135378.78 212.92
-9755166.07 5135379.06 212.91
-9755165.47 5135378.17 212.42
-9755168.76 5135379.42 212.91
-9755171.05 5135377.62 212.40
-9755169.49 5135378.81 212.89
-9755169.31 5135378.79 212.43
-9755167.26 5135377.31 212.43
-9755167.82 5135379.27 212.53
-9755169.51 5135379.35 212.96
-9755165.21 5135379.05 212.89
-9755171.95 5135377.35 212.42
-9755173.37 5135379.08 212.93
-9755167.49 5135377.63 212.44
-9755170.12 5135378.77 212.41
-9755168.13 5135377.36 212.51
-9755170.58 5135378.91 212.92
-9755164.55 5135379.09 212.86
-9755165.18 5135377.93 212.42
-9755167.86 5135379.29 212.92
-9755165.78 5135378.22 212.43
-9755169.88 5135378.72 212.88
-9755167.36 5135378.82 212.92
-9755165.98 5135379.59 212.32
-9755164.91 5135377.28 212.41
-9755167.26 5135379.06 212.47
-9755166.92 5135379.06 212.90
-9755168.70 5135377.03 212.47
-9755169.86 5135378.22 212.42
-9755164.58 5135379.07 212.45
-9755170.75 5135379.10 212.88
-9755164.56 5135379.41 212.45
-9755170.52 5135378.17 212.42
-9755161.92 5135377.88 212.42
-9755161.69 5135377.88 212.43
-9755162.80 5135378.74 212.42
-9755162.56 5135378.75 212.44
-9755163.49 5135378.83 212.92
-9755162.51 5135379.32 212.48
-9755160.72 5135379.02 212.46
-9755162.22 5135377.30 212.42
-9755161.62 5135379.26 212.90
-9755163.67 5135378.47 212.40
-9755161.65 5135378.77 212.43
-9755162.52 5135378.19 212.42
-9755161.29 5135379.38 212.92
-9755160.15 5135379.38 212.49
-9755163.70 5135377.25 212.42
-9755161.05 5135378.48 212.44
-9755162.21 5135378.74 212.44
-9755162.24 5135377.85 212.41
-9755161.04 5135377.01 212.42
-9755162.82 5135377.62 212.42
-9755160.45 5135379.02 212.47
-9755160.45 5135377.55 212.43
-9755160.44 5135377.32 212.43
-9755157.07 5135378.80 212.87
-9755157.76 5135379.64 212.89
-9755157.85 5135379.31 212.90
-9755157.78 5135379.27 212.46
-9755158.11 5135379.04 212.45
-9755157.23 5135378.44 212.43
-9755157.52 5135377.28 212.43
-9755157.40 5135379.32 212.88
-9755157.18 5135379.34 212.88
-9755159.88 5135379.63 212.88
-9755158.26 5135379.06 212.92
-9755173.72 5135377.04 212.48
-9755173.73 5135375.57 212.47
-9755173.78 5135376.13 212.47
-9755173.75 5135376.45 212.48
-9755172.22 5135376.43 212.43
-9755172.24 5135376.76 212.42
-9755164.61 5135376.39 212.40
-9755169.30 5135376.99 212.42
-9755172.85 5135376.17 212.44
-9755171.32 5135376.48 212.41
-9755171.33 5135375.56 212.41
-9755164.87 5135375.80 212.41
-9755168.71 5135376.13 212.45
-9755173.12 5135377.06 212.47
-9755168.41 5135376.98 212.50
-9755166.33 5135376.41 212.41
-9755167.83 5135376.15 212.49
-9755168.70 5135375.56 212.45
-9755170.73 5135377.01 212.40
-9755166.92 5135376.74 212.42
-9755169.90 5135376.41 212.37
-9755173.13 5135376.71 212.47
-9755172.57 5135375.51 212.41
-9755167.81 5135376.70 212.49
-9755162.19 5135376.99 212.42
-9755161.66 5135376.41 212.41
-9755162.79 5135376.06 212.40
-9755163.98 5135376.07 212.40
-9755163.70 5135376.11 212.39
-9755163.97 5135376.67 212.42
-9755163.10 5135376.72 212.41
-9755161.35 5135376.67 212.42
-9755161.67 5135376.09 212.39
-9755162.55 5135375.51 212.40
-9755161.64 5135375.50 212.39
-9755161.39 5135376.09 212.40
-9755160.47 5135375.48 212.42
-9755159.57 5135376.38 212.42
-9755157.83 5135376.09 212.43
-9755158.95 5135376.64 212.43
-9755156.89 5135376.96 212.43
-9755159.85 5135376.07 212.42
-9755156.68 5135376.64 212.43
-9755159.59 5135375.80 212.42
-9755158.12 5135376.35 212.44
-9755157.51 5135375.49 212.43
-9755159.88 5135376.68 212.42
-9755156.93 5135376.35 212.43
-9755156.64 5135375.47 212.43
-9755156.61 5135376.07 212.44
-9755155.72 5135379.29 210.06
-9755155.79 5135377.82 211.18
-9755152.66 5135379.28 212.51
-9755155.78 5135377.26 210.42
-9755152.43 5135378.15 212.46
-9755155.81 5135379.35 210.12
-9755155.90 5135379.08 204.90
-9755155.81 5135378.68 212.46
-9755149.88 5135379.65 212.88
-9755151.55 5135379.64 212.86
-9755155.91 5135378.81 209.93
-9755155.96 5135377.64 211.45
-9755155.73 5135377.02 209.99
-9755151.92 5135377.84 212.42
-9755155.75 5135378.76 205.81
-9755155.70 5135377.59 209.93
-9755155.82 5135378.82 211.46
-9755148.97 5135378.66 212.42
-9755155.79 5135377.45 211.89
-9755156.04 5135377.82 211.11
-9755155.98 5135377.65 210.06
-9755150.11 5135378.70 212.42
-9755151.88 5135377.54 212.42
-9755155.68 5135378.11 211.68
-9755152.18 5135378.04 212.45
-9755151.58 5135378.98 212.43
-9755152.77 5135377.62 209.05
-9755155.94 5135379.41 205.65
-9755156.03 5135377.49 210.49
-9755155.72 5135378.86 205.33
-9755152.53 5135378.98 212.46
-9755155.80 5135377.89 210.67
-9755156.85 5135379.31 212.48
-9755149.24 5135378.99 212.42
-9755150.75 5135379.30 212.44
-9755155.68 5135379.38 205.53
-9755156.06 5135378.56 210.07
-9755155.79 5135378.28 205.66
-9755155.89 5135378.81 211.16
-9755155.72 5135377.79 207.44
-9755155.80 5135377.94 212.35
-9755155.88 5135378.82 207.85
-9755152.83 5135379.52 212.89
-9755155.61 5135378.84 206.87
-9755155.78 5135377.32 211.85
-9755155.99 5135377.87 210.08
-9755155.97 5135378.63 205.83
-9755155.92 5135378.70 211.76
-9755149.55 5135379.45 212.85
-9755155.79 5135377.60 212.45
-9755152.53 5135378.30 212.88
-9755155.97 5135377.23 208.69
-9755151.01 5135378.43 212.41
-9755148.64 5135379.33 212.42
-9755147.79 5135377.19 212.42
-9755155.86 5135378.82 204.83
-9755156.01 5135379.09 209.83
-9755155.88 5135378.01 204.88
-9755155.93 5135378.25 204.83
-9755155.98 5135377.03 211.36
-9755155.86 5135378.29 205.44
-9755155.80 5135379.12 211.39
-9755155.82 5135379.51 210.30
-9755155.93 5135378.10 205.68
-9755152.57 5135377.16 212.88
-9755156.02 5135377.24 209.23
-9755155.78 5135379.30 212.48
-9755148.78 5135379.74 212.93
-9755155.73 5135377.25 206.69
-9755152.76 5135378.10 212.15
-9755155.81 5135377.09 211.36
-9755152.76 5135378.99 212.88
-9755155.82 5135377.06 208.93
-9755149.51 5135379.29 212.42
-9755155.76 5135378.64 208.38
-9755150.18 5135379.18 212.89
-9755155.88 5135378.60 207.83
-9755155.79 5135379.22 205.28
-9755155.74 5135379.59 211.82
-9755156.00 5135377.91 211.93
-9755155.95 5135379.37 211.79
-9755155.81 5135378.12 212.50
-9755152.51 5135376.92 212.47
-9755154.62 5135376.21 212.44
-9755155.47 5135376.12 212.43
-9755154.25 5135375.43 212.41
-9755151.59 5135376.30 212.39
-9755153.89 5135376.26 212.43
-9755147.47 5135376.61 212.40
-9755155.12 5135376.03 212.42
-9755152.49 5135376.02 212.42
-9755149.29 5135375.40 212.39
-9755153.17 5135375.61 212.87
-9755153.68 5135376.32 212.41
-9755151.89 5135376.95 212.41
-9755156.00 5135376.00 212.85
-9755148.63 5135376.04 212.38
-9755148.68 5135376.93 212.41
-9755155.75 5135376.04 212.86
-9755151.61 5135375.75 212.38
-9755153.68 5135376.05 212.87
-9755147.46 5135376.03 212.37
-9755150.43 5135376.89 212.40
-9755155.28 5135376.25 212.42
-9755148.38 5135376.58 212.40
-9755154.57 5135376.06 212.42
-9755155.47 5135375.74 212.42
-9755152.79 5135376.08 212.42
-9755152.19 5135376.61 212.42
-9755153.40 5135375.44 212.39
-9755156.08 5135376.60 212.81
-9755152.53 5135376.37 212.46
-9755151.33 5135376.63 212.40
-9755150.43 5135375.74 212.38
-9755153.93 5135376.03 212.42
-9755154.59 5135375.86 212.88
-9755154.15 5135376.31 212.41
-9755154.59 5135376.01 212.88
-9755148.09 5135376.02 212.39
-9755154.02 5135376.69 212.89
-9755150.77 5135375.77 212.38
-9755151.29 5135375.43 212.37
-9755148.68 5135375.42 212.38
-9755152.48 5135376.61 212.46
-9755153.68 5135376.10 212.40
-9755148.37 5135375.43 212.39
-9755173.80 5135365.41 215.14
-9755174.41 5135368.06 215.13
-9755173.76 5135370.82 212.44
-9755174.36 5135370.82 212.44
-9755174.14 5135368.91 215.44
-9755173.76 5135372.61 212.45
-9755173.78 5135365.98 215.14
-9755173.79 5135370.55 212.44
-9755173.83 5135366.52 215.13
-9755173.81 5135368.58 215.16
-9755174.06 5135373.49 212.43
-9755173.75 5135371.42 212.44
-9755169.05 5135370.18 212.44
-9755167.22 5135374.93 212.46
-9755165.34 5135369.53 216.94
-9755167.00 5135367.91 216.92
-9755170.24 5135367.04 216.91
-9755172.32 5135367.51 215.63
-9755170.49 5135373.78 212.38
-9755164.70 5135366.70 216.94
-9755165.57 5135368.82 216.95
-9755171.41 5135371.38 212.47
-9755172.84 5135374.69 212.42
-9755168.78 5135371.99 212.42
-9755170.82 5135370.50 212.44
-9755169.92 5135375.26 212.39
-9755164.95 5135365.21 217.86
-9755169.63 5135374.60 212.39
-9755164.70 5135366.09 216.93
-9755165.10 5135370.52 213.45
-9755164.56 5135371.40 212.42
-9755164.29 5135371.08 212.46
-9755169.44 5135367.96 216.90
-9755172.60 5135368.58 215.20
-9755164.74 5135365.20 217.86
-9755164.40 5135370.57 212.62
-9755168.67 5135374.08 212.42
-9755167.85 5135372.86 212.50
-9755169.64 5135369.09 216.90
-9755171.10 5135374.33 212.38
-9755172.22 5135374.07 212.38
-9755172.25 5135369.90 213.04
-9755171.57 5135369.09 212.95
-9755169.61 5135371.15 212.43
-9755167.33 5135367.62 216.92
-9755172.04 5135368.65 215.27
-9755167.96 5135365.85 216.92
-9755166.44 5135368.20 216.92
-9755170.33 5135365.54 216.88
-9755167.57 5135371.98 212.45
-9755172.95 5135365.06 215.15
-9755170.32 5135365.32 216.89
-9755164.42 5135370.55 213.43
-9755166.69 5135372.25 212.43
-9755166.38 5135373.14 212.42
-9755172.06 5135366.82 215.20
-9755165.71 5135369.42 216.40
-9755171.63 5135371.40 212.49
-9755171.68 5135372.87 212.41
-9755171.18 5135365.61 215.20
-9755165.20 5135374.31 212.42
-9755170.20 5135367.10 216.70
-9755169.69 5135365.83 216.91
-9755164.95 5135367.32 216.92
-9755165.49 5135371.97 212.40
-9755171.74 5135367.12 215.21
-9755172.03 5135370.71 213.41
-9755169.62 5135374.06 212.38
-9755171.42 5135371.75 212.61
-9755164.29 5135370.70 213.20
-9755172.60 5135366.22 215.18
-9755169.63 5135372.31 212.40
-9755170.76 5135374.33 212.38
-9755166.36 5135371.10 212.44
-9755164.35 5135371.63 212.43
-9755164.32 5135372.28 212.40
-9755171.69 5135372.03 212.45
-9755171.87 5135372.23 212.31
-9755172.02 5135366.28 215.70
-9755168.87 5135364.70 216.91
-9755172.68 5135366.48 215.99
-9755171.68 5135374.40 212.39
-9755171.66 5135374.69 212.37
-9755166.76 5135366.40 216.92
-9755172.32 5135365.98 215.18
-9755167.96 5135364.95 216.93
-9755171.75 5135366.59 215.66
-9755170.46 5135373.45 212.37
-9755165.65 5135369.36 217.52
-9755173.52 5135365.95 215.15
-9755164.97 5135364.63 217.87
-9755171.22 5135369.03 212.97
-9755170.55 5135369.33 216.74
-9755170.31 5135368.22 216.89
-9755169.04 5135371.41 212.43
-9755173.52 5135364.76 215.14
-9755164.63 5135371.03 213.44
-9755173.25 5135368.01 215.16
-9755165.01 5135364.91 217.87
-9755166.75 5135367.02 216.92
-9755170.82 5135371.99 212.43
-9755164.38 5135365.56 216.94
-9755167.19 5135369.14 212.33
-9755168.46 5135371.10 212.45
-9755172.94 5135367.12 215.18
-9755172.24 5135370.16 212.68
-9755171.44 5135367.74 215.20
-9755169.61 5135374.37 212.39
-9755166.70 5135372.90 212.44
-9755166.76 5135369.49 214.25
-9755170.57 5135371.68 212.44
-9755172.60 5135365.39 215.18
-9755166.73 5135370.02 216.09
-9755172.26 5135373.76 212.39
-9755166.95 5135372.86 212.44
-9755172.01 5135366.80 215.70
-9755166.03 5135371.39 212.42
-9755165.12 5135371.05 213.45
-9755172.56 5135374.64 212.40
-9755166.34 5135371.36 212.44
-9755170.24 5135370.80 212.44
-9755172.32 5135370.61 212.49
-9755172.08 5135365.35 215.19
-9755167.33 5135368.79 216.94
-9755166.09 5135370.48 212.43
-9755171.09 5135372.33 212.43
-9755170.54 5135367.36 216.75
-9755173.44 5135372.62 212.45
-9755164.99 5135365.55 216.92
-9755165.78 5135372.85 212.42
-9755164.89 5135371.93 212.41
-9755167.01 5135367.02 216.91
-9755169.98 5135366.15 216.91
-9755164.37 5135364.64 217.04
-9755165.15 5135373.42 212.41
-9755171.45 5135366.23 215.21
-9755169.04 5135372.32 212.41
-9755164.68 5135368.16 216.92
-9755172.08 5135369.79 212.46
-9755169.03 5135373.44 212.39
-9755164.67 5135371.65 212.43
-9755166.12 5135367.01 216.93
-9755167.01 5135365.83 216.92
-9755170.53 5135368.20 216.87
-9755166.92 5135369.51 212.44
-9755168.45 5135374.30 212.45
-9755168.81 5135365.54 216.92
-9755165.81 5135369.31 216.91
-9755171.74 5135370.22 212.47
-9755165.31 5135365.56 216.92
-9755172.91 5135367.75 215.17
-9755165.84 5135367.06 216.92
-9755165.86 5135367.90 216.91
-9755170.22 5135370.23 212.43
-9755165.74 5135374.65 212.42
-9755170.23 5135374.07 212.38
-9755173.17 5135373.75 212.44
-9755165.85 5135366.44 216.93
-9755166.15 5135365.53 216.93
-9755168.73 5135374.96 212.44
-9755172.82 5135371.46 212.45
-9755164.68 5135367.56 216.93
-9755169.02 5135369.93 212.45
-9755171.70 5135371.11 212.47
-9755171.47 5135365.10 215.19
-9755165.89 5135370.16 217.77
-9755167.37 5135365.26 216.92
-9755173.49 5135367.44 215.16
-9755172.57 5135372.89 212.41
-9755172.04 5135371.11 212.46
-9755172.28 5135371.97 213.45
-9755172.59 5135367.69 215.17
-9755172.49 5135371.12 213.43
-9755165.74 5135372.28 212.41
-9755169.29 5135369.30 216.94
-9755164.89 5135370.77 212.65
-9755169.45 5135365.84 216.91
-9755165.33 5135364.73 217.67
-9755162.93 5135367.63 216.94
-9755164.25 5135369.41 215.72
-9755164.11 5135370.66 213.17
-9755164.04 5135371.63 212.42
-9755164.12 5135368.47 216.92
-9755162.92 5135366.05 216.96
-9755162.86 5135367.63 215.34
-9755164.06 5135371.08 212.43
-9755162.23 5135366.80 216.82
-9755161.38 5135367.54 212.40
-9755162.58 5135368.16 213.00
-9755162.27 5135367.25 212.52
-9755164.01 5135372.31 212.40
-9755162.85 5135371.05 212.40
-9755162.90 5135369.59 212.41
-9755161.12 5135365.43 212.43
-9755163.80 5135366.96 216.94
-9755162.28 5135368.05 212.54
-9755162.70 5135367.03 213.05
-9755162.22 5135366.96 212.57
-9755162.92 5135368.58 216.35
-9755162.27 5135365.28 216.88
-9755162.84 5135367.39 214.49
-9755162.88 5135367.98 215.01
-9755162.79 5135368.41 212.94
-9755162.70 5135368.75 213.50
-9755162.91 5135366.56 212.55
-9755160.83 5135366.33 212.39
-9755162.94 5135365.97 212.47
-9755162.57 5135369.57 212.41
-9755162.79 5135367.21 214.53
-9755162.71 5135366.97 213.49
-9755161.08 5135372.88 212.39
-9755164.02 5135373.44 212.41
-9755160.80 5135367.19 212.39
-9755162.89 5135366.37 215.26
-9755162.87 5135366.78 215.40
-9755162.87 5135369.25 212.99
-9755162.77 5135364.77 213.82
-9755162.88 5135365.51 212.45
-9755160.16 5135374.60 212.39
-9755164.13 5135364.60 216.99
-9755163.77 5135370.20 212.42
-9755161.39 5135373.99 212.39
-9755162.93 5135369.34 213.29
-9755161.64 5135369.29 212.40
-9755161.37 5135371.37 212.39
-9755162.93 5135366.26 216.11
-9755162.72 5135369.20 212.85
-9755162.87 5135367.76 212.48
-9755162.83 5135368.56 212.94
-9755162.50 5135375.17 212.41
-9755162.97 5135366.32 214.53
-9755163.78 5135369.92 212.42
-9755162.92 5135368.64 215.12
-9755161.95 5135370.50 212.41
-9755162.84 5135366.34 214.42
-9755163.13 5135374.89 212.40
-9755161.98 5135368.63 212.42
-9755160.53 5135367.18 212.38
-9755162.71 5135365.35 213.75
-9755162.85 5135367.46 213.14
-9755162.81 5135368.06 213.00
-9755161.66 5135372.24 212.39
-9755162.59 5135364.80 212.45
-9755162.91 5135367.78 213.52
-9755162.27 5135365.78 212.46
-9755162.94 5135366.29 215.75
-9755162.00 5135367.77 212.54
-9755162.89 5135369.33 216.13
-9755162.53 5135371.94 212.39
-9755162.22 5135374.61 212.39
-9755162.70 5135368.83 214.08
-9755162.30 5135368.66 212.48
-9755162.41 5135365.18 213.52
-9755161.44 5135366.93 212.43
-9755160.49 5135372.25 212.40
-9755162.26 5135371.66 212.39
-9755160.48 5135368.99 212.38
-9755160.82 5135370.44 212.38
-9755160.51 5135369.26 212.38
-9755162.83 5135366.13 215.40
-9755162.98 5135367.51 214.08
-9755162.67 5135368.73 216.11
-9755164.04 5135370.75 212.43
-9755160.50 5135366.32 212.39
-9755162.88 5135368.33 214.53
-9755162.86 5135368.15 215.37
-9755162.85 5135367.69 215.03
-9755162.56 5135373.76 212.39
-9755162.90 5135367.41 215.50
-9755162.59 5135368.49 215.63
-9755162.72 5135366.17 215.40
-9755163.13 5135371.05 212.40
-9755161.10 5135370.44 212.39
-9755163.12 5135370.79 212.41
-9755163.79 5135366.12 216.94
-9755161.40 5135366.31 212.44
-9755160.17 5135371.02 212.39
-9755162.68 5135368.58 216.46
-9755162.82 5135368.76 214.12
-9755162.78 5135367.79 216.05
-9755162.38 5135365.38 216.19
-9755162.79 5135365.13 213.75
-9755163.80 5135364.93 216.92
-9755162.80 5135374.59 212.40
-9755162.71 5135366.71 215.52
-9755161.67 5135367.57 212.45
-9755162.88 5135366.87 213.70
-9755163.21 5135365.20 216.95
-9755163.06 5135368.00 214.53
-9755162.89 5135367.73 213.76
-9755162.81 5135366.51 213.15
-9755160.50 5135371.36 212.38
-9755162.92 5135365.74 212.47
-9755163.21 5135366.10 216.94
-9755162.29 5135366.65 212.53
-9755161.38 5135369.56 212.39
-9755162.70 5135368.64 214.73
-9755164.27 5135370.38 213.15
-9755163.03 5135368.59 212.86
-9755162.80 5135368.12 212.53
-9755164.01 5135374.31 212.41
-9755162.75 5135369.30 215.35
-9755163.04 5135367.37 213.35
-9755162.81 5135366.41 213.79
-9755161.35 5135374.62 212.39
-9755161.65 5135370.21 212.39
-9755161.64 5135364.82 212.51
-9755162.84 5135366.99 213.99
-9755160.20 5135371.37 212.39
-9755161.68 5135366.90 212.58
-9755160.51 5135364.82 212.40
-9755161.11 5135368.12 212.38
-9755162.74 5135368.74 215.73
-9755163.13 5135368.84 215.80
-9755162.00 5135368.40 212.46
-9755163.70 5135372.59 212.40
-9755162.93 5135365.95 215.12
-9755163.15 5135366.38 212.55
-9755162.85 5135368.68 214.78
-9755161.08 5135369.57 212.39
-9755161.73 5135368.03 212.49
-9755156.94 5135372.83 212.39
-9755157.30 5135366.87 212.38
-9755158.75 5135365.41 212.42
-9755157.59 5135367.75 212.38
-9755156.97 5135367.84 212.38
-9755157.26 5135371.03 212.38
-9755158.13 5135372.83 212.40
-9755159.88 5135369.86 212.39
-9755157.53 5135369.57 212.39
-9755158.19 5135366.02 212.45
-9755159.04 5135366.98 212.59
-9755159.02 5135370.74 212.38
-9755157.50 5135371.93 212.39
-9755159.91 5135368.11 212.39
-9755158.99 5135374.62 212.40
-9755157.24 5135373.71 212.40
-9755158.74 5135371.00 212.39
-9755158.71 5135365.98 212.50
-9755158.18 5135366.61 212.40
-9755158.70 5135369.56 212.38
-9755159.89 5135372.27 212.39
-9755158.67 5135374.32 212.40
-9755159.61 5135369.60 212.39
-9755159.62 5135373.12 212.40
-9755159.07 5135365.72 212.46
-9755159.93 5135366.60 212.40
-9755159.95 5135370.73 212.39
-9755158.73 5135366.90 212.39
-9755157.90 5135365.12 212.38
-9755156.66 5135374.00 212.39
-9755157.60 5135366.93 212.37
-9755156.63 5135371.32 212.40
-9755156.94 5135366.29 212.38
-9755158.43 5135372.21 212.39
-9755158.44 5135371.93 212.39
-9755157.52 5135371.35 212.37
-9755156.68 5135367.18 212.37
-9755158.40 5135368.68 212.36
-9755157.54 5135372.81 212.39
-9755159.03 5135374.31 212.39
-9755156.95 5135370.43 212.38
-9755159.32 5135374.58 212.40
-9755158.78 5135364.85 212.42
-9755157.83 5135371.95 212.39
-9755159.34 5135364.83 212.42
-9755156.67 5135364.84 212.37
-9755158.77 5135366.28 212.53
-9755157.27 5135366.00 212.38
-9755159.64 5135370.15 212.39
-9755160.45 5135374.92 212.40
-9755158.13 5135374.87 212.43
-9755156.66 5135369.87 212.39
-9755158.45 5135366.24 212.43
-9755158.93 5135365.98 212.54
-9755157.22 5135371.65 212.38
-9755158.50 5135364.81 212.42
-9755159.05 5135368.99 212.38
-9755159.05 5135366.29 212.48
-9755159.28 5135373.41 212.40
-9755158.76 5135366.34 213.18
-9755157.01 5135365.40 212.38
-9755157.82 5135372.23 212.38
-9755156.62 5135372.52 212.39
-9755154.58 5135369.51 212.34
-9755154.03 5135372.01 212.45
-9755148.09 5135374.56 212.35
-9755154.00 5135371.64 212.57
-9755149.88 5135374.87 212.37
-9755150.83 5135368.33 212.31
-9755150.44 5135366.87 212.34
-9755153.67 5135375.09 213.07
-9755151.36 5135369.53 212.32
-9755149.87 5135371.02 212.32
-9755150.82 5135364.79 212.34
-9755148.92 5135374.55 212.37
-9755150.76 5135373.94 212.36
-9755147.49 5135370.41 212.35
-9755154.59 5135370.10 212.34
-9755155.77 5135373.34 212.39
-9755152.28 5135366.57 212.30
-9755155.45 5135374.86 212.40
-9755156.42 5135369.56 212.39
-9755152.56 5135364.79 212.33
-9755154.94 5135365.05 212.35
-9755149.87 5135374.24 212.35
-9755148.68 5135371.01 212.34
-9755154.00 5135371.21 212.45
-9755155.78 5135365.10 212.36
-9755154.03 5135365.69 212.31
-9755151.05 5135368.07 212.31
-9755151.70 5135374.52 213.88
-9755151.95 5135369.52 212.32
-9755150.78 5135367.44 212.32
-9755154.45 5135374.34 213.27
-9755151.93 5135372.83 212.36
-9755147.50 5135371.27 212.35
-9755151.39 5135366.55 212.32
-9755151.39 5135372.74 212.35
-9755151.89 5135368.65 212.56
-9755149.56 5135373.04 212.35
-9755151.36 5135369.81 212.32
-9755153.42 5135370.12 212.33
-9755152.83 5135364.79 212.33
-9755155.79 5135370.43 212.37
-9755148.39 5135373.37 212.36
-9755148.13 5135366.52 212.34
-9755153.98 5135371.92 212.55
-9755150.45 5135373.09 212.37
-9755153.42 5135369.20 212.33
-9755148.14 5135369.52 212.37
-9755153.97 5135372.72 213.86
-9755153.97 5135370.44 212.33
-9755152.85 5135372.99 213.89
-9755148.64 5135373.08 212.37
-9755150.83 5135369.80 212.31
-9755156.69 5135368.97 212.37
-9755149.29 5135374.27 212.36
-9755153.12 5135372.74 213.88
-9755154.30 5135368.93 212.34
-9755154.89 5135366.55 212.33
-9755149.03 5135368.93 212.35
-9755152.20 5135373.08 212.37
-9755150.72 5135370.09 212.31
-9755150.73 5135373.62 212.34
-9755149.25 5135371.60 212.34
-9755153.69 5135369.85 212.34
-9755156.02 5135374.28 212.41
-9755150.80 5135368.67 212.32
-9755151.11 5135373.00 212.91
-9755152.52 5135372.81 212.36
-9755149.03 5135371.62 212.33
-9755152.53 5135366.29 212.31
-9755150.80 5135365.33 212.32
-9755147.53 5135364.76 212.35
-9755147.55 5135370.66 212.34
-9755151.91 5135367.78 212.28
-9755149.29 5135372.16 212.33
-9755152.55 5135366.88 212.30
-9755151.64 5135369.83 212.32
-9755151.92 5135372.20 212.33
-9755153.12 5135372.83 212.37
-9755150.56 5135373.42 212.86
-9755149.87 5135371.34 212.33
-9755151.40 5135373.02 213.86
-9755156.32 5135371.63 212.39
-9755151.11 5135370.44 212.31
-9755152.84 5135365.39 212.32
-9755152.54 5135371.28 212.34
-9755153.40 5135373.90 213.90
-9755153.45 5135374.55 213.31
-9755148.39 5135373.91 212.36
-9755152.22 5135373.91 213.88
-9755152.55 5135370.41 212.32
-9755149.92 5135365.06 212.32
-9755152.48 5135368.17 213.34
-9755150.46 5135368.02 212.33
-9755148.38 5135370.11 212.35
-9755155.51 5135370.72 212.37
-9755151.35 5135373.27 212.40
-9755152.53 5135372.57 212.90
-9755155.83 5135368.68 212.35
-9755148.14 5135369.19 212.36
-9755151.30 5135372.17 212.33
-9755149.64 5135365.37 212.32
-9755156.38 5135367.76 212.36
-9755153.45 5135366.24 212.31
-9755147.77 5135373.62 212.36
-9755149.58 5135370.13 212.32
-9755152.22 5135365.37 212.32
-9755153.23 5135373.00 212.35
-9755153.75 5135365.35 212.33
-9755151.62 5135368.00 212.48
-9755156.35 5135368.95 212.37
-9755152.60 5135367.15 212.30
-9755148.40 5135366.24 212.35
-9755149.29 5135370.75 212.32
-9755156.40 5135366.30 212.37
-9755149.90 5135368.87 212.34
-9755152.82 5135374.60 212.40
-9755155.51 5135366.57 212.35
-9755149.01 5135369.19 212.35
-9755156.35 5135374.59 212.40
-9755149.04 5135365.91 212.33
-9755153.16 5135366.56 212.31
-9755153.96 5135372.50 213.86
-9755155.81 5135365.37 212.36
-9755148.99 5135371.28 212.33
-9755154.88 5135373.98 212.40
-9755151.28 5135373.12 212.39
-9755155.20 5135372.18 212.39
-9755151.33 5135371.85 212.34
-9755148.73 5135367.74 212.34
-9755153.39 5135372.21 212.36
-9755154.54 5135371.27 213.32
-9755152.58 5135374.54 213.88
-9755148.71 5135372.74 212.36
-9755153.71 5135371.00 212.35
-9755151.28 5135372.76 213.86
-9755154.56 5135372.20 213.09
-9755156.32 5135374.87 212.42
-9755151.36 5135371.29 212.34
-9755155.50 5135369.56 212.36
-9755149.33 5135367.15 212.34
-9755155.74 5135369.87 212.36
-9755147.82 5135370.99 212.35
-9755154.88 5135367.46 212.32
-9755153.98 5135373.40 213.88
-9755154.86 5135373.37 212.39
-9755150.53 5135365.11 212.33
-9755148.39 5135371.00 212.35
-9755154.02 5135372.18 213.27
-9755154.53 5135373.73 213.15
-9755156.33 5135374.27 212.40
-9755150.47 5135366.56 212.32
-9755154.65 5135367.47 212.32
-9755150.96 5135373.41 212.92
-9755151.67 5135367.98 212.31
-9755151.65 5135367.75 212.30
-9755155.77 5135370.72 212.38
-9755152.85 5135367.77 212.31
-9755151.36 5135366.26 212.31
-9755153.79 5135371.29 213.08
-9755149.93 5135366.25 212.31
-9755152.20 5135371.60 212.34
-9755148.43 5135371.86 212.35
-9755147.85 5135365.33 212.35
-9755152.51 5135369.24 212.33
-9755154.01 5135372.78 212.39
-9755147.24 5135372.74 212.35
-9755147.22 5135379.31 212.88
-9755147.17 5135378.64 212.42
-9755146.60 5135378.04 212.42
-9755147.20 5135376.89 212.40
-9755147.17 5135378.96 212.41
-9755146.59 5135377.50 212.39
-9755147.18 5135378.05 212.41
-9755146.53 5135379.52 212.89
-9755141.86 5135378.94 212.40
-9755138.30 5135379.21 212.92
-9755142.81 5135379.56 212.42
-9755145.68 5135379.45 212.43
-9755145.99 5135378.96 212.42
-9755145.69 5135378.08 212.42
-9755140.13 5135377.44 212.39
-9755140.96 5135377.48 212.39
-9755139.21 5135379.42 212.41
-9755146.30 5135377.16 212.39
-9755141.56 5135378.04 212.39
-9755145.11 5135378.70 212.41
-9755140.49 5135379.22 212.84
-9755142.41 5135379.25 212.88
-9755146.56 5135378.35 212.42
-9755145.64 5135380.22 212.44
-9755146.29 5135378.60 212.42
-9755142.77 5135377.79 212.38
-9755140.82 5135379.32 212.85
-9755144.48 5135379.27 212.42
-9755142.76 5135378.66 212.40
-9755143.53 5135379.20 212.90
-9755143.10 5135379.26 212.86
-9755138.09 5135379.69 212.86
-9755139.22 5135377.46 212.39
-9755138.30 5135378.92 212.43
-9755146.00 5135379.22 212.42
-9755139.83 5135377.74 212.40
-9755143.44 5135379.83 212.85
-9755145.03 5135379.72 212.38
-9755138.89 5135378.92 212.43
-9755144.54 5135379.50 212.43
-9755139.19 5135379.19 212.42
-9755140.71 5135378.96 212.41
-9755137.73 5135378.63 212.43
-9755140.42 5135377.14 212.38
-9755139.55 5135380.10 212.81
-9755141.88 5135378.04 212.39
-9755141.92 5135379.18 212.41
-9755137.43 5135379.50 212.94
-9755141.28 5135379.55 212.90
-9755142.47 5135377.45 212.37
-9755138.36 5135377.72 212.40
-9755139.04 5135379.23 212.79
-9755145.91 5135380.11 212.41
-9755142.44 5135379.20 212.42
-9755144.84 5135378.06 212.40
-9755145.99 5135379.59 212.87
-9755145.73 5135377.80 212.40
-9755144.56 5135377.73 212.39
-9755139.54 5135377.76 212.40
-9755145.00 5135379.94 212.66
-9755144.83 5135378.38 212.40
-9755143.06 5135378.06 212.39
-9755137.37 5135379.27 212.92
-9755138.37 5135377.44 212.40
-9755140.08 5135379.54 212.42
-9755143.01 5135377.17 212.36
-9755139.83 5135379.69 212.43
-9755140.70 5135378.01 212.41
-9755142.39 5135378.92 212.41
-9755145.63 5135379.13 212.88
-9755138.57 5135379.45 212.92
-9755139.82 5135379.25 212.42
-9755144.68 5135379.91 212.86
-9755143.95 5135378.95 212.42
-9755141.62 5135377.45 212.39
-9755147.19 5135375.74 212.37
-9755139.21 5135376.84 212.39
-9755146.54 5135376.30 212.39
-9755146.35 5135376.89 212.39
-9755139.50 5135376.87 212.39
-9755138.69 5135375.33 212.42
-9755140.99 5135375.36 212.39
-9755145.16 5135376.26 212.37
-9755146.28 5135375.99 212.38
-9755140.08 5135375.06 212.38
-9755145.74 5135376.38 212.37
-9755141.32 5135376.87 212.38
-9755138.03 5135375.35 212.42
-9755139.23 5135375.98 212.40
-9755143.07 5135376.31 212.37
-9755146.33 5135376.58 212.39
-9755140.15 5135375.94 212.39
-9755144.00 5135376.01 212.39
-9755144.85 5135375.70 212.39
-9755140.11 5135376.57 212.39
-9755143.44 5135375.09 212.38
-9755141.92 5135376.27 212.38
-9755144.22 5135375.71 212.39
-9755140.72 5135375.65 212.39
-9755141.29 5135376.28 212.37
-9755140.40 5135375.99 212.39
-9755138.95 5135375.95 212.40
-9755136.96 5135379.31 212.94
-9755136.47 5135379.50 212.88
-9755136.25 5135379.29 212.90
-9755137.50 5135378.90 212.43
-9755135.97 5135379.20 212.44
-9755137.44 5135376.85 212.41
-9755137.46 5135377.10 212.41
-9755136.83 5135378.03 212.42
-9755136.56 5135377.42 212.42
-9755137.15 5135379.30 212.94
-9755136.83 5135378.90 212.45
-9755135.39 5135379.81 212.92
-9755136.55 5135378.02 212.42
-9755136.85 5135378.61 212.43
-9755136.57 5135378.28 212.42
-9755137.19 5135377.98 212.42
-9755135.96 5135379.50 212.44
-9755134.24 5135377.38 212.43
-9755134.75 5135377.96 212.44
-9755134.78 5135379.24 212.45
-9755136.27 5135376.86 212.41
-9755135.74 5135375.90 212.42
-9755136.85 5135375.09 212.40
-9755135.06 5135376.55 212.42
-9755134.83 5135376.56 212.42
-9755134.83 5135375.62 212.42
-9755134.83 5135375.94 212.42
-9755146.68 5135364.73 212.36
-9755147.20 5135370.38 212.35
-9755146.65 5135368.34 212.35
-9755146.88 5135374.55 212.35
-9755146.90 5135368.01 212.35
-9755147.23 5135366.27 212.35
-9755146.65 5135370.70 212.35
-9755146.66 5135371.28 212.35
-9755146.73 5135365.94 212.34
-9755146.66 5135368.02 212.36
-9755145.51 5135365.31 212.36
-9755139.16 5135374.16 212.81
-9755140.99 5135365.20 215.39
-9755143.66 5135375.08 212.38
-9755139.23 5135370.63 212.45
-9755141.10 5135368.74 215.35
-9755145.74 5135374.82 212.37
-9755141.34 5135373.05 212.38
-9755143.39 5135373.30 212.37
-9755140.81 5135368.98 215.36
-9755138.38 5135371.22 212.39
-9755141.11 5135369.05 215.36
-9755141.04 5135373.04 212.38
-9755138.34 5135372.94 212.41
-9755138.68 5135365.32 209.82
-9755138.05 5135372.70 212.40
-9755137.48 5135371.18 212.39
-9755143.17 5135364.75 212.39
-9755140.19 5135366.03 215.35
-9755139.24 5135374.16 212.38
-9755137.76 5135375.05 212.40
-9755141.64 5135364.91 215.37
-9755145.74 5135371.29 212.35
-9755144.00 5135369.46 212.37
-9755138.15 5135369.30 215.39
-9755142.88 5135366.24 212.39
-9755146.36 5135370.04 212.37
-9755141.44 5135365.29 212.97
-9755143.72 5135365.62 212.40
-9755145.78 5135371.82 212.35
-9755139.25 5135371.73 212.58
-9755144.27 5135366.80 212.38
-9755146.04 5135369.48 212.37
-9755142.24 5135365.71 215.22
-9755139.89 5135369.73 212.39
-9755138.90 5135373.49 213.38
-9755143.41 5135370.94 212.37
-9755139.25 5135370.33 212.41
-9755140.50 5135366.89 215.36
-9755144.56 5135370.37 212.37
-9755140.75 5135365.00 215.38
-9755145.48 5135366.80 212.36
-9755141.03 5135373.31 212.38
-9755138.69 5135371.80 212.38
-9755137.85 5135372.69 212.40
-9755143.43 5135367.74 212.39
-9755141.06 5135370.35 212.38
-9755138.62 5135365.34 214.47
-9755138.98 5135368.70 215.38
-9755141.40 5135364.96 212.93
-9755142.34 5135366.51 213.34
-9755139.89 5135368.44 215.36
-9755146.32 5135372.73 212.36
-9755144.51 5135373.63 212.36
-9755143.38 5135369.75 212.39
-9755145.75 5135365.32 212.35
-9755140.13 5135373.90 212.38
-9755143.98 5135371.84 212.36
-9755140.19 5135366.33 215.34
-9755141.62 5135371.22 212.37
-9755142.51 5135374.51 212.37
-9755140.74 5135365.18 215.38
-9755141.60 5135373.91 212.39
-9755142.83 5135372.70 212.37
-9755140.51 5135367.83 215.35
-9755143.08 5135374.77 212.35
-9755141.89 5135366.88 215.25
-9755138.83 5135371.22 213.13
-9755143.71 5135368.58 212.39
-9755141.34 5135373.89 212.38
-9755143.14 5135366.82 212.39
-9755140.93 5135365.09 213.61
-9755138.36 5135374.22 212.40
-9755140.16 5135365.75 215.37
-9755141.39 5135367.58 215.34
-9755145.19 5135373.90 212.37
-9755144.58 5135365.32 212.39
-9755140.18 5135368.69 215.37
-9755142.57 5135366.73 213.36
-9755144.65 5135365.67 212.39
-9755140.42 5135373.61 212.37
-9755137.58 5135368.68 215.38
-9755141.89 5135372.11 212.37
-9755137.84 5135368.75 215.38
-9755145.76 5135372.14 212.36
-9755140.43 5135371.24 212.38
-9755142.49 5135370.96 212.37
-9755141.07 5135366.06 215.35
-9755141.40 5135367.82 215.35
-9755141.16 5135364.67 210.93
-9755145.49 5135370.93 212.36
-9755139.60 5135368.13 215.37
-9755142.53 5135371.82 212.36
-9755145.19 5135370.40 212.36
-9755141.02 5135369.46 212.39
-9755140.48 5135367.23 215.35
-9755140.75 5135372.12 212.38
-9755144.25 5135370.08 212.38
-9755144.85 5135372.17 212.36
-9755138.70 5135373.06 212.62
-9755141.41 5135366.63 215.34
-9755138.38 5135365.35 213.16
-9755144.83 5135370.99 212.37
-9755142.99 5135366.78 213.38
-9755144.61 5135368.01 212.37
-9755145.16 5135372.74 212.35
-9755146.35 5135367.45 212.35
-9755142.45 5135373.61 212.36
-9755138.47 5135368.40 215.37
-9755144.03 5135365.97 212.38
-9755138.69 5135373.51 212.48
-9755141.11 5135364.61 212.42
-9755144.30 5135367.38 212.38
-9755143.38 5135373.89 212.36
-9755141.23 5135364.78 208.97
-9755140.39 5135372.74 212.37
-9755138.36 5135373.91 212.40
-9755138.64 5135374.45 212.39
-9755141.96 5135365.16 215.21
-9755140.23 5135367.21 215.36
-9755138.39 5135372.96 213.36
-9755141.95 5135367.84 215.22
-9755141.01 5135364.67 210.82
-9755140.70 5135374.80 212.38
-9755143.06 5135372.16 212.35
-9755137.51 5135371.80 212.38
-9755138.09 5135370.35 212.40
-9755138.17 5135366.95 215.38
-9755145.51 5135364.75 212.36
-9755139.00 5135364.99 213.26
-9755145.69 5135374.23 212.38
-9755143.08 5135371.87 212.35
-9755144.56 5135370.97 212.37
-9755139.91 5135369.01 215.38
-9755143.13 5135366.22 212.39
-9755144.25 5135373.32 212.36
-9755143.07 5135369.19 212.40
-9755140.09 5135371.20 213.35
-9755140.13 5135370.62 212.45
-9755141.00 5135364.81 208.98
-9755141.14 5135365.29 212.40
-9755145.49 5135368.00 212.35
-9755138.91 5135373.35 212.62
-9755142.81 5135375.07 212.37
-9755142.40 5135367.61 215.19
-9755141.40 5135367.26 215.34
-9755142.57 5135365.31 212.40
-9755140.99 5135364.67 200.41
-9755143.74 5135365.30 212.40
-9755143.65 5135373.92 212.36
-9755142.79 5135371.20 212.38
-9755139.27 5135369.03 215.38
-9755139.02 5135369.27 215.38
-9755146.36 5135367.14 212.34
-9755138.83 5135365.36 209.93
-9755143.38 5135374.20 212.37
-9755142.46 5135373.92 212.36
-9755141.87 5135374.76 212.38
-9755137.91 5135366.33 215.38
-9755143.97 5135374.22 212.37
-9755142.23 5135370.94 212.37
-9755143.97 5135368.84 212.38
-9755137.60 5135365.13 210.20
-9755143.44 5135371.24 212.37
-9755138.08 5135373.57 212.40
-9755135.99 5135368.38 215.38
-9755136.01 5135370.34 212.41
-9755135.78 5135366.05 215.40
-9755136.02 5135373.53 212.40
-9755135.35 5135368.00 214.50
-9755136.02 5135370.02 212.42
-9755135.36 5135369.68 212.47
-9755135.42 5135369.39 212.91
-9755136.11 5135367.19 215.39
-9755135.39 5135367.30 205.93
-9755136.54 5135373.90 212.40
-9755135.35 5135370.49 204.16
-9755137.46 5135365.41 211.97
-9755136.92 5135372.66 212.39
-9755135.78 5135364.90 215.38
-9755135.43 5135370.50 212.86
-9755135.49 5135367.93 199.95
-9755136.40 5135366.91 215.38
