-9755401.16 5135750.56 181.57
-9755402.89 5135750.00 181.58
-9755403.82 5135746.77 181.61
-9755406.56 5135740.26 181.69
-9755400.89 5135742.59 181.66
-9755407.67 5135747.04 181.60
-9755405.35 5135743.46 181.63
-9755400.26 5135749.69 181.58
-9755400.92 5135744.61 181.64
-9755400.90 5135747.91 181.59
-9755399.70 5135747.02 181.61
-9755401.83 5135741.70 181.68
-9755404.44 5135750.28 181.58
-9755401.75 5135747.31 181.60
-9755407.42 5135740.23 181.68
-9755408.88 5135742.65 181.65
-9755406.82 5135740.85 181.68
-9755399.97 5135749.99 181.58
-9755405.64 5135746.14 181.62
-9755407.33 5135748.22 181.59
-9755401.78 5135749.37 181.59
-9755404.75 5135739.31 181.68
-9755408.89 5135739.34 181.69
-9755405.07 5135744.67 181.62
-9755406.50 5135745.24 181.63
-9755400.90 5135744.10 181.64
-9755408.01 5135741.73 181.68
-9755408.58 5135742.32 181.66
-9755398.52 5135742.58 181.68
-9755399.39 5135745.50 181.63
-9755399.40 5135744.36 181.64
-9755399.42 5135743.77 181.65
-9755398.83 5135740.19 181.70
-9755399.42 5135748.18 181.61
-9755398.18 5135751.73 181.55
-9755398.52 5135750.01 181.58
-9755398.54 5135744.64 181.64
-9755399.08 5135749.08 181.59
-9755398.50 5135751.17 181.56
-9755445.92 5135725.93 200.80
-9755444.85 5135725.51 202.01
-9755446.27 5135725.91 202.99
-9755445.97 5135725.98 200.48
-9755445.77 5135726.02 202.52
-9755446.30 5135725.79 199.98
-9755445.97 5135725.93 200.65
-9755442.21 5135726.12 202.01
-9755446.10 5135725.75 200.03
-9755445.43 5135726.07 203.03
-9755446.11 5135725.67 201.30
-9755446.49 5135725.72 202.22
-9755445.95 5135726.18 201.57
-9755446.34 5135725.60 200.57
-9755445.94 5135725.83 202.26
-9755443.92 5135725.51 202.03
-9755439.85 5135725.54 202.01
-9755446.00 5135725.88 201.65
-9755441.63 5135725.84 202.02
-9755446.48 5135725.71 201.67
-9755445.67 5135726.17 200.74
-9755439.25 5135725.82 202.01
-9755440.42 5135726.98 202.01
-9755444.79 5135725.93 203.14
-9755445.72 5135726.22 200.08
-9755441.03 5135732.88 202.08
-9755445.47 5135726.54 201.19
-9755444.76 5135727.30 202.09
-9755444.76 5135727.66 203.01
-9755445.42 5135726.84 200.78
-9755445.67 5135726.37 201.59
-9755443.65 5135727.60 202.01
-9755445.26 5135727.02 202.16
-9755444.90 5135727.58 202.11
-9755443.41 5135728.52 203.00
-9755440.40 5135728.54 201.99
-9755441.52 5135732.06 202.09
-9755445.41 5135726.67 201.67
-9755441.85 5135727.02 202.00
-9755444.68 5135726.29 203.04
-9755444.24 5135728.45 200.05
-9755445.03 5135727.80 200.80
-9755444.52 5135728.13 200.11
-9755442.81 5135727.32 202.00
-9755445.69 5135726.35 203.01
-9755444.58 5135727.84 201.65
-9755445.79 5135726.29 200.70
-9755442.16 5135729.40 202.00
-9755440.09 5135727.32 202.01
-9755439.80 5135729.95 201.99
-9755445.52 5135726.76 200.85
-9755440.69 5135729.96 201.97
-9755445.45 5135726.68 203.02
-9755440.43 5135733.32 202.26
-9755441.59 5135729.13 201.99
-9755443.39 5135727.59 202.01
-9755445.42 5135726.77 202.35
-9755443.34 5135727.01 202.02
-9755441.55 5135729.96 201.98
-9755444.65 5135728.04 199.96
-9755444.87 5135727.76 200.91
-9755444.84 5135727.27 203.02
-9755442.69 5135728.75 202.01
-9755443.90 5135726.43 202.02
-9755443.79 5135728.91 201.91
-9755443.83 5135729.07 203.02
-9755445.85 5135726.29 201.01
-9755442.79 5135727.04 202.01
-9755443.71 5135729.66 202.05
-9755444.73 5135727.99 201.81
-9755444.80 5135727.63 201.65
-9755441.31 5135727.61 201.99
-9755444.39 5135728.22 201.69
-9755445.34 5135726.99 202.94
-9755444.32 5135728.25 201.69
-9755439.80 5135732.04 201.99
-9755442.90 5135729.98 202.07
-9755440.09 5135728.50 201.99
-9755444.19 5135728.47 203.02
-9755444.37 5135728.21 202.35
-9755442.46 5135728.54 202.00
-9755445.37 5135727.19 200.78
-9755443.90 5135728.88 202.24
-9755441.29 5135728.50 201.99
-9755444.21 5135728.18 203.02
-9755444.44 5135727.92 202.32
-9755445.10 5135727.35 200.68
-9755445.61 5135726.79 201.67
-9755445.58 5135726.77 202.35
-9755445.16 5135727.24 201.70
-9755440.69 5135733.27 202.07
-9755444.94 5135727.65 201.15
-9755440.70 5135727.62 202.00
-9755445.68 5135726.56 200.89
-9755444.18 5135728.67 200.35
-9755444.73 5135727.85 201.64
-9755442.14 5135729.09 202.01
-9755440.35 5135728.47 201.99
-9755444.38 5135728.44 201.81
-9755441.30 5135727.36 202.00
-9755445.33 5135726.99 201.67
-9755444.94 5135727.20 200.68
-9755439.80 5135728.81 201.99
-9755444.27 5135727.89 203.02
-9755439.15 5135732.62 202.01
-9755439.19 5135733.50 202.01
-9755439.20 5135729.41 202.01
-9755439.16 5135731.78 201.98
-9755438.93 5135727.00 202.01
-9755439.18 5135727.59 202.00
-9755446.02 5135725.52 203.01
-9755446.31 5135725.18 202.25
-9755446.31 5135725.44 200.03
-9755441.03 5135725.29 202.02
-9755446.54 5135725.27 201.63
-9755446.25 5135725.49 202.40
-9755446.37 5135725.35 202.40
-9755446.24 5135725.48 201.85
-9755441.32 5135725.19 202.02
-9755446.59 5135725.10 202.40
-9755443.97 5135724.94 202.01
-9755445.16 5135725.25 202.01
-9755446.60 5135725.06 201.64
-9755442.20 5135724.96 202.02
-9755441.59 5135725.23 202.02
-9755439.00 5135724.91 202.02
-9755438.95 5135726.12 202.00
-9755435.39 5135726.06 202.03
-9755434.21 5135725.75 202.04
-9755430.43 5135725.45 202.15
-9755429.17 5135726.03 202.20
-9755436.24 5135725.80 202.03
-9755430.98 5135725.50 202.13
-9755428.61 5135726.07 202.24
-9755426.55 5135725.46 202.34
-9755437.42 5135725.84 202.02
-9755427.14 5135726.03 202.32
-9755435.70 5135726.10 202.04
-9755432.49 5135726.06 202.05
-9755433.90 5135726.13 202.04
-9755434.80 5135725.53 202.04
-9755437.17 5135725.55 202.03
-9755432.14 5135726.06 202.05
-9755428.02 5135725.45 202.27
-9755428.00 5135726.01 202.27
-9755437.44 5135725.48 202.03
-9755424.18 5135726.02 202.46
-9755425.97 5135726.04 202.38
-9755426.21 5135725.46 202.37
-9755424.51 5135725.45 202.46
-9755425.06 5135725.69 202.42
-9755425.65 5135725.65 202.39
-9755429.83 5135726.01 202.17
-9755435.66 5135727.87 202.03
-9755438.92 5135729.68 202.00
-9755438.90 5135730.82 201.99
-9755427.41 5135728.70 202.22
-9755426.51 5135727.21 202.31
-9755438.88 5135731.71 201.99
-9755435.97 5135727.87 202.04
-9755427.46 5135726.35 202.28
-9755434.79 5135731.98 202.02
-9755435.30 5135733.48 202.02
-9755431.53 5135730.51 202.03
-9755438.59 5135731.10 202.00
-9755432.11 5135729.93 202.05
-9755433.88 5135727.57 202.04
-9755433.28 5135730.50 202.04
-9755436.25 5135727.55 202.03
-9755431.82 5135727.22 202.03
-9755427.78 5135728.10 202.21
-9755435.06 5135732.86 202.03
-9755428.61 5135728.12 202.17
-9755436.28 5135728.47 202.02
-9755430.07 5135728.71 202.08
-9755433.30 5135726.72 202.05
-9755435.91 5135729.03 202.02
-9755433.92 5135726.68 202.04
-9755430.09 5135729.63 202.05
-9755430.46 5135730.19 202.11
-9755433.34 5135728.78 202.04
-9755438.30 5135731.14 202.00
-9755437.14 5135730.20 202.01
-9755428.90 5135729.61 202.12
-9755436.57 5135731.45 202.02
-9755435.65 5135729.04 202.03
-9755427.41 5135727.18 202.25
-9755436.88 5135727.27 202.03
-9755427.42 5135729.26 202.27
-9755435.43 5135727.00 202.03
-9755434.79 5135730.57 202.03
-9755438.62 5135731.71 201.99
-9755430.42 5135726.97 202.11
-9755435.09 5135729.66 202.02
-9755430.10 5135728.15 202.09
-9755433.93 5135728.19 202.03
-9755437.12 5135729.98 202.01
-9755437.46 5135730.85 202.02
-9755428.88 5135727.55 202.17
-9755431.82 5135729.32 202.04
-9755434.17 5135729.04 202.04
-9755431.86 5135730.24 202.05
-9755434.11 5135733.23 202.06
-9755434.46 5135729.36 202.05
-9755434.75 5135728.09 202.04
-9755437.42 5135728.50 202.01
-9755427.74 5135728.72 202.20
-9755429.77 5135728.11 202.12
-9755435.96 5135732.01 202.01
-9755430.97 5135729.67 202.05
-9755431.55 5135731.43 202.08
-9755430.09 5135729.41 202.05
-9755434.47 5135727.86 202.04
-9755435.05 5135731.39 202.04
-9755426.57 5135727.53 202.29
-9755438.93 5135727.30 202.00
-9755430.98 5135727.58 202.06
-9755436.61 5135728.16 202.02
-9755438.01 5135732.56 201.99
-9755429.50 5135726.96 202.17
-9755434.81 5135726.33 202.03
-9755433.87 5135733.18 202.08
-9755438.00 5135732.33 202.00
-9755434.20 5135731.09 202.03
-9755433.29 5135732.60 202.06
-9755432.12 5135727.83 202.04
-9755434.77 5135728.78 202.04
-9755430.37 5135726.39 202.13
-9755437.15 5135726.74 202.01
-9755435.64 5135730.56 202.02
-9755427.98 5135727.23 202.23
-9755431.60 5135729.05 202.04
-9755438.67 5135729.40 202.00
-9755433.01 5135731.43 202.05
-9755438.36 5135728.48 201.99
-9755427.71 5135729.06 202.21
-9755436.53 5135730.23 202.02
-9755429.53 5135729.62 202.08
-9755425.40 5135727.76 202.35
-9755426.29 5135728.69 202.31
-9755424.78 5135727.75 202.41
-9755423.05 5135726.01 202.52
-9755419.78 5135725.95 202.71
-9755423.91 5135726.01 202.48
-9755419.45 5135725.75 202.71
-9755423.60 5135725.96 202.50
-9755423.04 5135726.91 202.52
-9755423.06 5135726.31 202.52
-9755421.91 5135726.50 202.59
-9755422.99 5135727.17 202.56
-9755420.59 5135726.21 202.66
-9755420.37 5135726.17 202.68
-9755422.46 5135726.57 202.53
-9755423.63 5135726.89 202.48
-9755433.93 5135725.49 202.04
-9755438.35 5135725.29 202.02
-9755429.78 5135724.90 202.21
-9755427.44 5135725.15 202.32
-9755436.84 5135725.26 202.03
-9755438.66 5135725.23 202.02
-9755433.11 5135724.90 202.04
-9755426.28 5135724.82 202.37
-9755433.35 5135724.91 202.04
-9755426.87 5135724.85 202.36
-9755434.82 5135725.20 202.05
-9755431.33 5135725.20 202.12
-9755424.18 5135725.12 202.49
-9755420.66 5135725.41 202.59
-9755418.25 5135725.38 202.72
-9755415.69 5135724.70 202.85
-9755417.47 5135724.75 202.73
-9755419.83 5135725.13 202.61
-9755420.02 5135725.06 202.61
-9755420.38 5135724.79 202.60
-9755417.12 5135724.80 202.75
-9755419.16 5135724.76 202.63
-9755441.32 5135712.20 202.05
-9755439.92 5135711.89 202.02
-9755441.69 5135710.14 202.17
-9755442.88 5135712.26 202.06
-9755444.56 5135712.17 202.06
-9755441.43 5135710.68 202.05
-9755442.30 5135710.57 205.52
-9755444.01 5135712.50 202.04
-9755441.83 5135710.72 202.10
-9755443.16 5135712.20 202.06
-9755441.45 5135710.99 202.05
-9755441.70 5135712.23 202.06
-9755439.91 5135711.60 202.02
-9755441.66 5135711.31 202.07
-9755441.69 5135711.94 202.06
-9755439.89 5135710.18 201.99
-9755439.90 5135711.05 202.00
-9755442.86 5135711.39 202.06
-9755442.25 5135710.72 202.09
-9755439.64 5135710.70 201.98
-9755439.62 5135709.27 201.94
-9755439.32 5135711.31 201.99
-9755439.57 5135712.51 202.03
-9755439.04 5135709.54 201.90
-9755439.29 5135710.40 201.95
-9755448.14 5135716.96 201.99
-9755447.22 5135720.22 201.99
-9755441.34 5135720.50 202.02
-9755439.87 5135720.20 202.03
-9755450.44 5135719.40 202.04
-9755442.31 5135714.31 202.04
-9755439.53 5135722.88 202.04
-9755440.73 5135722.27 202.02
-9755449.85 5135720.32 202.08
-9755448.73 5135716.10 202.00
-9755446.96 5135724.61 202.09
-9755442.24 5135713.09 202.05
-9755447.14 5135724.49 202.05
-9755444.02 5135717.90 202.01
-9755450.48 5135717.90 201.98
-9755440.19 5135718.68 202.03
-9755444.26 5135724.63 202.02
-9755449.58 5135718.79 201.99
-9755439.90 5135713.65 202.04
-9755444.00 5135721.65 201.99
-9755441.58 5135719.91 202.01
-9755442.47 5135719.61 202.01
-9755443.13 5135719.33 202.00
-9755443.65 5135721.12 202.00
-9755446.90 5135718.20 202.00
-9755444.07 5135715.19 202.02
-9755449.90 5135717.27 201.99
-9755450.30 5135716.19 202.06
-9755449.32 5135716.99 201.99
-9755450.16 5135717.87 201.98
-9755448.16 5135716.08 202.01
-9755446.37 5135714.95 202.02
-9755448.17 5135717.28 201.99
-9755443.39 5135717.29 202.02
-9755440.24 5135714.58 202.05
-9755443.98 5135722.03 202.00
-9755444.88 5135718.16 202.00
-9755444.58 5135717.92 202.01
-9755444.88 5135715.47 202.02
-9755440.42 5135724.06 202.03
-9755443.36 5135717.52 202.02
-9755442.28 5135715.20 202.03
-9755440.10 5135720.46 202.02
-9755445.13 5135716.44 202.01
-9755442.24 5135720.48 202.00
-9755444.63 5135713.72 202.02
-9755447.58 5135716.98 202.00
-9755441.00 5135724.37 202.02
-9755443.10 5135714.86 202.04
-9755444.53 5135723.75 202.00
-9755440.75 5135721.40 202.02
-9755445.76 5135719.08 202.00
-9755447.54 5135716.12 202.02
-9755446.92 5135714.61 202.01
-9755449.95 5135716.45 202.08
-9755446.92 5135721.14 201.97
-9755439.56 5135721.40 202.03
-9755444.84 5135722.58 202.00
-9755439.83 5135719.01 202.02
-9755448.70 5135720.52 202.00
-9755446.59 5135715.80 202.01
-9755446.66 5135718.78 201.99
-9755442.19 5135719.62 202.01
-9755440.17 5135714.85 202.05
-9755444.90 5135719.95 201.99
-9755441.26 5135722.57 202.02
-9755447.76 5135723.15 202.07
-9755442.50 5135724.36 202.03
-9755445.42 5135721.16 201.98
-9755449.88 5135719.41 202.00
-9755441.10 5135713.70 202.05
-9755446.03 5135714.60 202.02
-9755444.04 5135715.47 202.02
-9755446.02 5135723.74 201.99
-9755446.07 5135715.52 202.01
-9755440.15 5135721.95 202.03
-9755442.82 5135714.86 202.04
-9755448.43 5135720.53 201.99
-9755448.93 5135720.55 202.00
-9755449.62 5135719.35 202.00
-9755443.10 5135718.42 202.02
-9755448.73 5135715.81 202.00
-9755441.35 5135723.41 202.03
-9755441.89 5135720.51 202.02
-9755444.92 5135716.95 202.02
-9755443.69 5135719.01 202.01
-9755441.55 5135723.17 202.03
-9755448.15 5135717.62 201.99
-9755448.14 5135715.22 202.01
-9755446.33 5135714.03 202.03
-9755443.42 5135713.12 202.05
-9755446.93 5135722.30 201.98
-9755443.99 5135719.03 202.02
-9755445.48 5135717.61 202.00
-9755442.80 5135721.99 202.01
-9755445.20 5135713.73 202.04
-9755441.64 5135715.79 202.04
-9755446.68 5135716.67 202.01
-9755449.61 5135717.30 201.99
-9755449.30 5135717.87 201.99
-9755444.58 5135719.33 201.98
-9755442.51 5135720.53 202.00
-9755442.76 5135721.06 202.01
-9755444.91 5135716.04 202.02
-9755443.39 5135721.41 201.99
-9755445.71 5135716.68 202.01
-9755444.63 5135715.14 202.03
-9755443.12 5135717.26 202.02
-9755448.43 5135717.27 201.98
-9755448.73 5135715.19 202.07
-9755443.45 5135714.56 202.04
-9755441.90 5135723.78 202.02
-9755439.53 5135723.73 202.02
-9755444.86 5135719.02 201.99
-9755446.30 5135723.22 201.99
-9755447.81 5135719.67 201.99
-9755442.16 5135724.04 202.02
-9755440.74 5135718.78 202.03
-9755442.49 5135721.38 202.01
-9755445.50 5135716.40 202.02
-9755447.81 5135718.17 201.99
-9755449.65 5135715.27 202.27
-9755439.82 5135723.48 202.04
-9755450.49 5135717.55 201.99
-9755445.72 5135721.42 201.97
-9755442.50 5135723.18 202.02
-9755449.01 5135719.97 201.99
-9755448.76 5135718.47 201.99
-9755446.95 5135715.54 202.01
-9755440.79 5135715.14 202.04
-9755446.66 5135717.86 202.01
-9755443.74 5135713.13 202.04
-9755446.59 5135722.93 201.99
-9755446.97 5135719.68 201.98
-9755442.53 5135716.96 202.03
-9755447.23 5135717.31 202.00
-9755442.53 5135714.63 202.04
-9755447.81 5135717.25 201.99
-9755446.95 5135719.39 201.99
-9755440.74 5135719.92 202.02
-9755441.38 5135715.44 202.04
-9755448.76 5135716.73 202.00
-9755446.60 5135721.77 201.97
-9755441.32 5135719.07 202.02
-9755444.00 5135713.08 202.04
-9755449.57 5135720.50 202.06
-9755442.86 5135715.78 202.02
-9755444.06 5135713.42 202.03
-9755448.14 5135715.51 202.01
-9755444.56 5135716.13 202.02
-9755448.65 5135722.20 202.10
-9755443.74 5135715.78 202.04
-9755444.29 5135717.29 202.01
-9755441.60 5135719.04 202.02
-9755441.94 5135713.70 202.05
-9755442.86 5135723.76 202.02
-9755447.50 5135719.35 201.98
-9755441.68 5135714.28 202.04
-9755445.99 5135720.55 201.98
-9755446.00 5135722.35 201.98
-9755447.23 5135716.67 202.01
-9755444.26 5135716.95 202.00
-9755449.02 5135719.69 201.99
-9755439.61 5135714.57 202.05
-9755440.46 5135717.25 202.04
-9755440.73 5135719.63 202.02
-9755439.24 5135722.89 202.04
-9755439.25 5135723.19 202.03
-9755439.32 5135713.07 202.04
-9755439.60 5135722.29 202.03
-9755439.55 5135719.60 202.03
-9755439.27 5135720.77 202.03
-9755439.00 5135722.88 202.03
-9755439.29 5135717.85 202.03
-9755438.98 5135711.92 201.99
-9755432.53 5135708.34 201.56
-9755430.20 5135704.48 201.47
-9755429.34 5135709.53 201.42
-9755429.03 5135710.42 201.44
-9755427.86 5135708.00 201.35
-9755427.23 5135708.32 201.35
-9755427.54 5135706.80 201.34
-9755434.58 5135710.72 201.72
-9755436.65 5135708.35 201.75
-9755426.67 5135710.13 201.35
-9755431.37 5135705.68 201.44
-9755430.81 5135706.55 201.42
-9755433.72 5135711.30 201.69
-9755430.79 5135710.98 201.54
-9755427.25 5135709.82 201.34
-9755429.57 5135707.47 201.40
-9755429.66 5135705.69 201.36
-9755426.62 5135710.99 201.35
-9755433.41 5135707.46 201.57
-9755437.21 5135709.81 201.84
-9755429.32 5135707.18 201.38
-9755435.49 5135709.79 201.74
-9755431.65 5135707.19 201.49
-9755429.87 5135712.20 201.53
-9755432.83 5135708.05 201.58
-9755434.89 5135709.27 201.70
-9755435.50 5135711.56 201.80
-9755427.63 5135705.06 201.33
-9755437.86 5135709.85 201.86
-9755429.32 5135709.19 201.42
-9755433.14 5135706.52 201.54
-9755436.66 5135708.91 201.77
-9755434.00 5135712.77 201.77
-9755430.19 5135709.53 201.48
-9755434.29 5135711.00 201.72
-9755435.77 5135711.32 201.81
-9755438.42 5135710.37 201.92
-9755435.80 5135708.04 201.72
-9755435.49 5135710.42 201.75
-9755434.66 5135708.35 201.67
-9755437.59 5135708.27 201.92
-9755431.97 5135706.26 201.47
-9755432.83 5135711.59 201.67
-9755432.84 5135712.18 201.68
-9755436.35 5135712.49 201.87
-9755429.86 5135707.72 201.42
-9755428.43 5135711.87 201.45
-9755429.87 5135711.86 201.53
-9755429.27 5135707.75 201.36
-9755427.30 5135703.61 201.39
-9755429.30 5135708.31 201.39
-9755435.15 5135711.61 201.79
-9755429.01 5135710.99 201.45
-9755427.60 5135704.14 201.38
-9755432.56 5135709.82 201.60
-9755435.45 5135712.52 201.84
-9755426.64 5135709.22 201.34
-9755431.37 5135711.01 201.58
-9755436.70 5135710.74 201.83
-9755438.39 5135708.67 201.87
-9755434.28 5135709.86 201.70
-9755430.77 5135710.71 201.54
-9755428.10 5135710.33 201.39
-9755430.18 5135710.39 201.49
-9755427.00 5135703.42 201.38
-9755432.23 5135709.87 201.60
-9755431.67 5135706.58 201.48
-9755432.84 5135706.58 201.53
-9755432.90 5135707.18 201.56
-9755437.56 5135712.52 201.94
-9755435.81 5135711.91 201.81
-9755426.38 5135704.14 201.26
-9755426.95 5135708.32 201.35
-9755427.55 5135707.73 201.35
-9755432.25 5135712.49 201.67
-9755429.60 5135705.37 201.36
-9755436.68 5135710.11 201.82
-9755437.26 5135710.74 201.86
-9755438.13 5135710.78 201.90
-9755431.95 5135710.37 201.58
-9755428.09 5135709.19 201.37
-9755436.36 5135712.78 201.87
-9755426.69 5135705.03 201.31
-9755438.24 5135708.34 201.93
-9755433.72 5135710.71 201.68
-9755435.77 5135712.46 201.84
-9755428.14 5135710.12 201.39
-9755431.66 5135711.90 201.62
-9755431.71 5135708.96 201.53
-9755430.45 5135708.29 201.47
-9755434.90 5135711.58 201.77
-9755437.25 5135709.26 201.82
-9755433.10 5135708.01 201.59
-9755429.31 5135710.37 201.46
-9755430.16 5135710.10 201.48
-9755434.85 5135708.62 201.68
-9755436.36 5135711.92 201.84
-9755433.41 5135711.60 201.70
-9755431.08 5135708.02 201.48
-9755426.96 5135707.15 201.33
-9755426.36 5135706.56 201.33
-9755429.28 5135711.84 201.49
-9755429.25 5135710.13 201.45
-9755431.32 5135709.21 201.53
-9755426.62 5135711.60 201.36
-9755433.41 5135712.46 201.73
-9755436.68 5135710.39 201.82
-9755431.06 5135707.17 201.45
-9755438.12 5135710.14 201.89
-9755426.41 5135708.30 201.35
-9755435.48 5135709.21 201.74
-9755432.26 5135708.63 201.56
-9755426.68 5135703.89 201.28
-9755426.31 5135703.27 201.40
-9755425.47 5135705.62 201.25
-9755426.30 5135712.76 201.37
-9755426.06 5135711.54 201.34
-9755425.72 5135711.31 201.33
-9755424.31 5135704.74 201.19
-9755424.91 5135704.45 201.20
-9755425.81 5135703.87 201.24
-9755424.29 5135706.49 201.23
-9755424.91 5135705.03 201.21
-9755424.88 5135709.19 201.31
-9755426.37 5135707.74 201.35
-9755424.91 5135704.20 201.20
-9755425.14 5135709.80 201.33
-9755424.28 5135710.93 201.32
-9755425.74 5135711.87 201.33
-9755425.76 5135707.10 201.31
-9755424.89 5135710.40 201.34
-9755425.76 5135707.41 201.32
-9755424.86 5135708.62 201.30
-9755425.13 5135705.06 201.22
-9755425.18 5135710.72 201.36
-9755425.43 5135711.57 201.34
-9755425.51 5135704.78 201.24
-9755426.00 5135712.49 201.35
-9755425.47 5135709.82 201.34
-9755426.40 5135703.55 201.28
-9755425.75 5135705.09 201.26
-9755424.61 5135702.93 201.24
-9755426.07 5135704.12 201.25
-9755424.30 5135707.07 201.24
-9755425.16 5135706.52 201.27
-9755425.52 5135706.53 201.30
-9755426.04 5135708.90 201.35
-9755425.79 5135708.30 201.32
-9755437.24 5135715.15 201.99
-9755437.81 5135718.14 202.05
-9755437.51 5135718.39 202.04
-9755433.99 5135716.29 201.85
-9755438.95 5135722.26 202.04
-9755433.89 5135724.58 202.04
-9755434.63 5135713.66 201.81
-9755429.25 5135716.27 201.58
-9755436.95 5135713.08 201.92
-9755428.48 5135717.13 201.67
-9755438.98 5135720.22 202.04
-9755433.66 5135720.46 202.13
-9755437.22 5135720.46 202.05
-9755438.97 5135721.66 202.05
-9755433.99 5135713.67 201.79
-9755432.16 5135720.41 202.20
-9755437.18 5135722.56 202.05
-9755438.04 5135723.73 202.03
-9755437.26 5135716.65 202.03
-9755430.11 5135723.75 202.22
-9755435.15 5135718.73 201.99
-9755438.95 5135717.59 202.03
-9755435.76 5135721.35 202.04
-9755426.84 5135724.54 202.36
-9755434.27 5135722.80 202.05
-9755436.57 5135722.23 202.03
-9755435.99 5135723.71 202.04
-9755433.91 5135719.57 202.15
-9755430.10 5135719.82 202.29
-9755431.57 5135722.51 202.18
-9755428.14 5135714.21 201.48
-9755432.50 5135720.44 202.19
-9755428.41 5135718.61 202.38
-9755433.05 5135723.74 202.07
-9755431.90 5135721.91 202.17
-9755427.47 5135718.05 202.44
-9755433.12 5135715.41 201.79
-9755438.71 5135716.91 202.05
-9755427.47 5135722.22 202.38
-9755428.09 5135713.36 201.46
-9755428.95 5135718.95 202.36
-9755438.09 5135716.60 202.04
-9755438.94 5135724.06 202.04
-9755435.76 5135717.24 201.97
-9755436.30 5135721.41 202.05
-9755428.11 5135714.50 201.47
-9755426.94 5135715.40 201.43
-9755435.71 5135723.75 202.04
-9755431.92 5135714.82 201.70
-9755427.80 5135713.11 201.43
-9755436.32 5135718.99 202.05
-9755428.64 5135719.56 202.38
-9755438.10 5135718.98 202.04
-9755438.03 5135722.24 202.05
-9755433.35 5135719.84 202.15
-9755437.23 5135720.75 202.04
-9755427.50 5135717.13 202.47
-9755435.77 5135716.33 201.95
-9755427.78 5135721.27 202.38
-9755428.36 5135724.29 202.30
-9755430.48 5135714.81 201.62
-9755430.97 5135723.99 202.16
-9755438.11 5135713.66 201.99
-9755432.79 5135718.16 201.83
-9755438.09 5135717.19 202.05
-9755426.86 5135723.39 202.40
-9755432.18 5135721.62 202.17
-9755426.90 5135719.54 202.46
-9755434.86 5135723.42 202.05
-9755426.62 5135712.74 201.35
-9755435.42 5135719.64 202.04
-9755429.25 5135723.38 202.26
-9755429.31 5135713.33 201.51
-9755437.22 5135713.98 201.94
-9755428.08 5135716.01 201.52
-9755430.48 5135713.65 201.59
-9755429.24 5135718.06 202.36
-9755434.56 5135717.20 201.92
-9755436.31 5135716.06 201.97
-9755428.97 5135714.56 201.51
-9755433.09 5135718.71 201.87
-9755437.21 5135718.70 202.04
-9755437.21 5135719.84 202.04
-9755436.27 5135720.48 202.06
-9755433.64 5135722.82 202.07
-9755429.27 5135722.76 202.29
-9755438.09 5135721.66 202.05
-9755426.57 5135720.33 202.46
-9755427.17 5135715.45 201.43
-9755437.51 5135721.04 202.05
-9755432.85 5135713.95 201.73
-9755427.20 5135724.26 202.34
-9755433.42 5135713.31 201.75
-9755433.06 5135713.35 201.73
-9755438.42 5135719.29 202.03
-9755430.12 5135715.41 201.61
-9755433.43 5135715.15 201.78
-9755426.92 5135718.02 202.48
-9755429.03 5135713.96 201.50
-9755432.17 5135722.80 202.13
-9755437.47 5135718.95 202.04
-9755430.14 5135713.67 201.57
-9755428.66 5135713.02 201.47
-9755429.22 5135714.22 201.53
-9755434.56 5135719.83 202.13
-9755428.96 5135718.61 202.36
-9755436.30 5135724.33 202.03
-9755428.35 5135717.12 202.43
-9755438.40 5135713.38 201.99
-9755433.09 5135719.88 202.17
-9755430.37 5135723.63 202.21
-9755427.83 5135713.91 201.44
-9755437.25 5135714.26 201.95
-9755436.02 5135718.67 202.03
-9755427.20 5135714.01 201.40
-9755431.67 5135718.12 201.80
-9755433.12 5135714.55 201.76
-9755429.80 5135715.15 201.59
-9755428.63 5135721.27 202.35
-9755433.95 5135718.69 201.93
-9755428.38 5135722.23 202.35
-9755427.50 5135716.55 202.51
-9755431.35 5135715.72 201.69
-9755436.64 5135719.88 202.04
-9755427.18 5135722.18 202.41
-9755430.40 5135721.31 202.25
-9755427.52 5135713.61 201.41
-9755435.17 5135716.94 201.95
-9755431.30 5135720.41 202.24
-9755426.60 5135715.41 201.41
-9755426.84 5135715.65 202.61
-9755436.61 5135719.25 202.04
-9755438.03 5135724.03 202.04
-9755435.38 5135721.37 202.05
-9755434.19 5135723.45 202.04
-9755435.19 5135713.70 201.84
-9755436.02 5135719.58 202.04
-9755431.89 5135718.15 201.80
-9755430.73 5135715.99 201.67
-9755434.29 5135720.49 202.11
-9755437.55 5135713.99 201.96
-9755437.47 5135719.33 202.05
-9755435.43 5135718.71 202.00
-9755436.91 5135721.94 202.05
-9755430.99 5135720.72 202.24
-9755427.53 5135716.36 202.61
-9755435.12 5135716.03 201.92
-9755434.81 5135724.35 202.05
-9755436.85 5135723.70 202.04
-9755437.83 5135714.57 202.00
-9755430.11 5135723.44 202.23
-9755438.38 5135719.63 202.04
-9755434.29 5135713.67 201.81
-9755431.62 5135723.97 202.14
-9755426.31 5135724.28 202.40
-9755437.52 5135714.89 201.99
-9755428.39 5135717.45 202.41
-9755427.49 5135714.20 201.42
-9755435.69 5135723.09 202.03
-9755426.33 5135713.93 201.35
-9755430.73 5135713.07 201.60
-9755436.59 5135723.15 202.04
-9755434.30 5135719.62 202.17
-9755438.07 5135723.15 202.03
-9755434.86 5135713.39 201.82
-9755435.44 5135714.89 201.90
-9755427.17 5135717.13 202.48
-9755427.19 5135716.22 201.49
-9755432.20 5135722.53 202.15
-9755432.25 5135713.38 201.69
-9755432.18 5135724.54 202.09
-9755436.64 5135716.06 201.99
-9755434.57 5135720.44 202.09
-9755436.27 5135723.46 202.04
-9755427.83 5135723.11 202.34
-9755426.29 5135713.03 201.36
-9755438.36 5135722.85 202.05
-9755435.10 5135724.29 202.05
-9755426.29 5135718.59 202.50
-9755435.46 5135713.98 201.87
-9755434.29 5135721.67 202.08
-9755428.65 5135718.66 202.37
-9755431.05 5135716.33 201.68
-9755436.27 5135723.12 202.04
-9755427.19 5135714.80 201.42
-9755438.05 5135721.09 202.05
-9755437.21 5135723.74 202.05
-9755426.87 5135718.62 202.46
-9755428.02 5135723.04 202.34
-9755432.21 5135717.79 201.79
-9755435.21 5135719.59 202.05
-9755434.92 5135715.46 201.87
-9755427.79 5135716.53 202.54
-9755426.93 5135713.04 201.37
-9755435.22 5135713.09 201.83
-9755433.96 5135713.33 201.77
-9755438.68 5135722.25 202.05
-9755433.64 5135724.03 202.04
-9755436.01 5135721.02 202.06
-9755431.62 5135719.26 202.25
-9755432.77 5135721.90 202.13
-9755427.46 5135716.34 201.51
-9755431.84 5135723.97 202.13
-9755438.15 5135718.39 202.04
-9755436.38 5135713.36 201.90
-9755427.73 5135723.96 202.34
-9755426.29 5135719.78 202.48
-9755432.82 5135717.22 201.82
-9755437.19 5135718.40 202.04
-9755433.92 5135721.94 202.08
-9755433.34 5135714.87 201.78
-9755433.39 5135717.18 201.84
-9755435.47 5135714.28 201.88
-9755431.00 5135715.96 201.67
-9755435.18 5135717.80 201.97
-9755428.06 5135718.63 202.40
-9755425.70 5135720.70 202.51
-9755425.70 5135718.28 202.52
-9755426.00 5135713.97 201.35
-9755425.69 5135723.32 202.46
-9755424.24 5135717.11 202.59
-9755424.87 5135713.95 201.34
-9755426.03 5135716.26 202.54
-9755426.32 5135719.51 202.49
-9755424.22 5135719.51 202.58
-9755425.71 5135718.01 202.53
-9755425.11 5135720.69 202.55
-9755424.79 5135715.63 202.61
-9755425.74 5135719.51 202.51
-9755424.78 5135721.88 202.53
-9755425.46 5135713.65 201.35
-9755425.13 5135713.64 201.34
-9755424.19 5135722.77 202.54
-9755424.79 5135720.67 202.56
-9755424.27 5135718.94 202.59
-9755424.22 5135721.83 202.56
-9755426.00 5135718.95 202.50
-9755425.73 5135719.19 202.51
-9755423.44 5135707.42 201.20
-9755413.69 5135703.82 200.69
-9755422.53 5135704.16 201.09
-9755414.28 5135710.05 200.72
-9755414.87 5135705.34 200.72
-9755421.06 5135709.77 201.12
-9755419.28 5135709.15 201.02
-9755413.08 5135710.63 200.69
-9755414.26 5135707.39 200.73
-9755417.49 5135706.81 200.89
-9755418.37 5135710.65 200.98
-9755420.76 5135706.52 201.05
-9755423.70 5135710.64 201.28
-9755424.01 5135709.18 201.27
-9755414.52 5135708.60 200.74
-9755420.19 5135704.19 200.97
-9755421.03 5135701.80 201.02
-9755413.34 5135710.62 200.69
-9755422.24 5135707.39 201.14
-9755417.49 5135705.89 200.87
-9755414.88 5135707.09 200.75
-9755414.56 5135706.52 200.74
-9755416.94 5135709.46 200.87
-9755416.04 5135704.68 200.76
-9755421.94 5135702.43 201.03
-9755416.05 5135710.36 200.84
-9755420.18 5135707.07 201.04
-9755417.80 5135710.37 200.96
-9755423.09 5135703.82 201.10
-9755422.51 5135707.75 201.17
-9755422.56 5135704.46 201.09
-9755423.47 5135708.31 201.23
-9755415.17 5135707.67 200.77
-9755421.89 5135712.17 201.19
-9755418.40 5135704.39 200.88
-9755413.99 5135704.13 200.70
-9755416.95 5135705.00 200.82
-9755416.36 5135701.22 200.73
-9755416.58 5135707.36 200.84
-9755421.06 5135707.14 201.07
-9755413.40 5135704.11 200.72
-9755421.62 5135711.89 201.17
-9755418.09 5135708.02 200.93
-9755422.83 5135707.44 201.17
-9755424.04 5135706.26 201.21
-9755418.11 5135704.11 200.86
-9755420.16 5135710.37 201.08
-9755415.21 5135705.89 200.75
-9755421.39 5135707.11 201.10
-9755423.15 5135704.17 201.11
-9755416.67 5135701.75 200.77
-9755413.04 5135709.70 200.70
-9755421.06 5135711.52 201.13
-9755419.00 5135706.82 200.96
-9755419.57 5135707.10 201.01
-9755420.77 5135705.34 201.02
-9755420.19 5135707.67 201.05
-9755415.73 5135706.18 200.78
-9755421.33 5135702.99 201.00
-9755414.56 5135707.65 200.74
-9755416.07 5135701.20 200.72
-9755418.97 5135711.23 201.01
-9755420.18 5135705.31 200.99
-9755413.91 5135710.65 200.71
-9755423.15 5135705.64 201.15
-9755413.69 5135705.31 200.71
-9755416.93 5135709.13 200.86
-9755415.50 5135703.21 200.72
-9755413.68 5135704.69 200.71
-9755422.19 5135710.41 201.19
-9755419.27 5135711.81 201.04
-9755417.49 5135704.09 200.84
-9755413.45 5135705.87 200.71
-9755419.01 5135701.57 200.93
-9755413.06 5135707.97 200.71
-9755419.93 5135705.31 200.97
-9755419.85 5135708.60 201.04
-9755424.00 5135705.96 201.20
-9755415.17 5135705.30 200.74
-9755414.54 5135709.75 200.74
-9755422.53 5135710.67 201.21
-9755419.61 5135706.27 200.98
-9755421.33 5135710.63 201.15
-9755419.02 5135707.96 201.00
-9755413.68 5135709.47 200.70
-9755420.81 5135702.92 200.98
-9755415.18 5135708.89 200.77
-9755418.94 5135709.79 201.01
-9755416.62 5135710.03 200.87
-9755417.78 5135709.15 200.93
-9755421.86 5135711.24 201.18
-9755418.08 5135704.77 200.87
-9755413.36 5135709.48 200.70
-9755422.83 5135707.16 201.17
-9755423.11 5135711.84 201.26
-9755415.19 5135704.43 200.73
-9755419.88 5135705.00 200.97
-9755417.68 5135711.23 200.94
-9755415.19 5135702.33 200.69
-9755415.25 5135700.57 200.72
-9755417.80 5135703.24 200.84
-9755419.29 5135701.74 200.89
-9755414.05 5135701.68 200.70
-9755422.19 5135706.20 201.12
-9755415.79 5135705.01 200.76
-9755423.07 5135711.28 201.25
-9755417.53 5135707.12 200.89
-9755421.68 5135703.88 201.03
-9755421.94 5135705.64 201.09
-9755423.99 5135707.45 201.23
-9755421.62 5135705.98 201.08
-9755421.33 5135703.87 201.01
-9755416.02 5135707.68 200.81
-9755423.37 5135711.24 201.27
-9755422.25 5135707.13 201.14
-9755413.68 5135707.05 200.71
-9755423.46 5135704.14 201.12
-9755418.65 5135710.32 201.00
-9755414.89 5135710.64 200.76
-9755417.77 5135710.67 200.96
-9755418.67 5135711.23 201.01
-9755415.11 5135712.17 200.81
-9755423.72 5135711.29 201.29
-9755414.57 5135704.14 200.70
-9755423.33 5135702.74 201.11
-9755416.01 5135711.52 200.85
-9755420.47 5135707.43 201.05
-9755418.14 5135710.07 200.96
-9755415.43 5135707.08 200.77
-9755421.94 5135704.14 201.06
-9755419.57 5135705.01 200.97
-9755417.81 5135705.90 200.89
-9755420.79 5135707.11 201.06
-9755414.01 5135702.08 200.70
-9755420.43 5135711.28 201.11
-9755413.15 5135702.93 200.70
-9755416.61 5135708.62 200.85
-9755418.65 5135707.06 200.96
-9755424.06 5135703.55 201.14
-9755418.39 5135709.48 200.98
-9755419.86 5135707.98 201.02
-9755413.70 5135704.40 200.71
-9755421.93 5135710.08 201.17
-9755423.70 5135709.78 201.26
-9755418.96 5135710.63 201.01
-9755417.79 5135707.39 200.90
-9755423.43 5135706.81 201.20
-9755423.95 5135711.26 201.30
-9755419.91 5135709.78 201.07
-9755421.67 5135704.44 201.04
-9755414.23 5135710.36 200.71
-9755416.94 5135704.43 200.81
-9755418.42 5135706.82 200.94
-9755414.03 5135700.27 200.78
-9755422.26 5135704.15 201.07
-9755418.11 5135711.55 200.98
-9755416.60 5135712.10 200.88
-9755416.63 5135702.99 200.77
-9755414.85 5135709.72 200.75
-9755418.75 5135701.51 200.88
-9755413.88 5135712.10 200.73
-9755421.08 5135703.24 200.99
-9755416.96 5135702.38 200.78
-9755413.04 5135710.33 200.69
-9755413.35 5135706.21 200.71
-9755417.18 5135710.63 200.90
-9755416.88 5135711.51 200.89
-9755416.10 5135700.95 200.74
-9755418.73 5135701.74 200.85
-9755413.69 5135711.86 200.70
-9755414.30 5135704.97 200.71
-9755421.90 5135709.53 201.17
-9755421.05 5135707.72 201.10
-9755418.94 5135710.34 201.01
-9755423.08 5135712.43 201.26
-9755418.97 5135706.49 200.96
-9755423.37 5135710.10 201.25
-9755419.61 5135703.86 200.93
-9755414.89 5135706.50 200.74
-9755421.04 5135708.86 201.11
-9755421.96 5135703.88 201.06
-9755414.53 5135711.24 200.75
-9755414.92 5135701.13 200.68
-9755422.83 5135702.99 201.06
-9755414.56 5135709.16 200.74
-9755420.48 5135702.13 200.97
-9755420.83 5135701.79 201.03
-9755413.71 5135711.52 200.69
-9755419.02 5135704.41 200.92
-9755420.72 5135710.38 201.10
-9755418.46 5135707.42 200.96
-9755413.12 5135701.48 200.67
-9755422.30 5135703.28 201.05
-9755413.10 5135708.88 200.71
-9755412.72 5135707.07 200.72
-9755409.82 5135707.35 200.58
-9755412.79 5135706.47 200.72
-9755410.77 5135701.74 200.59
-9755412.75 5135707.99 200.70
-9755411.93 5135711.95 203.20
-9755412.52 5135712.31 203.10
-9755412.78 5135705.90 200.71
-9755411.61 5135711.73 203.21
-9755412.78 5135712.57 203.07
-9755409.49 5135709.47 200.57
-9755410.74 5135701.41 200.58
-9755410.68 5135710.29 200.64
-9755410.13 5135703.50 200.56
-9755409.93 5135700.55 200.53
-9755410.22 5135703.79 200.57
-9755410.40 5135711.24 200.62
-9755412.22 5135704.11 200.68
-9755412.53 5135704.44 200.69
-9755411.68 5135703.80 200.64
-9755410.17 5135705.29 200.60
-9755409.84 5135707.95 200.60
-9755410.18 5135701.17 200.54
-9755411.98 5135711.38 203.22
-9755410.11 5135710.06 200.60
-9755410.14 5135711.20 200.63
-9755410.20 5135702.67 200.56
-9755412.80 5135703.52 200.70
-9755410.77 5135712.27 203.10
-9755412.19 5135706.46 200.71
-9755411.03 5135709.12 200.65
-9755412.47 5135710.91 200.67
-9755411.96 5135712.30 203.11
-9755412.49 5135700.54 200.65
-9755411.93 5135710.38 200.69
-9755410.81 5135703.79 200.61
-9755412.22 5135707.37 200.71
-9755412.78 5135712.02 203.23
-9755411.05 5135707.99 200.65
-9755409.57 5135706.47 200.55
-9755410.45 5135704.09 200.60
-9755410.50 5135707.04 200.60
-9755411.92 5135707.10 200.71
-9755412.83 5135702.04 200.69
-9755410.70 5135705.04 200.62
-9755410.12 5135706.73 200.59
-9755410.21 5135700.57 200.54
-9755411.05 5135700.86 200.57
-9755411.03 5135708.52 200.64
-9755409.55 5135712.01 203.18
-9755412.75 5135711.54 200.67
-9755411.89 5135705.63 200.69
-9755411.65 5135711.50 200.67
-9755412.54 5135701.44 200.66
-9755409.90 5135703.79 200.56
-9755415.79 5135712.84 200.98
-9755415.97 5135724.18 202.82
-9755418.35 5135712.39 200.99
-9755414.26 5135712.57 203.07
-9755418.60 5135724.44 202.67
-9755419.24 5135718.32 202.77
-9755415.93 5135723.86 202.84
-9755423.06 5135724.49 202.56
-9755414.18 5135719.70 203.01
-9755415.74 5135717.04 202.94
-9755420.70 5135717.95 202.68
-9755414.78 5135716.42 203.01
-9755419.83 5135720.35 202.69
-9755414.80 5135717.06 202.99
-9755419.77 5135723.86 202.63
-9755417.78 5135723.58 202.73
-9755418.95 5135720.61 202.73
-9755418.58 5135722.35 202.72
-9755416.89 5135713.79 202.91
-9755414.22 5135719.48 203.02
-9755417.43 5135723.58 202.76
-9755420.40 5135717.41 202.70
-9755422.21 5135715.31 202.62
-9755423.31 5135720.65 202.60
-9755421.89 5135723.68 202.61
-9755419.82 5135721.52 202.67
-9755414.56 5135716.46 203.03
-9755414.87 5135714.07 203.01
-9755416.89 5135715.28 202.91
-9755420.69 5135719.43 202.65
-9755417.43 5135721.20 202.80
-9755418.99 5135716.20 202.78
-9755416.01 5135717.93 202.94
-9755417.74 5135722.09 202.77
-9755416.57 5135722.06 202.84
-9755415.74 5135713.76 202.96
-9755419.58 5135712.96 201.06
-9755422.82 5135713.92 201.27
-9755423.69 5135713.92 201.33
-9755418.03 5135716.44 202.84
-9755414.85 5135712.89 203.03
-9755413.28 5135722.69 203.01
-9755416.57 5135718.87 202.89
-9755421.31 5135713.62 201.18
-9755413.30 5135722.35 203.01
-9755423.63 5135721.85 202.58
-9755415.09 5135720.01 202.96
-9755423.38 5135715.32 202.57
-9755416.00 5135714.66 202.95
-9755415.73 5135716.19 202.96
-9755420.33 5135713.88 202.88
-9755420.43 5135714.71 202.72
-9755414.51 5135722.34 202.95
-9755418.32 5135720.62 202.76
-9755413.39 5135714.08 203.08
-9755418.93 5135712.42 201.03
-9755421.10 5135713.95 202.82
-9755415.99 5135719.42 202.90
-9755415.16 5135713.54 202.99
-9755421.04 5135713.00 201.16
-9755420.72 5135718.29 202.67
-9755419.48 5135713.62 201.12
-9755414.56 5135714.10 203.03
-9755416.01 5135721.48 202.88
-9755416.00 5135718.28 202.93
-9755417.42 5135717.35 202.85
-9755418.91 5135722.08 202.70
-9755422.50 5135714.23 201.28
-9755420.70 5135718.87 202.67
-9755421.85 5135722.15 202.61
-9755421.25 5135723.65 202.61
-9755416.61 5135713.53 202.91
-9755418.70 5135716.20 202.79
-9755414.17 5135722.68 202.97
-9755423.91 5135723.32 202.54
-9755418.67 5135720.33 202.74
-9755422.48 5135719.47 202.60
-9755421.02 5135714.72 202.69
-9755415.69 5135712.65 203.09
-9755419.48 5135719.47 202.72
-9755415.39 5135718.84 202.95
-9755423.05 5135718.92 202.60
-9755413.96 5135716.15 203.06
-9755415.35 5135723.03 202.88
-9755413.04 5135723.57 203.00
-9755413.37 5135715.57 203.08
-9755416.06 5135712.94 202.99
-9755423.90 5135721.23 202.59
-9755417.81 5135718.25 202.82
-9755421.55 5135718.55 202.63
-9755415.39 5135720.56 202.93
-9755419.26 5135720.60 202.71
-9755413.33 5135720.62 203.02
-9755420.90 5135723.95 202.60
-9755414.51 5135722.63 202.94
-9755422.17 5135722.71 202.60
-9755421.35 5135714.75 202.68
-9755422.42 5135723.60 202.60
-9755418.88 5135723.89 202.67
-9755421.93 5135714.35 202.74
-9755415.42 5135712.95 203.00
-9755418.68 5135712.72 201.03
-9755420.47 5135715.63 202.70
-9755414.26 5135713.44 203.06
-9755417.19 5135713.20 203.00
-9755418.61 5135723.30 202.70
-9755415.17 5135712.86 203.02
-9755416.28 5135717.33 202.92
-9755414.17 5135722.10 202.97
-9755420.98 5135716.85 202.68
-9755420.12 5135716.79 202.71
-9755414.52 5135718.88 203.00
-9755415.15 5135718.24 202.98
-9755419.50 5135722.12 202.67
-9755415.10 5135720.36 202.96
-9755422.14 5135718.58 202.61
-9755414.79 5135723.59 202.90
-9755413.33 5135720.90 203.02
-9755415.72 5135718.25 202.96
-9755413.62 5135717.62 203.06
-9755418.03 5135717.95 202.82
-9755416.85 5135724.18 202.78
-9755417.43 5135724.18 202.74
-9755423.91 5135723.00 202.55
-9755422.75 5135722.71 202.59
-9755413.03 5135718.18 203.10
-9755418.93 5135722.66 202.70
-9755423.01 5135723.94 202.58
-9755416.28 5135713.78 202.94
-9755421.59 5135719.48 202.63
-9755418.64 5135713.37 201.06
-9755418.96 5135721.86 202.70
-9755416.58 5135720.93 202.85
-9755418.07 5135718.86 202.81
-9755414.56 5135716.74 203.01
-9755414.27 5135713.80 203.04
-9755415.09 5135721.79 202.93
-9755418.65 5135718.87 202.78
-9755420.75 5135713.06 201.14
-9755413.12 5135719.72 203.06
-9755414.23 5135713.20 203.05
-9755415.38 5135716.50 202.97
-9755422.17 5135720.64 202.60
-9755419.81 5135718.29 202.73
-9755415.42 5135713.82 202.98
-9755420.64 5135721.21 202.64
-9755420.10 5135723.32 202.63
-9755418.03 5135719.42 202.80
-9755415.69 5135724.15 202.84
-9755421.89 5135716.82 202.63
-9755421.29 5135718.88 202.64
-9755415.13 5135717.04 202.98
-9755413.94 5135720.33 203.00
-9755417.43 5135723.88 202.75
-9755417.51 5135714.08 202.86
-9755414.52 5135722.08 202.95
-9755421.23 5135720.66 202.63
-9755421.57 5135721.55 202.62
-9755420.71 5135717.36 202.69
-9755421.65 5135713.66 201.20
-9755418.98 5135715.63 202.79
-9755418.35 5135722.08 202.74
-9755413.66 5135718.82 203.04
-9755415.73 5135715.62 202.96
-9755413.89 5135719.43 203.04
-9755419.28 5135716.79 202.77
-9755416.57 5135721.50 202.84
-9755414.79 5135717.93 202.99
-9755421.01 5135720.96 202.63
-9755423.97 5135715.91 202.59
-9755422.78 5135717.96 202.61
-9755417.41 5135722.70 202.79
-9755417.14 5135717.37 202.87
-9755416.62 5135716.16 202.89
-9755416.25 5135722.11 202.84
-9755419.53 5135716.22 202.75
-9755413.37 5135721.48 203.02
-9755419.26 5135714.69 202.77
-9755416.27 5135721.17 202.86
-9755414.80 5135718.19 202.99
-9755420.73 5135714.17 202.76
-9755417.14 5135722.08 202.80
-9755415.40 5135719.42 202.95
-9755422.47 5135716.49 202.62
-9755420.41 5135722.11 202.64
-9755422.76 5135721.81 202.60
-9755419.86 5135714.13 202.76
-9755420.98 5135715.33 202.69
-9755420.40 5135721.53 202.65
-9755418.63 5135714.39 202.81
-9755412.95 5135720.30 203.05
-9755412.22 5135715.27 203.11
-9755411.58 5135720.87 203.10
-9755409.77 5135720.57 203.13
-9755413.08 5135718.80 203.08
-9755410.71 5135715.55 203.13
-9755410.07 5135720.59 203.12
-9755410.98 5135713.77 203.11
-9755412.75 5135720.32 203.06
-9755412.19 5135714.72 203.09
-9755410.95 5135717.59 203.13
-9755411.04 5135714.37 203.12
-9755412.70 5135724.19 203.12
-9755409.47 5135720.29 203.13
-9755411.27 5135714.06 203.11
-9755412.75 5135720.91 203.06
-9755410.42 5135713.75 203.13
-9755412.78 5135714.94 203.11
-9755412.44 5135723.26 203.04
-9755411.90 5135716.71 203.12
-9755412.79 5135714.06 203.10
-9755410.40 5135716.72 203.13
-9755411.01 5135718.81 203.12
-9755409.45 5135721.74 203.14
-9755411.57 5135719.09 203.12
-9755411.02 5135713.46 203.10
-9755410.42 5135719.36 203.13
-9755411.86 5135715.52 203.12
-9755413.03 5135715.54 203.09
-9755411.88 5135723.55 203.08
-9755409.54 5135714.95 203.17
-9755412.17 5135718.82 203.12
-9755410.42 5135720.27 203.12
-9755410.35 5135717.29 203.13
-9755411.60 5135714.91 203.11
-9755409.52 5135713.46 203.18
-9755411.30 5135716.48 203.13
-9755411.91 5135718.22 203.12
-9755410.44 5135712.87 203.13
-9755412.74 5135714.38 203.10
-9755410.39 5135713.46 203.14
-9755411.29 5135718.19 203.13
-9755410.13 5135722.37 203.12
-9755412.78 5135716.70 203.11
-9755411.83 5135722.64 203.08
-9755412.71 5135718.48 203.11
-9755410.98 5135717.30 203.13
-9755410.08 5135718.24 203.15
-9755409.86 5135718.19 203.16
-9755412.14 5135722.33 203.08
-9755411.20 5135722.35 203.11
-9755409.53 5135717.58 203.15
-9755412.41 5135721.78 203.08
-9755400.98 5135699.01 200.29
-9755400.43 5135699.09 203.36
-9755401.04 5135699.18 203.31
-9755401.26 5135698.98 203.46
-9755401.11 5135699.09 201.45
-9755399.93 5135698.83 204.70
-9755398.02 5135698.65 204.73
-9755399.62 5135698.94 200.28
-9755399.75 5135698.63 202.47
-9755401.09 5135699.15 199.85
-9755409.59 5135711.43 203.20
-9755400.15 5135699.21 203.78
-9755401.32 5135699.08 200.84
-9755401.34 5135703.24 200.10
-9755401.04 5135699.29 200.18
-9755400.56 5135699.19 200.14
-9755408.40 5135702.60 200.47
-9755404.49 5135709.70 200.30
-9755400.21 5135699.45 203.83
-9755408.34 5135712.20 203.23
-9755400.42 5135699.72 203.65
-9755404.54 5135702.62 200.26
-9755400.39 5135704.39 200.08
-9755401.61 5135702.33 200.10
-9755409.22 5135705.00 200.55
-9755403.63 5135712.18 203.48
-9755402.55 5135700.84 200.17
-9755399.58 5135699.20 203.68
-9755401.14 5135699.18 200.95
-9755404.56 5135707.00 200.29
-9755406.30 5135711.63 203.35
-9755400.48 5135702.31 200.06
-9755400.38 5135705.52 200.07
-9755406.66 5135710.29 200.41
-9755408.41 5135702.04 200.47
-9755403.66 5135707.92 200.24
-9755402.51 5135705.60 200.17
-9755405.38 5135710.61 200.34
-9755403.94 5135704.71 200.24
-9755400.45 5135702.01 200.06
-9755405.77 5135702.88 200.32
-9755408.92 5135710.59 200.54
-9755400.46 5135704.68 203.76
-9755400.14 5135699.39 200.07
-9755402.25 5135711.34 203.56
-9755408.35 5135705.90 200.51
-9755401.59 5135708.84 200.12
-9755402.20 5135705.01 200.17
-9755409.03 5135703.76 200.52
-9755402.16 5135709.68 200.14
-9755405.16 5135703.51 200.31
-9755404.88 5135703.21 200.29
-9755401.89 5135704.37 200.13
-9755403.38 5135706.18 200.21
-9755404.83 5135704.96 200.28
-9755400.14 5135710.43 203.75
-9755404.83 5135712.24 203.44
-9755399.84 5135699.61 200.09
-9755406.86 5135708.85 200.41
-9755405.99 5135706.15 200.36
-9755404.23 5135711.63 203.48
-9755405.69 5135709.73 200.35
-9755405.42 5135710.36 200.35
-9755403.63 5135707.37 200.23
-9755406.62 5135707.67 200.41
-9755405.39 5135700.81 200.30
-9755400.68 5135703.24 203.78
-9755399.90 5135704.03 200.03
-9755400.11 5135705.39 203.71
-9755400.12 5135701.14 200.06
-9755405.47 5135705.91 200.33
-9755406.08 5135701.37 200.34
-9755406.33 5135706.70 200.37
-9755400.17 5135702.40 203.75
-9755407.50 5135709.15 200.46
-9755407.85 5135699.93 200.46
-9755404.32 5135699.62 200.28
-9755401.04 5135706.45 200.10
-9755404.27 5135709.44 200.28
-9755400.43 5135699.39 203.73
-9755406.61 5135708.81 200.40
-9755400.10 5135706.87 203.72
-9755402.16 5135708.88 200.14
-9755406.86 5135708.53 200.40
-9755400.43 5135707.51 203.77
-9755401.86 5135705.23 200.14
-9755409.26 5135711.20 200.57
-9755402.48 5135703.82 200.16
-9755406.28 5135710.34 200.39
-9755401.61 5135704.97 200.14
-9755401.22 5135710.58 200.12
-9755408.64 5135706.21 200.51
-9755401.06 5135700.84 200.10
-9755402.16 5135711.24 199.89
-9755400.11 5135704.67 200.05
-9755400.46 5135702.74 203.77
-9755405.43 5135707.91 200.33
-9755406.32 5135701.42 200.35
-9755407.85 5135700.84 200.43
-9755403.34 5135710.30 200.22
-9755403.70 5135700.85 200.21
-9755403.52 5135710.79 203.74
-9755404.23 5135704.96 200.27
-9755401.29 5135707.34 200.11
-9755402.19 5135712.22 203.56
-9755402.50 5135699.92 200.15
-9755405.13 5135712.49 203.41
-9755408.39 5135705.59 200.49
-9755407.20 5135707.33 200.44
-9755405.10 5135702.29 200.28
-9755401.32 5135709.13 200.11
-9755400.41 5135706.18 200.07
-9755403.06 5135704.71 200.20
-9755407.81 5135702.58 200.44
-9755400.11 5135705.81 200.06
-9755400.70 5135709.69 200.09
-9755402.20 5135699.89 200.15
-9755406.93 5135702.02 200.39
-9755402.75 5135704.68 200.18
-9755405.16 5135701.18 200.30
-9755403.74 5135700.22 200.22
-9755401.04 5135699.92 200.10
-9755402.24 5135700.81 200.15
-9755406.88 5135709.13 200.43
-9755405.75 5135701.76 200.32
-9755408.38 5135707.37 200.51
-9755405.00 5135710.78 203.30
-9755401.94 5135701.15 200.13
-9755408.06 5135701.47 200.43
-9755406.88 5135706.78 200.41
-9755401.34 5135701.70 200.11
-9755407.56 5135700.82 200.40
-9755405.98 5135709.14 200.37
-9755401.58 5135706.70 200.13
-9755399.84 5135708.26 200.05
-9755401.91 5135702.90 200.12
-9755400.51 5135703.37 203.79
-9755407.24 5135711.96 203.31
-9755401.02 5135704.76 200.08
-9755401.31 5135711.90 203.62
-9755401.27 5135702.63 200.09
-9755403.11 5135701.40 200.19
-9755407.21 5135704.69 200.43
-9755407.75 5135710.87 200.48
-9755400.42 5135706.25 203.77
-9755401.32 5135705.84 200.11
-9755408.69 5135712.26 203.21
-9755401.89 5135699.43 200.17
-9755408.09 5135706.24 200.49
-9755404.00 5135703.19 200.23
-9755402.18 5135704.65 200.17
-9755406.67 5135702.66 200.37
-9755400.47 5135702.13 203.79
-9755403.62 5135704.36 200.22
-9755400.48 5135700.53 200.07
-9755403.38 5135703.51 200.20
-9755400.13 5135704.08 200.03
-9755408.05 5135707.97 200.49
-9755409.24 5135708.58 200.56
-9755406.93 5135705.58 200.41
-9755401.56 5135699.71 200.12
-9755401.66 5135699.73 200.12
-9755402.50 5135706.73 200.17
-9755404.23 5135701.70 200.25
-9755404.52 5135707.63 200.29
-9755400.36 5135700.63 203.75
-9755408.08 5135703.16 200.46
-9755406.85 5135711.65 203.35
-9755400.05 5135712.20 203.69
-9755403.33 5135711.33 203.53
-9755400.99 5135708.52 200.09
-9755406.00 5135705.30 200.35
-9755407.53 5135709.42 200.46
-9755400.46 5135703.22 200.06
-9755400.75 5135700.78 200.07
-9755401.02 5135704.03 200.10
-9755408.97 5135707.03 200.53
-9755399.85 5135707.13 203.70
-9755402.74 5135701.10 200.17
-9755405.49 5135699.65 200.32
-9755400.09 5135709.09 200.05
-9755400.18 5135700.37 203.75
-9755407.82 5135707.06 200.46
-9755405.42 5135712.25 203.38
-9755406.62 5135701.74 200.37
-9755408.03 5135706.46 200.48
-9755402.18 5135702.57 200.14
-9755407.20 5135702.57 200.40
-9755401.61 5135699.99 200.12
-9755404.26 5135705.86 200.26
-9755408.69 5135700.57 200.46
-9755403.37 5135707.67 200.21
-9755409.33 5135701.10 200.51
-9755408.97 5135704.73 200.53
-9755401.33 5135711.00 203.80
-9755400.38 5135708.81 200.07
-9755400.07 5135709.99 200.06
-9755401.05 5135712.20 203.63
-9755407.21 5135704.11 200.41
-9755404.88 5135703.78 200.28
-9755403.07 5135701.73 200.19
-9755406.61 5135705.88 200.38
-9755401.11 5135699.19 204.70
-9755409.24 5135709.14 200.54
-9755405.77 5135707.04 200.35
-9755400.36 5135711.14 203.70
-9755405.11 5135704.39 200.30
