-9755207.83 5135346.99 181.43
-9755212.83 5135342.71 187.05
-9755209.71 5135346.07 186.93
-9755209.60 5135342.65 181.32
-9755211.05 5135347.70 181.24
-9755205.53 5135341.70 181.51
-9755212.35 5135338.54 186.99
-9755204.58 5135346.37 181.56
-9755205.72 5135347.72 188.38
-9755201.48 5135344.39 187.22
-9755213.70 5135342.59 181.32
-9755202.80 5135346.12 187.26
-9755203.97 5135347.18 187.99
-9755203.69 5135346.15 188.06
-9755212.24 5135343.98 185.23
-9755212.54 5135338.88 186.53
-9755203.15 5135344.35 187.99
-9755202.88 5135346.88 186.65
-9755213.47 5135340.49 188.89
-9755202.30 5135338.74 181.37
-9755203.11 5135342.96 181.46
-9755203.46 5135343.04 185.43
-9755206.92 5135338.72 189.76
-9755203.70 5135347.65 181.52
-9755212.88 5135340.19 187.74
-9755211.12 5135340.31 181.26
-9755204.36 5135344.30 187.05
-9755213.49 5135339.40 187.76
-9755213.89 5135342.56 194.37
-9755213.63 5135336.86 186.28
-9755213.51 5135342.20 188.20
-9755212.88 5135340.27 187.18
-9755207.31 5135345.15 184.37
-9755207.06 5135345.23 183.80
-9755206.08 5135346.23 181.53
-9755212.92 5135342.08 193.12
-9755202.73 5135345.23 187.28
-9755212.71 5135340.47 190.30
-9755205.44 5135344.97 181.61
-9755202.14 5135344.40 186.41
-9755212.82 5135347.15 186.14
-9755212.26 5135343.66 187.16
-9755212.04 5135339.51 186.90
-9755203.83 5135343.44 187.27
-9755212.00 5135347.89 181.21
-9755209.06 5135342.04 181.41
-9755212.90 5135342.66 181.37
-9755208.74 5135347.04 181.37
-9755203.14 5135344.39 181.53
-9755203.80 5135345.24 188.18
-9755212.78 5135345.05 181.31
-9755208.17 5135347.74 186.38
-9755214.89 5135342.62 187.26
-9755205.56 5135339.60 181.41
-9755213.09 5135338.83 181.11
-9755205.55 5135342.93 186.95
-9755212.80 5135347.99 181.27
-9755205.39 5135346.13 181.61
-9755205.87 5135344.72 185.54
-9755207.00 5135340.17 189.89
-9755208.68 5135344.41 186.22
-9755202.24 5135347.08 185.17
-9755205.94 5135343.78 183.96
-9755203.15 5135347.70 187.94
-9755202.99 5135346.98 186.90
-9755206.00 5135345.98 184.59
-9755212.89 5135340.32 181.20
-9755212.63 5135338.81 186.98
-9755212.85 5135341.70 187.03
-9755213.76 5135347.56 189.35
-9755201.11 5135341.10 181.38
-9755213.31 5135343.56 187.38
-9755202.29 5135347.42 186.68
-9755202.97 5135342.82 188.93
-9755213.50 5135338.65 189.49
-9755213.52 5135341.84 191.96
-9755213.01 5135347.70 185.70
-9755207.80 5135341.73 181.47
-9755203.77 5135339.38 181.38
-9755210.50 5135342.06 181.28
-9755213.86 5135339.33 181.07
-9755202.25 5135341.05 181.39
-9755201.41 5135343.38 188.80
-9755212.14 5135341.76 186.18
-9755203.14 5135345.50 181.55
-9755207.08 5135342.80 190.25
-9755202.79 5135341.23 185.67
-9755211.11 5135337.91 181.20
-9755203.10 5135340.28 181.38
-9755204.67 5135337.86 181.36
-9755213.81 5135342.73 192.10
-9755212.25 5135346.78 181.25
-9755212.62 5135346.00 181.31
-9755204.63 5135344.16 184.54
-9755212.31 5135338.45 185.28
-9755213.79 5135337.93 187.34
-9755213.68 5135337.01 187.33
-9755214.12 5135338.05 184.92
-9755213.60 5135337.60 185.85
-9755203.07 5135346.24 187.82
-9755210.99 5135342.65 181.32
-9755203.67 5135343.73 181.53
-9755203.78 5135338.81 181.38
-9755211.97 5135346.17 185.81
-9755201.36 5135345.54 187.15
-9755207.22 5135340.20 181.43
-9755211.79 5135342.69 186.13
-9755207.85 5135342.63 181.48
-9755204.61 5135341.24 185.12
-9755214.03 5135345.91 181.21
-9755204.11 5135341.68 181.41
-9755213.69 5135344.73 181.30
-9755210.26 5135344.99 181.29
-9755206.19 5135347.54 185.50
-9755203.18 5135338.81 181.36
-9755206.33 5135346.74 181.52
-9755211.97 5135344.75 184.99
-9755202.67 5135345.28 185.18
-9755213.34 5135345.22 184.94
-9755211.96 5135341.94 185.44
-9755208.81 5135347.68 181.35
-9755211.62 5135337.91 186.79
-9755201.48 5135343.40 188.05
-9755213.88 5135345.88 190.61
-9755211.27 5135346.19 181.26
-9755213.57 5135340.74 189.12
-9755205.45 5135340.21 181.38
-9755213.63 5135340.45 190.15
-9755209.81 5135347.41 185.50
-9755206.08 5135343.17 186.13
-9755203.11 5135341.07 181.40
-9755211.73 5135343.00 186.95
-9755213.06 5135342.64 185.74
-9755212.04 5135341.22 181.27
-9755213.79 5135344.78 188.09
-9755206.89 5135341.85 190.13
-9755206.42 5135337.63 181.37
-9755201.06 5135343.49 181.50
-9755208.69 5135343.55 181.47
-9755213.96 5135341.23 181.21
-9755212.32 5135340.24 181.22
-9755213.20 5135344.43 187.76
-9755212.04 5135344.43 181.33
-9755204.64 5135341.93 181.51
-9755207.98 5135342.85 190.23
-9755202.12 5135343.47 188.17
-9755213.75 5135339.70 186.75
-9755208.12 5135348.08 191.14
-9755213.22 5135346.47 186.23
-9755207.63 5135346.75 188.37
-9755206.95 5135346.36 190.84
-9755211.16 5135344.70 181.26
-9755212.15 5135345.37 184.99
-9755211.39 5135343.11 185.47
-9755212.89 5135342.68 188.91
-9755213.61 5135343.18 186.29
-9755212.90 5135343.74 185.56
-9755209.35 5135341.71 181.36
-9755211.15 5135341.79 181.26
-9755208.48 5135346.83 186.32
-9755212.33 5135342.96 189.87
-9755205.46 5135346.79 181.55
-9755207.95 5135338.57 189.61
-9755201.55 5135347.14 184.38
-9755205.52 5135343.97 183.95
-9755208.68 5135338.54 186.14
-9755210.22 5135337.88 181.25
-9755203.59 5135345.91 185.96
-9755201.90 5135341.73 185.56
-9755203.43 5135347.60 184.57
-9755201.49 5135345.32 186.53
-9755203.51 5135341.05 181.40
-9755211.33 5135343.83 185.37
-9755202.28 5135337.82 181.36
-9755204.81 5135345.05 184.27
-9755204.32 5135347.05 181.56
-9755204.58 5135344.38 181.56
-9755214.04 5135338.53 181.05
-9755202.90 5135345.84 185.27
-9755212.90 5135345.24 185.55
-9755204.03 5135344.37 181.53
-9755204.59 5135345.07 186.07
-9755206.94 5135346.72 181.48
-9755213.74 5135347.88 190.15
-9755213.68 5135342.64 187.24
-9755201.13 5135347.68 185.20
-9755202.15 5135342.89 181.42
-9755203.07 5135341.71 185.88
-9755203.60 5135345.49 189.40
-9755203.94 5135347.12 186.29
-9755211.47 5135347.23 184.84
-9755201.34 5135347.63 181.62
-9755196.50 5135364.15 212.44
-9755197.11 5135359.09 212.40
-9755197.12 5135360.05 212.42
-9755199.75 5135358.56 213.28
-9755196.55 5135359.99 212.39
-9755199.58 5135356.81 212.60
-9755198.27 5135359.40 212.42
-9755199.46 5135360.91 212.42
-9755198.87 5135358.77 213.23
-9755198.31 5135360.89 212.43
-9755198.88 5135358.26 212.42
-9755200.71 5135356.64 213.77
-9755198.24 5135360.00 212.42
-9755200.38 5135357.05 212.43
-9755199.75 5135361.78 212.43
-9755197.13 5135356.76 212.41
-9755200.11 5135356.50 213.05
-9755195.63 5135361.76 212.40
-9755200.51 5135362.46 212.44
-9755200.36 5135363.57 212.47
-9755197.14 5135362.66 212.43
-9755198.27 5135362.38 212.44
-9755193.88 5135358.49 212.40
-9755194.90 5135356.56 213.09
-9755193.87 5135361.47 212.39
-9755194.43 5135357.51 213.79
-9755193.87 5135356.63 213.98
-9755194.07 5135362.91 212.58
-9755193.92 5135363.21 212.56
-9755199.18 5135359.70 213.26
-9755194.15 5135362.90 213.38
-9755190.59 5135364.42 212.35
-9755191.52 5135357.68 212.39
-9755191.22 5135364.13 212.35
-9755189.15 5135357.61 212.38
-9755187.12 5135356.68 212.39
-9755188.31 5135357.59 212.39
-9755189.20 5135361.77 212.35
-9755193.05 5135356.70 212.39
-9755188.32 5135359.35 212.37
-9755190.63 5135360.85 212.35
-9755189.77 5135356.69 212.39
-9755193.02 5135359.39 212.39
-9755190.62 5135361.74 212.37
-9755187.38 5135359.08 212.36
-9755191.66 5135359.58 213.06
-9755187.63 5135362.62 212.35
-9755187.35 5135363.47 212.36
-9755191.77 5135363.51 212.35
-9755190.59 5135363.52 212.35
-9755201.00 5135351.96 213.84
-9755201.28 5135349.36 185.29
-9755201.25 5135351.95 213.85
-9755201.33 5135351.64 184.47
-9755200.48 5135349.24 184.73
-9755197.21 5135350.08 184.43
-9755196.36 5135351.00 184.43
-9755197.25 5135350.97 184.47
-9755195.46 5135350.68 184.45
-9755199.64 5135349.49 184.77
-9755196.65 5135348.68 185.28
-9755196.37 5135349.50 184.79
-9755195.25 5135349.07 185.06
-9755196.60 5135350.14 184.42
-9755201.17 5135356.15 213.85
-9755200.35 5135356.20 212.45
-9755195.68 5135351.78 212.46
-9755196.56 5135352.63 212.44
-9755196.29 5135353.52 212.44
-9755197.21 5135349.49 184.78
-9755199.62 5135351.00 184.42
-9755197.14 5135354.37 212.42
-9755200.77 5135348.58 185.25
-9755195.68 5135348.45 185.47
-9755199.90 5135351.77 184.50
-9755201.49 5135351.62 185.15
-9755196.23 5135354.40 212.42
-9755200.42 5135354.43 212.45
-9755195.69 5135353.52 212.45
-9755197.99 5135351.72 212.45
-9755198.89 5135355.29 212.43
-9755198.94 5135349.30 184.79
-9755197.04 5135351.41 183.51
-9755197.50 5135349.25 185.56
-9755198.98 5135351.03 184.42
-9755201.26 5135351.57 198.64
-9755200.68 5135355.02 212.45
-9755195.49 5135349.50 184.80
-9755198.36 5135351.39 212.93
-9755200.72 5135351.42 185.35
-9755199.56 5135351.76 186.11
-9755200.01 5135351.50 188.64
-9755199.90 5135351.67 201.75
-9755200.70 5135354.87 213.82
-9755200.65 5135354.61 213.82
-9755195.11 5135351.64 201.95
-9755196.34 5135351.68 186.05
-9755199.97 5135351.31 185.09
-9755199.07 5135351.85 196.58
-9755200.17 5135351.47 186.10
-9755200.96 5135355.86 213.81
-9755199.74 5135351.77 191.41
-9755199.61 5135351.82 209.82
-9755200.24 5135351.63 204.56
-9755199.56 5135351.37 212.94
-9755196.34 5135351.60 185.25
-9755200.71 5135351.95 213.79
-9755198.62 5135351.39 212.90
-9755195.66 5135351.75 186.06
-9755194.80 5135348.51 185.32
-9755200.94 5135354.87 213.82
-9755194.80 5135354.98 212.41
-9755199.26 5135351.50 186.07
-9755196.53 5135351.35 212.39
-9755201.44 5135341.25 187.25
-9755201.38 5135339.37 181.37
-9755201.10 5135337.90 181.34
-9755201.68 5135341.76 185.56
-9755195.77 5135347.72 184.41
-9755200.45 5135346.74 181.60
-9755200.79 5135338.72 181.34
-9755198.97 5135347.80 184.41
-9755199.88 5135347.76 184.41
-9755201.01 5135346.70 181.61
-9755199.58 5135344.33 181.55
-9755197.25 5135339.30 181.33
-9755200.52 5135341.99 181.34
-9755200.46 5135345.85 181.58
-9755200.53 5135347.76 184.79
-9755200.63 5135341.15 188.16
-9755196.34 5135345.51 181.57
-9755199.57 5135345.87 181.58
-9755199.05 5135347.62 181.57
-9755196.63 5135347.35 185.55
-9755198.10 5135345.51 181.56
-9755198.06 5135347.87 181.61
-9755197.82 5135347.22 184.33
-9755197.81 5135342.57 181.38
-9755197.64 5135347.49 182.83
-9755199.61 5135347.14 185.37
-9755198.11 5135344.32 181.55
-9755200.56 5135347.64 181.55
-9755196.05 5135339.59 181.32
-9755198.71 5135344.37 181.55
-9755196.70 5135341.11 181.35
-9755199.03 5135340.49 181.35
-9755199.84 5135343.42 181.50
-9755197.20 5135344.33 181.53
-9755200.51 5135337.82 181.35
-9755198.04 5135347.23 185.38
-9755200.30 5135347.12 184.36
-9755198.66 5135347.78 185.26
-9755199.58 5135339.64 181.34
-9755199.05 5135338.44 181.33
-9755198.75 5135339.25 181.34
-9755200.82 5135343.49 181.50
-9755195.48 5135339.25 181.30
-9755198.71 5135342.52 181.36
-9755196.12 5135337.81 181.30
-9755197.19 5135347.95 181.60
-9755200.43 5135342.52 181.37
-9755196.59 5135347.02 184.88
-9755197.83 5135339.30 181.33
-9755197.00 5135337.84 181.30
-9755200.50 5135339.60 181.37
-9755199.88 5135346.71 181.58
-9755198.10 5135343.43 181.47
-9755194.58 5135347.45 181.59
-9755198.75 5135341.93 181.36
-9755197.45 5135347.02 182.81
-9755197.76 5135346.64 181.59
-9755198.97 5135347.04 185.38
-9755194.60 5135349.20 185.26
-9755194.17 5135356.06 213.71
-9755194.56 5135348.66 184.43
-9755193.94 5135355.82 212.40
-9755194.15 5135355.22 213.71
-9755193.95 5135350.93 184.44
-9755193.93 5135351.85 213.61
-9755193.62 5135354.96 212.39
-9755193.90 5135353.45 212.41
-9755193.93 5135352.86 212.41
-9755194.60 5135351.82 213.69
-9755194.21 5135353.44 213.75
-9755193.97 5135352.94 213.77
-9755194.56 5135352.49 213.79
-9755194.62 5135351.56 184.41
-9755193.64 5135351.81 184.62
-9755190.70 5135351.80 212.44
-9755192.43 5135351.76 212.46
-9755189.22 5135353.43 212.41
-9755190.76 5135348.45 189.23
-9755188.60 5135352.18 209.84
-9755191.36 5135351.73 199.95
-9755189.23 5135351.00 184.43
-9755189.83 5135351.72 210.86
-9755191.52 5135354.38 212.39
-9755189.76 5135352.04 212.43
-9755187.48 5135348.51 184.44
-9755190.13 5135351.72 211.76
-9755191.64 5135348.58 184.44
-9755191.58 5135350.12 184.43
-9755191.37 5135351.49 190.74
-9755191.30 5135351.23 184.45
-9755189.81 5135354.97 212.39
-9755188.03 5135349.17 184.40
-9755187.19 5135350.33 184.45
-9755193.03 5135355.86 212.40
-9755193.02 5135350.97 184.42
-9755193.40 5135351.60 184.44
-9755189.62 5135351.58 209.83
-9755189.87 5135349.52 184.42
-9755187.39 5135353.72 212.42
-9755192.32 5135351.80 203.01
-9755193.07 5135353.45 212.42
-9755193.05 5135348.51 184.43
-9755189.24 5135348.65 184.43
-9755192.45 5135352.59 212.42
-9755191.38 5135351.82 188.96
-9755188.11 5135350.29 184.43
-9755191.82 5135351.60 202.90
-9755191.58 5135348.57 190.95
-9755191.02 5135351.51 188.03
-9755192.21 5135350.97 184.45
-9755193.13 5135349.42 184.80
-9755190.94 5135351.65 200.20
-9755189.07 5135351.76 184.60
-9755191.58 5135351.57 184.47
-9755190.00 5135348.56 190.27
-9755191.26 5135351.75 188.03
-9755191.24 5135351.77 186.85
-9755188.92 5135356.09 212.41
-9755191.97 5135351.50 194.34
-9755190.57 5135351.84 193.02
-9755188.06 5135348.60 184.42
-9755190.71 5135348.62 184.48
-9755188.14 5135348.27 190.86
-9755192.15 5135353.43 212.41
-9755190.66 5135351.71 184.47
-9755187.45 5135351.82 210.53
-9755192.21 5135350.10 184.45
-9755188.95 5135351.74 186.13
-9755190.45 5135351.58 198.31
-9755188.05 5135350.96 184.43
-9755190.52 5135351.58 185.43
-9755193.12 5135351.60 192.50
-9755190.43 5135351.41 188.99
-9755190.70 5135350.06 184.42
-9755191.58 5135353.49 212.41
-9755187.17 5135351.69 212.61
-9755191.55 5135352.85 212.41
-9755188.87 5135352.03 193.45
-9755192.25 5135351.70 192.13
-9755189.70 5135351.63 201.92
-9755191.49 5135351.50 191.91
-9755188.93 5135351.76 191.37
-9755189.59 5135351.80 185.56
-9755187.20 5135351.20 184.43
-9755190.49 5135351.81 191.94
-9755192.51 5135348.60 184.43
-9755190.33 5135351.79 205.99
-9755188.31 5135352.53 212.43
-9755190.18 5135351.62 189.12
-9755193.48 5135351.52 208.03
-9755192.00 5135351.65 188.56
-9755187.43 5135352.83 212.44
-9755188.02 5135353.47 212.42
-9755188.94 5135351.84 185.58
-9755188.90 5135351.79 186.99
-9755189.57 5135348.17 191.16
-9755187.20 5135351.75 184.44
-9755189.84 5135351.80 189.28
-9755191.61 5135351.89 200.76
-9755192.46 5135351.49 208.66
-9755189.64 5135351.77 193.76
-9755193.00 5135355.22 212.40
-9755188.32 5135354.32 212.41
-9755188.35 5135351.86 189.60
-9755192.55 5135351.68 189.74
-9755189.85 5135351.77 184.42
-9755191.89 5135348.41 190.97
-9755189.57 5135351.83 199.88
-9755190.46 5135348.55 190.57
-9755190.75 5135351.66 188.90
-9755192.33 5135351.61 205.36
-9755191.42 5135351.72 185.72
-9755189.58 5135348.68 184.44
-9755192.80 5135351.42 192.06
-9755192.72 5135351.62 185.86
-9755191.40 5135347.72 190.63
-9755187.60 5135348.14 189.21
-9755188.38 5135351.80 192.23
-9755189.10 5135351.83 192.22
-9755187.14 5135351.83 189.92
-9755187.26 5135351.80 210.91
-9755187.23 5135348.31 190.83
-9755187.21 5135351.72 207.37
-9755187.29 5135348.27 189.03
-9755187.13 5135351.81 205.33
-9755194.17 5135343.72 187.28
-9755194.62 5135340.18 181.33
-9755194.77 5135343.11 187.24
-9755194.67 5135344.59 187.81
-9755193.97 5135344.28 181.50
-9755194.04 5135341.04 181.36
-9755194.12 5135345.02 188.96
-9755193.97 5135343.38 181.40
-9755194.87 5135343.36 181.40
-9755194.45 5135344.84 187.30
-9755194.80 5135347.01 187.92
-9755194.60 5135341.89 181.35
-9755194.46 5135347.16 185.29
-9755189.03 5135341.98 190.49
-9755189.68 5135343.65 190.55
-9755188.81 5135344.27 190.46
-9755188.96 5135341.31 189.56
-9755188.26 5135342.75 190.29
-9755190.52 5135343.84 190.63
-9755187.28 5135346.18 190.26
-9755188.74 5135345.23 190.36
-9755187.68 5135338.56 186.45
-9755193.08 5135345.48 181.54
-9755192.24 5135344.39 189.41
-9755189.06 5135343.61 190.50
-9755190.61 5135338.83 186.46
-9755188.83 5135338.74 186.28
-9755190.32 5135347.71 184.47
-9755191.39 5135345.33 190.28
-9755188.72 5135340.46 187.19
-9755192.50 5135344.38 187.51
-9755188.29 5135340.46 187.17
-9755188.95 5135347.76 184.40
-9755189.04 5135337.87 187.17
-9755190.58 5135338.65 187.54
-9755189.95 5135347.11 191.15
-9755189.69 5135336.94 186.12
-9755191.28 5135341.90 181.36
-9755188.32 5135340.48 189.47
-9755187.87 5135341.19 189.75
-9755188.19 5135346.88 189.60
-9755193.46 5135345.56 187.14
-9755191.36 5135341.91 189.46
-9755189.61 5135342.71 181.34
-9755191.41 5135341.03 188.07
-9755189.91 5135340.46 181.32
-9755191.39 5135346.77 191.15
-9755190.25 5135343.17 186.72
-9755189.06 5135340.01 187.68
-9755193.24 5135343.69 188.16
-9755188.15 5135345.08 181.70
-9755190.78 5135346.92 181.62
-9755193.08 5135337.79 181.26
-9755190.53 5135345.43 188.90
-9755190.44 5135339.78 185.49
-9755188.77 5135347.67 189.03
-9755188.81 5135347.39 189.88
-9755188.08 5135346.62 190.07
-9755189.08 5135347.26 188.74
-9755187.22 5135343.80 190.42
-9755190.50 5135346.38 189.70
-9755190.84 5135346.77 190.42
-9755188.25 5135338.66 187.39
-9755187.57 5135345.21 190.30
-9755188.30 5135343.69 186.25
-9755190.78 5135345.31 189.70
-9755190.55 5135345.88 189.06
-9755188.19 5135339.05 191.30
-9755187.31 5135340.27 190.54
-9755191.41 5135342.90 190.50
-9755189.88 5135341.17 190.21
-9755190.31 5135342.64 190.91
-9755189.04 5135346.75 191.79
-9755189.01 5135343.70 189.67
-9755190.48 5135341.08 189.37
-9755188.08 5135341.97 186.38
-9755188.17 5135345.74 181.79
-9755188.88 5135339.54 188.64
-9755191.65 5135347.03 181.58
-9755188.25 5135347.49 189.02
-9755189.18 5135346.02 181.71
-9755188.99 5135344.47 189.88
-9755192.52 5135342.79 181.36
-9755190.45 5135344.37 181.49
-9755193.17 5135346.99 188.07
-9755193.09 5135340.17 181.31
-9755187.37 5135337.00 186.00
-9755188.39 5135338.58 181.27
-9755187.80 5135344.49 188.85
-9755193.12 5135342.86 187.34
-9755191.63 5135345.13 188.84
-9755189.91 5135346.59 181.65
-9755189.21 5135341.87 189.38
-9755189.52 5135345.19 181.62
-9755191.33 5135346.23 186.96
-9755188.96 5135343.46 181.38
-9755190.15 5135341.26 185.79
-9755188.19 5135347.20 189.02
-9755187.05 5135346.29 189.67
-9755188.98 5135346.98 181.71
-9755188.71 5135346.89 189.60
-9755188.30 5135344.34 181.56
-9755188.76 5135344.01 186.02
-9755191.46 5135344.43 189.47
-9755187.52 5135342.11 189.76
-9755190.12 5135337.98 188.78
-9755188.72 5135340.09 186.42
-9755188.61 5135346.92 181.73
-9755189.23 5135344.53 181.55
-9755191.34 5135344.56 191.26
-9755189.40 5135341.27 188.35
-9755189.00 5135342.78 181.37
-9755187.96 5135337.85 187.91
-9755191.13 5135342.11 189.99
-9755187.88 5135345.19 188.59
-9755192.25 5135341.16 188.10
-9755188.91 5135343.81 186.02
-9755188.94 5135341.33 181.32
-9755188.07 5135342.10 191.63
-9755187.32 5135341.14 187.09
-9755191.79 5135345.82 187.84
-9755192.37 5135346.20 188.09
-9755188.78 5135346.85 191.29
-9755187.28 5135346.59 181.82
-9755189.59 5135346.77 191.67
-9755190.79 5135345.65 191.71
-9755188.05 5135342.01 189.70
-9755190.32 5135346.00 188.12
-9755190.76 5135345.22 181.57
-9755190.74 5135338.48 185.77
-9755191.44 5135347.99 189.61
-9755188.12 5135339.83 181.28
-9755191.72 5135346.05 188.78
-9755191.49 5135340.45 187.87
-9755190.43 5135342.00 181.36
-9755189.35 5135338.96 185.23
-9755188.66 5135342.09 181.30
-9755188.39 5135340.26 186.40
-9755192.10 5135345.22 188.14
-9755187.24 5135346.80 190.26
-9755187.40 5135338.62 187.88
-9755189.23 5135338.68 188.84
-9755189.60 5135338.74 185.33
-9755191.35 5135345.14 181.52
-9755187.28 5135347.94 189.71
-9755193.15 5135344.91 188.88
-9755191.50 5135343.55 188.06
-9755189.96 5135336.89 187.71
-9755188.13 5135336.92 181.24
-9755193.08 5135343.61 188.60
-9755189.05 5135337.33 188.43
-9755190.13 5135345.16 188.16
-9755187.49 5135343.60 188.77
-9755187.76 5135343.36 188.81
-9755191.23 5135339.03 187.65
-9755190.70 5135345.13 188.07
-9755191.38 5135341.33 188.60
-9755188.37 5135346.95 181.72
-9755188.62 5135340.96 187.00
-9755187.28 5135344.39 190.41
-9755188.43 5135343.44 189.46
-9755188.43 5135347.60 181.73
-9755187.77 5135339.14 185.60
-9755189.39 5135344.80 189.06
-9755192.56 5135336.98 181.29
-9755192.55 5135344.59 188.32
-9755190.42 5135337.39 188.66
-9755189.58 5135340.70 189.21
-9755187.28 5135343.67 181.47
-9755186.96 5135340.47 186.37
-9755187.16 5135339.04 190.42
-9755186.96 5135341.15 191.65
-9755187.19 5135340.18 181.29
-9755187.10 5135343.64 189.28
-9755187.09 5135344.82 186.97
-9755186.94 5135345.15 181.75
-9755187.19 5135345.25 186.96
-9755187.20 5135346.33 186.47
-9755292.31 5135321.44 182.53
-9755292.01 5135322.03 182.51
-9755292.02 5135323.20 182.40
-9755291.10 5135323.24 182.41
-9755291.89 5135335.31 183.93
-9755291.92 5135327.97 181.70
-9755291.07 5135326.51 181.94
-9755291.76 5135334.80 183.93
-9755291.73 5135335.42 184.45
-9755291.06 5135332.15 181.14
-9755292.03 5135335.58 185.63
-9755291.09 5135329.77 181.41
-9755291.94 5135335.55 186.37
-9755291.94 5135335.94 184.45
-9755291.89 5135336.88 181.14
-9755291.06 5135335.11 181.12
-9755291.68 5135337.87 184.00
-9755291.04 5135337.27 185.44
-9755291.02 5135336.06 181.13
-9755292.17 5135337.10 183.46
-9755291.94 5135336.01 181.13
-9755286.44 5135320.52 182.62
-9755288.48 5135320.20 182.66
-9755285.52 5135321.11 182.61
-9755288.79 5135319.67 182.65
-9755282.55 5135320.46 182.59
-9755289.35 5135320.81 182.62
-9755286.99 5135321.40 182.58
-9755284.62 5135321.37 182.58
-9755286.13 5135319.63 182.64
-9755287.04 5135319.62 182.66
-9755291.06 5135328.28 181.65
-9755288.67 5135334.80 181.11
-9755286.95 5135332.75 181.13
-9755289.64 5135324.08 182.34
-9755283.70 5135323.14 182.46
-9755283.73 5135328.51 181.83
-9755286.92 5135331.84 181.20
-9755290.24 5135327.08 181.83
-9755286.34 5135331.26 181.28
-9755288.70 5135327.97 181.75
-9755290.51 5135321.73 182.53
-9755285.43 5135333.03 181.15
-9755287.88 5135322.02 182.51
-9755287.87 5135323.21 182.43
-9755285.51 5135322.88 182.49
-9755290.46 5135331.00 181.24
-9755285.50 5135322.59 182.51
-9755286.35 5135329.77 181.51
-9755284.59 5135326.21 182.18
-9755287.25 5135329.74 181.49
-9755284.31 5135322.26 182.53
-9755289.29 5135328.28 181.67
-9755286.37 5135322.30 182.52
-9755284.55 5135328.57 181.79
-9755286.38 5135324.63 182.33
-9755283.69 5135332.70 181.19
-9755290.14 5135333.00 181.13
-9755283.98 5135329.46 181.67
-9755286.89 5135330.07 181.46
-9755286.34 5135327.05 181.99
-9755284.57 5135328.19 181.87
-9755284.54 5135330.32 181.51
-9755282.84 5135326.12 182.23
-9755287.83 5135332.12 181.17
-9755282.84 5135322.85 182.50
-9755282.79 5135329.46 181.72
-9755290.12 5135335.08 181.12
-9755285.40 5135335.66 181.10
-9755284.26 5135337.15 181.12
-9755286.90 5135335.08 181.12
-9755282.73 5135337.12 181.12
-9755288.67 5135335.41 181.11
-9755283.95 5135335.37 181.08
-9755287.78 5135335.98 181.13
-9755286.28 5135337.18 181.14
-9755290.22 5135318.78 182.66
-9755289.08 5135318.79 182.67
-9755285.52 5135318.71 182.65
-9755291.99 5135313.15 182.34
-9755291.75 5135317.87 182.66
-9755291.18 5135312.16 182.30
-9755291.13 5135313.03 185.47
-9755291.13 5135311.83 184.50
-9755291.12 5135313.97 184.00
-9755290.94 5135310.67 185.31
-9755291.19 5135313.16 182.36
-9755291.11 5135317.90 182.65
-9755291.22 5135314.04 182.45
-9755291.83 5135311.73 184.63
-9755292.14 5135311.43 186.80
-9755291.13 5135316.67 182.63
-9755291.23 5135311.58 184.08
-9755290.23 5135313.06 185.39
-9755290.56 5135317.24 182.66
-9755289.41 5135313.63 183.87
-9755290.41 5135311.52 183.66
-9755289.42 5135310.64 185.48
-9755290.82 5135315.46 184.25
-9755285.32 5135310.57 186.45
-9755284.46 5135312.01 186.68
-9755289.47 5135312.13 183.84
-9755284.71 5135313.01 185.67
-9755283.46 5135312.35 186.30
-9755287.92 5135315.79 182.62
-9755285.27 5135314.88 182.53
-9755286.11 5135317.27 182.65
-9755290.65 5135312.94 186.18
-9755282.94 5135311.36 186.96
-9755286.84 5135311.44 184.88
-9755289.71 5135313.12 182.37
-9755287.92 5135311.67 182.15
-9755288.83 5135317.23 182.66
-9755287.01 5135317.25 182.68
-9755285.98 5135310.55 186.49
-9755289.41 5135312.58 182.30
-9755284.68 5135317.19 182.66
-9755289.39 5135311.34 184.90
-9755290.29 5135311.66 182.26
-9755287.89 5135314.61 182.52
-9755287.89 5135310.80 182.05
-9755284.44 5135311.74 185.42
-9755284.65 5135316.33 182.62
-9755287.96 5135310.58 186.12
-9755289.38 5135314.08 182.45
-9755282.92 5135311.37 188.09
-9755288.43 5135310.59 184.41
-9755283.79 5135315.77 182.56
-9755282.89 5135317.25 182.62
-9755289.44 5135310.74 182.06
-9755288.83 5135313.13 182.37
-9755290.62 5135312.96 184.61
-9755282.56 5135318.06 182.62
-9755284.08 5135313.04 183.80
-9755286.17 5135314.61 182.51
-9755285.26 5135314.01 182.44
-9755281.98 5135320.49 182.58
-9755282.25 5135319.86 182.59
-9755282.27 5135321.37 182.58
-9755282.22 5135331.51 181.42
-9755281.33 5135331.79 181.41
-9755282.24 5135324.94 182.37
-9755282.25 5135322.57 182.52
-9755281.31 5135332.71 181.27
-9755281.32 5135335.03 181.13
-9755282.19 5135336.83 181.12
-9755281.25 5135336.24 181.12
-9755281.31 5135337.13 181.12
-9755281.92 5135335.36 181.11
-9755277.26 5135320.77 182.54
-9755274.01 5135320.42 182.56
-9755279.60 5135320.79 182.56
-9755273.11 5135320.44 182.58
-9755277.87 5135319.84 182.56
-9755273.15 5135321.61 182.58
-9755276.98 5135321.29 184.67
-9755276.07 5135321.08 182.55
-9755276.67 5135322.11 183.83
-9755278.15 5135324.48 184.05
-9755274.59 5135324.84 182.46
-9755277.78 5135322.05 185.15
-9755273.49 5135324.99 184.87
-9755276.92 5135321.90 182.53
-9755278.11 5135322.84 184.45
-9755278.74 5135323.85 183.60
-9755273.07 5135325.47 184.85
-9755276.32 5135329.65 182.08
-9755277.24 5135324.49 185.24
-9755272.37 5135327.13 185.33
-9755273.78 5135327.09 184.55
-9755278.14 5135327.88 182.18
-9755273.75 5135325.79 182.45
-9755277.16 5135332.34 181.54
-9755276.37 5135323.67 182.44
-9755279.03 5135329.40 181.94
-9755275.38 5135324.71 184.67
-9755276.99 5135322.21 183.94
-9755277.20 5135327.87 182.23
-9755279.61 5135322.26 184.41
-9755280.46 5135327.60 182.12
-9755273.14 5135324.02 182.51
-9755275.73 5135321.96 182.55
-9755277.88 5135323.84 185.34
-9755272.12 5135326.14 182.47
-9755276.32 5135328.15 182.21
-9755276.52 5135324.66 184.83
-9755277.77 5135332.04 181.58
-9755271.88 5135325.48 182.44
-9755277.31 5135323.04 185.30
-9755272.96 5135329.35 185.33
-9755275.42 5135332.35 181.67
-9755275.45 5135330.54 181.97
-9755273.89 5135325.38 185.21
-9755276.91 5135329.68 182.03
-9755272.13 5135326.02 183.06
-9755274.52 5135334.43 181.37
-9755277.21 5135333.55 181.31
-9755277.85 5135324.95 182.42
-9755277.06 5135323.00 183.66
-9755278.11 5135331.47 181.66
-9755275.45 5135332.91 181.58
-9755273.03 5135333.81 181.57
-9755280.10 5135332.99 181.28
-9755273.66 5135329.65 182.15
-9755275.81 5135322.59 182.52
-9755275.76 5135324.60 182.44
-9755273.64 5135325.48 183.39
-9755273.11 5135326.33 182.48
-9755272.18 5135332.91 181.80
-9755279.86 5135326.43 182.26
-9755277.23 5135323.69 183.95
-9755272.17 5135331.09 182.07
-9755277.80 5135328.77 182.12
-9755277.76 5135334.44 181.23
-9755277.76 5135326.35 182.33
-9755274.59 5135321.94 182.55
-9755273.06 5135332.02 181.88
-9755273.82 5135326.45 184.18
-9755272.78 5135328.88 184.60
-9755273.92 5135332.93 181.68
-9755273.69 5135333.75 181.55
-9755278.69 5135330.53 181.78
-9755274.83 5135333.21 181.56
-9755278.92 5135335.08 181.16
-9755277.99 5135335.93 181.15
-9755273.61 5135337.11 181.19
-9755272.18 5135336.16 181.31
-9755274.84 5135335.29 181.25
-9755277.74 5135335.31 181.19
-9755275.35 5135335.32 181.22
-9755276.27 5135335.31 181.21
-9755277.42 5135337.13 181.16
-9755278.64 5135337.07 181.14
-9755281.14 5135318.72 182.61
-9755279.62 5135318.64 182.59
-9755280.24 5135318.67 182.60
-9755275.77 5135318.96 182.56
-9755276.93 5135318.54 183.62
-9755271.83 5135320.60 188.69
-9755269.64 5135321.38 190.18
-9755269.76 5135319.61 190.99
-9755270.26 5135320.56 192.28
-9755269.70 5135320.65 190.48
-9755270.48 5135319.46 188.13
-9755269.74 5135320.49 185.25
-9755269.73 5135319.93 187.99
-9755262.95 5135320.53 190.59
-9755268.86 5135320.43 182.60
-9755269.10 5135320.38 191.00
-9755269.07 5135320.66 190.48
-9755262.86 5135319.82 182.47
-9755262.98 5135321.38 188.13
-9755263.17 5135319.56 187.27
-9755264.76 5135320.63 182.51
-9755268.11 5135321.17 190.12
-9755264.48 5135320.83 186.93
-9755264.93 5135320.71 188.52
-9755263.33 5135320.26 186.28
-9755265.67 5135320.32 182.54
-9755268.78 5135320.47 187.53
-9755265.71 5135321.48 189.50
-9755265.43 5135320.28 188.21
-9755267.30 5135321.46 190.35
-9755266.41 5135319.65 190.95
-9755267.35 5135320.48 190.58
-9755268.25 5135319.46 188.71
-9755263.11 5135320.64 187.00
-9755268.77 5135320.55 188.79
-9755266.36 5135320.65 182.50
-9755264.60 5135320.53 191.17
-9755262.66 5135320.34 187.58
-9755265.21 5135320.17 186.45
-9755264.93 5135319.80 182.49
-9755268.84 5135321.23 188.75
-9755263.72 5135320.50 186.28
-9755267.43 5135319.60 188.23
-9755264.43 5135320.06 188.60
-9755267.93 5135320.43 189.66
-9755265.81 5135319.80 189.64
-9755268.05 5135320.53 188.92
-9755264.55 5135320.40 188.11
-9755265.89 5135319.45 182.55
-9755268.65 5135320.67 186.87
-9755267.48 5135319.63 182.57
-9755260.74 5135321.28 182.47
-9755267.56 5135320.49 182.64
-9755264.04 5135320.43 182.53
-9755263.15 5135320.96 182.49
-9755264.92 5135321.40 188.58
-9755260.45 5135320.40 182.44
-9755266.45 5135321.46 182.62
-9755263.99 5135319.76 182.52
-9755263.12 5135319.83 187.64
-9755257.82 5135319.42 184.10
-9755259.02 5135319.79 182.42
-9755267.81 5135320.43 188.16
-9755267.36 5135321.34 191.10
-9755268.13 5135321.58 189.54
-9755266.78 5135319.82 182.53
-9755263.85 5135320.60 185.70
-9755262.51 5135319.89 188.01
-9755263.10 5135320.45 185.84
-9755264.08 5135321.43 187.29
-9755262.44 5135320.74 190.92
-9755262.25 5135320.96 187.00
-9755268.81 5135321.12 189.47
-9755268.73 5135319.72 192.52
-9755267.99 5135320.17 186.20
-9755265.57 5135321.42 188.69
-9755259.58 5135321.53 182.47
-9755265.42 5135319.76 186.20
-9755268.04 5135320.01 186.85
-9755256.96 5135319.67 184.10
-9755263.10 5135321.36 186.85
-9755263.68 5135321.32 182.53
-9755265.01 5135320.61 186.57
-9755265.44 5135319.73 182.50
-9755255.94 5135319.89 187.09
-9755264.98 5135321.10 186.41
-9755268.20 5135319.57 182.55
-9755271.79 5135327.51 183.79
-9755270.36 5135324.38 186.52
-9755270.47 5135328.13 182.38
-9755271.66 5135323.64 187.77
-9755269.64 5135323.64 187.13
-9755269.67 5135321.98 190.53
-9755269.63 5135326.18 186.22
-9755270.42 5135323.08 187.95
-9755270.44 5135323.66 188.70
-9755271.47 5135326.25 184.43
-9755270.42 5135331.98 182.04
-9755271.09 5135324.55 182.55
-9755269.85 5135327.18 184.71
-9755270.47 5135325.50 182.51
-9755269.82 5135328.69 182.35
-9755271.31 5135327.76 184.54
-9755270.45 5135327.31 182.41
-9755269.99 5135323.77 188.07
-9755270.39 5135325.41 185.95
-9755271.59 5135331.99 181.97
-9755269.74 5135325.64 188.49
-9755271.27 5135332.91 181.87
-9755271.28 5135327.70 184.01
-9755270.38 5135322.05 191.15
-9755269.81 5135330.51 182.23
-9755270.44 5135323.74 186.54
-9755269.43 5135326.61 184.53
-9755271.32 5135327.28 182.43
-9755269.76 5135325.10 190.33
-9755259.83 5135331.22 184.49
-9755258.97 5135333.53 185.53
-9755262.60 5135323.01 182.52
-9755265.48 5135321.95 189.30
-9755263.08 5135331.13 184.59
-9755256.65 5135332.04 185.70
-9755264.00 5135324.48 190.51
-9755258.30 5135334.44 185.42
-9755269.00 5135323.08 190.56
-9755264.89 5135325.32 188.94
-9755267.05 5135323.75 191.15
-9755263.95 5135325.45 187.24
-9755263.11 5135330.39 184.82
-9755261.30 5135331.96 182.37
-9755259.80 5135329.63 184.81
-9755265.62 5135325.41 187.15
-9755260.62 5135332.24 182.38
-9755263.34 5135321.48 188.75
-9755267.40 5135325.27 192.70
-9755264.16 5135324.60 187.10
-9755262.17 5135324.14 187.80
-9755263.09 5135325.18 182.50
-9755263.36 5135332.17 184.43
-9755260.00 5135334.70 185.26
-9755263.83 5135323.90 190.18
-9755267.26 5135325.62 189.63
-9755265.40 5135321.58 186.24
-9755262.25 5135324.02 185.70
-9755261.36 5135329.49 182.42
-9755265.67 5135326.27 185.74
-9755267.41 5135324.82 190.33
-9755263.22 5135323.96 189.48
-9755269.06 5135323.71 191.22
-9755261.59 5135328.80 185.41
-9755268.23 5135322.90 192.03
-9755265.62 5135322.23 192.84
-9755262.24 5135325.31 186.21
-9755261.67 5135322.55 186.54
-9755256.67 5135334.50 185.45
-9755263.93 5135323.79 185.40
-9755258.93 5135334.72 183.72
-9755264.20 5135324.84 188.35
-9755257.48 5135331.23 184.62
-9755264.25 5135325.74 182.55
-9755265.89 5135321.25 190.58
-9755264.84 5135321.49 182.57
-9755265.30 5135323.03 188.05
-9755256.60 5135331.42 185.71
-9755263.11 5135324.10 187.29
-9755256.64 5135329.51 185.33
-9755261.45 5135329.77 184.81
-9755264.62 5135322.24 187.76
-9755263.09 5135323.81 185.43
-9755257.46 5135334.69 185.44
-9755266.39 5135323.92 190.30
-9755260.97 5135331.77 183.88
-9755264.81 5135323.00 189.36
-9755267.30 5135325.42 186.24
-9755267.27 5135323.03 190.21
-9755265.84 5135325.07 182.56
-9755263.75 5135322.38 188.99
-9755263.07 5135328.82 184.56
-9755264.93 5135325.49 182.55
-9755266.10 5135321.92 182.52
-9755263.91 5135321.80 182.54
-9755260.65 5135331.46 185.49
-9755264.63 5135322.25 188.89
-9755266.50 5135322.23 190.95
-9755264.91 5135325.52 186.42
-9755260.12 5135323.06 182.49
-9755264.93 5135322.94 191.52
-9755256.37 5135331.29 182.48
-9755260.13 5135328.03 182.46
-9755262.11 5135322.84 184.78
-9755262.30 5135330.36 184.55
-9755264.00 5135322.05 188.14
-9755265.59 5135322.14 182.57
-9755263.97 5135322.86 192.16
-9755256.60 5135333.66 182.46
-9755264.67 5135322.87 182.57
-9755266.33 5135322.81 182.63
-9755258.07 5135325.66 182.49
-9755264.85 5135322.19 182.58
-9755255.75 5135332.10 184.39
-9755258.65 5135327.19 182.44
-9755269.02 5135325.66 184.73
-9755262.56 5135329.32 182.33
-9755263.23 5135324.59 187.10
-9755266.33 5135325.26 186.28
-9755263.32 5135333.69 182.24
-9755260.05 5135333.78 185.03
-9755265.55 5135323.92 190.72
-9755268.02 5135326.53 182.51
-9755263.67 5135323.00 190.48
-9755266.49 5135322.70 187.37
-9755264.95 5135324.52 188.78
-9755258.99 5135323.60 182.49
-9755256.40 5135330.69 182.49
-9755266.60 5135323.93 182.54
-9755260.62 5135332.02 184.84
-9755255.94 5135332.17 183.80
-9755259.81 5135332.86 182.37
-9755262.87 5135322.95 185.26
-9755262.31 5135322.83 185.94
-9755267.45 5135324.49 188.12
-9755263.68 5135331.12 185.18
-9755261.70 5135328.72 184.64
-9755266.39 5135323.63 182.59
-9755256.32 5135334.49 184.61
-9755268.03 5135322.42 191.36
-9755267.21 5135325.88 185.27
-9755267.17 5135321.89 189.45
-9755265.02 5135323.58 188.85
-9755268.63 5135325.39 182.45
-9755266.41 5135326.05 192.13
-9755264.78 5135331.34 182.33
-9755257.49 5135323.64 182.47
-9755264.31 5135321.47 189.70
-9755265.82 5135325.50 182.52
-9755263.27 5135325.50 189.66
-9755255.71 5135329.40 184.77
-9755267.12 5135324.71 188.35
-9755259.84 5135327.13 182.47
-9755258.23 5135334.33 182.44
-9755265.58 5135322.74 187.31
-9755256.58 5135329.38 184.90
-9755260.75 5135327.76 182.46
-9755268.12 5135330.46 182.30
-9755263.93 5135327.17 182.50
-9755256.54 5135328.93 184.86
-9755266.13 5135322.81 188.90
-9755256.51 5135332.86 182.45
-9755267.78 5135323.04 188.87
-9755263.05 5135332.69 184.15
-9755264.88 5135333.14 182.21
-9755263.16 5135323.02 188.98
-9755265.72 5135332.21 182.26
-9755262.41 5135331.91 182.38
-9755258.27 5135332.05 185.14
-9755263.43 5135322.09 183.93
-9755264.12 5135323.07 188.12
-9755267.21 5135321.85 182.62
-9755260.45 5135330.21 182.43
-9755266.21 5135321.39 186.99
-9755263.14 5135326.56 182.49
-9755263.83 5135323.73 187.01
-9755258.98 5135326.30 182.45
-9755265.09 5135324.68 191.60
-9755258.10 5135323.92 182.50
-9755262.01 5135322.40 186.01
-9755263.37 5135323.44 190.38
-9755265.48 5135324.47 187.17
-9755266.75 5135322.32 182.64
-9755265.52 5135324.69 191.48
-9755256.40 5135332.07 184.45
-9755260.45 5135324.49 182.50
-9755264.93 5135325.14 182.53
-9755268.11 5135327.23 182.45
-9755265.45 5135324.81 188.02
-9755260.44 5135329.80 182.42
-9755266.03 5135321.46 188.06
-9755267.12 5135322.41 190.29
-9755260.72 5135327.22 182.45
-9755264.05 5135323.57 182.54
-9755263.07 5135322.99 182.54
-9755266.38 5135324.62 189.02
-9755263.32 5135322.48 182.57
-9755258.69 5135332.80 184.65
-9755257.07 5135334.59 182.46
-9755268.13 5135325.66 182.53
-9755268.46 5135323.38 182.62
-9755266.75 5135324.63 192.74
-9755262.49 5135321.27 182.48
-9755262.16 5135328.06 182.45
-9755264.53 5135330.32 184.50
-9755260.73 5135328.81 185.38
-9755263.98 5135322.68 182.52
-9755268.49 5135322.28 189.10
-9755265.72 5135333.80 182.14
-9755263.11 5135323.66 182.52
-9755262.21 5135326.33 182.47
-9755265.63 5135323.02 182.62
-9755264.95 5135323.81 187.18
-9755263.96 5135325.40 182.53
-9755260.58 5135334.66 185.00
-9755264.64 5135324.83 182.54
-9755265.52 5135326.08 191.91
-9755260.68 5135333.10 182.35
-9755264.21 5135322.69 182.57
-9755264.63 5135324.44 182.56
-9755264.82 5135332.24 182.28
-9755259.21 5135328.06 182.46
-9755263.04 5135328.10 182.47
-9755268.06 5135331.95 182.17
-9755261.65 5135322.52 185.70
-9755263.09 5135321.59 189.47
-9755263.80 5135324.46 185.50
-9755264.55 5135326.25 182.55
-9755260.72 5135325.08 182.48
-9755260.61 5135334.84 183.76
-9755268.90 5135331.04 182.22
-9755257.47 5135332.69 185.03
-9755263.05 5135324.75 182.52
-9755267.60 5135321.99 188.55
-9755264.83 5135329.57 182.40
-9755263.60 5135324.64 186.65
-9755265.48 5135324.45 182.55
-9755255.75 5135330.19 185.53
-9755257.16 5135326.57 182.48
-9755264.37 5135321.26 187.19
-9755263.77 5135322.45 182.55
-9755256.74 5135334.06 185.37
-9755261.62 5135330.17 182.37
-9755265.19 5135325.30 184.98
-9755262.45 5135322.02 185.54
-9755255.70 5135328.56 184.58
-9755262.53 5135330.89 183.97
-9755255.75 5135323.30 182.46
-9755265.70 5135321.55 185.26
-9755255.72 5135330.45 184.75
-9755264.04 5135321.29 186.61
-9755268.49 5135321.95 192.44
-9755268.33 5135322.83 186.04
-9755266.66 5135321.66 186.57
-9755264.74 5135323.57 182.55
-9755259.85 5135329.04 185.28
-9755265.93 5135321.90 187.93
-9755259.32 5135331.32 185.26
-9755266.73 5135324.87 184.99
-9755264.41 5135322.11 187.08
-9755269.77 5135336.15 181.53
-9755271.30 5135335.27 181.50
-9755255.71 5135335.33 185.19
-9755259.25 5135335.20 183.75
-9755256.66 5135336.98 185.32
-9755257.43 5135336.14 186.21
-9755258.99 5135335.32 185.62
-9755259.83 5135337.05 185.65
-9755258.01 5135336.14 184.59
-9755259.01 5135335.45 182.40
-9755256.76 5135335.16 182.45
-9755264.77 5135336.37 181.98
-9755260.96 5135336.04 182.25
-9755258.92 5135337.11 185.49
-9755263.30 5135336.11 182.12
-9755256.26 5135335.28 184.90
-9755257.13 5135335.21 182.44
-9755264.78 5135336.97 181.93
-9755257.30 5135335.95 182.34
-9755255.89 5135336.06 182.49
-9755257.78 5135336.56 186.17
-9755255.83 5135336.82 183.90
-9755263.04 5135335.49 182.16
-9755258.21 5135335.28 184.65
-9755259.21 5135336.13 184.73
-9755266.24 5135337.29 181.76
-9755255.96 5135335.50 182.48
-9755267.14 5135336.46 181.75
-9755256.83 5135336.06 182.44
-9755268.90 5135337.04 181.48
-9755268.62 5135334.98 181.79
-9755260.36 5135335.32 185.08
-9755260.32 5135336.17 185.33
-9755260.45 5135335.36 184.86
-9755267.17 5135337.03 181.69
-9755258.81 5135336.25 182.42
-9755270.54 5135318.69 185.87
-9755269.85 5135318.82 185.39
-9755270.70 5135318.97 185.66
-9755269.72 5135318.97 187.56
-9755269.58 5135318.71 186.17
-9755266.44 5135319.01 182.49
-9755264.91 5135318.79 186.97
-9755268.10 5135318.72 187.76
-9755266.32 5135318.70 186.76
-9755266.91 5135319.81 186.86
-9755267.36 5135318.92 187.09
-9755264.56 5135318.61 185.80
-9755268.07 5135319.44 186.47
-9755263.79 5135319.04 184.39
-9755264.90 5135318.44 186.74
-9755263.20 5135319.08 184.54
-9755258.03 5135318.69 187.09
-9755269.04 5135318.92 187.71
-9755264.92 5135318.75 186.15
-9755266.42 5135318.85 188.93
-9755267.57 5135319.02 187.78
-9755264.80 5135318.79 184.43
-9755257.60 5135319.43 186.76
-9755265.38 5135318.53 184.18
-9755265.58 5135318.72 188.68
-9755259.14 5135319.02 186.02
-9755257.20 5135318.09 186.31
-9755263.11 5135319.17 182.45
-9755266.53 5135318.91 189.86
-9755269.69 5135318.08 186.17
-9755266.36 5135317.78 187.01
-9755258.72 5135318.72 186.68
-9755268.18 5135318.07 187.67
-9755263.39 5135318.72 186.42
-9755268.01 5135317.99 186.90
-9755265.56 5135318.63 186.33
-9755265.55 5135317.97 186.13
-9755267.05 5135319.97 184.90
-9755263.37 5135318.96 187.57
-9755266.59 5135318.06 187.78
-9755267.03 5135318.52 189.36
-9755267.25 5135318.35 187.92
-9755257.32 5135318.02 187.24
-9755266.06 5135318.62 186.29
-9755263.13 5135318.16 184.47
-9755258.41 5135318.49 186.21
-9755259.64 5135319.00 184.20
-9755282.89 5135315.77 182.56
-9755282.52 5135310.63 186.09
-9755282.04 5135314.73 184.73
-9755281.09 5135313.96 182.39
-9755282.28 5135314.56 182.45
-9755281.72 5135314.33 186.16
-9755282.00 5135310.51 186.86
-9755282.06 5135311.40 186.89
-9755281.12 5135315.73 182.53
-9755281.40 5135314.85 182.46
-9755281.93 5135311.31 184.56
-9755280.47 5135311.61 183.91
-9755276.22 5135313.89 185.49
-9755280.42 5135313.18 184.55
-9755276.20 5135313.20 185.46
-9755274.67 5135315.49 187.09
-9755275.49 5135315.59 187.03
-9755276.41 5135312.37 183.67
-9755274.66 5135317.41 184.57
-9755272.85 5135317.16 182.50
-9755280.59 5135313.18 186.04
-9755273.76 5135316.24 184.97
-9755272.90 5135313.22 186.43
-9755273.82 5135315.57 185.98
-9755280.31 5135312.37 185.48
-9755272.23 5135312.22 187.16
-9755279.79 5135313.16 185.49
-9755273.86 5135311.55 188.87
-9755278.81 5135314.67 185.45
-9755276.18 5135317.08 184.57
-9755273.15 5135311.55 188.62
-9755277.17 5135312.09 183.94
-9755274.45 5135311.41 188.55
-9755275.57 5135314.59 186.96
-9755276.53 5135313.27 182.23
-9755276.09 5135314.03 187.33
-9755276.23 5135310.83 186.19
-9755275.57 5135318.00 184.55
-9755276.89 5135317.90 186.13
-9755276.52 5135317.35 186.06
-9755273.76 5135313.09 188.78
-9755277.75 5135312.37 184.73
-9755277.89 5135317.99 185.37
-9755274.65 5135317.48 182.55
-9755272.90 5135316.29 182.47
-9755274.54 5135316.23 182.47
-9755274.42 5135310.71 189.59
-9755279.51 5135312.95 184.79
-9755273.76 5135311.55 188.23
-9755272.97 5135310.53 189.78
-9755280.31 5135311.60 182.14
-9755272.92 5135312.59 187.10
-9755277.65 5135315.02 186.28
-9755280.22 5135314.11 185.04
-9755276.90 5135312.94 183.83
-9755275.68 5135314.40 185.69
-9755276.23 5135314.04 186.61
-9755278.80 5135314.92 185.98
-9755276.15 5135313.78 184.82
-9755278.78 5135315.60 186.60
-9755278.10 5135316.37 186.97
-9755277.04 5135317.99 184.79
-9755279.44 5135310.55 186.61
-9755278.75 5135316.51 185.86
-9755276.18 5135316.95 186.73
-9755276.55 5135316.34 186.19
-9755277.08 5135313.63 184.81
-9755279.77 5135310.74 182.01
-9755272.01 5135315.84 184.23
-9755280.51 5135312.43 182.25
-9755274.26 5135314.21 184.98
-9755278.79 5135317.61 185.93
-9755272.85 5135318.09 182.52
-9755274.62 5135317.19 187.01
-9755273.14 5135315.42 182.39
-9755279.32 5135317.19 184.84
-9755279.69 5135312.44 183.94
-9755273.03 5135317.26 184.98
-9755280.94 5135312.20 184.91
-9755278.79 5135312.50 182.21
-9755273.00 5135315.74 183.82
-9755275.57 5135317.44 182.55
-9755279.44 5135315.66 184.38
-9755275.46 5135314.54 186.38
-9755272.43 5135310.72 190.81
-9755277.69 5135310.46 186.69
-9755280.23 5135317.49 182.58
-9755279.73 5135312.18 182.18
-9755277.99 5135317.42 185.38
-9755276.30 5135313.98 182.34
-9755279.65 5135311.59 182.12
-9755271.99 5135316.55 182.47
-9755277.70 5135311.60 183.97
-9755275.24 5135315.67 182.48
-9755275.22 5135316.65 182.55
-9755279.29 5135314.64 184.09
-9755277.08 5135314.70 187.62
-9755278.48 5135312.52 183.52
-9755272.33 5135311.29 188.89
-9755273.75 5135315.40 182.42
-9755278.57 5135313.39 183.18
-9755280.57 5135313.75 182.38
-9755272.30 5135314.13 182.33
-9755273.54 5135317.05 183.83
-9755272.01 5135315.70 182.42
-9755276.78 5135317.32 184.89
-9755273.23 5135317.68 185.09
-9755276.14 5135312.65 184.75
-9755274.12 5135310.83 185.64
-9755277.90 5135311.59 183.32
-9755278.81 5135311.96 184.39
-9755280.30 5135310.70 182.04
-9755272.05 5135313.26 182.23
-9755275.86 5135316.38 187.50
-9755273.80 5135316.28 182.47
-9755273.90 5135314.09 187.55
-9755271.41 5135317.18 182.50
-9755271.83 5135313.74 184.79
-9755271.46 5135311.61 190.41
-9755269.62 5135314.07 184.80
-9755269.93 5135314.91 184.64
-9755271.52 5135313.91 187.79
-9755270.36 5135316.45 183.96
-9755270.36 5135312.46 182.20
-9755270.62 5135314.04 184.47
-9755270.57 5135315.73 182.41
-9755271.40 5135315.68 182.41
-9755270.53 5135315.86 184.45
-9755269.58 5135312.48 188.75
-9755270.58 5135311.52 187.92
-9755271.16 5135316.13 183.74
-9755269.75 5135312.37 189.75
-9755271.43 5135310.61 190.32
-9755269.62 5135316.61 182.42
-9755269.75 5135314.89 186.10
-9755271.39 5135315.49 186.21
-9755269.66 5135312.28 185.92
-9755270.49 5135311.59 188.66
-9755270.61 5135310.68 188.88
-9755271.47 5135313.06 187.89
-9755271.62 5135314.52 187.85
-9755271.41 5135314.00 186.58
-9755269.69 5135310.72 188.66
-9755269.61 5135314.73 182.34
-9755270.49 5135313.96 182.27
-9755271.36 5135312.41 189.10
-9755270.21 5135313.79 185.87
-9755269.83 5135318.36 185.67
-9755270.63 5135311.34 187.49
-9755269.62 5135315.65 184.15
-9755271.40 5135314.91 184.55
-9755270.53 5135311.34 182.09
-9755270.10 5135310.50 190.15
-9755268.60 5135318.41 189.70
-9755258.61 5135318.12 187.47
-9755267.13 5135318.01 191.32
-9755264.66 5135318.34 185.46
-9755264.95 5135314.71 188.77
-9755265.52 5135317.16 187.32
-9755261.45 5135313.11 185.98
-9755259.69 5135313.74 185.45
-9755259.65 5135312.23 186.26
-9755262.26 5135313.22 185.20
-9755265.01 5135314.96 189.48
-9755262.86 5135314.57 186.35
-9755265.59 5135314.64 187.84
-9755260.77 5135315.62 184.57
-9755259.60 5135312.93 182.15
-9755257.89 5135314.11 187.73
-9755267.27 5135314.82 187.81
-9755267.90 5135314.06 186.25
-9755259.09 5135311.34 186.10
-9755257.34 5135311.57 185.54
-9755262.31 5135311.95 185.80
-9755263.84 5135313.20 186.23
-9755256.43 5135315.55 188.90
-9755265.49 5135313.97 187.77
-9755262.06 5135311.56 187.10
-9755263.97 5135314.83 185.75
-9755259.99 5135311.94 186.83
-9755265.85 5135311.33 184.84
-9755263.95 5135316.23 186.86
-9755260.77 5135313.07 186.42
-9755259.12 5135311.50 187.98
-9755262.21 5135317.93 184.54
-9755263.26 5135312.45 185.22
-9755260.72 5135312.37 185.31
-9755262.18 5135313.10 184.68
-9755256.41 5135316.99 189.30
-9755263.65 5135318.09 182.45
-9755259.06 5135311.31 185.36
-9755261.64 5135312.38 184.70
-9755262.33 5135314.63 184.60
-9755264.86 5135313.38 186.26
-9755259.95 5135313.09 186.28
-9755262.34 5135314.81 186.41
-9755265.49 5135314.85 189.35
-9755261.42 5135312.55 187.90
-9755264.10 5135314.78 187.45
-9755269.00 5135313.15 186.11
-9755264.96 5135310.72 186.01
-9755256.37 5135313.33 184.76
-9755264.62 5135315.63 188.68
-9755256.33 5135313.07 182.17
-9755264.71 5135312.35 186.91
-9755264.58 5135317.27 188.42
-9755263.22 5135315.44 187.36
-9755262.03 5135314.76 182.29
-9755266.19 5135312.10 187.78
-9755256.32 5135310.78 184.64
-9755257.49 5135314.78 189.12
-9755266.12 5135317.53 186.39
-9755268.13 5135312.48 186.26
-9755261.42 5135313.19 185.54
-9755267.30 5135312.23 185.44
-9755262.96 5135315.51 186.16
-9755264.71 5135317.69 187.94
-9755267.90 5135318.11 186.28
-9755258.23 5135316.53 187.92
-9755257.26 5135315.06 187.29
-9755268.93 5135318.13 187.20
-9755267.05 5135311.61 187.03
-9755262.30 5135316.41 184.42
-9755256.36 5135316.55 186.97
-9755263.17 5135313.91 186.08
-9755257.26 5135313.22 186.66
-9755263.94 5135315.37 186.65
-9755266.48 5135316.44 188.68
-9755267.36 5135311.63 186.52
-9755267.35 5135314.02 187.05
-9755260.01 5135311.54 187.66
-9755268.80 5135313.37 182.20
-9755257.56 5135317.26 188.75
-9755267.33 5135310.50 189.48
-9755264.13 5135313.83 185.20
-9755265.84 5135312.83 185.18
-9755256.40 5135312.24 184.47
-9755267.99 5135310.62 188.68
-9755262.21 5135315.56 184.41
-9755268.81 5135314.06 186.27
-9755262.84 5135316.34 186.11
-9755267.32 5135311.40 185.39
-9755263.31 5135310.68 187.95
-9755265.61 5135314.12 186.85
-9755268.98 5135317.98 186.40
-9755262.19 5135315.66 184.00
-9755267.31 5135312.47 187.17
-9755265.70 5135313.07 186.64
-9755257.60 5135312.99 187.71
-9755262.35 5135314.56 183.82
-9755260.77 5135314.17 182.24
-9755258.12 5135318.06 187.57
-9755265.03 5135312.25 186.40
-9755267.40 5135310.75 185.27
-9755267.99 5135311.56 186.84
-9755255.68 5135317.97 187.94
-9755268.20 5135317.49 186.96
-9755259.03 5135310.87 183.92
-9755268.66 5135318.09 187.54
-9755258.95 5135310.97 186.03
-9755263.12 5135313.86 182.21
-9755267.33 5135310.53 187.97
-9755268.73 5135312.10 187.10
-9755259.93 5135313.98 186.47
-9755263.18 5135314.67 185.57
-9755260.55 5135315.80 185.96
-9755257.80 5135311.12 184.09
-9755262.99 5135317.83 185.29
-9755261.72 5135314.79 182.28
