-9755367.94 5135688.24 181.08
-9755362.35 5135689.06 181.05
-9755359.41 5135685.19 181.16
-9755368.18 5135693.57 181.11
-9755370.85 5135685.82 181.14
-9755364.94 5135688.80 181.06
-9755371.21 5135688.23 181.09
-9755363.47 5135686.73 181.13
-9755363.20 5135687.64 181.10
-9755361.43 5135690.00 181.01
-9755367.90 5135692.43 180.95
-9755364.67 5135686.69 181.13
-9755361.43 5135693.22 181.05
-9755351.70 5135692.57 180.99
-9755350.33 5135687.53 181.16
-9755357.87 5135685.77 181.18
-9755356.68 5135686.37 181.16
-9755353.40 5135692.89 180.98
-9755354.95 5135688.14 181.14
-9755354.01 5135694.06 185.01
-9755356.94 5135687.29 181.13
-9755358.24 5135687.25 181.14
-9755357.61 5135692.30 180.96
-9755353.40 5135689.69 181.09
-9755356.69 5135692.88 180.98
-9755359.93 5135693.52 181.11
-9755351.71 5135689.31 181.09
-9755353.45 5135694.04 181.12
-9755359.65 5135689.02 181.07
-9755354.14 5135686.36 181.16
-9755355.75 5135692.93 180.98
-9755356.70 5135693.48 181.09
-9755354.95 5135692.31 180.98
-9755351.65 5135693.19 181.01
-9755358.23 5135689.94 181.08
-9755359.66 5135691.71 180.98
-9755356.69 5135692.00 181.00
-9755359.69 5135689.94 181.05
-9755355.57 5135687.56 181.14
-9755352.60 5135691.40 181.04
-9755350.27 5135687.22 181.16
-9755358.16 5135694.11 181.12
-9755355.26 5135689.12 181.09
-9755354.37 5135693.17 181.04
-9755353.55 5135689.03 181.11
-9755356.40 5135689.37 181.09
-9755352.88 5135688.41 181.14
-9755354.30 5135689.31 181.10
-9755351.93 5135692.30 181.00
-9755358.19 5135688.45 181.11
-9755356.99 5135689.95 181.07
-9755351.69 5135690.18 181.06
-9755353.48 5135688.12 181.12
-9755353.22 5135693.74 181.12
-9755353.77 5135691.71 181.01
-9755353.53 5135688.46 181.12
-9755353.72 5135692.61 180.97
-9755354.38 5135687.53 181.16
-9755350.84 5135688.99 181.09
-9755351.98 5135689.91 181.07
-9755353.48 5135686.61 181.15
-9755356.74 5135689.35 181.09
-9755352.23 5135687.52 181.16
-9755355.74 5135692.01 181.00
-9755348.14 5135685.41 181.19
-9755349.10 5135685.48 181.19
-9755349.98 5135683.99 181.19
-9755349.95 5135681.31 181.13
-9755347.91 5135681.93 181.15
-9755348.22 5135680.98 181.12
-9755349.12 5135684.25 181.19
-9755349.32 5135682.23 181.16
-9755348.74 5135684.17 181.18
-9755349.94 5135683.64 181.19
-9755348.50 5135683.67 181.18
-9755347.63 5135682.10 181.15
-9755346.45 5135684.82 181.18
-9755346.16 5135681.55 181.14
-9755349.08 5135689.26 181.10
-9755347.88 5135686.02 181.19
-9755349.03 5135692.28 181.01
-9755349.34 5135688.99 181.13
-9755349.32 5135693.45 181.08
-9755347.89 5135688.35 181.15
-9755348.18 5135689.87 181.10
-9755347.28 5135694.01 181.12
-9755347.00 5135689.60 181.10
-9755346.94 5135691.10 181.05
-9755349.69 5135687.46 181.17
-9755349.95 5135690.49 181.06
-9755350.24 5135692.27 180.98
-9755349.31 5135691.36 181.04
-9755347.27 5135693.43 181.01
-9755350.25 5135686.08 181.18
-9755349.09 5135690.44 181.07
-9755346.99 5135693.10 181.00
-9755349.65 5135688.37 181.15
-9755348.80 5135688.45 181.13
-9755348.42 5135693.72 181.09
-9755349.02 5135687.77 181.17
-9755345.20 5135688.69 181.13
-9755347.05 5135685.99 181.18
-9755346.95 5135689.25 181.11
-9755346.08 5135686.00 181.17
-9755345.19 5135688.32 181.16
-9755346.39 5135688.35 181.16
-9755345.49 5135686.56 181.17
-9755346.38 5135692.28 181.01
-9755345.76 5135689.22 181.11
-9755397.66 5135785.85 181.14
-9755394.46 5135785.50 181.16
-9755393.62 5135784.62 181.18
-9755395.04 5135785.50 181.18
-9755391.80 5135785.50 181.15
-9755396.48 5135784.67 181.15
-9755388.22 5135786.33 181.15
-9755389.76 5135786.32 181.18
-9755387.41 5135783.96 181.16
-9755386.44 5135785.48 181.16
-9755391.27 5135784.00 181.17
-9755390.33 5135784.86 181.16
-9755396.87 5135785.79 181.15
-9755386.18 5135785.44 181.16
-9755392.14 5135784.32 181.17
-9755396.47 5135785.46 181.15
-9755389.75 5135785.40 181.16
-9755388.86 5135784.87 181.16
-9755389.12 5135784.00 181.16
-9755388.84 5135783.72 181.16
-9755392.46 5135784.02 181.18
-9755385.59 5135785.14 181.17
-9755385.64 5135785.44 181.17
-9755383.88 5135784.82 181.16
-9755384.72 5135785.47 181.17
-9755383.85 5135786.31 181.16
-9755385.61 5135784.51 181.17
-9755382.08 5135784.55 181.17
-9755380.60 5135784.58 181.16
-9755384.11 5135784.85 181.16
-9755380.92 5135783.97 181.18
-9755383.26 5135786.29 181.16
-9755379.74 5135785.42 181.18
-9755381.15 5135786.29 181.16
-9755384.49 5135784.84 181.17
-9755381.51 5135784.20 181.17
-9755379.73 5135783.94 181.18
-9755373.86 5135784.50 181.20
-9755377.97 5135784.81 181.21
-9755378.21 5135786.29 181.18
-9755375.85 5135785.73 181.19
-9755374.69 5135785.37 181.19
-9755378.21 5135785.12 181.19
-9755375.28 5135786.30 181.19
-9755374.71 5135784.21 181.20
-9755375.60 5135784.83 181.20
-9755373.82 5135786.21 181.18
-9755376.18 5135784.77 181.19
-9755372.65 5135784.73 181.21
-9755371.45 5135785.35 181.22
-9755372.05 5135784.75 181.20
-9755365.61 5135785.51 183.58
-9755367.92 5135783.93 184.77
-9755367.29 5135784.81 184.53
-9755362.93 5135785.59 181.18
-9755368.17 5135784.05 184.64
-9755366.72 5135786.10 183.93
-9755367.93 5135783.93 184.26
-9755366.93 5135783.73 184.49
-9755365.01 5135785.32 184.90
-9755368.48 5135786.20 181.21
-9755365.23 5135786.27 181.19
-9755363.29 5135785.42 184.54
-9755367.61 5135783.82 185.02
-9755365.86 5135786.33 184.70
-9755366.70 5135783.89 184.71
-9755365.32 5135786.30 184.58
-9755367.04 5135785.41 184.32
-9755364.79 5135784.82 184.97
-9755364.32 5135784.51 185.04
-9755361.12 5135785.58 181.19
-9755363.22 5135785.31 184.69
-9755366.79 5135784.60 184.72
-9755364.49 5135784.20 185.94
-9755365.63 5135786.28 184.70
-9755366.20 5135785.15 184.69
-9755364.07 5135785.35 184.94
-9755367.02 5135786.24 181.20
-9755365.92 5135785.75 184.66
-9755366.44 5135783.86 185.75
-9755367.44 5135783.89 185.00
-9755367.05 5135784.86 184.62
-9755363.57 5135784.60 184.50
-9755366.41 5135784.16 181.20
-9755366.65 5135783.80 185.89
-9755364.08 5135785.21 184.94
-9755366.43 5135784.85 184.72
-9755367.06 5135784.54 184.40
-9755364.40 5135783.59 185.61
-9755365.09 5135783.57 186.46
-9755367.09 5135783.65 185.18
-9755363.77 5135785.40 184.53
-9755365.92 5135784.83 185.85
-9755363.82 5135785.18 185.05
-9755364.66 5135784.73 181.20
-9755365.63 5135783.93 186.25
-9755366.57 5135785.30 184.02
-9755366.91 5135783.89 185.66
-9755367.89 5135785.62 181.21
-9755368.55 5135783.88 181.20
-9755367.97 5135783.67 185.24
-9755367.38 5135785.52 183.94
-9755363.83 5135785.38 184.47
-9755367.36 5135783.67 185.19
-9755366.39 5135783.89 184.79
-9755366.08 5135784.92 184.47
-9755364.71 5135784.22 185.86
-9755367.06 5135785.55 183.90
-9755369.15 5135783.73 183.49
-9755364.07 5135783.98 184.66
-9755366.55 5135783.59 185.94
-9755368.51 5135785.64 181.22
-9755366.50 5135783.94 186.10
-9755365.91 5135784.87 185.09
-9755364.23 5135783.90 185.67
-9755363.24 5135784.83 184.65
-9755367.42 5135783.61 184.50
-9755365.87 5135784.96 184.62
-9755361.71 5135783.84 181.25
-9755366.15 5135784.75 185.83
-9755363.86 5135785.11 184.77
-9755365.14 5135785.69 184.98
-9755366.73 5135783.89 181.23
-9755363.83 5135786.24 181.19
-9755365.04 5135784.75 185.99
-9755365.22 5135783.91 184.75
-9755365.32 5135783.81 185.86
-9755366.68 5135783.82 183.84
-9755364.32 5135783.58 185.75
-9755365.91 5135785.40 185.04
-9755363.53 5135784.10 184.41
-9755365.63 5135783.96 185.30
-9755366.28 5135783.75 184.79
-9755366.11 5135785.44 184.97
-9755364.19 5135784.93 184.30
-9755368.28 5135783.97 184.98
-9755366.77 5135785.52 184.00
-9755367.31 5135786.00 184.13
-9755366.16 5135784.68 181.20
-9755367.08 5135783.99 185.57
-9755367.09 5135783.75 184.39
-9755366.63 5135784.35 184.79
-9755368.26 5135783.97 184.58
-9755365.00 5135784.70 181.20
-9755363.32 5135783.74 183.15
-9755365.84 5135784.47 185.26
-9755367.37 5135784.00 184.72
-9755363.74 5135785.17 184.67
-9755364.60 5135784.62 184.78
-9755364.96 5135785.39 184.84
-9755360.26 5135784.68 181.20
-9755365.64 5135785.06 181.19
-9755367.33 5135784.56 184.37
-9755365.94 5135784.42 185.42
-9755367.92 5135785.72 184.13
-9755367.10 5135784.32 184.37
-9755365.02 5135784.64 184.97
-9755366.82 5135784.05 184.77
-9755368.48 5135783.66 184.58
-9755369.67 5135786.17 181.19
-9755362.03 5135785.63 181.18
-9755368.18 5135785.34 181.22
-9755363.23 5135784.03 184.86
-9755366.45 5135786.09 184.41
-9755367.98 5135783.70 185.17
-9755365.85 5135785.55 183.58
-9755365.63 5135783.62 186.26
-9755367.91 5135786.20 181.20
-9755364.13 5135783.64 185.85
-9755369.73 5135785.02 181.21
-9755367.10 5135784.63 184.09
-9755368.00 5135784.24 184.84
-9755364.11 5135784.81 184.90
-9755369.10 5135786.23 181.21
-9755363.83 5135784.19 184.80
-9755368.85 5135783.78 183.72
-9755365.83 5135785.50 184.68
-9755366.12 5135784.47 184.86
-9755352.56 5135784.05 181.25
-9755353.19 5135785.00 181.20
-9755356.48 5135785.59 181.19
-9755357.31 5135784.68 181.21
-9755354.93 5135784.68 181.20
-9755350.81 5135783.46 181.25
-9755350.81 5135784.37 181.22
-9755356.19 5135785.56 181.19
-9755353.14 5135785.57 181.19
-9755354.96 5135784.98 181.19
-9755348.46 5135785.81 181.17
-9755346.71 5135785.55 181.18
-9755349.69 5135784.63 181.20
-9755347.56 5135784.62 181.20
-9755347.90 5135785.53 181.17
-9755347.87 5135784.66 181.20
-9755349.36 5135785.81 181.17
-9755348.45 5135785.23 181.17
-9755347.63 5135785.18 181.18
-9755345.54 5135784.61 181.21
-9755345.52 5135785.53 181.17
-9755397.68 5135783.69 181.16
-9755397.69 5135781.59 181.17
-9755397.74 5135781.39 181.17
-9755394.48 5135784.02 181.18
-9755397.72 5135782.52 181.17
-9755391.23 5135781.93 181.18
-9755388.92 5135783.07 181.17
-9755392.13 5135780.15 181.18
-9755390.69 5135783.09 181.17
-9755393.62 5135782.80 181.17
-9755395.10 5135783.11 181.17
-9755393.28 5135781.57 181.18
-9755386.56 5135779.80 181.25
-9755387.77 5135780.73 181.18
-9755392.12 5135781.67 181.17
-9755392.16 5135781.00 181.18
-9755391.55 5135783.15 181.16
-9755386.00 5135783.10 181.17
-9755393.00 5135780.47 181.18
-9755390.35 5135783.15 181.16
-9755389.20 5135779.56 181.20
-9755394.47 5135781.96 181.16
-9755395.08 5135781.97 181.17
-9755388.27 5135780.63 181.18
-9755390.13 5135781.59 181.16
-9755393.63 5135780.19 181.18
-9755395.94 5135783.08 181.16
-9755396.87 5135781.08 181.18
-9755387.99 5135780.43 181.18
-9755389.80 5135779.56 181.21
-9755394.49 5135782.53 181.16
-9755396.60 5135780.46 181.17
-9755391.52 5135780.74 181.18
-9755392.71 5135779.50 181.19
-9755389.77 5135780.70 181.15
-9755385.98 5135779.77 181.84
-9755386.25 5135780.75 181.19
-9755382.58 5135780.65 181.66
-9755382.70 5135780.91 181.55
-9755381.48 5135782.48 181.18
-9755382.44 5135780.96 181.69
-9755385.87 5135780.44 181.85
-9755384.45 5135780.12 181.24
-9755383.87 5135781.62 181.19
-9755384.80 5135779.75 182.19
-9755384.78 5135779.17 182.21
-9755383.61 5135780.05 182.22
-9755380.56 5135780.33 181.38
-9755383.62 5135779.73 182.22
-9755382.87 5135779.79 181.78
-9755382.70 5135780.67 182.23
-9755385.42 5135779.44 181.34
-9755382.45 5135781.29 182.66
-9755385.40 5135780.10 182.22
-9755379.20 5135781.21 182.11
-9755385.69 5135779.82 182.07
-9755379.38 5135782.14 181.20
-9755379.14 5135781.54 181.23
-9755384.77 5135780.67 181.22
-9755383.91 5135780.12 181.26
-9755383.65 5135783.64 181.18
-9755380.91 5135781.57 181.21
-9755380.37 5135780.62 181.44
-9755384.47 5135780.27 182.20
-9755385.02 5135780.71 181.21
-9755385.36 5135779.76 182.21
-9755381.84 5135781.18 181.80
-9755381.53 5135781.56 181.21
-9755382.45 5135783.94 181.18
-9755382.93 5135781.29 182.97
-9755397.55 5135760.00 181.46
-9755397.32 5135763.28 181.44
-9755397.60 5135757.68 181.48
-9755397.22 5135764.78 181.44
-9755397.78 5135775.19 184.97
-9755397.79 5135776.54 183.57
-9755397.49 5135775.00 185.28
-9755397.79 5135776.19 183.60
-9755397.74 5135774.22 185.91
-9755397.42 5135776.23 184.19
-9755397.77 5135773.59 184.63
-9755397.52 5135775.59 184.43
-9755397.52 5135776.28 184.13
-9755397.73 5135775.08 184.41
-9755397.46 5135774.78 184.07
-9755397.18 5135773.01 183.76
-9755397.19 5135775.87 184.26
-9755397.45 5135776.72 184.73
-9755397.74 5135774.38 184.04
-9755397.52 5135777.09 184.53
-9755397.71 5135774.61 184.99
-9755397.73 5135775.95 184.40
-9755397.66 5135776.53 184.10
-9755397.50 5135773.30 183.60
-9755397.11 5135772.86 185.49
-9755397.25 5135773.48 184.53
-9755397.70 5135774.33 186.25
-9755397.71 5135774.14 184.86
-9755397.29 5135773.90 185.74
-9755397.47 5135770.10 181.37
-9755397.21 5135772.57 185.44
-9755397.55 5135772.61 185.44
-9755397.27 5135776.79 184.55
-9755397.72 5135777.32 184.55
-9755397.30 5135774.95 184.04
-9755397.56 5135754.39 181.53
-9755397.29 5135756.76 181.50
-9755392.84 5135760.00 181.49
-9755391.68 5135763.25 181.54
-9755395.24 5135755.26 181.51
-9755390.99 5135764.08 184.80
-9755390.75 5135763.16 184.42
-9755393.78 5135755.26 181.52
-9755393.13 5135760.90 181.53
-9755389.96 5135763.89 185.14
-9755390.46 5135762.74 185.07
-9755389.56 5135763.47 183.66
-9755391.38 5135763.25 183.66
-9755390.50 5135763.29 185.47
-9755392.89 5135756.73 181.51
-9755394.91 5135764.17 181.45
-9755389.93 5135761.90 185.44
-9755390.99 5135764.80 186.31
-9755390.81 5135763.92 185.81
-9755390.20 5135763.45 185.30
-9755389.62 5135763.94 185.62
-9755387.82 5135759.07 181.50
-9755394.61 5135764.21 181.45
-9755391.13 5135761.37 184.34
-9755391.99 5135759.74 181.50
-9755390.21 5135757.61 181.50
-9755390.41 5135763.61 184.78
-9755391.33 5135760.28 181.51
-9755391.50 5135763.25 184.31
-9755394.62 5135759.15 181.48
-9755392.29 5135755.00 181.52
-9755390.97 5135764.34 184.96
-9755389.31 5135762.55 184.04
-9755389.64 5135759.11 181.51
-9755389.59 5135764.73 181.51
-9755391.02 5135762.53 184.13
-9755389.37 5135755.83 181.51
-9755390.85 5135763.72 184.19
-9755390.16 5135763.19 185.07
-9755389.78 5135762.54 183.97
-9755389.31 5135763.99 184.28
-9755396.36 5135764.77 181.44
-9755391.35 5135762.25 184.14
-9755388.70 5135761.46 181.51
-9755391.53 5135762.72 184.18
-9755387.25 5135760.29 181.48
-9755396.10 5135760.02 181.46
-9755390.76 5135764.63 185.06
-9755392.00 5135755.22 181.52
-9755396.72 5135755.01 181.52
-9755390.11 5135763.34 185.07
-9755386.63 5135763.20 181.50
-9755391.08 5135764.10 183.92
-9755386.08 5135756.72 181.52
-9755390.84 5135763.51 183.86
-9755386.94 5135765.30 181.48
-9755390.19 5135760.00 181.51
-9755390.27 5135763.75 185.16
-9755391.41 5135759.70 181.50
-9755391.08 5135763.64 184.81
-9755390.45 5135763.65 185.17
-9755391.05 5135763.91 185.38
-9755389.37 5135755.28 181.52
-9755396.34 5135762.42 181.44
-9755388.19 5135755.82 181.52
-9755390.48 5135758.53 181.50
-9755390.73 5135762.98 184.55
-9755391.09 5135761.56 184.33
-9755387.27 5135755.51 181.52
-9755392.01 5135763.04 184.73
-9755390.79 5135764.13 184.87
-9755391.37 5135762.53 184.90
-9755394.04 5135763.29 181.48
-9755386.69 5135754.92 181.54
-9755389.55 5135763.00 185.92
-9755389.34 5135763.24 184.29
-9755391.33 5135763.83 181.53
-9755392.55 5135764.12 181.49
-9755392.86 5135757.39 181.51
-9755393.78 5135756.44 181.51
-9755390.46 5135763.36 184.81
-9755390.56 5135761.62 184.46
-9755390.09 5135763.12 184.76
-9755392.80 5135764.48 181.48
-9755389.93 5135764.28 185.05
-9755396.68 5135760.03 181.47
-9755392.86 5135760.88 181.53
-9755390.76 5135761.66 184.16
-9755392.56 5135761.79 181.55
-9755393.49 5135756.73 181.50
-9755390.57 5135764.54 185.11
-9755396.12 5135757.98 181.48
-9755392.90 5135755.58 181.52
-9755389.59 5135760.57 181.51
-9755389.64 5135754.02 181.55
-9755394.03 5135760.90 181.48
-9755395.22 5135763.31 181.45
-9755388.22 5135756.73 181.50
-9755390.43 5135763.41 184.21
-9755391.69 5135763.43 184.31
-9755390.15 5135762.28 183.69
-9755390.88 5135763.95 185.47
-9755389.63 5135763.70 185.30
-9755395.26 5135757.33 181.50
-9755392.50 5135762.58 184.85
-9755391.36 5135763.29 181.55
-9755390.19 5135762.64 181.62
-9755391.26 5135763.26 184.62
-9755390.90 5135762.57 184.14
-9755389.87 5135764.01 185.08
-9755389.39 5135763.41 181.42
-9755392.79 5135765.62 181.46
-9755391.95 5135762.97 181.54
-9755396.06 5135765.68 181.44
-9755391.12 5135762.20 184.16
-9755387.00 5135761.45 181.51
-9755391.14 5135763.12 184.68
-9755390.52 5135756.10 181.50
-9755388.44 5135755.85 181.52
-9755390.95 5135764.62 185.59
-9755396.07 5135764.15 181.44
-9755392.56 5135762.71 184.93
-9755395.22 5135759.74 181.48
-9755392.52 5135762.50 184.79
-9755391.96 5135759.38 181.51
-9755392.29 5135762.80 184.99
-9755390.93 5135763.15 184.72
-9755390.18 5135763.08 185.69
-9755390.54 5135754.94 181.52
-9755395.53 5135754.38 181.52
-9755389.54 5135763.68 183.99
-9755390.47 5135762.24 185.15
-9755391.32 5135763.89 184.19
-9755389.25 5135765.63 181.50
-9755390.19 5135765.33 181.50
-9755391.87 5135762.77 184.82
-9755388.11 5135761.75 181.53
-9755391.17 5135763.10 183.98
-9755390.03 5135764.25 184.93
-9755393.70 5135760.30 181.49
-9755389.63 5135762.46 185.29
-9755391.93 5135762.42 184.97
-9755390.67 5135762.51 183.86
-9755391.30 5135761.60 184.30
-9755390.76 5135762.75 184.65
-9755396.65 5135759.14 181.46
-9755391.55 5135762.52 183.93
-9755395.52 5135760.93 181.47
-9755389.98 5135762.12 185.27
-9755389.63 5135762.74 185.34
-9755391.35 5135763.10 184.00
-9755388.15 5135757.63 181.50
-9755390.89 5135763.06 185.40
-9755390.80 5135763.50 184.29
-9755389.97 5135762.49 183.85
-9755391.14 5135762.20 184.94
-9755383.68 5135761.46 181.48
-9755380.47 5135758.74 181.51
-9755384.66 5135755.52 181.54
-9755382.25 5135763.15 182.20
-9755380.50 5135759.67 181.49
-9755381.96 5135762.01 182.21
-9755382.21 5135758.43 181.51
-9755385.22 5135755.18 181.53
-9755381.66 5135760.82 181.48
-9755381.89 5135761.72 181.48
-9755383.07 5135762.05 181.48
-9755382.82 5135762.31 181.48
-9755384.08 5135754.94 181.54
-9755385.19 5135759.96 181.49
-9755379.89 5135759.93 181.49
-9755385.18 5135756.68 181.52
-9755380.17 5135759.94 181.49
-9755380.19 5135758.44 181.51
-9755382.23 5135760.19 181.49
-9755382.29 5135756.70 181.53
-9755383.14 5135756.08 181.53
-9755385.26 5135754.95 181.52
-9755380.17 5135757.51 181.52
-9755385.50 5135759.36 181.50
-9755382.87 5135757.30 181.52
-9755385.78 5135761.72 181.49
-9755383.45 5135759.04 181.49
-9755382.19 5135765.33 181.44
-9755381.09 5135759.95 181.49
-9755382.85 5135764.08 181.44
-9755381.37 5135762.57 182.20
-9755381.74 5135754.18 182.35
-9755381.96 5135756.98 181.52
-9755381.96 5135763.15 182.20
-9755384.06 5135755.26 181.53
-9755381.32 5135765.58 181.44
-9755384.07 5135754.03 181.55
-9755380.83 5135754.13 182.47
-9755381.10 5135756.67 181.52
-9755384.26 5135763.22 181.47
-9755385.78 5135754.94 181.52
-9755382.86 5135753.98 181.55
-9755381.50 5135763.65 182.01
-9755384.90 5135764.69 181.45
-9755381.65 5135762.56 182.19
-9755382.54 5135757.56 181.51
-9755384.86 5135762.63 181.47
-9755381.06 5135764.95 181.44
-9755391.40 5135765.63 181.49
-9755397.24 5135768.30 181.38
-9755396.38 5135773.75 184.74
-9755397.17 5135771.27 181.36
-9755388.01 5135778.03 181.31
-9755387.21 5135766.14 181.46
-9755392.24 5135766.57 181.43
-9755386.90 5135769.17 181.41
-9755387.16 5135772.70 181.39
-9755392.78 5135773.33 181.34
-9755394.00 5135778.02 182.21
-9755394.83 5135776.99 181.08
-9755386.87 5135771.82 181.41
-9755396.34 5135774.10 184.12
-9755387.83 5135766.53 181.44
-9755389.85 5135766.51 181.44
-9755389.82 5135774.19 181.35
-9755388.07 5135770.70 181.41
-9755396.65 5135773.23 184.15
-9755392.13 5135778.08 181.27
-9755389.26 5135775.73 181.33
-9755387.80 5135773.29 181.37
-9755387.77 5135770.62 181.41
-9755388.04 5135778.35 181.31
-9755387.77 5135771.81 181.39
-9755396.96 5135775.84 184.22
-9755389.59 5135766.80 181.43
-9755396.75 5135774.94 184.84
-9755390.50 5135766.51 181.44
-9755388.05 5135775.41 181.33
-9755393.07 5135766.51 181.44
-9755386.58 5135768.24 181.42
-9755388.96 5135768.29 181.41
-9755394.52 5135774.52 181.34
-9755396.02 5135772.16 181.35
-9755388.62 5135768.57 181.41
-9755395.69 5135777.15 182.22
-9755393.69 5135771.24 181.38
-9755395.54 5135773.78 184.14
-9755396.05 5135771.88 181.35
-9755396.92 5135774.63 184.65
-9755396.36 5135773.19 184.24
-9755392.79 5135770.70 181.37
-9755396.65 5135774.04 184.83
-9755396.84 5135774.96 183.99
-9755394.43 5135778.05 181.63
-9755393.96 5135778.66 181.19
-9755396.34 5135771.00 181.37
-9755395.49 5135768.30 181.40
-9755393.67 5135776.83 182.22
-9755396.03 5135771.02 181.37
-9755393.60 5135773.61 181.33
-9755391.32 5135770.62 181.39
-9755393.41 5135767.37 181.42
-9755396.90 5135767.12 181.41
-9755396.95 5135774.40 185.68
-9755396.00 5135767.71 181.41
-9755389.78 5135776.89 181.31
-9755395.73 5135769.80 181.38
-9755396.00 5135770.11 181.38
-9755387.42 5135777.44 181.30
-9755387.44 5135775.41 181.34
-9755389.20 5135778.06 181.31
-9755396.94 5135776.17 183.90
-9755395.67 5135772.48 181.35
-9755394.87 5135773.07 181.34
-9755387.18 5135766.49 181.44
-9755387.16 5135770.03 181.40
-9755391.30 5135768.29 181.43
-9755387.13 5135771.50 181.42
-9755395.14 5135774.53 181.34
-9755396.16 5135777.15 182.20
-9755392.54 5135768.93 181.41
-9755391.34 5135766.82 181.44
-9755391.84 5135775.41 181.33
-9755396.77 5135774.97 184.65
-9755390.74 5135767.40 181.43
-9755393.02 5135777.97 182.21
-9755390.44 5135768.00 181.41
-9755395.14 5135776.26 182.21
-9755395.21 5135767.99 181.41
-9755393.32 5135772.15 181.36
-9755393.72 5135772.75 181.35
-9755395.42 5135770.37 181.38
-9755395.11 5135777.61 182.22
-9755394.53 5135773.94 181.33
-9755395.45 5135767.71 181.41
-9755394.20 5135777.76 181.65
-9755387.80 5135767.67 181.42
-9755387.77 5135769.12 181.41
-9755391.30 5135773.33 181.36
-9755388.37 5135774.79 181.35
-9755396.07 5135768.89 181.39
-9755387.19 5135770.30 181.39
-9755391.91 5135770.93 181.38
-9755390.15 5135767.94 181.43
-9755393.65 5135774.52 181.33
-9755396.01 5135776.89 182.22
-9755395.76 5135766.51 181.43
-9755388.95 5135775.09 181.34
-9755393.69 5135771.82 181.37
-9755392.12 5135776.02 181.31
-9755395.09 5135776.56 182.20
-9755391.26 5135774.48 181.34
-9755390.14 5135770.67 181.40
-9755387.80 5135770.33 181.40
-9755386.60 5135766.51 181.45
-9755386.62 5135767.41 181.41
-9755390.13 5135772.74 181.39
-9755394.27 5135766.54 181.43
-9755391.32 5135770.36 181.39
-9755386.87 5135771.21 181.41
-9755396.29 5135773.58 184.29
-9755390.14 5135774.23 181.35
-9755392.50 5135770.08 181.39
-9755392.20 5135772.39 181.37
-9755392.42 5135776.35 181.30
-9755396.66 5135775.52 184.19
-9755386.30 5135769.73 181.41
-9755392.48 5135769.82 181.40
-9755396.02 5135778.39 181.18
-9755391.27 5135776.89 181.33
-9755389.79 5135772.14 181.39
-9755394.62 5135776.32 182.21
-9755394.56 5135771.53 181.38
-9755390.71 5135778.04 181.29
-9755391.31 5135767.98 181.44
-9755392.83 5135772.76 181.34
-9755390.76 5135769.77 181.40
-9755396.61 5135766.81 181.43
-9755391.89 5135768.56 181.41
-9755390.43 5135773.63 181.36
-9755388.99 5135769.76 181.40
-9755396.91 5135774.08 184.76
-9755393.32 5135771.29 181.38
-9755386.05 5135768.79 181.41
-9755382.11 5135778.61 181.32
-9755386.24 5135776.84 181.33
-9755385.44 5135766.47 181.44
-9755383.03 5135778.59 181.32
-9755380.98 5135776.53 181.34
-9755382.78 5135767.05 181.44
-9755381.31 5135772.94 181.40
-9755381.29 5135768.54 181.44
-9755381.62 5135765.86 181.43
-9755385.96 5135777.16 181.32
-9755383.06 5135767.94 181.44
-9755381.25 5135778.31 181.33
-9755383.69 5135767.06 181.44
-9755382.46 5135775.92 181.36
-9755385.39 5135771.49 181.40
-9755381.29 5135774.14 181.39
-9755379.78 5135770.90 181.41
-9755384.86 5135768.27 181.43
-9755382.13 5135774.79 181.37
-9755381.02 5135766.42 181.44
-9755384.51 5135774.50 181.37
-9755379.53 5135767.63 181.44
-9755382.16 5135774.50 181.38
-9755380.92 5135777.42 181.32
-9755381.33 5135772.66 181.40
-9755384.49 5135775.97 181.35
-9755382.19 5135766.46 181.44
-9755383.13 5135767.32 181.45
-9755384.27 5135770.58 181.41
-9755383.34 5135775.07 181.38
-9755380.68 5135771.17 181.41
-9755384.24 5135773.87 181.39
-9755383.93 5135769.68 181.42
-9755386.02 5135775.09 181.35
-9755380.98 5135770.92 181.42
-9755380.09 5135774.72 181.38
-9755382.75 5135775.08 181.37
-9755380.09 5135778.88 181.32
-9755384.82 5135773.56 181.38
-9755384.51 5135778.03 181.32
-9755384.49 5135778.64 181.33
-9755385.38 5135776.21 181.35
-9755379.51 5135773.52 181.39
-9755384.83 5135770.90 181.42
-9755383.90 5135777.73 181.34
-9755384.80 5135768.83 181.42
-9755384.49 5135778.32 181.32
-9755382.42 5135768.79 181.44
-9755379.48 5135776.54 181.35
-9755380.09 5135770.91 181.41
-9755384.21 5135770.00 181.41
-9755383.93 5135772.70 181.41
-9755384.84 5135771.83 181.39
-9755380.34 5135776.84 181.34
-9755373.90 5135778.56 181.32
-9755376.23 5135780.65 181.30
-9755376.13 5135781.79 181.66
-9755376.17 5135782.05 182.41
-9755376.21 5135783.32 181.21
-9755376.28 5135782.26 181.69
-9755376.50 5135781.20 182.10
-9755376.20 5135782.02 182.98
-9755376.21 5135782.18 181.20
-9755377.67 5135781.20 182.11
-9755376.25 5135781.59 181.28
-9755375.73 5135781.70 181.73
-9755377.11 5135781.19 182.10
-9755375.39 5135780.23 184.24
-9755374.81 5135779.96 186.06
-9755375.24 5135779.86 184.82
-9755374.97 5135779.89 185.86
-9755375.24 5135779.98 184.28
-9755376.18 5135781.59 181.60
-9755376.18 5135780.99 181.29
-9755373.50 5135782.12 181.27
-9755373.83 5135779.88 186.86
-9755378.63 5135780.93 182.11
-9755374.42 5135782.44 181.23
-9755378.86 5135780.88 182.12
-9755372.70 5135781.49 181.31
-9755376.45 5135782.43 181.21
-9755377.04 5135780.86 182.09
-9755373.79 5135783.29 181.21
-9755372.69 5135783.02 181.21
-9755377.06 5135781.50 182.11
-9755374.99 5135780.13 184.82
-9755376.18 5135782.36 182.99
-9755377.11 5135782.11 181.23
-9755372.64 5135783.25 181.21
-9755373.87 5135781.53 181.29
-9755378.62 5135781.18 182.11
-9755371.50 5135783.59 181.23
-9755372.68 5135782.10 181.29
-9755372.68 5135780.62 181.31
-9755371.52 5135780.33 181.32
-9755372.09 5135781.52 181.31
-9755368.27 5135778.79 181.34
-9755367.37 5135778.52 181.34
-9755364.15 5135778.68 184.64
-9755364.77 5135778.52 183.79
-9755367.95 5135778.82 181.34
-9755365.03 5135778.25 181.35
-9755352.37 5135778.14 181.31
-9755354.97 5135778.42 181.32
-9755366.51 5135779.76 184.96
-9755370.33 5135782.97 181.24
-9755364.90 5135782.73 186.38
-9755367.21 5135779.79 184.54
-9755368.39 5135783.72 183.80
-9755366.51 5135782.50 185.14
-9755367.69 5135782.30 183.93
-9755364.19 5135778.96 184.73
-9755367.96 5135782.75 184.89
-9755366.53 5135780.84 183.86
-9755364.96 5135779.18 183.78
-9755367.12 5135783.44 183.55
-9755365.99 5135782.15 186.54
-9755368.88 5135782.44 184.42
-9755367.89 5135781.38 183.96
-9755364.44 5135780.59 186.45
-9755364.71 5135778.93 184.86
-9755363.79 5135779.53 184.96
-9755366.41 5135782.41 186.88
-9755366.84 5135782.39 185.15
-9755369.11 5135782.21 183.66
-9755365.84 5135782.93 186.99
-9755365.30 5135782.13 186.98
-9755367.29 5135783.35 185.75
-9755367.13 5135779.81 184.83
-9755364.68 5135782.75 184.12
-9755369.14 5135781.64 183.63
-9755367.12 5135783.02 186.39
-9755367.54 5135783.70 183.55
-9755365.89 5135783.11 183.89
-9755368.92 5135783.22 184.37
-9755366.89 5135781.62 183.93
-9755369.17 5135782.57 183.66
-9755366.58 5135780.06 184.47
-9755364.33 5135778.95 183.61
-9755365.91 5135779.78 185.77
-9755364.95 5135780.63 186.41
-9755367.09 5135779.54 184.64
-9755367.30 5135781.16 184.94
-9755366.73 5135783.13 183.58
-9755367.13 5135782.07 183.96
-9755366.78 5135781.28 184.86
-9755365.64 5135781.18 186.57
-9755367.18 5135781.05 184.36
-9755367.94 5135781.90 184.86
-9755365.94 5135782.99 186.42
-9755365.02 5135781.76 187.17
-9755364.44 5135779.07 184.11
-9755367.10 5135779.60 184.00
-9755367.36 5135783.08 185.18
-9755363.79 5135779.51 184.77
-9755366.50 5135782.20 185.03
-9755368.26 5135782.83 184.44
-9755367.45 5135781.63 183.95
-9755365.44 5135781.81 186.79
-9755364.09 5135782.60 186.59
-9755366.85 5135783.04 183.91
-9755365.91 5135780.69 185.65
-9755369.17 5135781.41 183.62
-9755368.89 5135782.73 184.53
-9755366.62 5135781.53 185.56
-9755367.13 5135782.67 186.45
-9755365.21 5135783.33 185.95
-9755365.04 5135782.57 187.46
-9755367.08 5135783.19 186.05
-9755367.17 5135781.78 184.97
-9755367.05 5135782.79 185.42
-9755367.93 5135782.21 183.64
-9755367.16 5135780.89 184.01
-9755365.98 5135782.42 186.42
-9755365.00 5135782.69 187.04
-9755364.21 5135779.84 185.33
-9755366.89 5135780.40 185.16
-9755366.40 5135783.33 185.99
-9755364.85 5135780.06 185.52
-9755365.02 5135780.36 186.17
-9755365.10 5135780.06 185.63
-9755365.41 5135782.58 185.10
-9755364.70 5135782.80 185.63
-9755366.78 5135783.65 184.67
-9755365.34 5135781.48 186.94
-9755365.58 5135780.42 185.67
-9755368.73 5135783.06 184.27
-9755368.99 5135781.60 183.81
-9755368.83 5135781.33 183.81
-9755364.35 5135782.74 186.01
-9755368.86 5135783.41 184.43
-9755367.98 5135781.62 184.23
-9755363.52 5135782.50 184.08
-9755363.39 5135780.70 184.27
-9755368.60 5135782.18 184.84
-9755366.72 5135782.26 184.80
-9755367.40 5135782.56 183.72
-9755365.52 5135781.28 186.71
-9755368.02 5135779.91 184.42
-9755368.71 5135781.99 183.95
-9755364.70 5135780.30 186.13
-9755367.55 5135783.73 184.61
-9755366.23 5135779.58 184.38
-9755366.35 5135781.24 185.78
-9755366.48 5135781.48 186.68
-9755367.11 5135781.08 183.97
-9755365.34 5135779.89 185.04
-9755363.80 5135781.86 184.85
-9755366.58 5135781.75 186.05
-9755364.11 5135783.07 185.54
-9755367.09 5135781.63 184.93
-9755365.69 5135782.55 184.91
-9755365.78 5135779.86 184.58
-9755364.41 5135780.66 184.23
-9755369.12 5135781.48 181.31
-9755366.54 5135781.61 186.14
-9755366.58 5135780.92 185.04
-9755364.17 5135780.62 186.47
-9755366.83 5135781.82 185.93
-9755359.73 5135779.68 181.33
-9755366.71 5135781.32 185.58
-9755369.23 5135782.58 183.15
-9755367.52 5135782.24 183.93
-9755369.17 5135783.42 183.81
-9755366.59 5135782.11 186.61
-9755365.38 5135780.45 184.43
-9755367.90 5135780.80 184.03
-9755367.12 5135780.63 184.90
-9755367.63 5135781.55 184.93
-9755367.36 5135780.68 184.78
-9755368.92 5135781.88 184.37
-9755365.06 5135781.17 187.04
-9755366.85 5135783.08 184.94
-9755364.62 5135782.75 186.32
-9755365.01 5135779.35 183.90
-9755365.53 5135781.15 186.88
-9755368.85 5135781.61 183.94
-9755366.29 5135781.59 185.73
-9755368.90 5135782.23 183.68
-9755367.58 5135781.31 184.26
-9755365.28 5135782.32 185.87
-9755368.52 5135783.11 184.40
-9755368.29 5135781.37 184.00
-9755368.67 5135781.46 184.42
-9755368.44 5135781.71 183.82
-9755368.38 5135782.66 183.53
-9755368.84 5135783.44 183.72
-9755363.57 5135781.54 184.91
-9755366.40 5135779.26 184.40
-9755366.26 5135782.00 187.34
-9755367.49 5135782.20 185.05
-9755365.70 5135781.00 185.64
-9755368.86 5135782.03 183.79
-9755365.04 5135781.23 187.08
-9755368.21 5135782.36 181.32
-9755366.47 5135782.88 186.47
-9755366.57 5135780.39 184.84
-9755368.84 5135782.43 184.74
-9755363.31 5135781.90 184.90
-9755369.14 5135779.12 181.33
-9755361.48 5135781.45 181.32
-9755367.56 5135782.73 184.40
-9755363.91 5135779.75 184.76
-9755367.16 5135782.07 185.11
-9755366.79 5135779.13 181.34
-9755365.88 5135782.76 186.41
-9755368.63 5135781.31 183.95
-9755368.06 5135782.04 184.43
-9755366.28 5135780.61 185.89
-9755369.76 5135781.80 181.32
-9755367.12 5135782.92 183.81
-9755367.64 5135782.49 184.90
-9755367.74 5135781.85 184.92
-9755368.34 5135781.16 184.00
-9755367.02 5135782.21 183.78
-9755369.49 5135781.45 183.61
-9755366.60 5135783.38 185.05
-9755366.90 5135781.84 185.05
-9755368.83 5135781.15 183.66
-9755364.63 5135780.12 186.50
-9755366.80 5135781.50 181.32
-9755365.05 5135779.60 184.86
-9755369.74 5135782.92 181.26
-9755366.10 5135782.39 184.06
-9755367.36 5135780.37 184.91
-9755367.36 5135782.79 185.36
-9755364.75 5135781.23 184.51
-9755369.11 5135781.93 183.69
-9755365.90 5135780.00 185.77
-9755368.27 5135782.51 184.55
-9755366.53 5135781.36 185.78
-9755363.88 5135783.70 185.37
-9755359.71 5135779.09 181.34
-9755364.20 5135781.02 185.73
-9755366.96 5135779.54 184.74
-9755363.29 5135780.08 184.00
-9755367.98 5135783.36 185.36
-9755369.46 5135783.49 183.46
-9755363.62 5135779.98 184.93
-9755364.15 5135783.42 185.81
-9755367.41 5135780.47 184.81
-9755368.61 5135781.64 184.37
-9755360.88 5135782.00 181.31
-9755367.42 5135779.79 184.49
-9755366.64 5135781.24 185.72
-9755365.59 5135780.47 185.90
-9755365.63 5135782.61 187.32
-9755364.43 5135782.96 186.69
-9755367.73 5135780.55 181.32
-9755366.97 5135782.01 183.52
-9755364.22 5135779.48 183.84
-9755364.46 5135779.47 184.96
-9755367.73 5135781.80 184.13
-9755368.54 5135783.34 184.74
-9755367.32 5135782.19 185.10
-9755366.24 5135781.53 186.79
-9755365.65 5135780.68 186.62
-9755364.51 5135781.15 186.44
-9755365.88 5135782.63 187.40
-9755365.43 5135781.96 183.40
-9755364.73 5135779.28 184.86
-9755367.43 5135780.13 184.42
-9755366.19 5135780.28 184.35
-9755365.22 5135779.14 183.64
-9755368.27 5135783.05 184.86
-9755369.43 5135782.87 183.83
-9755366.49 5135782.61 184.96
-9755367.74 5135782.23 184.54
-9755368.23 5135780.18 184.01
-9755365.33 5135782.49 186.51
-9755366.00 5135782.90 185.07
-9755366.39 5135781.03 186.43
-9755368.00 5135782.13 184.47
-9755363.68 5135779.40 184.96
-9755366.48 5135779.92 183.87
-9755368.96 5135782.32 184.56
-9755364.12 5135783.33 185.64
-9755365.70 5135782.26 186.04
-9755365.85 5135781.53 181.37
-9755369.14 5135782.77 183.70
-9755365.75 5135783.37 184.74
-9755367.69 5135782.82 183.55
-9755368.85 5135782.87 183.81
-9755365.91 5135781.22 186.48
-9755368.27 5135781.63 184.16
-9755366.05 5135782.30 183.23
-9755364.56 5135778.91 183.87
-9755366.51 5135783.30 186.51
-9755366.91 5135783.05 185.22
-9755367.31 5135779.63 183.50
-9755364.19 5135782.92 185.67
-9755365.55 5135783.00 186.86
-9755366.50 5135782.42 185.61
-9755366.48 5135779.85 185.64
-9755365.58 5135779.79 185.58
-9755366.04 5135782.80 185.67
-9755367.38 5135783.31 185.18
-9755367.37 5135782.61 184.42
-9755366.48 5135782.74 186.49
-9755367.98 5135782.18 184.88
-9755366.24 5135780.70 185.00
-9755367.86 5135782.29 183.55
-9755363.80 5135778.92 184.73
-9755366.36 5135781.26 186.70
-9755365.32 5135781.99 185.89
-9755363.79 5135781.64 184.90
-9755366.25 5135781.47 187.16
-9755367.13 5135780.35 184.97
-9755366.82 5135779.98 184.07
-9755365.63 5135779.50 183.96
-9755367.35 5135782.95 186.01
-9755369.21 5135782.58 181.16
-9755365.27 5135780.37 186.10
-9755366.59 5135781.12 184.58
-9755366.21 5135782.66 185.63
-9755365.89 5135781.00 186.49
-9755366.50 5135779.09 184.13
-9755369.13 5135781.77 181.31
-9755365.07 5135782.35 187.05
-9755365.77 5135781.74 185.07
-9755365.36 5135780.66 184.33
-9755365.57 5135782.75 186.41
-9755355.00 5135783.47 181.28
-9755353.22 5135783.82 181.26
-9755358.23 5135780.54 181.32
-9755354.99 5135781.40 181.31
-9755357.95 5135781.43 181.30
-9755356.44 5135783.75 181.28
-9755354.37 5135781.07 181.30
-9755355.89 5135779.93 181.31
-9755357.36 5135779.96 181.32
-9755353.22 5135779.89 181.30
-9755356.44 5135779.63 181.32
-9755358.51 5135781.44 181.31
-9755355.61 5135781.42 181.32
-9755354.11 5135779.66 181.31
-9755350.58 5135782.27 181.25
-9755357.33 5135781.99 181.30
-9755349.98 5135779.92 181.27
-9755355.60 5135782.92 181.29
-9755353.02 5135783.03 183.05
-9755356.47 5135778.80 181.33
-9755351.71 5135782.29 181.26
-9755354.12 5135782.56 181.28
-9755355.25 5135780.52 181.31
-9755357.35 5135779.62 181.32
-9755358.84 5135781.13 181.32
-9755350.90 5135782.02 181.26
-9755354.66 5135782.00 181.29
-9755353.53 5135782.76 182.53
-9755351.43 5135782.25 181.27
-9755353.31 5135783.29 183.03
-9755353.04 5135782.87 182.58
-9755359.12 5135780.25 181.31
-9755358.82 5135782.31 181.30
-9755353.41 5135782.87 182.32
-9755351.75 5135780.79 181.29
-9755350.82 5135782.88 181.27
-9755354.97 5135779.91 181.31
-9755379.61 5135756.95 181.52
-9755374.04 5135764.08 186.54
-9755373.96 5135764.39 186.39
-9755374.03 5135764.18 186.46
-9755374.86 5135764.19 184.90
-9755378.70 5135761.41 181.49
-9755373.95 5135764.67 186.02
-9755375.22 5135757.51 181.55
-9755374.52 5135763.52 185.04
-9755374.04 5135763.40 186.27
-9755374.33 5135764.81 185.19
-9755374.61 5135762.51 183.66
-9755374.60 5135763.27 185.00
-9755374.82 5135762.53 184.21
-9755374.94 5135763.24 184.87
-9755379.03 5135755.19 181.54
-9755374.88 5135764.14 186.34
-9755374.78 5135764.57 184.55
-9755376.35 5135757.55 181.54
-9755377.85 5135755.17 181.56
-9755374.34 5135764.75 184.11
-9755373.97 5135763.84 184.63
-9755375.09 5135764.23 184.85
-9755373.79 5135762.43 183.51
-9755375.56 5135763.63 184.67
-9755374.32 5135764.06 186.85
-9755374.70 5135763.24 185.71
-9755374.55 5135764.44 184.95
-9755374.66 5135762.48 184.29
-9755373.70 5135763.58 186.87
-9755374.49 5135764.04 186.93
-9755375.18 5135763.78 185.10
-9755374.90 5135763.61 184.89
-9755373.98 5135763.86 186.13
-9755373.77 5135765.31 185.82
-9755375.14 5135764.02 181.57
-9755373.61 5135763.43 187.22
-9755373.91 5135763.62 185.92
-9755375.16 5135763.19 181.58
-9755374.31 5135762.92 185.75
-9755374.00 5135764.69 185.92
-9755374.93 5135763.57 185.61
-9755374.59 5135763.53 185.69
-9755376.35 5135759.00 181.52
-9755376.38 5135754.30 181.57
-9755374.59 5135762.74 184.26
-9755373.28 5135763.70 183.55
-9755374.61 5135762.54 181.58
-9755374.60 5135765.04 185.79
-9755374.03 5135763.39 187.25
-9755373.71 5135764.22 186.23
-9755378.75 5135755.14 181.55
-9755373.70 5135762.99 184.51
-9755374.49 5135762.71 186.22
-9755374.82 5135764.35 183.99
-9755374.63 5135763.75 186.16
-9755373.40 5135764.27 186.68
-9755373.35 5135762.47 185.13
-9755373.99 5135763.99 185.81
-9755374.28 5135765.08 184.04
-9755373.78 5135764.36 186.51
-9755374.10 5135762.59 186.31
-9755378.37 5135764.09 181.48
-9755374.53 5135765.13 184.04
-9755375.11 5135764.18 185.68
-9755373.19 5135763.20 185.61
-9755374.26 5135761.75 183.55
-9755374.76 5135763.68 185.07
-9755374.35 5135763.48 186.79
-9755374.32 5135761.78 184.33
-9755373.69 5135763.80 187.06
-9755375.96 5135763.97 184.69
-9755373.93 5135765.00 185.46
-9755373.76 5135755.16 181.56
-9755377.19 5135761.68 181.52
-9755374.86 5135764.46 185.71
-9755374.24 5135764.13 186.53
-9755376.95 5135761.67 181.54
-9755373.43 5135764.62 184.16
-9755373.11 5135761.94 181.60
-9755376.34 5135764.61 181.52
-9755373.61 5135763.00 184.82
-9755374.00 5135762.80 183.51
-9755375.81 5135764.83 184.78
-9755373.97 5135759.88 181.53
-9755375.51 5135764.54 184.87
-9755373.91 5135763.70 184.31
-9755374.79 5135764.38 185.85
-9755373.99 5135765.09 184.09
-9755374.82 5135761.64 184.28
-9755375.45 5135763.85 184.67
-9755374.55 5135763.65 185.07
-9755373.06 5135758.64 181.54
-9755374.92 5135764.14 185.70
-9755373.05 5135765.10 184.52
-9755375.19 5135763.65 185.12
-9755374.82 5135765.20 181.53
-9755375.49 5135756.04 181.55
-9755373.41 5135762.50 184.20
-9755373.37 5135762.95 184.97
-9755376.29 5135764.06 181.54
-9755373.12 5135764.37 187.09
-9755375.44 5135763.18 181.58
-9755373.06 5135762.75 185.14
-9755374.69 5135763.06 185.71
-9755374.69 5135763.42 184.29
-9755374.29 5135763.15 181.66
-9755373.71 5135764.26 187.32
-9755374.20 5135763.91 184.45
-9755373.54 5135764.64 186.59
-9755373.97 5135763.03 185.75
-9755373.21 5135764.61 186.91
-9755379.53 5135765.29 181.45
-9755378.38 5135764.93 181.46
-9755375.45 5135763.00 184.68
-9755376.93 5135758.41 181.53
-9755374.80 5135762.67 184.55
-9755373.07 5135765.51 181.51
-9755376.96 5135756.05 181.55
-9755376.35 5135761.08 181.54
-9755377.54 5135759.04 181.53
-9755374.28 5135762.65 183.60
-9755374.06 5135763.84 184.18
-9755373.20 5135764.73 185.24
-9755373.98 5135756.63 181.54
-9755376.97 5135760.20 181.51
-9755377.81 5135760.78 181.50
-9755374.28 5135762.76 184.27
-9755376.94 5135760.81 181.51
-9755374.05 5135763.75 186.81
-9755378.74 5135756.67 181.54
-9755374.55 5135764.99 181.51
-9755374.96 5135763.84 185.61
-9755373.65 5135765.58 185.23
-9755376.34 5135760.79 181.52
-9755373.96 5135762.83 185.05
-9755375.42 5135761.06 181.54
-9755374.61 5135756.92 181.54
-9755375.38 5135764.38 181.54
-9755374.91 5135757.54 181.55
-9755375.72 5135761.71 181.58
-9755374.49 5135763.47 187.07
-9755374.19 5135763.41 184.66
-9755374.31 5135763.56 185.19
-9755374.58 5135764.73 184.55
-9755374.39 5135762.44 184.29
-9755376.39 5135762.01 181.55
-9755378.43 5135756.68 181.54
-9755372.83 5135754.87 181.56
-9755374.96 5135764.61 186.66
-9755376.33 5135762.55 181.56
-9755376.34 5135759.94 181.53
-9755373.70 5135765.45 185.17
-9755374.40 5135763.45 186.29
-9755374.26 5135764.66 184.90
-9755374.27 5135763.80 186.78
-9755376.88 5135763.20 181.55
-9755374.62 5135764.46 185.71
-9755375.45 5135758.45 181.54
-9755374.09 5135762.14 184.53
-9755373.09 5135760.78 181.55
-9755372.86 5135764.31 184.24
-9755372.83 5135763.85 185.68
-9755371.95 5135764.16 184.90
-9755372.82 5135760.78 181.53
-9755371.70 5135754.84 182.83
-9755372.73 5135763.50 185.18
-9755372.62 5135763.69 185.82
-9755371.63 5135759.90 181.53
-9755371.89 5135755.15 181.56
-9755371.63 5135757.50 181.55
-9755373.07 5135756.36 181.55
-9755371.36 5135760.78 181.53
-9755371.97 5135754.98 182.83
-9755372.90 5135763.18 185.91
-9755371.60 5135764.88 181.54
-9755371.32 5135759.85 181.53
-9755372.19 5135763.83 185.12
-9755371.70 5135754.17 182.49
-9755372.23 5135756.94 181.54
-9755372.34 5135764.61 184.92
-9755372.53 5135764.69 184.83
-9755372.22 5135758.09 181.54
-9755370.74 5135762.81 181.57
-9755372.50 5135759.88 181.52
-9755372.07 5135754.39 182.41
-9755372.25 5135754.54 181.56
-9755372.01 5135754.21 181.56
-9755373.09 5135753.95 181.55
-9755370.80 5135753.90 182.49
-9755372.20 5135761.66 181.60
-9755371.01 5135764.04 181.56
-9755372.54 5135763.21 185.28
-9755372.24 5135754.91 182.83
-9755378.66 5135765.23 181.46
-9755374.74 5135778.52 181.33
-9755376.53 5135776.51 181.34
-9755378.31 5135774.70 181.37
-9755376.60 5135771.47 181.40
-9755378.36 5135768.82 181.44
-9755373.88 5135776.50 181.35
-9755376.24 5135775.60 181.36
-9755378.92 5135772.07 181.40
-9755371.60 5135765.49 181.53
-9755373.07 5135766.42 181.48
-9755373.05 5135769.06 181.46
-9755379.51 5135767.93 181.44
-9755372.76 5135766.66 181.50
-9755374.82 5135770.86 181.43
-9755378.01 5135775.89 181.34
-9755377.15 5135771.19 181.40
-9755373.05 5135767.56 181.46
-9755379.53 5135768.78 181.43
-9755377.41 5135773.24 181.39
-9755373.87 5135776.82 181.34
-9755377.78 5135773.85 181.39
-9755374.50 5135771.43 181.42
-9755373.76 5135765.69 185.32
-9755376.30 5135769.70 181.42
-9755376.58 5135766.74 181.46
-9755378.57 5135778.29 181.31
-9755376.21 5135777.09 181.33
-9755373.87 5135774.42 181.41
-9755378.03 5135769.38 181.42
-9755374.21 5135772.89 181.41
-9755375.36 5135770.58 181.42
-9755378.01 5135772.69 181.40
-9755376.50 5135775.58 181.37
-9755373.29 5135777.37 181.35
-9755373.95 5135769.36 181.44
-9755373.35 5135767.24 181.48
-9755375.02 5135778.00 181.34
-9755373.90 5135771.13 181.42
-9755377.12 5135775.01 181.37
-9755374.81 5135768.45 181.45
-9755375.04 5135775.61 181.38
-9755373.32 5135770.88 181.43
-9755373.13 5135767.01 181.86
-9755372.98 5135776.75 181.36
-9755375.40 5135771.16 181.41
-9755375.42 5135767.89 181.45
-9755373.01 5135776.47 181.37
-9755375.07 5135770.56 181.43
-9755373.31 5135777.98 181.33
-9755375.14 5135766.71 181.47
-9755375.34 5135776.79 181.34
-9755374.78 5135772.05 181.41
-9755373.09 5135768.77 181.45
-9755376.32 5135766.10 181.48
-9755374.78 5135774.96 181.38
-9755376.91 5135767.62 181.44
-9755375.97 5135769.96 181.43
-9755373.43 5135765.66 185.29
-9755373.96 5135765.65 185.31
-9755373.09 5135766.77 182.19
-9755377.13 5135773.53 181.39
-9755375.74 5135766.16 181.49
-9755372.13 5135778.28 181.34
-9755372.69 5135773.25 181.40
-9755372.48 5135768.18 181.46
-9755371.00 5135765.18 181.53
-9755372.46 5135773.20 181.40
-9755372.15 5135771.44 181.42
-9755372.77 5135770.88 181.44
-9755372.40 5135775.02 181.39
-9755370.90 5135777.33 181.36
-9755371.51 5135775.63 181.38
-9755371.27 5135768.45 181.46
-9755370.70 5135771.12 181.44
-9755372.18 5135767.61 181.47
-9755371.57 5135775.53 181.39
-9755371.83 5135771.42 181.42
-9755370.97 5135766.73 181.48
-9755372.17 5135768.74 181.46
-9755371.49 5135778.26 181.34
-9755371.21 5135772.32 181.43
-9755370.94 5135770.82 181.44
-9755373.07 5135767.00 182.10
-9755372.13 5135774.73 181.40
-9755370.72 5135758.37 181.53
-9755370.48 5135758.40 181.54
-9755368.12 5135755.67 181.56
-9755360.74 5135760.08 181.51
-9755364.88 5135755.05 182.47
-9755366.57 5135755.57 182.39
-9755365.99 5135759.26 181.52
-9755366.65 5135756.90 181.52
-9755360.37 5135760.69 181.50
-9755366.87 5135761.63 181.50
-9755362.81 5135755.07 181.56
-9755366.60 5135764.60 181.49
-9755369.54 5135764.02 181.49
-9755363.10 5135755.67 181.55
-9755367.21 5135761.64 181.50
-9755363.10 5135757.40 181.55
-9755366.01 5135761.61 181.49
-9755365.67 5135755.10 181.51
-9755367.51 5135756.62 181.54
-9755366.02 5135765.14 181.47
-9755368.10 5135758.35 181.53
-9755369.86 5135763.72 181.51
-9755361.29 5135760.14 181.51
-9755368.65 5135759.25 181.54
-9755366.96 5135755.14 182.45
-9755366.60 5135765.50 181.47
-9755367.19 5135764.90 181.49
-9755364.97 5135754.08 182.29
-9755368.99 5135758.44 181.53
-9755367.16 5135765.16 181.49
-9755370.17 5135760.75 181.51
-9755362.17 5135764.89 181.46
-9755360.76 5135764.82 181.45
-9755364.28 5135756.83 181.54
-9755364.89 5135754.44 182.08
-9755364.30 5135755.62 182.45
-9755366.61 5135761.92 181.50
-9755364.24 5135760.72 181.51
-9755366.66 5135758.03 181.53
-9755368.10 5135757.22 181.53
-9755365.77 5135755.10 182.46
-9755363.94 5135760.12 181.51
-9755368.39 5135762.54 181.50
-9755365.46 5135755.64 182.47
-9755360.39 5135763.37 181.48
-9755359.84 5135755.33 182.05
-9755369.60 5135755.72 181.55
-9755366.60 5135755.08 182.46
-9755365.72 5135754.51 181.98
-9755363.38 5135759.26 181.52
-9755367.52 5135755.10 181.57
-9755369.59 5135760.17 181.54
-9755366.68 5135754.75 181.58
-9755364.87 5135758.69 181.53
-9755362.48 5135763.72 181.47
-9755360.25 5135754.86 182.14
-9755362.25 5135754.42 182.30
-9755360.13 5135754.47 182.30
-9755362.20 5135760.41 181.51
-9755362.47 5135754.62 182.28
-9755369.85 5135759.28 181.55
-9755362.78 5135755.06 182.02
-9755365.18 5135754.13 182.29
-9755360.81 5135755.43 182.51
-9755364.90 5135755.98 182.47
-9755368.36 5135754.85 181.58
-9755364.84 5135762.50 181.49
-9755367.78 5135763.08 181.50
-9755369.28 5135758.39 181.54
-9755368.96 5135762.22 181.51
-9755365.74 5135757.18 181.54
-9755365.75 5135753.87 182.28
-9755366.62 5135760.77 181.51
-9755360.76 5135757.13 181.55
-9755360.13 5135753.88 182.09
-9755370.17 5135755.15 181.56
-9755365.41 5135755.96 182.44
-9755369.30 5135756.00 181.56
-9755366.02 5135755.00 181.48
-9755360.71 5135754.47 182.05
-9755365.84 5135755.72 182.79
-9755366.05 5135755.03 183.47
-9755366.92 5135758.35 181.53
-9755360.96 5135754.42 182.04
-9755368.41 5135754.51 181.58
-9755365.97 5135764.00 181.49
-9755360.43 5135757.40 181.55
-9755361.36 5135753.83 182.05
-9755360.62 5135755.04 182.04
-9755368.36 5135765.19 181.48
-9755366.05 5135759.86 181.51
-9755363.03 5135754.43 182.28
-9755361.02 5135755.71 181.57
-9755365.13 5135754.15 182.05
-9755359.51 5135763.08 181.47
-9755369.90 5135754.54 181.58
-9755362.18 5135763.98 181.47
-9755363.38 5135753.92 182.27
-9755370.15 5135757.54 181.54
-9755359.79 5135755.56 182.03
-9755359.53 5135756.86 181.55
-9755359.91 5135754.15 182.30
-9755357.51 5135755.06 182.03
-9755350.93 5135764.75 181.48
-9755358.34 5135758.37 181.53
-9755358.66 5135754.17 182.07
-9755355.10 5135762.48 181.48
-9755354.81 5135763.94 181.46
-9755350.95 5135761.82 181.50
-9755350.11 5135759.13 181.55
-9755352.46 5135755.01 182.31
-9755358.93 5135753.86 182.16
-9755353.93 5135760.06 181.50
-9755356.37 5135755.96 181.54
-9755354.52 5135761.89 181.48
-9755354.80 5135762.49 181.47
-9755351.52 5135760.34 181.53
-9755359.51 5135758.36 181.52
-9755358.12 5135758.76 182.41
-9755358.08 5135758.41 181.52
-9755356.91 5135759.17 181.50
-9755356.60 5135759.10 182.42
-9755351.72 5135757.98 182.35
-9755358.10 5135757.95 182.42
-9755358.93 5135759.82 181.50
-9755354.25 5135759.78 181.51
-9755351.55 5135764.83 181.48
-9755356.61 5135760.35 181.50
-9755352.84 5135755.87 182.28
-9755359.27 5135754.79 181.56
-9755354.50 5135758.57 182.41
-9755351.62 5135756.75 182.68
-9755354.79 5135760.35 181.51
-9755352.15 5135758.26 182.62
-9755352.53 5135756.17 182.01
-9755354.85 5135757.96 182.40
-9755352.82 5135755.32 182.29
-9755353.04 5135758.32 181.54
-9755356.62 5135759.21 181.50
-9755357.15 5135757.96 182.43
-9755352.78 5135755.54 182.28
-9755353.90 5135763.34 181.47
-9755353.38 5135759.43 182.42
-9755355.41 5135758.27 182.41
-9755357.78 5135755.02 182.01
-9755353.95 5135755.87 181.55
-9755358.08 5135754.74 181.55
-9755354.59 5135755.58 182.02
-9755352.83 5135755.01 182.29
