-9755127.02 5135699.71 186.81
-9755118.69 5135699.21 181.22
-9755127.08 5135700.33 187.50
-9755123.47 5135700.68 181.26
-9755129.20 5135701.01 188.95
-9755126.21 5135698.20 186.57
-9755129.27 5135699.51 186.87
-9755118.42 5135700.09 181.21
-9755120.78 5135700.58 188.99
-9755127.68 5135698.14 186.69
-9755128.96 5135699.89 186.97
-9755120.53 5135698.31 181.23
-9755130.06 5135699.50 188.90
-9755123.74 5135699.82 188.82
-9755120.82 5135701.21 188.93
-9755129.69 5135700.76 181.33
-9755126.23 5135699.47 189.26
-9755127.43 5135700.35 187.65
-9755126.21 5135698.32 187.55
-9755123.62 5135700.83 189.24
-9755126.53 5135699.10 189.77
-9755130.03 5135699.23 188.60
-9755122.31 5135700.67 185.90
-9755129.13 5135699.09 189.42
-9755128.57 5135700.40 189.09
-9755123.15 5135700.72 181.30
-9755128.20 5135700.46 186.87
-9755122.36 5135701.35 186.12
-9755127.67 5135699.66 189.74
-9755127.15 5135699.16 187.55
-9755129.64 5135699.27 189.86
-9755124.65 5135699.00 181.20
-9755126.44 5135698.28 188.89
-9755127.15 5135699.83 189.13
-9755129.59 5135699.64 188.03
-9755124.28 5135700.99 181.36
-9755128.74 5135698.36 188.68
-9755129.32 5135698.09 181.24
-9755127.31 5135699.67 188.66
-9755126.86 5135699.69 188.86
-9755126.51 5135701.58 190.96
-9755124.71 5135699.70 189.80
-9755126.68 5135700.72 181.29
-9755127.60 5135699.59 186.13
-9755129.48 5135700.77 189.67
-9755129.33 5135699.97 188.36
-9755126.63 5135698.12 186.56
-9755126.73 5135700.43 187.24
-9755126.44 5135698.08 186.56
-9755128.28 5135698.28 188.01
-9755126.76 5135699.94 186.78
-9755127.27 5135699.84 181.18
-9755129.46 5135698.94 189.95
-9755129.95 5135698.93 189.50
-9755126.90 5135700.31 187.16
-9755126.37 5135700.77 189.24
-9755126.06 5135699.30 186.83
-9755125.43 5135699.81 189.58
-9755129.15 5135698.52 189.53
-9755120.81 5135700.72 181.18
-9755124.05 5135699.09 189.24
-9755130.05 5135698.09 188.61
-9755127.04 5135699.67 189.58
-9755127.36 5135699.77 187.53
-9755126.68 5135700.77 187.44
-9755123.71 5135701.42 190.42
-9755125.22 5135701.72 190.17
-9755127.02 5135699.83 181.17
-9755124.61 5135698.34 181.23
-9755127.60 5135700.50 186.93
-9755127.39 5135699.30 186.15
-9755129.90 5135700.64 190.27
-9755126.95 5135701.64 181.34
-9755127.89 5135700.59 186.47
-9755125.89 5135698.27 185.89
-9755126.67 5135699.20 188.48
-9755121.22 5135700.74 186.53
-9755122.62 5135700.88 189.74
-9755128.64 5135700.10 189.11
-9755124.05 5135700.35 189.15
-9755130.04 5135699.20 190.02
-9755129.29 5135699.52 181.18
-9755130.01 5135699.70 190.48
-9755125.04 5135700.39 188.95
-9755119.93 5135699.23 181.22
-9755124.40 5135700.14 189.23
-9755127.96 5135698.93 187.95
-9755129.60 5135698.81 188.88
-9755121.70 5135700.70 181.19
-9755127.71 5135701.44 191.10
-9755127.86 5135699.24 181.17
-9755127.04 5135700.14 187.15
-9755126.50 5135699.47 189.03
-9755126.72 5135698.40 188.72
-9755129.38 5135701.32 187.35
-9755119.36 5135698.01 181.26
-9755127.32 5135700.80 185.75
-9755129.70 5135698.92 190.01
-9755129.56 5135699.83 188.19
-9755118.39 5135700.34 181.20
-9755126.16 5135698.72 187.37
-9755117.51 5135700.66 181.20
-9755125.87 5135700.50 187.05
-9755121.68 5135700.75 186.43
-9755127.31 5135699.44 189.24
-9755129.95 5135698.10 188.51
-9755123.56 5135701.49 189.79
-9755125.91 5135698.44 185.75
-9755126.17 5135699.73 187.07
-9755127.55 5135701.28 189.17
-9755126.82 5135698.85 189.93
-9755128.21 5135700.98 189.26
-9755127.51 5135699.05 187.03
-9755127.89 5135700.80 186.39
-9755120.49 5135700.60 188.96
-9755122.26 5135701.20 186.57
-9755127.64 5135701.21 188.77
-9755122.60 5135701.29 186.65
-9755125.62 5135699.98 190.06
-9755125.91 5135700.87 189.73
-9755124.78 5135700.04 188.98
-9755124.29 5135701.36 185.72
-9755128.90 5135699.29 188.49
-9755128.15 5135700.13 186.84
-9755127.69 5135698.63 188.64
-9755124.02 5135701.46 188.58
-9755124.44 5135700.34 188.47
-9755123.49 5135698.91 181.20
-9755125.78 5135698.96 181.20
-9755122.86 5135698.01 181.23
-9755126.94 5135701.41 189.91
-9755127.76 5135699.68 189.27
-9755125.50 5135699.65 189.25
-9755127.04 5135698.64 188.54
-9755125.90 5135700.44 185.72
-9755129.79 5135698.91 181.09
-9755121.39 5135699.87 181.18
-9755126.76 5135699.83 187.21
-9755129.92 5135699.82 189.62
-9755122.03 5135701.28 186.25
-9755121.06 5135699.48 181.20
-9755124.95 5135700.48 189.77
-9755128.76 5135699.40 190.03
-9755120.49 5135698.93 181.21
-9755126.12 5135698.43 187.01
-9755129.37 5135700.12 186.65
-9755119.96 5135700.44 181.18
-9755125.66 5135700.77 185.85
-9755129.07 5135699.27 181.19
-9755126.62 5135700.55 189.74
-9755122.02 5135700.64 186.21
-9755120.79 5135699.83 181.18
-9755129.45 5135701.38 187.42
-9755127.90 5135701.39 187.08
-9755121.75 5135699.21 181.17
-9755129.23 5135698.64 188.70
-9755129.07 5135698.05 187.85
-9755126.98 5135700.57 189.91
-9755126.96 5135698.94 181.22
-9755125.79 5135700.07 189.66
-9755120.77 5135698.92 181.21
-9755128.78 5135698.99 181.23
-9755126.05 5135698.61 181.23
-9755122.58 5135701.36 186.35
-9755129.12 5135698.66 187.92
-9755124.25 5135701.37 188.00
-9755126.45 5135699.05 189.67
-9755126.16 5135698.55 189.29
-9755126.55 5135699.94 187.53
-9755127.74 5135700.57 186.52
-9755126.13 5135700.46 181.25
-9755127.64 5135698.05 188.58
-9755125.54 5135700.74 181.29
-9755128.49 5135698.34 188.31
-9755125.21 5135700.74 181.27
-9755125.49 5135700.09 189.00
-9755123.93 5135700.89 189.22
-9755121.09 5135700.92 189.11
-9755125.07 5135700.33 189.70
-9755128.83 5135699.13 188.69
-9755119.35 5135698.31 181.25
-9755126.95 5135699.79 187.00
-9755125.50 5135700.28 189.77
-9755123.83 5135700.04 189.20
-9755130.26 5135699.94 181.20
-9755122.87 5135700.61 181.24
-9755125.29 5135701.17 189.45
-9755127.81 5135701.34 186.06
-9755126.39 5135700.71 187.44
-9755124.22 5135701.40 188.26
-9755129.18 5135699.78 188.38
-9755129.42 5135698.95 189.48
-9755127.95 5135701.41 190.29
-9755130.00 5135698.94 187.12
-9755126.07 5135699.35 187.39
-9755127.00 5135699.14 188.28
-9755123.18 5135700.03 189.25
-9755127.70 5135700.94 188.62
-9755128.29 5135697.96 189.65
-9755130.87 5135699.73 187.73
-9755128.55 5135697.89 187.88
-9755123.96 5135701.22 187.67
-9755128.83 5135700.06 189.17
-9755123.47 5135700.17 181.17
-9755129.57 5135699.48 189.63
-9755126.43 5135700.38 187.46
-9755128.57 5135701.19 189.36
-9755129.00 5135699.76 188.49
-9755127.87 5135700.73 181.30
-9755122.71 5135700.83 186.22
-9755126.78 5135700.02 189.78
-9755128.37 5135699.88 189.60
-9755128.48 5135699.09 186.18
-9755128.66 5135700.53 189.17
-9755120.57 5135701.44 188.66
-9755126.63 5135698.88 186.85
-9755128.24 5135700.32 189.60
-9755123.71 5135698.38 181.22
-9755125.47 5135699.88 190.34
-9755123.24 5135700.65 188.17
-9755127.47 5135699.07 188.81
-9755130.05 5135699.84 186.63
-9755125.49 5135699.32 186.57
-9755124.11 5135699.71 189.20
-9755125.80 5135699.83 181.18
-9755123.48 5135700.33 188.17
-9755120.44 5135701.21 188.56
-9755126.18 5135700.36 189.62
-9755125.53 5135701.46 189.04
-9755128.78 5135698.09 188.00
-9755118.15 5135699.76 181.22
-9755128.26 5135700.08 188.84
-9755123.43 5135699.22 181.17
-9755121.79 5135700.42 186.23
-9755124.65 5135700.71 181.30
-9755127.61 5135699.21 181.18
-9755126.68 5135698.76 186.72
-9755124.71 5135699.78 188.90
-9755126.17 5135700.88 189.99
-9755128.50 5135698.63 181.23
-9755127.64 5135698.16 188.79
-9755128.75 5135699.52 187.71
-9755122.27 5135699.83 181.16
-9755127.08 5135701.32 190.78
-9755124.96 5135700.18 188.47
-9755120.19 5135699.20 181.21
-9755128.28 5135698.53 185.75
-9755129.06 5135698.89 188.28
-9755126.81 5135700.47 188.22
-9755124.59 5135701.51 188.29
-9755127.59 5135698.88 188.38
-9755121.23 5135701.04 187.58
-9755119.31 5135700.37 181.17
-9755125.23 5135700.87 188.96
-9755128.21 5135701.53 189.20
-9755128.73 5135700.13 186.68
-9755125.89 5135699.38 186.13
-9755124.34 5135700.89 189.95
-9755121.11 5135698.07 181.24
-9755126.56 5135698.98 185.75
-9755124.64 5135701.50 185.61
-9755130.36 5135701.61 188.65
-9755126.99 5135699.55 188.74
-9755125.03 5135701.38 185.11
-9755117.61 5135699.76 181.23
-9755127.37 5135698.11 186.75
-9755129.36 5135700.07 190.59
-9755124.34 5135698.96 181.20
-9755119.31 5135699.16 181.22
-9755126.85 5135699.42 188.81
-9755128.75 5135699.91 186.75
-9755124.92 5135700.79 188.89
-9755127.69 5135699.10 189.22
-9755125.05 5135701.22 189.84
-9755126.52 5135700.24 186.78
-9755128.50 5135698.99 181.20
-9755126.22 5135701.31 189.18
-9755117.24 5135700.02 181.23
-9755129.09 5135699.89 188.81
-9755128.66 5135698.02 188.00
-9755129.42 5135700.38 188.91
-9755125.79 5135699.66 186.25
-9755128.57 5135698.24 188.67
-9755129.44 5135701.52 188.29
-9755124.99 5135701.43 190.08
-9755126.43 5135698.81 186.85
-9755127.55 5135699.87 186.15
-9755125.81 5135701.41 186.19
-9755129.33 5135700.51 188.83
-9755124.63 5135700.68 189.63
-9755127.31 5135699.91 187.61
-9755127.52 5135700.70 185.72
-9755129.80 5135699.00 188.56
-9755125.38 5135698.78 185.90
-9755129.95 5135698.57 188.14
-9755127.31 5135699.47 188.58
-9755124.51 5135699.34 189.86
-9755122.57 5135700.06 186.31
-9755123.68 5135701.35 188.09
-9755128.46 5135701.88 181.39
-9755124.86 5135700.43 181.19
-9755126.95 5135699.15 186.81
-9755126.05 5135701.46 191.21
-9755129.73 5135699.18 188.87
-9755126.90 5135700.98 181.30
-9755126.29 5135698.94 186.92
-9755129.95 5135698.41 189.14
-9755126.79 5135698.67 187.47
-9755128.45 5135700.47 186.60
-9755126.44 5135701.52 189.17
-9755127.67 5135699.78 186.68
-9755129.27 5135699.79 188.36
-9755128.49 5135699.52 186.98
-9755124.07 5135700.48 181.29
-9755125.97 5135698.38 189.24
-9755124.07 5135701.19 188.64
-9755129.34 5135701.33 188.26
-9755123.04 5135701.28 186.71
-9755129.37 5135698.56 188.68
-9755120.79 5135700.45 181.17
-9755129.28 5135699.87 181.19
-9755127.40 5135699.21 187.99
-9755126.99 5135699.85 187.19
-9755121.49 5135701.46 186.70
-9755122.93 5135701.01 186.83
-9755128.18 5135697.90 189.32
-9755129.70 5135698.32 188.32
-9755123.87 5135700.98 187.67
-9755128.62 5135698.40 187.96
-9755127.09 5135699.69 189.17
-9755129.48 5135698.33 187.38
-9755128.35 5135698.80 187.53
-9755121.17 5135700.62 189.08
-9755121.36 5135700.70 181.19
-9755122.25 5135700.66 181.15
-9755127.94 5135700.44 186.93
-9755117.55 5135698.02 181.29
-9755128.74 5135699.24 188.32
-9755129.23 5135699.25 188.40
-9755129.72 5135700.68 189.85
-9755129.67 5135700.07 188.85
-9755126.50 5135698.75 186.68
-9755125.36 5135699.33 189.97
-9755129.35 5135701.07 187.42
-9755127.23 5135700.74 187.29
-9755127.96 5135698.17 189.19
-9755126.55 5135699.30 185.76
-9755124.11 5135701.31 188.57
-9755129.39 5135698.79 190.28
-9755125.45 5135700.35 187.28
-9755121.94 5135700.41 181.15
-9755126.96 5135699.02 185.79
-9755122.54 5135701.02 181.35
-9755129.84 5135699.88 188.67
-9755129.14 5135701.01 189.36
-9755126.10 5135699.66 189.03
-9755126.84 5135699.06 187.53
-9755134.08 5135693.91 181.38
-9755133.14 5135697.52 181.28
-9755134.10 5135695.75 181.32
-9755133.79 5135691.60 181.41
-9755132.58 5135693.64 181.37
-9755133.76 5135693.95 181.37
-9755134.09 5135696.90 181.29
-9755132.89 5135697.19 181.29
-9755132.68 5135694.90 181.34
-9755132.64 5135693.30 181.38
-9755133.81 5135692.46 181.39
-9755133.49 5135696.32 181.29
-9755134.08 5135692.20 181.39
-9755133.20 5135695.44 181.35
-9755133.75 5135694.25 181.36
-9755132.58 5135696.05 181.33
-9755133.15 5135696.63 181.30
-9755133.52 5135693.03 181.40
-9755134.02 5135694.28 181.37
-9755133.23 5135694.27 181.36
-9755133.50 5135691.02 181.42
-9755132.61 5135691.58 181.41
-9755130.87 5135695.74 188.27
-9755130.81 5135698.05 181.24
-9755130.88 5135697.69 189.06
-9755130.61 5135697.08 189.61
-9755131.72 5135695.71 181.33
-9755131.45 5135694.24 181.36
-9755131.05 5135697.97 187.14
-9755130.25 5135697.17 187.71
-9755131.14 5135696.29 181.30
-9755130.38 5135695.74 187.80
-9755130.87 5135695.40 181.34
-9755132.02 5135692.21 181.39
-9755130.83 5135694.86 181.36
-9755130.78 5135695.68 188.16
-9755132.00 5135698.17 181.25
-9755130.54 5135697.32 187.04
-9755130.25 5135695.94 187.64
-9755130.58 5135697.55 187.10
-9755132.00 5135695.72 181.34
-9755131.76 5135697.51 181.26
-9755130.61 5135697.62 187.71
-9755131.23 5135692.19 181.41
-9755131.77 5135695.16 181.34
-9755130.59 5135691.59 181.41
-9755131.99 5135696.59 186.64
-9755132.07 5135697.30 186.50
-9755131.20 5135691.29 181.41
-9755131.80 5135697.07 189.66
-9755130.86 5135692.48 181.40
-9755130.30 5135695.62 187.27
-9755131.06 5135697.54 181.25
-9755131.13 5135695.72 181.34
-9755130.25 5135697.17 181.27
-9755130.55 5135697.67 187.72
-9755132.03 5135693.30 181.39
-9755130.55 5135696.68 181.30
-9755130.91 5135696.63 189.31
-9755130.80 5135697.22 188.95
-9755131.79 5135696.84 189.67
-9755132.34 5135693.96 181.37
-9755130.63 5135696.29 188.24
-9755131.12 5135691.58 181.41
-9755131.80 5135692.45 181.39
-9755130.57 5135696.72 186.96
-9755131.73 5135696.65 186.61
-9755131.74 5135694.23 181.36
-9755130.74 5135697.84 187.57
-9755130.95 5135697.57 189.64
-9755130.26 5135696.27 187.36
-9755130.23 5135695.37 187.23
-9755131.44 5135697.19 186.81
-9755124.64 5135697.98 186.57
-9755130.23 5135695.68 181.34
-9755129.36 5135697.72 188.07
-9755127.54 5135695.89 187.79
-9755126.82 5135695.98 187.33
-9755127.53 5135697.52 181.26
-9755128.86 5135697.24 189.15
-9755129.79 5135698.11 187.46
-9755127.49 5135695.19 187.53
-9755125.32 5135695.72 187.47
-9755127.68 5135695.60 188.58
-9755124.61 5135698.03 181.24
-9755119.94 5135697.43 181.27
-9755128.47 5135697.78 181.26
-9755125.22 5135693.62 181.37
-9755127.41 5135695.55 187.82
-9755125.92 5135695.06 187.79
-9755126.78 5135697.53 186.85
-9755124.48 5135696.78 187.55
-9755122.57 5135694.76 181.34
-9755126.96 5135697.47 186.25
-9755129.50 5135696.32 188.00
-9755129.72 5135695.74 181.34
-9755126.15 5135696.48 187.52
-9755129.36 5135695.10 181.34
-9755127.89 5135697.46 188.91
-9755129.35 5135696.92 187.78
-9755127.59 5135693.06 181.38
-9755128.23 5135695.19 188.25
-9755129.99 5135697.11 187.67
-9755125.19 5135697.49 186.19
-9755126.21 5135697.96 188.88
-9755127.61 5135696.56 188.20
-9755119.94 5135690.31 181.42
-9755128.27 5135695.96 188.23
-9755125.57 5135696.55 187.85
-9755127.41 5135695.67 187.50
-9755118.78 5135697.40 181.27
-9755125.54 5135697.52 181.26
-9755125.93 5135697.61 186.40
-9755126.63 5135696.43 188.33
-9755125.28 5135692.48 181.39
-9755127.56 5135695.96 187.61
-9755127.98 5135695.17 188.28
-9755124.66 5135696.53 187.51
-9755125.06 5135696.41 188.41
-9755125.81 5135697.18 181.28
-9755128.86 5135695.85 186.30
-9755124.99 5135695.32 188.28
-9755129.67 5135698.03 187.96
-9755124.35 5135696.86 188.78
-9755130.04 5135697.76 187.40
-9755127.97 5135695.76 187.96
-9755129.14 5135696.57 188.15
-9755127.94 5135698.15 186.78
-9755120.86 5135690.61 181.42
-9755121.08 5135695.96 181.30
-9755128.42 5135697.32 189.67
-9755127.64 5135694.78 187.75
-9755127.90 5135697.47 181.25
-9755129.30 5135696.89 188.17
-9755128.03 5135696.37 187.69
-9755129.95 5135693.94 181.38
-9755128.06 5135696.01 188.18
-9755126.96 5135695.85 187.80
-9755126.11 5135694.26 181.36
-9755126.80 5135696.07 187.41
-9755124.69 5135697.11 188.44
-9755129.13 5135695.61 188.17
-9755128.13 5135697.39 187.21
-9755125.12 5135697.23 186.19
-9755129.07 5135698.09 181.25
-9755122.32 5135690.89 181.43
-9755120.29 5135693.91 181.37
-9755124.60 5135694.81 181.35
-9755129.99 5135694.56 181.36
-9755126.10 5135694.53 187.87
-9755124.97 5135695.98 187.51
-9755125.04 5135696.21 188.45
-9755124.03 5135695.98 181.30
-9755118.50 5135695.93 181.34
-9755125.59 5135697.65 189.02
-9755119.32 5135690.88 181.42
-9755120.26 5135694.54 181.35
-9755122.34 5135695.92 181.31
-9755128.57 5135697.40 186.68
-9755129.03 5135696.61 186.36
-9755124.76 5135696.27 187.48
-9755128.52 5135697.72 189.34
-9755129.38 5135693.92 181.39
-9755125.86 5135693.33 181.38
-9755128.15 5135694.79 181.35
-9755127.54 5135696.16 187.63
-9755122.32 5135693.90 181.37
-9755121.35 5135697.44 181.27
-9755124.90 5135697.48 181.26
-9755128.98 5135697.18 186.64
-9755128.89 5135696.66 186.28
-9755125.70 5135695.10 187.75
-9755120.24 5135695.64 181.33
-9755129.40 5135696.17 185.86
-9755125.77 5135696.44 188.56
-9755127.40 5135694.20 181.37
-9755127.11 5135694.74 187.77
-9755124.84 5135696.55 181.30
-9755123.74 5135692.44 181.39
-9755124.78 5135697.35 188.42
-9755126.71 5135697.49 187.07
-9755126.43 5135696.59 181.30
-9755123.77 5135690.90 181.41
-9755126.75 5135697.77 187.03
-9755127.49 5135696.87 185.89
-9755126.81 5135696.26 186.80
-9755124.05 5135693.34 181.38
-9755122.63 5135690.94 181.42
-9755127.35 5135690.97 181.42
-9755127.62 5135694.73 181.35
-9755128.52 5135697.17 188.24
-9755127.91 5135694.25 181.35
-9755129.97 5135695.84 187.64
-9755123.17 5135695.70 181.31
-9755126.26 5135695.20 187.17
-9755126.07 5135696.38 186.03
-9755126.30 5135696.36 185.90
-9755125.96 5135697.49 188.08
-9755118.47 5135693.58 181.37
-9755127.78 5135694.60 188.49
-9755125.99 5135697.50 186.37
-9755128.44 5135697.74 186.72
-9755126.97 5135697.51 181.26
-9755127.66 5135696.09 188.75
-9755128.43 5135695.43 181.33
-9755122.60 5135691.24 181.40
-9755124.96 5135692.71 181.39
-9755128.44 5135697.43 187.32
-9755128.42 5135697.23 187.23
-9755129.76 5135695.81 186.33
-9755129.01 5135694.82 181.35
-9755126.14 5135696.85 187.45
-9755124.07 5135697.06 187.47
-9755125.54 5135696.27 187.68
-9755125.97 5135696.08 186.01
-9755126.47 5135696.51 187.16
-9755127.01 5135696.34 186.79
-9755121.69 5135693.93 181.37
-9755124.00 5135692.44 181.39
-9755124.63 5135691.85 181.41
-9755129.39 5135696.05 181.33
-9755120.81 5135696.25 181.30
-9755129.63 5135698.06 181.26
-9755126.23 5135697.75 188.88
-9755118.78 5135694.78 181.37
-9755121.73 5135694.75 181.34
-9755129.10 5135694.16 181.37
-9755126.59 5135697.67 189.03
-9755126.70 5135696.34 187.60
-9755126.98 5135695.29 188.46
-9755117.60 5135694.17 181.38
-9755127.87 5135696.67 186.84
-9755126.76 5135696.82 186.82
-9755121.73 5135692.39 181.40
-9755130.34 5135696.79 189.24
-9755129.38 5135697.76 187.41
-9755129.41 5135692.17 181.41
-9755126.77 5135696.93 187.27
-9755124.99 5135695.72 187.91
-9755128.29 5135697.64 189.44
-9755130.29 5135692.19 181.41
-9755118.50 5135694.21 181.38
-9755128.74 5135697.05 188.24
-9755125.80 5135696.57 181.29
-9755120.85 5135696.81 181.29
-9755122.01 5135692.71 181.39
-9755117.54 5135696.53 181.32
-9755118.44 5135697.41 181.29
-9755127.90 5135695.70 181.33
-9755128.85 5135696.60 186.01
-9755126.20 5135695.97 187.78
-9755124.59 5135697.45 181.26
-9755124.91 5135695.70 187.26
-9755127.29 5135695.69 181.34
-9755122.57 5135696.55 181.30
-9755127.93 5135697.17 188.87
-9755117.55 5135694.73 181.37
-9755127.95 5135695.56 188.46
-9755125.00 5135695.53 186.13
-9755127.91 5135695.08 187.83
-9755126.22 5135695.75 185.97
-9755125.99 5135696.03 187.47
-9755119.68 5135691.81 181.40
-9755127.99 5135696.35 187.03
-9755125.23 5135697.39 185.90
-9755127.47 5135696.47 187.67
-9755125.92 5135694.78 188.45
-9755127.72 5135696.25 188.10
-9755127.52 5135696.48 187.66
-9755123.73 5135693.93 181.37
-9755127.06 5135691.27 181.42
-9755126.12 5135694.48 181.36
-9755121.44 5135695.62 181.30
-9755126.66 5135695.96 181.31
-9755128.14 5135697.16 188.96
-9755128.04 5135697.28 188.35
-9755129.37 5135696.62 181.32
-9755125.25 5135696.21 188.47
-9755119.97 5135690.89 181.40
-9755128.52 5135696.04 181.32
-9755119.10 5135692.71 181.41
-9755128.85 5135698.05 187.11
-9755129.22 5135695.13 186.41
-9755126.84 5135697.60 186.50
-9755127.01 5135696.59 187.59
-9755126.50 5135696.26 188.37
-9755121.08 5135695.07 181.32
-9755127.65 5135695.56 187.88
-9755124.56 5135696.54 188.11
-9755125.92 5135695.03 188.44
-9755126.43 5135696.47 185.87
-9755123.74 5135695.07 181.33
-9755125.54 5135695.24 188.10
-9755126.44 5135697.62 186.54
-9755125.38 5135696.51 187.85
-9755129.07 5135696.59 186.57
-9755127.57 5135696.03 181.32
-9755125.80 5135695.10 187.93
-9755126.42 5135695.72 186.02
-9755128.54 5135696.64 187.00
-9755127.05 5135697.17 187.26
-9755126.68 5135697.14 181.26
-9755128.79 5135694.22 181.37
-9755127.06 5135695.97 181.33
-9755122.89 5135692.72 181.40
-9755124.61 5135695.01 187.72
-9755118.14 5135695.06 181.36
-9755125.83 5135697.16 186.30
-9755123.47 5135695.65 181.31
-9755125.27 5135697.79 186.82
-9755126.70 5135692.75 181.39
-9755125.24 5135693.98 181.36
-9755120.24 5135693.54 181.38
-9755123.97 5135697.36 188.81
-9755117.56 5135696.83 181.32
-9755124.92 5135697.15 181.28
-9755128.74 5135696.32 181.31
-9755125.37 5135696.74 187.56
-9755124.62 5135696.81 188.81
-9755121.68 5135696.81 181.29
-9755118.45 5135692.75 181.39
-9755128.19 5135693.04 181.38
-9755129.98 5135696.05 187.67
-9755125.29 5135696.89 186.47
-9755124.63 5135695.68 181.31
-9755129.07 5135697.53 188.29
-9755127.07 5135694.56 187.80
-9755130.08 5135696.07 186.42
-9755129.39 5135694.85 181.35
-9755119.64 5135696.57 181.30
-9755119.32 5135697.14 181.29
-9755124.09 5135693.88 181.36
-9755127.70 5135695.37 188.42
-9755127.31 5135696.62 185.85
-9755124.67 5135696.75 187.52
-9755125.00 5135697.43 186.69
-9755129.46 5135697.23 187.53
-9755119.32 5135692.96 181.39
-9755130.09 5135696.11 187.33
-9755128.64 5135697.77 188.23
-9755129.66 5135697.53 187.79
-9755124.64 5135691.50 181.41
-9755117.54 5135691.83 181.40
-9755124.11 5135691.50 181.41
-9755124.42 5135697.75 188.41
-9755125.88 5135695.07 181.34
-9755130.23 5135696.56 181.30
-9755126.16 5135697.51 181.26
-9755121.44 5135694.19 181.36
-9755119.91 5135695.62 181.33
-9755125.24 5135694.50 181.34
-9755127.62 5135692.12 181.40
-9755125.00 5135695.41 181.32
-9755125.02 5135697.52 187.86
-9755127.97 5135697.68 186.67
-9755125.79 5135695.23 186.11
-9755126.80 5135696.22 187.44
-9755129.03 5135694.54 181.37
-9755124.44 5135697.35 188.72
-9755126.74 5135695.25 187.86
-9755126.16 5135696.57 186.10
-9755118.17 5135696.48 181.33
-9755128.51 5135691.22 181.42
-9755120.23 5135692.72 181.40
-9755125.03 5135696.53 188.13
-9755125.28 5135695.97 186.04
-9755125.08 5135695.10 188.27
-9755122.34 5135691.57 181.41
-9755121.45 5135691.50 181.40
-9755127.05 5135696.97 186.13
-9755121.13 5135692.39 181.40
-9755126.13 5135692.69 181.38
-9755122.89 5135697.46 181.26
-9755129.19 5135696.06 186.44
-9755125.33 5135696.27 187.56
-9755118.78 5135695.97 181.33
-9755124.34 5135695.67 181.32
-9755124.11 5135696.58 187.58
-9755126.99 5135698.06 187.01
-9755120.00 5135691.47 181.39
-9755127.97 5135694.72 187.83
-9755129.82 5135695.86 187.51
-9755127.78 5135697.64 188.24
-9755129.64 5135697.45 189.37
-9755120.21 5135692.06 181.41
-9755124.72 5135695.04 187.20
-9755126.14 5135697.43 187.32
-9755127.03 5135695.08 181.34
-9755123.77 5135695.96 181.31
-9755126.97 5135696.22 188.28
-9755129.20 5135696.02 188.10
-9755125.29 5135696.62 186.14
-9755129.62 5135695.92 188.29
-9755126.48 5135696.29 187.69
-9755118.21 5135692.34 181.40
-9755117.60 5135695.07 181.36
-9755123.23 5135694.18 181.35
-9755128.79 5135695.99 188.28
-9755127.67 5135696.00 188.01
-9755120.85 5135691.51 181.40
-9755120.45 5135697.39 181.26
-9755128.76 5135690.93 181.41
-9755119.98 5135693.61 181.38
-9755121.95 5135697.44 181.26
-9755125.82 5135694.81 181.34
-9755127.68 5135697.46 188.16
-9755129.01 5135698.11 188.71
-9755126.78 5135697.76 181.24
-9755129.65 5135695.17 188.18
-9755125.46 5135696.47 187.56
-9755126.71 5135692.15 181.40
-9755129.34 5135694.16 181.37
-9755129.42 5135697.78 188.71
-9755123.20 5135693.33 181.38
-9755124.09 5135695.77 186.15
-9755126.76 5135696.88 181.29
-9755126.66 5135696.45 188.33
-9755117.24 5135702.44 181.32
-9755116.93 5135701.90 181.25
-9755117.27 5135701.59 181.19
-9755117.18 5135707.18 181.44
-9755117.24 5135709.37 187.47
-9755117.19 5135709.09 185.02
-9755117.15 5135705.85 184.96
-9755117.21 5135703.34 181.34
-9755116.94 5135707.51 185.79
-9755117.72 5135706.50 184.00
-9755117.47 5135713.37 181.56
-9755117.19 5135714.81 182.90
-9755116.97 5135704.69 184.86
-9755116.97 5135713.71 181.55
-9755116.88 5135705.60 184.97
-9755117.47 5135708.07 181.46
-9755116.83 5135714.24 182.87
-9755116.62 5135704.79 181.35
-9755116.94 5135713.94 182.87
-9755116.62 5135710.41 181.47
-9755116.49 5135714.26 182.77
-9755116.90 5135707.94 185.58
-9755116.92 5135705.12 181.36
-9755116.90 5135706.90 181.43
-9755116.63 5135706.62 185.36
-9755116.95 5135705.96 181.39
-9755116.62 5135711.59 181.48
-9755117.02 5135710.42 186.33
-9755116.88 5135708.97 181.47
-9755116.87 5135706.94 185.50
-9755117.23 5135706.25 181.43
-9755116.64 5135708.08 181.45
-9755117.09 5135706.58 185.68
-9755116.91 5135708.36 181.45
-9755116.96 5135708.10 186.23
-9755116.67 5135706.33 184.88
-9755116.99 5135706.15 186.11
-9755116.58 5135707.18 181.44
-9755116.61 5135709.00 181.46
-9755116.32 5135704.53 181.34
-9755116.00 5135703.93 181.33
-9755116.09 5135706.68 185.41
-9755116.12 5135708.20 186.12
-9755116.34 5135705.08 181.36
-9755116.61 5135705.69 181.39
-9755116.38 5135706.19 184.97
-9755116.34 5135706.62 185.39
-9755116.00 5135710.42 181.48
-9755115.72 5135710.46 181.48
-9755116.19 5135706.25 185.18
-9755116.02 5135708.63 181.46
-9755116.13 5135704.60 184.99
-9755116.35 5135703.02 181.33
-9755115.97 5135714.61 181.54
-9755116.09 5135707.06 185.60
-9755115.94 5135713.99 181.49
-9755116.08 5135706.15 185.64
-9755116.26 5135715.16 181.57
-9755116.07 5135705.79 184.75
-9755116.86 5135714.21 181.59
-9755115.92 5135708.07 185.51
-9755115.77 5135703.94 181.33
-9755116.36 5135714.79 182.87
-9755116.31 5135706.28 181.42
-9755116.45 5135706.72 185.94
-9755115.77 5135706.64 185.43
-9755116.06 5135707.76 181.44
-9755116.42 5135708.76 186.14
-9755115.87 5135708.03 185.52
-9755116.01 5135703.62 181.33
-9755116.86 5135716.67 181.63
-9755115.94 5135717.26 181.59
-9755116.07 5135701.59 181.20
-9755111.04 5135701.57 181.28
-9755107.79 5135701.50 181.34
-9755116.05 5135701.88 181.20
-9755113.67 5135702.42 181.24
-9755106.35 5135701.50 181.37
-9755115.22 5135702.18 181.20
-9755112.52 5135701.53 181.26
-9755111.91 5135702.11 181.26
-9755107.79 5135702.09 181.34
-9755113.69 5135702.13 181.24
-9755107.82 5135701.79 181.34
-9755115.18 5135702.47 181.24
-9755114.00 5135701.53 181.24
-9755112.85 5135701.51 181.26
-9755109.63 5135702.07 181.30
-9755109.56 5135701.52 181.30
-9755105.44 5135702.34 181.34
-9755115.46 5135707.28 185.69
-9755115.77 5135704.80 181.35
-9755115.98 5135714.26 181.51
-9755114.52 5135714.90 181.50
-9755112.63 5135706.32 184.97
-9755111.93 5135702.71 181.25
-9755112.80 5135702.98 181.25
-9755107.45 5135714.81 181.46
-9755112.20 5135707.18 181.44
-9755107.76 5135702.67 181.33
-9755113.03 5135714.83 181.49
-9755104.79 5135713.33 181.38
-9755111.27 5135713.62 181.52
-9755112.74 5135713.06 181.53
-9755109.85 5135711.29 181.51
-9755110.39 5135710.40 181.51
-9755109.28 5135704.82 181.30
-9755112.57 5135705.86 184.97
-9755113.64 5135711.91 181.51
-9755112.44 5135716.30 181.47
-9755111.53 5135715.45 181.48
-9755111.86 5135713.98 181.51
-9755108.33 5135707.09 181.35
-9755114.56 5135708.64 181.44
-9755110.12 5135708.66 181.45
-9755104.80 5135708.91 181.33
-9755111.87 5135707.14 181.44
-9755108.05 5135714.84 181.48
-9755110.12 5135705.67 181.36
-9755112.78 5135715.15 181.49
-9755111.28 5135714.50 181.50
-9755113.12 5135706.97 185.00
-9755110.19 5135703.91 181.28
-9755114.58 5135703.92 181.36
-9755112.43 5135714.82 181.48
-9755111.90 5135708.93 181.48
-9755109.50 5135713.39 181.49
-9755107.14 5135713.34 181.45
-9755112.87 5135706.63 185.45
-9755112.83 5135706.67 184.98
-9755110.40 5135705.36 181.35
-9755107.75 5135713.06 181.46
-9755104.52 5135712.15 181.30
-9755111.87 5135706.71 185.44
-9755112.72 5135713.70 181.50
-9755115.17 5135705.38 181.44
-9755113.07 5135702.48 181.24
-9755113.65 5135710.98 181.51
-9755107.75 5135709.84 181.37
-9755109.77 5135716.31 181.46
-9755110.39 5135710.08 181.50
-9755105.96 5135714.19 181.42
-9755111.01 5135709.21 181.48
-9755112.78 5135706.18 184.28
-9755107.79 5135706.23 181.32
-9755107.50 5135709.52 181.34
-9755108.64 5135705.38 181.30
-9755105.39 5135708.88 181.32
-9755106.59 5135709.49 181.31
-9755106.23 5135710.67 181.32
-9755112.10 5135706.94 185.30
-9755104.26 5135706.21 181.31
-9755111.93 5135705.35 181.40
-9755105.44 5135705.62 181.33
-9755113.09 5135708.06 181.46
-9755109.25 5135714.51 181.48
-9755112.79 5135705.41 184.70
-9755114.89 5135703.03 181.35
-9755111.88 5135706.58 181.43
-9755104.25 5135702.38 181.34
-9755112.78 5135704.82 181.40
-9755106.32 5135706.50 181.33
-9755112.79 5135706.60 181.44
-9755107.16 5135715.12 181.44
-9755104.79 5135711.84 181.30
-9755108.05 5135713.94 181.48
-9755105.97 5135710.38 181.31
-9755112.80 5135714.57 181.48
-9755104.21 5135713.92 181.35
-9755112.15 5135712.20 181.53
-9755109.19 5135711.29 181.48
-9755103.90 5135711.89 181.29
-9755104.76 5135712.46 181.36
-9755103.89 5135714.22 181.34
-9755104.86 5135703.87 181.34
-9755115.70 5135709.83 181.45
-9755104.78 5135713.63 181.38
-9755110.42 5135703.62 181.29
-9755112.22 5135706.99 184.30
-9755114.24 5135711.59 181.51
-9755104.83 5135706.49 181.32
-9755108.63 5135710.95 181.45
-9755107.75 5135710.40 181.38
-9755106.00 5135702.97 181.36
-9755111.29 5135710.67 181.51
-9755105.71 5135706.21 181.34
-9755106.62 5135704.79 181.34
-9755113.10 5135706.45 185.08
-9755106.26 5135713.35 181.42
-9755115.14 5135703.90 181.33
-9755112.79 5135707.30 184.58
-9755109.81 5135710.70 181.49
-9755114.26 5135710.44 181.48
-9755111.07 5135705.10 181.37
-9755107.43 5135716.29 181.45
-9755104.24 5135705.02 181.32
-9755108.04 5135709.80 181.38
-9755114.25 5135703.91 181.37
-9755115.33 5135704.27 185.98
-9755110.44 5135707.41 181.43
-9755109.19 5135715.72 181.47
-9755113.70 5135708.92 181.47
-9755113.59 5135706.46 184.89
-9755111.32 5135703.93 181.26
-9755112.76 5135705.70 183.45
-9755111.29 5135711.01 181.51
-9755112.78 5135711.01 181.51
-9755112.82 5135705.85 184.97
-9755113.14 5135704.83 181.39
-9755105.38 5135714.23 181.40
-9755113.08 5135705.81 184.95
-9755114.29 5135708.92 181.45
-9755105.72 5135707.17 181.32
-9755110.68 5135711.60 181.52
-9755108.35 5135714.84 181.48
-9755111.02 5135708.62 181.47
-9755109.50 5135710.08 181.46
-9755104.49 5135707.10 181.31
-9755115.73 5135712.81 181.51
-9755103.85 5135715.07 181.35
-9755111.30 5135711.30 181.52
-9755103.92 5135705.06 181.32
-9755106.93 5135707.15 181.33
-9755113.17 5135706.51 184.71
-9755113.73 5135705.71 181.42
-9755115.10 5135706.57 181.42
-9755112.76 5135703.91 181.34
-9755115.20 5135703.33 181.34
-9755113.96 5135709.83 181.48
-9755112.21 5135713.99 181.51
-9755115.48 5135711.31 181.49
-9755115.74 5135707.99 181.44
-9755108.64 5135707.14 181.38
-9755112.81 5135706.98 184.96
-9755103.62 5135713.37 181.24
-9755112.76 5135707.75 181.46
-9755112.78 5135711.89 181.52
-9755109.53 5135710.97 181.49
-9755112.49 5135703.05 181.24
-9755108.67 5135703.86 181.30
-9755110.39 5135713.34 181.51
-9755111.33 5135707.13 181.44
-9755107.18 5135708.28 181.33
-9755107.13 5135712.45 181.43
-9755112.49 5135705.77 184.17
-9755109.84 5135714.53 181.50
-9755110.47 5135708.90 181.47
-9755114.27 5135706.58 181.41
-9755106.29 5135711.27 181.35
-9755108.94 5135710.67 181.46
-9755109.53 5135707.42 181.42
-9755111.53 5135716.32 181.46
-9755112.30 5135706.67 185.53
-9755109.53 5135710.74 181.48
-9755111.04 5135702.74 181.28
-9755106.34 5135703.57 181.34
-9755104.54 5135708.61 181.33
-9755108.61 5135710.36 181.44
-9755108.65 5135710.10 181.43
-9755106.84 5135710.36 181.34
-9755111.28 5135708.01 181.46
-9755103.67 5135708.63 181.30
-9755113.10 5135707.18 181.44
-9755112.50 5135704.76 181.39
-9755110.68 5135715.43 181.48
-9755115.03 5135705.55 185.86
-9755114.82 5135713.10 181.52
-9755114.55 5135711.88 181.50
-9755112.85 5135705.26 184.70
-9755105.42 5135707.43 181.32
-9755109.28 5135706.24 181.33
-9755116.00 5135706.87 181.43
-9755114.30 5135704.55 181.39
-9755114.26 5135708.67 181.45
-9755112.68 5135706.22 184.47
-9755114.27 5135708.39 181.45
-9755106.27 5135716.29 181.44
-9755106.33 5135707.44 181.34
-9755109.79 5135712.20 181.51
-9755113.04 5135713.97 181.50
-9755111.88 5135710.43 181.52
-9755105.96 5135711.25 181.35
-9755110.44 5135705.68 181.39
-9755104.78 5135715.67 181.40
-9755115.15 5135708.62 181.44
-9755109.26 5135714.81 181.48
-9755105.38 5135710.93 181.32
-9755109.55 5135702.96 181.30
-9755108.68 5135708.64 181.40
-9755104.89 5135702.94 181.34
-9755111.91 5135708.61 181.48
-9755113.71 5135705.40 181.41
-9755115.12 5135710.40 181.48
-9755108.66 5135707.74 181.40
-9755109.53 5135709.51 181.45
-9755109.56 5135703.89 181.30
-9755104.84 5135709.49 181.33
-9755107.18 5135708.57 181.32
-9755115.16 5135708.92 181.44
-9755105.64 5135712.76 181.40
-9755112.68 5135707.41 184.40
-9755106.26 5135712.72 181.41
-9755105.67 5135708.29 181.32
-9755114.29 5135705.68 181.42
-9755106.30 5135708.29 181.34
-9755107.15 5135707.43 181.33
-9755103.95 5135707.44 181.30
-9755104.80 5135708.62 181.33
-9755111.92 5135703.58 181.26
-9755112.77 5135710.74 181.51
-9755112.69 5135705.45 184.46
-9755114.49 5135715.72 181.49
-9755110.37 5135712.44 181.51
-9755106.31 5135707.14 181.32
-9755115.24 5135707.17 185.65
-9755109.52 5135706.21 181.37
-9755114.32 5135703.30 181.36
-9755106.52 5135711.58 181.37
-9755107.74 5135711.30 181.42
-9755110.17 5135705.37 181.32
-9755110.98 5135715.72 181.47
-9755105.12 5135702.93 181.35
-9755107.16 5135713.92 181.47
-9755114.28 5135713.38 181.51
-9755114.51 5135713.39 181.51
-9755112.48 5135708.31 181.47
-9755112.58 5135707.32 184.66
-9755109.55 5135712.45 181.50
-9755113.14 5135707.34 185.00
-9755113.02 5135707.81 185.01
-9755111.00 5135712.73 181.52
-9755106.34 5135705.37 181.32
-9755113.01 5135705.11 184.97
-9755112.78 5135714.21 181.50
-9755115.35 5135716.34 181.57
-9755105.70 5135704.74 181.35
-9755113.06 5135713.06 181.53
-9755115.34 5135704.49 186.04
-9755115.12 5135707.76 181.43
-9755112.74 5135706.72 185.52
-9755112.79 5135707.17 181.44
-9755112.44 5135706.33 184.18
-9755108.33 5135710.70 181.43
-9755112.59 5135706.09 184.98
-9755109.54 5135708.63 181.44
-9755116.02 5135709.50 181.46
-9755115.17 5135705.18 186.12
-9755111.30 5135709.50 181.49
-9755113.61 5135715.73 181.47
-9755108.34 5135713.93 181.49
-9755104.79 5135714.51 181.38
-9755103.66 5135709.46 181.30
-9755112.18 5135710.41 181.52
-9755103.60 5135709.20 181.30
-9755115.48 5135705.12 186.44
-9755115.52 5135704.87 186.18
-9755114.79 5135712.22 181.51
-9755113.06 5135705.58 184.96
-9755113.38 5135710.71 181.51
-9755107.14 5135714.22 181.46
-9755110.38 5135713.94 181.50
-9755103.33 5135714.54 181.26
-9755112.62 5135706.67 184.95
-9755113.97 5135703.92 181.37
-9755112.84 5135706.09 184.98
-9755112.96 5135705.28 184.99
-9755105.69 5135714.52 181.41
-9755108.97 5135704.13 181.29
-9755105.71 5135709.76 181.32
-9755111.98 5135706.79 185.20
-9755108.04 5135706.54 181.32
-9755112.78 5135711.64 181.52
-9755104.51 5135715.42 181.39
-9755114.52 5135711.00 181.48
-9755113.35 5135711.63 181.53
-9755107.15 5135710.98 181.38
-9755108.32 5135715.43 181.48
-9755106.51 5135717.20 181.43
-9755112.77 5135716.34 181.46
-9755105.65 5135717.20 181.42
-9755103.30 5135717.16 181.35
-9755114.53 5135717.23 181.51
-9755104.45 5135717.49 181.39
-9755107.99 5135717.15 181.45
-9755114.52 5135716.33 181.50
-9755103.85 5135716.89 181.36
-9755110.37 5135716.62 181.46
-9755109.79 5135717.21 181.45
-9755112.43 5135717.19 181.44
-9755109.44 5135717.21 181.45
-9755110.40 5135717.20 181.44
-9755108.32 5135717.21 181.44
-9755105.09 5135716.56 181.41
-9755104.44 5135716.85 181.39
-9755114.19 5135717.27 181.48
-9755109.20 5135716.33 181.47
-9755112.70 5135716.93 181.45
-9755115.08 5135717.23 181.55
-9755111.82 5135717.22 181.44
-9755109.49 5135716.61 181.45
-9755113.04 5135716.93 181.45
-9755106.19 5135716.59 181.43
-9755111.54 5135716.90 181.44
-9755104.81 5135716.58 181.40
-9755108.89 5135717.16 181.45
-9755105.95 5135716.91 181.42
-9755103.65 5135702.05 181.35
-9755100.17 5135701.55 181.38
-9755099.57 5135701.74 181.39
-9755098.96 5135702.01 181.40
-9755098.36 5135702.09 181.39
-9755103.10 5135702.95 181.34
-9755103.05 5135711.25 181.29
-9755103.36 5135708.27 181.31
-9755103.06 5135704.75 181.32
-9755103.28 5135710.67 181.29
-9755103.64 5135703.83 181.33
-9755103.66 5135707.14 181.31
-9755102.99 5135715.12 181.22
-9755103.01 5135713.29 181.23
-9755103.05 5135707.09 181.32
-9755103.34 5135712.13 181.30
-9755102.97 5135714.20 181.23
-9755098.98 5135702.33 181.39
-9755099.47 5135711.54 181.35
-9755101.87 5135710.35 181.29
-9755100.99 5135707.38 181.35
-9755101.89 5135702.34 181.36
-9755098.27 5135712.09 181.35
-9755100.97 5135711.52 181.31
-9755098.93 5135706.17 181.36
-9755100.11 5135708.28 181.35
-9755098.05 5135705.00 181.37
-9755101.35 5135706.22 181.35
-9755100.35 5135708.56 181.34
-9755099.88 5135705.01 181.37
-9755097.81 5135702.34 181.38
-9755099.79 5135707.10 181.38
-9755099.76 5135716.22 181.30
-9755098.61 5135705.89 181.38
-9755102.44 5135708.86 181.32
-9755096.51 5135712.98 181.36
-9755099.87 5135702.64 181.38
-9755100.59 5135713.85 181.28
-9755101.25 5135709.79 181.32
-9755098.02 5135716.20 181.33
-9755096.96 5135703.83 181.39
-9755100.34 5135715.65 181.28
-9755097.75 5135712.97 181.35
-9755102.13 5135710.90 181.28
-9755099.23 5135710.63 181.36
-9755098.24 5135715.65 181.33
-9755100.06 5135712.41 181.29
-9755100.06 5135709.77 181.32
-9755099.73 5135714.77 181.31
-9755096.92 5135704.63 181.40
-9755102.20 5135702.97 181.35
-9755101.25 5135709.46 181.33
-9755101.20 5135715.14 181.24
-9755100.45 5135704.12 181.36
-9755097.09 5135714.15 181.35
-9755096.85 5135707.97 181.40
-9755102.16 5135712.38 181.27
-9755102.76 5135706.20 181.32
-9755098.63 5135704.08 181.38
-9755101.06 5135703.29 181.36
-9755100.67 5135703.54 181.36
-9755098.58 5135715.33 181.33
-9755101.65 5135704.97 181.34
-9755097.71 5135716.27 181.33
-9755096.86 5135713.00 181.37
-9755102.17 5135707.08 181.32
-9755098.05 5135708.54 181.40
-9755099.45 5135715.67 181.30
-9755102.72 5135712.74 181.26
-9755100.59 5135710.36 181.30
-9755099.81 5135703.80 181.37
-9755097.14 5135710.93 181.39
-9755100.95 5135712.14 181.29
-9755102.43 5135713.94 181.24
-9755096.83 5135709.13 181.38
-9755100.96 5135713.04 181.25
-9755101.01 5135710.65 181.30
-9755098.65 5135708.54 181.39
-9755101.89 5135709.49 181.30
-9755098.06 5135703.22 181.38
-9755102.43 5135715.42 181.19
-9755101.27 5135712.41 181.28
-9755096.51 5135711.51 181.37
-9755096.57 5135706.18 181.41
-9755102.39 5135712.45 181.28
-9755100.13 5135703.81 181.36
-9755097.52 5135702.37 181.36
-9755101.92 5135703.86 181.35
-9755100.62 5135713.29 181.26
-9755097.74 5135712.43 181.36
-9755100.44 5135703.55 181.36
-9755097.47 5135715.69 181.34
-9755098.06 5135706.48 181.38
-9755101.51 5135715.64 181.24
-9755099.78 5135710.35 181.33
-9755102.79 5135711.00 181.28
-9755096.82 5135711.22 181.38
-9755102.45 5135703.85 181.35
-9755100.40 5135705.06 181.37
-9755098.59 5135711.54 181.37
-9755101.63 5135703.24 181.35
-9755099.16 5135712.41 181.31
-9755096.85 5135712.02 181.36
-9755102.14 5135713.34 181.24
-9755098.67 5135709.44 181.36
-9755098.06 5135703.84 181.37
-9755102.70 5135716.29 181.25
-9755101.19 5135714.52 181.26
-9755097.44 5135713.89 181.36
-9755099.28 5135704.75 181.37
-9755103.04 5135711.87 181.30
-9755101.58 5135707.98 181.34
-9755099.23 5135713.91 181.30
-9755098.92 5135710.65 181.36
-9755102.43 5135711.20 181.29
-9755096.86 5135712.40 181.36
-9755099.52 5135705.33 181.39
-9755097.18 5135704.10 181.40
-9755100.46 5135709.21 181.32
-9755097.79 5135707.35 181.40
-9755101.50 5135710.32 181.29
-9755102.09 5135715.15 181.22
-9755102.78 5135710.05 181.30
-9755102.08 5135714.27 181.23
-9755101.86 5135708.58 181.32
-9755097.72 5135711.81 181.37
-9755102.99 5135716.55 181.32
-9755101.56 5135717.22 181.19
-9755099.44 5135716.54 181.30
-9755102.40 5135716.28 181.19
-9755096.52 5135716.54 181.37
-9755100.96 5135715.66 181.26
-9755102.36 5135717.14 181.22
-9755102.14 5135717.18 181.19
-9755097.69 5135717.74 181.33
-9755100.96 5135717.21 181.22
-9755102.73 5135717.16 181.31
-9755093.05 5135701.73 181.39
-9755094.84 5135702.30 181.39
-9755096.31 5135702.01 181.39
-9755092.17 5135702.30 181.39
-9755091.33 5135701.70 181.37
-9755088.86 5135717.68 181.45
-9755091.54 5135707.32 181.41
-9755096.31 5135709.42 181.37
-9755095.36 5135710.29 181.40
-9755095.40 5135705.57 181.39
-9755094.48 5135711.52 181.38
-9755093.90 5135710.90 181.38
-9755094.19 5135713.86 181.37
-9755091.24 5135711.19 181.40
-9755094.55 5135703.78 181.39
-9755093.94 5135707.36 181.40
-9755093.07 5135707.61 181.41
-9755093.89 5135714.18 181.36
-9755096.25 5135707.97 181.40
-9755095.41 5135707.07 181.40
-9755090.64 5135712.12 181.39
-9755093.00 5135710.27 181.41
-9755095.65 5135708.52 181.40
-9755091.52 5135715.32 181.40
-9755094.72 5135714.17 181.37
-9755095.09 5135704.95 181.40
-9755090.61 5135712.65 181.41
-9755090.72 5135706.12 181.40
-9755093.62 5135710.34 181.41
-9755096.24 5135710.29 181.39
-9755095.38 5135711.18 181.38
-9755092.16 5135706.16 181.41
-9755095.98 5135706.50 181.40
-9755095.46 5135708.85 181.39
-9755095.35 5135713.57 181.37
-9755094.49 5135706.75 181.41
-9755091.22 5135712.36 181.40
-9755093.88 5135709.05 181.38
-9755091.89 5135708.83 181.40
-9755094.45 5135713.61 181.39
-9755091.26 5135704.98 181.41
-9755094.80 5135715.32 181.37
-9755092.44 5135707.07 181.40
-9755095.11 5135707.91 181.40
-9755095.69 5135710.32 181.40
-9755090.98 5135705.57 181.41
-9755093.89 5135708.50 181.38
-9755091.28 5135706.45 181.41
-9755095.08 5135713.82 181.37
-9755092.42 5135711.18 181.37
-9755090.90 5135715.61 181.41
-9755091.24 5135713.29 181.40
-9755092.43 5135713.58 181.38
-9755093.57 5135715.39 181.38
-9755093.13 5135704.64 181.39
-9755096.22 5135709.71 181.37
-9755091.24 5135703.76 181.38
-9755091.80 5135713.00 181.38
-9755093.09 5135703.76 181.38
-9755094.51 5135709.70 181.39
-9755090.93 5135711.20 181.40
-9755095.41 5135702.34 181.40
-9755095.09 5135703.19 181.38
-9755093.90 5135709.40 181.40
-9755090.40 5135707.86 181.40
-9755090.64 5135715.34 181.41
-9755094.52 5135704.70 181.39
-9755095.96 5135707.93 181.39
-9755090.59 5135713.55 181.41
-9755092.11 5135712.39 181.40
-9755094.44 5135715.91 181.37
-9755091.93 5135704.64 181.39
-9755091.49 5135712.67 181.39
-9755094.48 5135706.14 181.40
-9755095.67 5135712.38 181.36
-9755093.03 5135710.87 181.39
-9755094.50 5135708.84 181.38
-9755094.75 5135711.49 181.38
-9755093.67 5135704.08 181.39
-9755093.67 5135705.58 181.40
-9755095.60 5135715.95 181.37
-9755093.04 5135707.05 181.41
-9755093.09 5135703.51 181.39
-9755095.76 5135702.91 181.39
-9755095.07 5135712.13 181.37
-9755090.05 5135703.78 181.38
-9755092.13 5135710.31 181.41
-9755093.89 5135705.57 181.40
-9755093.87 5135712.68 181.37
-9755092.07 5135715.07 181.38
-9755093.02 5135711.17 181.38
-9755096.25 5135704.68 181.40
-9755093.35 5135705.54 181.41
-9755095.45 5135704.42 181.39
-9755093.05 5135714.12 181.37
-9755095.11 5135710.34 181.40
-9755095.63 5135709.43 181.38
-9755092.14 5135710.91 181.39
-9755094.21 5135711.52 181.38
-9755093.01 5135717.10 181.40
-9755092.10 5135715.88 181.39
-9755095.92 5135717.13 181.38
-9755094.71 5135716.54 181.38
-9755090.93 5135716.20 181.41
-9755096.25 5135716.83 181.38
-9755092.05 5135717.11 181.39
-9755091.25 5135716.79 181.40
-9755116.97 5135700.97 181.19
-9755117.57 5135698.30 181.27
-9755116.68 5135700.67 181.21
-9755116.63 5135698.05 181.30
-9755116.35 5135700.06 181.24
-9755116.35 5135700.68 181.23
-9755117.63 5135692.69 181.39
-9755116.75 5135697.41 181.30
-9755117.35 5135691.78 181.40
-9755116.98 5135697.17 181.30
-9755116.10 5135694.12 181.37
-9755116.38 5135696.79 181.34
-9755116.43 5135693.28 181.41
-9755116.72 5135690.59 181.43
-9755115.83 5135690.87 181.42
-9755116.08 5135690.93 181.41
-9755116.12 5135697.41 181.32
-9755116.08 5135693.60 181.39
-9755115.81 5135694.17 181.38
-9755116.14 5135691.22 181.40
-9755116.08 5135694.43 181.38
-9755114.33 5135701.54 181.24
-9755108.07 5135701.47 181.34
-9755115.83 5135699.77 181.25
-9755111.91 5135701.80 181.27
-9755105.47 5135700.62 181.36
-9755108.14 5135699.76 181.34
-9755112.88 5135699.73 181.29
-9755112.83 5135697.72 181.33
-9755108.71 5135698.83 181.35
-9755105.43 5135699.13 181.37
-9755112.54 5135698.28 181.33
-9755105.77 5135700.62 181.35
-9755114.36 5135698.88 181.31
-9755113.44 5135698.22 181.34
-9755106.03 5135700.01 181.38
-9755111.01 5135700.63 181.30
-9755112.81 5135700.70 181.28
-9755109.58 5135700.05 181.31
-9755115.22 5135699.24 181.28
-9755106.96 5135699.16 181.37
-9755110.24 5135699.18 181.32
-9755112.82 5135700.92 181.28
-9755109.01 5135699.77 181.33
-9755104.86 5135699.13 181.39
-9755107.88 5135698.21 181.37
-9755108.72 5135701.22 181.33
-9755107.81 5135699.13 181.37
-9755107.24 5135699.13 181.37
-9755109.64 5135701.22 181.31
-9755113.42 5135700.69 181.28
-9755114.04 5135699.80 181.28
-9755105.20 5135700.92 181.36
-9755111.92 5135700.00 181.30
-9755112.00 5135698.57 181.33
-9755112.87 5135698.83 181.34
-9755114.63 5135698.28 181.33
-9755114.31 5135701.27 181.24
-9755113.48 5135700.08 181.29
-9755115.19 5135700.38 181.25
-9755104.88 5135699.71 181.37
-9755111.63 5135700.66 181.29
-9755109.60 5135698.23 181.36
-9755107.25 5135700.32 181.36
-9755111.94 5135700.68 181.28
-9755103.68 5135698.84 181.37
-9755115.23 5135698.87 181.30
-9755110.46 5135701.21 181.29
-9755114.34 5135697.99 181.33
-9755111.62 5135698.30 181.34
-9755114.60 5135699.91 187.13
-9755106.34 5135698.51 181.39
-9755103.72 5135700.90 181.35
-9755103.09 5135697.91 181.41
-9755099.83 5135701.48 181.39
-9755100.15 5135700.59 181.39
-9755101.32 5135699.69 181.39
-9755098.12 5135699.32 181.43
-9755098.15 5135701.49 181.39
-9755096.91 5135700.53 181.41
-9755102.85 5135698.24 181.40
-9755098.66 5135700.28 181.41
-9755101.94 5135699.15 181.38
-9755099.57 5135697.90 181.41
-9755098.98 5135698.49 181.41
-9755099.30 5135699.96 181.41
-9755097.26 5135699.06 181.42
-9755102.52 5135700.62 181.37
-9755100.14 5135699.98 181.40
-9755096.89 5135699.97 181.41
-9755102.82 5135700.95 181.36
-9755102.20 5135698.80 181.40
-9755100.18 5135699.11 181.40
-9755098.92 5135700.86 181.40
-9755097.16 5135699.65 181.41
-9755101.02 5135699.38 181.40
-9755098.37 5135700.53 181.41
-9755096.64 5135701.44 181.39
-9755100.47 5135698.80 181.40
-9755100.45 5135697.91 181.41
-9755099.87 5135699.68 181.39
-9755098.10 5135698.20 181.41
-9755099.87 5135698.20 181.41
-9755102.49 5135698.21 181.39
-9755097.80 5135698.22 181.41
-9755100.74 5135700.58 181.39
-9755115.79 5135693.27 181.41
-9755114.34 5135690.89 181.43
-9755115.28 5135693.58 181.39
-9755108.69 5135697.38 181.40
-9755115.78 5135695.62 181.38
-9755112.27 5135691.52 181.41
-9755109.56 5135697.41 181.37
-9755114.37 5135691.76 181.41
-9755110.49 5135690.56 181.42
-9755106.40 5135693.23 181.44
-9755107.81 5135693.18 181.42
-9755115.23 5135697.69 181.33
-9755109.34 5135690.82 181.41
-9755108.77 5135690.88 181.42
-9755111.99 5135697.06 181.35
-9755109.35 5135694.16 181.40
-9755111.12 5135690.27 181.43
-9755107.84 5135696.49 181.41
-9755108.15 5135694.98 181.41
-9755103.96 5135697.32 181.40
-9755110.84 5135691.76 181.42
-9755114.61 5135695.93 181.35
-9755112.87 5135696.49 181.36
-9755107.85 5135694.10 181.41
-9755114.92 5135696.82 181.34
-9755114.31 5135694.14 181.39
-9755104.88 5135693.21 181.42
-9755114.92 5135694.13 181.38
-9755104.86 5135695.82 181.41
-9755111.67 5135695.63 181.38
-9755105.17 5135695.87 181.42
-9755105.53 5135692.27 181.43
-9755113.15 5135694.15 181.39
-9755106.96 5135694.10 181.41
-9755113.43 5135694.72 181.37
-9755107.25 5135695.57 181.41
-9755104.02 5135693.17 181.40
-9755104.89 5135696.47 181.42
-9755114.31 5135691.47 181.40
-9755104.04 5135690.81 181.42
-9755114.71 5135694.77 187.00
-9755107.27 5135694.11 181.41
-9755109.64 5135693.20 181.41
-9755114.64 5135694.11 187.46
-9755114.93 5135695.09 186.97
-9755107.88 5135692.00 181.43
-9755106.35 5135695.28 181.41
-9755104.04 5135694.99 181.42
-9755114.62 5135693.24 181.40
-9755112.85 5135691.20 181.42
-9755113.67 5135694.69 181.39
-9755114.31 5135696.49 181.35
-9755106.66 5135697.35 181.40
-9755113.73 5135697.37 181.35
-9755109.57 5135694.15 181.39
-9755115.21 5135694.40 181.37
-9755106.11 5135691.13 181.43
-9755112.29 5135690.86 181.41
-9755108.47 5135690.86 181.41
-9755114.35 5135695.01 181.37
-9755106.67 5135694.99 181.42
-9755108.20 5135692.59 181.41
-9755114.37 5135696.82 181.35
-9755112.02 5135693.85 181.39
-9755108.46 5135694.14 181.39
-9755104.57 5135696.46 181.41
-9755110.81 5135696.76 181.37
-9755111.06 5135692.95 181.39
-9755109.33 5135693.18 181.41
-9755113.44 5135697.35 181.35
