-9755544.76 5135598.06 181.07
-9755540.91 5135599.52 181.09
-9755535.89 5135598.82 181.16
-9755541.54 5135603.36 181.05
-9755536.52 5135605.67 181.12
-9755542.96 5135602.42 181.03
-9755545.65 5135603.98 181.00
-9755544.70 5135603.64 181.02
-9755537.39 5135594.72 181.17
-9755543.84 5135601.33 181.04
-9755539.73 5135599.49 181.11
-9755538.23 5135603.32 181.09
-9755542.36 5135603.01 182.11
-9755543.92 5135599.78 181.03
-9755540.71 5135598.88 181.07
-9755539.15 5135598.37 181.12
-9755534.97 5135604.24 181.13
-9755541.48 5135599.58 181.09
-9755533.19 5135603.33 181.15
-9755536.71 5135605.09 181.13
-9755537.31 5135595.68 181.15
-9755535.06 5135597.09 181.19
-9755541.50 5135595.00 181.12
-9755536.76 5135597.16 181.14
-9755544.77 5135596.25 181.11
-9755540.02 5135601.26 181.09
-9755533.24 5135600.28 181.16
-9755533.84 5135604.77 181.14
-9755543.03 5135596.59 181.09
-9755534.41 5135606.21 181.12
-9755534.15 5135597.97 181.16
-9755542.38 5135604.90 181.02
-9755536.42 5135603.06 181.12
-9755542.39 5135596.56 181.09
-9755536.45 5135603.97 181.10
-9755533.29 5135596.47 181.18
-9755544.75 5135598.92 181.06
-9755539.74 5135597.08 181.15
-9755539.76 5135604.78 181.05
-9755544.80 5135595.68 181.12
-9755541.61 5135603.64 181.04
-9755533.18 5135602.44 181.16
-9755531.72 5135606.54 181.14
-9755532.61 5135600.84 181.16
-9755531.46 5135600.58 181.17
-9755531.79 5135601.21 181.19
-9755531.51 5135599.74 181.19
-9755532.67 5135599.47 181.17
-9755532.40 5135597.95 181.18
-9755532.43 5135594.15 181.20
-9755532.40 5135599.12 181.17
-9755533.04 5135593.82 181.23
-9755532.54 5135602.41 181.18
-9755532.48 5135594.71 181.19
-9755531.85 5135593.80 181.23
-9755530.63 5135593.23 181.32
-9755529.75 5135593.17 181.33
-9755529.08 5135606.51 181.24
-9755530.08 5135600.34 181.26
-9755530.93 5135594.95 181.29
-9755529.41 5135605.63 181.24
-9755530.90 5135598.25 181.23
-9755529.82 5135597.07 181.30
-9755529.44 5135593.20 181.34
-9755529.63 5135606.68 184.17
-9755530.86 5135602.42 181.19
-9755529.98 5135603.88 181.22
-9755529.39 5135604.43 181.23
-9755528.93 5135597.05 181.31
-9755530.08 5135596.36 182.33
-9755530.05 5135594.71 181.32
-9755529.20 5135594.67 181.33
-9755529.14 5135594.12 181.33
-9755529.10 5135599.09 181.27
-9755529.46 5135597.92 181.31
-9755529.39 5135601.50 181.24
-9755529.73 5135605.62 181.22
-9755529.39 5135600.57 181.27
-9755529.76 5135601.49 181.25
-9755558.77 5135576.56 181.13
-9755558.09 5135588.45 181.12
-9755558.15 5135583.00 181.14
-9755552.90 5135579.75 181.14
-9755554.04 5135579.38 181.14
-9755555.69 5135577.45 181.13
-9755550.73 5135577.66 181.17
-9755556.10 5135580.05 181.14
-9755551.38 5135578.51 181.15
-9755549.91 5135579.44 181.17
-9755549.86 5135577.66 181.16
-9755548.79 5135579.99 181.18
-9755553.95 5135579.98 181.13
-9755548.94 5135579.46 181.17
-9755554.86 5135577.68 181.15
-9755548.99 5135578.50 181.18
-9755548.39 5135576.71 181.17
-9755552.84 5135577.33 181.13
-9755552.85 5135576.53 181.13
-9755552.18 5135576.51 181.16
-9755553.14 5135578.26 181.15
-9755550.80 5135578.23 181.17
-9755548.10 5135578.19 181.18
-9755546.39 5135580.28 181.18
-9755536.63 5135578.39 181.23
-9755538.13 5135578.41 181.23
-9755545.42 5135577.37 181.19
-9755544.24 5135579.11 181.19
-9755535.12 5135577.53 181.24
-9755544.06 5135579.98 181.18
-9755534.27 5135577.50 181.24
-9755544.58 5135578.19 181.18
-9755546.59 5135581.11 181.18
-9755543.99 5135578.13 181.20
-9755541.30 5135579.88 181.20
-9755542.30 5135578.20 181.22
-9755540.79 5135580.30 181.19
-9755539.00 5135578.46 181.23
-9755543.99 5135577.60 181.19
-9755542.43 5135577.55 181.20
-9755539.90 5135578.42 181.21
-9755534.91 5135580.23 181.26
-9755536.05 5135576.66 181.25
-9755545.42 5135579.12 181.16
-9755542.28 5135579.09 182.26
-9755539.86 5135580.26 181.22
-9755536.61 5135576.94 181.25
-9755540.72 5135578.52 181.19
-9755546.66 5135577.01 181.17
-9755543.42 5135578.21 181.21
-9755533.36 5135578.43 181.24
-9755531.64 5135577.82 181.36
-9755548.33 5135580.89 181.19
-9755552.45 5135593.09 181.09
-9755555.72 5135592.48 181.12
-9755557.27 5135580.66 181.13
-9755552.45 5135588.90 181.13
-9755555.19 5135581.57 181.14
-9755548.40 5135583.52 181.17
-9755550.47 5135583.26 181.15
-9755547.43 5135590.67 181.12
-9755548.42 5135585.04 181.14
-9755554.03 5135589.85 181.10
-9755553.11 5135588.26 181.10
-9755548.00 5135592.41 181.11
-9755551.30 5135581.81 181.16
-9755554.84 5135587.42 181.15
-9755550.66 5135592.05 181.08
-9755557.15 5135591.61 181.11
-9755553.08 5135586.52 181.14
-9755557.26 5135587.16 181.13
-9755549.81 5135592.51 181.09
-9755557.76 5135592.21 181.13
-9755548.92 5135584.36 181.15
-9755556.55 5135591.54 181.13
-9755547.53 5135586.84 181.14
-9755551.60 5135589.77 181.11
-9755553.03 5135590.08 181.11
-9755549.86 5135587.71 181.10
-9755550.43 5135589.14 181.12
-9755553.97 5135591.57 181.10
-9755552.79 5135584.15 181.14
-9755555.41 5135585.04 181.12
-9755548.93 5135588.88 181.13
-9755553.12 5135585.98 181.13
-9755550.75 5135584.77 181.14
-9755548.34 5135588.29 181.12
-9755551.30 5135583.89 181.15
-9755557.18 5135582.59 181.15
-9755553.71 5135584.89 181.14
-9755552.48 5135590.11 181.11
-9755547.25 5135585.84 181.15
-9755550.44 5135581.81 181.18
-9755552.39 5135588.27 181.12
-9755549.79 5135581.42 181.16
-9755547.26 5135583.87 181.18
-9755557.24 5135585.99 181.13
-9755554.57 5135592.22 181.10
-9755553.18 5135584.86 181.12
-9755555.74 5135586.88 181.15
-9755556.11 5135585.05 181.07
-9755552.98 5135581.84 181.16
-9755550.06 5135588.29 181.12
-9755555.40 5135585.95 181.15
-9755547.18 5135581.71 181.18
-9755551.33 5135580.85 181.16
-9755548.11 5135587.42 181.15
-9755550.72 5135582.37 181.16
-9755550.69 5135590.11 181.11
-9755546.63 5135590.66 181.12
-9755551.34 5135585.91 181.16
-9755546.58 5135591.55 181.12
-9755535.93 5135592.40 181.18
-9755538.43 5135580.84 181.24
-9755540.79 5135580.86 181.20
-9755542.44 5135587.43 181.15
-9755534.24 5135581.68 181.24
-9755539.80 5135583.13 181.22
-9755543.95 5135588.22 181.15
-9755538.11 5135584.36 181.22
-9755540.94 5135592.38 181.15
-9755545.09 5135585.58 181.16
-9755536.37 5135583.45 181.23
-9755534.19 5135586.78 181.22
-9755535.16 5135580.75 181.27
-9755534.17 5135592.32 181.19
-9755536.53 5135591.48 181.20
-9755543.13 5135582.33 181.20
-9755535.02 5135589.71 181.20
-9755542.41 5135583.48 181.22
-9755544.51 5135584.96 181.14
-9755545.72 5135586.43 181.15
-9755540.71 5135590.97 181.18
-9755533.90 5135588.16 181.23
-9755534.38 5135591.46 181.21
-9755543.86 5135589.98 181.13
-9755539.88 5135582.62 181.22
-9755542.48 5135590.65 181.17
-9755539.83 5135585.04 181.21
-9755538.97 5135586.44 181.20
-9755543.94 5135583.51 181.19
-9755538.28 5135589.19 181.18
-9755541.59 5135582.31 181.19
-9755539.00 5135587.69 181.19
-9755538.33 5135582.59 181.23
-9755544.25 5135587.38 181.16
-9755538.00 5135590.59 181.21
-9755533.36 5135586.75 181.21
-9755537.56 5135585.85 181.21
-9755534.24 5135581.14 181.25
-9755536.54 5135589.21 181.22
-9755539.28 5135581.75 181.22
-9755544.53 5135581.81 181.17
-9755540.79 5135584.04 181.20
-9755533.30 5135591.38 181.23
-9755539.77 5135592.35 181.17
-9755543.88 5135591.47 181.14
-9755540.69 5135583.26 181.20
-9755539.29 5135582.95 181.22
-9755536.56 5135590.01 181.21
-9755543.91 5135585.01 181.18
-9755540.72 5135590.05 181.17
-9755545.38 5135580.79 181.16
-9755535.68 5135584.97 181.23
-9755545.65 5135582.67 181.16
-9755546.29 5135583.58 181.15
-9755545.68 5135592.38 181.14
-9755533.33 5135584.98 181.24
-9755532.48 5135581.75 181.30
-9755531.85 5135591.49 181.25
-9755532.38 5135590.80 181.21
-9755532.71 5135591.69 181.21
-9755531.90 5135585.80 181.33
-9755531.56 5135585.19 181.34
-9755531.54 5135589.99 181.31
-9755532.19 5135587.32 181.28
-9755531.53 5135590.02 181.91
-9755531.83 5135589.08 181.32
-9755531.52 5135588.48 181.34
-9755531.57 5135584.05 181.34
-9755531.92 5135583.43 181.31
-9755530.76 5135578.97 181.37
-9755531.04 5135576.63 181.37
-9755530.13 5135581.00 181.37
-9755530.71 5135580.77 181.37
-9755530.89 5135589.95 182.41
-9755530.68 5135587.59 181.35
-9755530.71 5135586.70 181.35
-9755531.00 5135584.91 181.35
-9755530.90 5135592.31 181.33
-9755530.37 5135589.84 182.46
-9755522.38 5135593.25 186.29
-9755522.68 5135593.20 184.55
-9755521.75 5135593.23 187.00
-9755522.58 5135593.01 182.87
-9755522.47 5135593.21 185.26
-9755525.30 5135593.13 181.37
-9755522.36 5135594.29 182.95
-9755521.08 5135593.03 201.54
-9755522.43 5135592.40 182.97
-9755521.86 5135593.29 190.66
-9755520.86 5135593.20 194.22
-9755523.53 5135593.40 181.41
-9755522.38 5135593.93 181.95
-9755520.93 5135593.18 190.60
-9755520.92 5135593.24 186.93
-9755522.22 5135593.08 201.61
-9755522.48 5135592.13 183.74
-9755521.03 5135592.14 190.60
-9755519.33 5135593.31 201.55
-9755514.30 5135592.16 201.52
-9755518.44 5135593.91 201.53
-9755517.00 5135592.48 201.52
-9755517.56 5135592.50 201.53
-9755516.06 5135593.03 201.52
-9755512.02 5135593.34 201.52
-9755506.94 5135593.28 201.52
-9755515.14 5135593.94 201.53
-9755516.07 5135593.95 201.53
-9755510.22 5135592.41 201.53
-9755527.67 5135594.11 181.34
-9755521.88 5135594.17 186.66
-9755528.50 5135602.06 181.26
-9755521.35 5135593.73 186.90
-9755527.72 5135595.58 181.34
-9755528.50 5135605.74 184.39
-9755521.74 5135594.88 201.61
-9755522.46 5135593.82 186.20
-9755520.11 5135594.90 187.00
-9755528.25 5135594.70 181.34
-9755528.24 5135595.58 181.34
-9755528.21 5135603.26 181.24
-9755524.99 5135599.71 181.32
-9755522.25 5135593.95 201.60
-9755525.87 5135598.82 181.33
-9755527.65 5135594.99 181.35
-9755528.26 5135593.79 181.36
-9755520.84 5135604.97 181.37
-9755522.45 5135593.64 183.91
-9755521.79 5135597.60 181.38
-9755523.24 5135603.80 181.32
-9755520.92 5135595.57 181.52
-9755522.60 5135595.61 182.11
-9755520.83 5135602.36 181.34
-9755521.79 5135597.92 181.39
-9755521.74 5135604.08 181.34
-9755525.29 5135598.78 181.34
-9755522.64 5135594.70 181.85
-9755522.54 5135594.87 183.06
-9755522.61 5135601.17 181.33
-9755526.49 5135601.17 181.29
-9755520.85 5135603.24 181.35
-9755519.92 5135599.94 181.38
-9755521.88 5135593.86 187.03
-9755524.10 5135603.84 181.32
-9755519.96 5135606.16 181.35
-9755521.50 5135595.78 181.43
-9755522.10 5135601.50 181.36
-9755521.70 5135603.22 181.35
-9755520.18 5135594.85 201.58
-9755523.19 5135599.68 181.34
-9755525.64 5135593.80 181.39
-9755522.29 5135602.31 181.34
-9755520.90 5135596.70 181.48
-9755520.89 5135599.04 181.41
-9755525.35 5135605.60 181.31
-9755526.72 5135605.31 181.26
-9755522.39 5135594.80 183.49
-9755526.52 5135602.08 181.28
-9755522.17 5135593.79 198.00
-9755528.22 5135597.34 181.33
-9755521.66 5135594.33 198.88
-9755522.04 5135599.06 181.35
-9755527.86 5135605.91 183.93
-9755527.37 5135598.77 181.31
-9755523.55 5135605.32 181.33
-9755525.62 5135596.49 181.35
-9755522.35 5135595.29 183.80
-9755525.03 5135594.98 181.37
-9755521.88 5135594.93 198.00
-9755527.66 5135604.74 181.26
-9755526.19 5135602.09 181.29
-9755520.04 5135596.40 181.57
-9755522.46 5135595.29 183.25
-9755522.44 5135593.77 185.67
-9755522.22 5135594.97 200.57
-9755522.13 5135594.71 183.06
-9755521.30 5135595.15 183.87
-9755524.99 5135602.37 181.30
-9755521.87 5135594.44 198.69
-9755524.37 5135598.21 181.36
-9755522.44 5135595.26 184.71
-9755524.09 5135605.64 181.32
-9755522.18 5135594.97 182.36
-9755520.08 5135595.35 184.01
-9755526.77 5135595.57 181.36
-9755520.02 5135595.48 181.61
-9755520.14 5135594.75 197.97
-9755526.75 5135594.67 181.37
-9755521.66 5135595.52 182.06
-9755524.13 5135605.02 181.34
-9755521.90 5135594.87 194.30
-9755521.67 5135595.52 183.10
-9755525.01 5135603.28 181.30
-9755523.26 5135597.57 181.37
-9755521.76 5135595.38 183.90
-9755521.09 5135595.21 184.21
-9755520.82 5135592.42 186.97
-9755515.35 5135595.74 181.62
-9755510.20 5135598.27 184.86
-9755511.10 5135604.87 181.44
-9755514.43 5135595.47 181.62
-9755509.36 5135596.49 184.82
-9755510.51 5135594.90 186.55
-9755510.82 5135595.61 184.72
-9755511.07 5135594.47 196.85
-9755512.57 5135601.66 181.42
-9755508.77 5135594.25 201.96
-9755513.77 5135594.76 197.98
-9755517.87 5135601.42 181.39
-9755511.76 5135595.66 184.77
-9755509.45 5135597.40 184.87
-9755509.21 5135594.27 195.07
-9755516.17 5135594.75 197.82
-9755508.27 5135594.93 186.57
-9755511.82 5135594.60 186.61
-9755516.57 5135594.90 186.59
-9755514.41 5135605.28 181.40
-9755507.32 5135600.47 181.44
-9755512.73 5135597.45 181.99
-9755511.75 5135598.99 181.92
-9755507.03 5135601.39 181.46
-9755511.19 5135594.92 186.57
-9755509.43 5135599.91 181.43
-9755512.70 5135594.92 186.58
-9755509.34 5135598.85 184.89
-9755508.38 5135594.51 189.07
-9755512.92 5135597.56 181.51
-9755510.85 5135599.10 182.08
-9755511.06 5135593.80 202.54
-9755513.63 5135594.82 183.65
-9755512.65 5135596.44 184.45
-9755513.68 5135604.67 181.41
-9755519.15 5135594.98 186.63
-9755516.76 5135598.73 181.46
-9755512.67 5135599.02 181.46
-9755518.53 5135594.97 186.60
-9755511.69 5135594.67 197.71
-9755506.74 5135594.31 184.75
-9755515.99 5135594.67 190.67
-9755519.12 5135598.76 181.46
-9755510.13 5135594.24 199.73
-9755508.44 5135594.53 201.68
-9755512.63 5135596.30 182.01
-9755510.52 5135594.64 202.55
-9755516.82 5135594.91 181.66
-9755507.91 5135600.49 181.45
-9755512.62 5135598.32 184.39
-9755512.62 5135595.77 182.03
-9755519.89 5135594.89 181.58
-9755516.73 5135603.80 181.40
-9755510.34 5135599.21 182.05
-9755516.70 5135603.20 181.40
-9755512.63 5135599.04 182.30
-9755514.33 5135601.68 181.42
-9755518.54 5135597.26 181.58
-9755512.04 5135598.06 181.97
-9755512.66 5135598.10 181.51
-9755508.65 5135594.93 202.55
-9755512.90 5135594.07 187.02
-9755511.80 5135596.41 181.92
-9755510.14 5135594.31 197.31
-9755515.88 5135594.80 184.59
-9755517.03 5135598.17 181.51
-9755512.03 5135597.22 181.93
-9755510.07 5135594.42 194.47
-9755509.35 5135602.82 181.45
-9755508.77 5135599.78 182.02
-9755509.23 5135594.37 189.87
-9755514.92 5135594.38 186.64
-9755515.18 5135603.17 181.40
-9755512.88 5135594.32 191.19
-9755516.16 5135597.22 181.53
-9755509.01 5135594.26 194.30
-9755508.82 5135594.63 189.58
-9755512.75 5135594.64 196.93
-9755512.68 5135594.66 191.36
-9755519.95 5135595.16 184.35
-9755517.62 5135600.82 181.41
-9755509.12 5135594.35 191.59
-9755509.79 5135594.30 186.62
-9755512.80 5135594.25 202.56
-9755508.66 5135599.07 182.02
-9755517.74 5135594.90 186.63
-9755515.13 5135594.55 201.58
-9755512.91 5135599.89 181.44
-9755511.11 5135599.59 181.42
-9755512.45 5135594.70 187.25
-9755512.80 5135594.36 188.61
-9755512.69 5135596.30 181.58
-9755509.39 5135598.98 181.42
-9755509.65 5135602.49 181.45
-9755510.19 5135604.64 181.44
-9755506.99 5135599.58 181.43
-9755512.76 5135594.51 192.97
-9755512.01 5135601.97 181.43
-9755509.72 5135599.39 184.92
-9755513.69 5135594.77 184.47
-9755510.31 5135596.48 184.83
-9755510.16 5135605.21 181.44
-9755515.29 5135596.38 181.58
-9755514.44 5135597.52 181.55
-9755512.66 5135594.89 185.26
-9755509.50 5135594.38 189.06
-9755512.89 5135604.66 181.42
-9755517.86 5135594.81 201.63
-9755516.14 5135602.87 181.41
-9755512.80 5135594.52 197.67
-9755515.35 5135594.62 187.00
-9755510.23 5135594.64 199.18
-9755508.54 5135594.56 193.51
-9755511.59 5135594.53 187.92
-9755516.16 5135594.92 183.46
-9755507.02 5135599.54 182.04
-9755507.37 5135594.41 185.34
-9755512.04 5135601.36 181.43
-9755517.06 5135605.28 181.39
-9755513.49 5135598.41 181.48
-9755510.45 5135594.26 198.40
-9755511.84 5135595.80 181.93
-9755507.10 5135594.61 184.71
-9755515.87 5135595.14 181.65
-9755519.18 5135594.69 186.97
-9755512.70 5135594.31 194.96
-9755512.03 5135604.03 181.43
-9755514.33 5135594.41 198.00
-9755517.94 5135595.05 183.22
-9755516.97 5135594.32 197.97
-9755510.64 5135594.93 184.82
-9755508.07 5135594.34 200.84
-9755511.24 5135594.24 186.64
-9755510.14 5135594.31 201.41
-9755513.49 5135594.85 181.64
-9755510.72 5135594.31 191.78
-9755513.00 5135594.39 186.63
-9755513.53 5135601.43 181.44
-9755508.50 5135599.92 181.43
-9755510.37 5135594.48 192.73
-9755516.82 5135594.62 186.96
-9755517.04 5135595.06 185.00
-9755510.19 5135594.48 195.30
-9755512.61 5135599.85 182.36
-9755512.69 5135595.77 181.62
-9755514.40 5135596.35 181.58
-9755512.53 5135600.00 184.35
-9755508.69 5135594.35 194.30
-9755518.21 5135600.55 181.40
-9755516.76 5135597.02 181.56
-9755512.44 5135594.75 195.02
-9755507.73 5135594.31 186.61
-9755512.88 5135605.85 181.42
-9755510.21 5135594.70 201.43
-9755512.70 5135598.44 182.02
-9755512.69 5135594.37 200.10
-9755512.03 5135599.48 184.93
-9755514.05 5135594.80 183.08
-9755515.91 5135594.65 187.00
-9755513.02 5135594.54 190.64
-9755513.27 5135595.72 181.59
-9755512.17 5135594.38 199.33
-9755508.74 5135594.54 199.73
-9755514.25 5135594.68 198.00
-9755508.70 5135594.40 189.45
-9755515.89 5135598.82 181.43
-9755512.82 5135594.35 198.80
-9755512.42 5135595.21 182.41
-9755509.53 5135594.35 187.43
-9755516.66 5135594.20 190.68
-9755512.94 5135594.50 181.63
-9755508.72 5135601.70 181.46
-9755512.59 5135594.29 192.25
-9755511.83 5135594.32 197.77
-9755508.27 5135594.47 198.95
-9755512.83 5135596.73 185.06
-9755518.67 5135594.28 197.94
-9755506.08 5135603.15 181.47
-9755506.20 5135593.82 186.98
-9755506.10 5135595.61 184.78
-9755505.48 5135604.94 181.46
-9755505.31 5135597.04 184.82
-9755506.54 5135599.41 184.90
-9755506.44 5135594.94 184.80
-9755506.17 5135594.12 190.65
-9755506.27 5135594.03 194.32
-9755506.26 5135594.33 183.49
-9755505.19 5135594.36 184.87
-9755505.44 5135599.71 182.00
-9755506.08 5135598.95 181.43
-9755505.94 5135599.63 182.01
-9755505.31 5135598.20 184.83
-9755505.27 5135601.38 181.48
-9755504.33 5135598.92 182.04
-9755505.19 5135598.86 184.86
-9755506.34 5135594.50 185.64
-9755503.70 5135593.29 201.54
-9755503.43 5135592.37 201.53
-9755503.74 5135604.02 181.47
-9755504.98 5135599.39 184.93
-9755504.47 5135593.86 190.66
-9755504.36 5135598.21 184.84
-9755504.65 5135602.29 181.47
-9755503.76 5135604.60 181.47
-9755504.79 5135594.32 183.67
-9755504.43 5135599.52 182.36
-9755504.33 5135604.61 181.46
-9755503.51 5135594.14 187.02
-9755504.30 5135593.87 197.97
-9755503.48 5135600.76 181.49
-9755503.59 5135594.29 184.75
-9755504.12 5135594.94 184.86
-9755503.52 5135598.91 182.34
-9755503.60 5135596.23 181.81
-9755503.67 5135594.09 197.98
-9755504.06 5135594.63 184.89
-9755528.36 5135578.40 181.44
-9755523.16 5135577.51 184.54
-9755524.56 5135578.35 181.53
-9755522.64 5135578.28 201.87
-9755523.16 5135579.87 186.24
-9755524.78 5135579.26 181.51
-9755522.85 5135578.37 198.71
-9755523.17 5135576.73 183.89
-9755522.61 5135578.96 188.04
-9755523.27 5135578.29 186.31
-9755520.95 5135577.66 201.89
-9755523.28 5135578.37 182.29
-9755522.80 5135577.43 198.55
-9755523.07 5135580.07 181.99
-9755525.75 5135579.23 181.51
-9755523.17 5135577.64 185.51
-9755523.27 5135579.19 185.57
-9755522.68 5135576.77 191.11
-9755522.66 5135577.72 201.90
-9755522.64 5135579.95 190.92
-9755522.51 5135577.72 187.33
-9755523.36 5135579.25 181.55
-9755523.27 5135578.16 184.82
-9755522.72 5135579.99 191.84
-9755523.37 5135578.37 181.55
-9755522.58 5135579.28 187.31
-9755522.48 5135578.34 187.22
-9755522.63 5135579.04 191.00
-9755526.65 5135576.85 181.51
-9755523.27 5135580.12 184.60
-9755520.00 5135577.66 201.89
-9755521.79 5135576.73 201.93
-9755522.70 5135578.25 202.60
-9755523.13 5135579.25 182.97
-9755523.18 5135577.54 183.76
-9755527.81 5135577.52 181.46
-9755527.76 5135578.42 181.46
-9755523.32 5135576.76 184.68
-9755523.43 5135576.58 186.13
-9755522.91 5135578.10 183.13
-9755523.10 5135577.63 182.01
-9755521.90 5135580.18 187.11
-9755522.64 5135579.13 194.61
-9755521.94 5135577.57 198.19
-9755522.67 5135576.86 186.65
-9755525.11 5135576.86 181.53
-9755521.95 5135577.48 187.28
-9755523.58 5135576.75 182.07
-9755522.66 5135578.23 194.59
-9755522.86 5135577.84 186.64
-9755522.44 5135578.62 181.54
-9755526.89 5135577.77 181.48
-9755520.90 5135578.86 201.82
-9755522.82 5135580.24 183.73
-9755523.22 5135576.73 185.31
-9755521.64 5135579.18 194.44
-9755520.28 5135579.98 201.76
-9755522.35 5135576.65 187.32
-9755523.02 5135577.68 187.39
-9755522.85 5135576.55 183.59
-9755527.79 5135576.69 181.47
-9755523.02 5135578.03 187.71
-9755522.20 5135580.25 198.08
-9755522.57 5135578.88 181.55
-9755522.94 5135578.99 185.42
-9755524.56 5135579.21 181.52
-9755523.39 5135576.88 181.55
-9755521.64 5135579.98 194.44
-9755523.23 5135579.88 183.98
-9755522.92 5135579.27 183.71
-9755522.89 5135580.38 183.08
-9755521.77 5135579.01 190.82
-9755521.82 5135579.93 198.10
-9755522.81 5135577.41 187.86
-9755521.76 5135579.30 198.14
-9755521.90 5135579.25 187.19
-9755521.61 5135577.61 190.95
-9755522.91 5135579.98 184.56
-9755521.99 5135578.45 198.21
-9755523.44 5135577.70 183.03
-9755522.81 5135580.09 181.99
-9755528.42 5135580.16 181.42
-9755522.62 5135579.05 198.26
-9755523.26 5135579.99 185.54
-9755521.96 5135578.40 187.22
-9755522.02 5135577.62 194.60
-9755519.98 5135578.31 201.85
-9755521.77 5135576.69 198.26
-9755521.94 5135576.67 187.32
-9755522.11 5135577.22 198.21
-9755528.13 5135576.59 181.46
-9755515.88 5135580.02 201.78
-9755516.72 5135578.52 201.85
-9755517.06 5135580.01 201.78
-9755514.10 5135579.97 201.77
-9755515.26 5135579.10 201.83
-9755517.04 5135576.74 201.98
-9755517.60 5135580.00 201.77
-9755515.28 5135578.52 201.86
-9755509.38 5135579.12 201.37
-9755507.62 5135576.74 201.23
-9755508.52 5135579.05 201.36
-9755512.04 5135579.12 201.82
-9755515.29 5135576.76 201.98
-9755509.39 5135579.97 201.41
-9755511.18 5135577.91 202.33
-9755510.91 5135579.43 201.91
-9755507.90 5135579.09 201.37
-9755511.79 5135577.05 202.81
-9755515.88 5135578.25 201.88
-9755515.28 5135580.01 201.77
-9755507.65 5135577.59 201.29
-9755511.07 5135579.91 201.90
-9755511.14 5135578.96 202.73
-9755514.40 5135577.30 201.93
-9755519.40 5135578.23 201.86
-9755513.55 5135576.72 201.95
-9755507.02 5135579.37 201.39
-9755505.87 5135579.95 201.42
-9755521.97 5135592.58 186.64
-9755523.04 5135584.13 183.01
-9755522.68 5135592.23 186.03
-9755522.79 5135584.23 186.07
-9755523.59 5135592.04 181.41
-9755529.22 5135583.99 181.39
-9755528.56 5135588.43 181.38
-9755522.38 5135591.38 185.36
-9755523.31 5135581.31 184.84
-9755523.32 5135581.62 181.53
-9755522.43 5135589.03 182.86
-9755523.24 5135584.80 183.44
-9755522.45 5135590.59 183.79
-9755522.54 5135588.92 185.36
-9755522.83 5135585.79 185.36
-9755525.65 5135583.40 181.47
-9755525.05 5135584.04 181.46
-9755523.12 5135580.99 183.71
-9755522.82 5135585.72 183.84
-9755522.57 5135587.43 182.88
-9755522.59 5135582.01 198.11
-9755524.16 5135584.31 181.49
-9755522.49 5135583.39 194.74
-9755523.17 5135581.38 185.63
-9755522.59 5135588.23 183.18
-9755523.09 5135580.63 184.39
-9755522.70 5135588.87 183.76
-9755521.78 5135592.62 187.03
-9755523.29 5135585.20 181.48
-9755521.26 5135593.19 197.87
-9755525.10 5135590.80 181.42
-9755523.29 5135581.57 186.49
-9755522.59 5135580.79 198.19
-9755522.62 5135590.63 185.55
-9755523.07 5135583.37 183.27
-9755523.32 5135583.12 186.54
-9755528.62 5135587.60 181.39
-9755522.60 5135585.79 198.05
-9755521.80 5135582.63 197.91
-9755522.48 5135589.02 186.11
-9755522.52 5135583.40 187.11
-9755521.01 5135588.86 190.58
-9755522.84 5135581.75 183.74
-9755522.43 5135586.69 187.03
-9755523.27 5135589.02 181.44
-9755522.78 5135585.61 184.79
-9755523.02 5135580.60 186.04
-9755522.65 5135588.22 186.49
-9755522.16 5135587.82 186.66
-9755522.48 5135590.69 184.71
-9755526.86 5135588.15 181.41
-9755523.10 5135581.45 183.90
-9755525.67 5135586.70 181.44
-9755521.98 5135587.49 201.55
-9755522.49 5135587.29 197.75
-9755522.69 5135588.91 184.70
-9755523.05 5135582.78 183.28
-9755522.91 5135582.52 184.52
-9755520.86 5135591.54 194.27
-9755521.92 5135583.80 186.88
-9755525.95 5135588.47 181.43
-9755521.59 5135592.44 197.89
-9755524.56 5135580.99 181.51
-9755525.68 5135584.89 181.44
-9755522.55 5135589.70 186.01
-9755523.05 5135584.99 182.99
-9755522.60 5135581.64 194.49
-9755526.86 5135584.86 181.43
-9755521.04 5135589.06 197.88
-9755525.74 5135581.64 181.48
-9755522.79 5135580.48 187.24
-9755521.59 5135588.30 190.59
-9755522.03 5135584.94 197.90
-9755522.59 5135586.58 183.70
-9755521.70 5135588.19 186.90
-9755522.68 5135586.71 185.97
-9755522.04 5135585.09 201.57
-9755522.49 5135591.55 184.85
-9755523.54 5135586.68 181.48
-9755522.80 5135585.69 183.04
-9755520.82 5135587.40 201.55
-9755525.36 5135592.31 181.40
-9755523.04 5135585.67 183.42
-9755522.50 5135589.92 182.16
-9755522.70 5135585.79 186.60
-9755522.72 5135585.95 190.64
-9755522.55 5135585.76 187.04
-9755522.63 5135580.90 190.73
-9755524.82 5135585.14 181.45
-9755524.17 5135588.99 181.44
-9755522.07 5135592.13 182.60
-9755521.30 5135588.36 190.60
-9755521.97 5135581.68 197.97
-9755522.39 5135590.81 182.15
-9755521.90 5135589.94 194.27
-9755522.65 5135583.31 201.67
-9755523.39 5135580.45 182.12
-9755522.45 5135586.81 190.69
-9755522.47 5135588.47 194.34
-9755521.60 5135584.91 186.99
-9755522.30 5135586.68 198.00
-9755523.58 5135588.40 181.44
-9755521.06 5135588.38 194.27
-9755523.07 5135580.72 182.90
-9755521.73 5135586.78 197.89
-9755526.52 5135592.34 181.39
-9755522.78 5135581.66 187.15
-9755523.16 5135584.67 186.50
-9755521.91 5135587.40 190.60
-9755522.69 5135584.75 183.35
-9755521.65 5135591.52 197.93
-9755525.12 5135587.30 181.43
-9755522.55 5135589.76 184.01
-9755521.32 5135588.23 197.90
-9755522.24 5135591.62 194.32
-9755528.33 5135583.08 181.41
-9755521.93 5135583.09 194.26
-9755522.68 5135587.48 181.88
-9755522.41 5135591.50 186.05
-9755521.08 5135591.63 201.53
-9755527.74 5135586.64 181.40
-9755524.46 5135582.50 181.51
-9755527.77 5135583.42 181.42
-9755522.90 5135583.14 184.33
-9755522.82 5135583.54 182.93
-9755522.57 5135582.29 187.13
-9755522.69 5135587.98 184.60
-9755522.83 5135587.46 183.67
-9755524.50 5135588.08 181.43
-9755522.48 5135587.31 185.47
-9755523.12 5135584.96 182.04
-9755526.81 5135591.40 181.39
-9755525.97 5135591.37 181.40
-9755522.65 5135590.05 184.77
-9755522.55 5135583.97 194.34
-9755521.70 5135583.13 190.61
-9755521.88 5135582.44 187.01
-9755521.69 5135590.43 197.91
-9755521.67 5135587.43 194.27
-9755521.11 5135584.79 186.95
-9755521.81 5135590.77 194.28
-9755522.43 5135587.55 194.35
-9755524.80 5135583.34 181.48
-9755521.63 5135583.19 186.95
-9755525.98 5135589.08 181.42
-9755521.08 5135590.80 194.23
-9755527.41 5135590.83 181.40
-9755522.40 5135583.43 191.42
-9755523.12 5135582.45 186.03
-9755521.10 5135590.15 190.59
-9755520.25 5135590.70 201.54
-9755523.33 5135584.28 181.50
-9755524.44 5135589.97 181.43
-9755522.54 5135586.98 194.34
-9755524.23 5135583.42 181.50
-9755521.86 5135589.66 186.94
-9755528.00 5135591.43 181.37
-9755521.68 5135580.96 190.74
-9755523.64 5135582.18 181.51
-9755521.91 5135591.71 194.32
-9755521.04 5135590.02 197.90
-9755522.63 5135583.48 198.04
-9755522.26 5135589.95 194.32
-9755522.67 5135580.92 202.49
-9755522.75 5135586.59 182.98
-9755521.20 5135587.27 197.95
-9755521.70 5135585.07 190.59
-9755523.15 5135583.05 183.65
-9755522.43 5135588.97 181.50
-9755521.17 5135592.35 197.92
-9755521.12 5135590.16 194.23
-9755521.62 5135581.14 198.00
-9755522.64 5135580.82 190.88
-9755521.95 5135582.50 194.27
-9755522.62 5135588.97 182.31
-9755523.28 5135583.90 182.27
-9755522.11 5135589.00 186.07
-9755522.72 5135590.51 181.44
-9755522.14 5135590.55 182.71
-9755521.31 5135587.35 186.96
-9755523.05 5135585.15 185.77
-9755521.96 5135586.51 201.57
-9755522.67 5135580.72 198.57
-9755528.07 5135584.88 181.40
-9755522.36 5135591.69 183.10
-9755527.72 5135589.90 181.38
-9755522.74 5135587.41 184.53
-9755522.45 5135590.96 183.15
-9755522.47 5135588.11 182.34
-9755522.16 5135591.09 186.64
-9755526.55 5135589.29 181.40
-9755526.85 5135586.73 181.42
-9755522.93 5135582.67 186.20
-9755527.45 5135584.95 181.42
-9755521.63 5135586.48 190.61
-9755521.15 5135590.56 190.60
-9755520.00 5135588.93 201.54
-9755522.71 5135586.01 194.35
-9755522.53 5135587.43 190.68
-9755521.31 5135589.99 186.91
-9755521.89 5135580.95 194.38
-9755522.71 5135584.28 182.12
-9755521.82 5135585.82 186.99
-9755521.04 5135592.18 194.23
-9755522.72 5135585.72 181.97
-9755523.33 5135587.57 181.47
-9755523.02 5135583.33 182.47
-9755522.37 5135591.64 190.59
-9755522.47 5135587.62 187.05
-9755521.72 5135581.54 194.37
-9755522.41 5135590.83 186.35
-9755523.32 5135585.75 181.48
-9755523.13 5135580.82 185.70
-9755522.47 5135590.02 185.30
-9755521.96 5135588.41 194.29
-9755521.77 5135583.20 197.93
-9755527.40 5135580.73 181.46
-9755523.11 5135586.30 183.23
-9755524.24 5135587.30 181.45
-9755525.14 5135589.94 181.41
-9755525.12 5135580.73 181.50
-9755521.73 5135587.36 197.92
-9755522.83 5135586.42 184.95
-9755525.35 5135589.02 181.41
-9755524.24 5135586.64 181.47
-9755522.46 5135588.13 187.02
-9755521.62 5135580.82 187.06
-9755522.65 5135581.44 202.50
-9755521.76 5135584.83 194.28
-9755522.69 5135592.25 182.14
-9755521.34 5135585.67 190.57
-9755522.70 5135585.12 181.50
-9755521.15 5135586.78 197.93
-9755522.88 5135582.37 185.48
-9755526.85 5135587.52 181.41
-9755521.65 5135589.92 197.89
-9755524.76 5135588.12 181.43
-9755522.73 5135589.94 181.45
-9755522.54 5135584.33 187.09
-9755521.28 5135585.59 197.93
-9755522.82 5135584.22 183.01
-9755521.27 5135591.70 197.86
-9755523.07 5135584.02 186.04
-9755522.34 5135590.38 186.99
-9755522.43 5135591.38 182.16
-9755521.36 5135585.70 194.25
-9755526.87 5135585.87 181.43
-9755521.08 5135587.54 194.26
-9755522.61 5135580.75 195.21
-9755521.27 5135586.42 186.98
-9755522.85 5135580.91 182.91
-9755522.53 5135580.46 187.94
-9755523.04 5135581.84 182.23
-9755522.70 5135583.38 195.09
-9755522.20 5135593.11 194.23
-9755522.47 5135586.01 181.48
-9755520.92 5135591.34 186.89
-9755526.86 5135584.36 181.43
-9755522.30 5135591.46 197.99
-9755521.30 5135589.02 186.95
-9755521.03 5135591.59 190.59
-9755522.62 5135582.01 185.47
-9755523.06 5135584.15 184.09
-9755522.66 5135580.73 199.16
-9755522.26 5135589.11 198.01
-9755522.19 5135590.60 198.01
-9755521.19 5135585.21 194.27
-9755521.35 5135582.13 194.30
-9755523.05 5135582.07 185.31
-9755521.30 5135583.01 194.26
-9755522.09 5135590.94 181.56
-9755524.83 5135581.89 181.50
-9755523.09 5135582.75 184.17
-9755520.98 5135591.00 186.89
-9755521.30 5135587.87 186.95
-9755523.02 5135585.50 183.13
-9755521.26 5135582.98 186.91
-9755522.25 5135590.48 194.33
-9755523.03 5135585.89 186.35
-9755524.46 5135590.78 181.43
-9755522.17 5135591.80 185.60
-9755522.79 5135582.42 181.52
-9755521.03 5135590.63 197.87
-9755523.07 5135583.24 184.99
-9755521.30 5135584.74 190.58
-9755521.98 5135584.31 194.25
-9755510.28 5135580.87 201.47
-9755507.58 5135584.97 201.57
-9755514.32 5135589.79 201.53
-9755507.89 5135588.30 201.55
-9755509.35 5135581.76 201.53
-9755514.40 5135585.64 201.57
-9755516.14 5135589.79 201.54
-9755513.44 5135585.04 201.57
-9755514.38 5135586.48 201.57
-9755510.50 5135588.82 201.55
-9755510.20 5135591.51 201.52
-9755518.49 5135585.66 201.56
-9755519.35 5135583.25 201.60
-9755507.87 5135585.91 201.57
-9755518.45 5135586.82 201.55
-9755510.25 5135582.37 201.55
-9755513.45 5135590.63 201.54
-9755514.37 5135583.25 201.59
-9755508.71 5135587.39 201.55
-9755515.21 5135590.68 201.53
-9755516.07 5135591.56 201.53
-9755512.01 5135580.85 201.71
-9755511.13 5135582.94 201.79
-9755511.19 5135580.87 202.15
-9755518.43 5135591.63 201.53
-9755519.35 5135590.70 201.55
-9755511.99 5135586.50 201.57
-9755510.23 5135585.61 201.57
-9755518.23 5135583.29 201.59
-9755515.90 5135581.49 201.69
-9755518.47 5135585.06 201.57
-9755514.95 5135583.28 201.59
-9755519.36 5135589.81 201.55
-9755517.91 5135583.26 201.59
-9755507.01 5135582.65 201.59
-9755508.74 5135588.84 201.53
-9755511.99 5135585.92 201.57
-9755508.54 5135582.35 201.56
-9755512.61 5135584.15 201.58
-9755508.45 5135584.12 201.58
-9755519.39 5135580.62 201.74
-9755512.57 5135588.32 201.56
-9755509.60 5135591.53 201.53
-9755512.60 5135581.74 201.67
-9755515.19 5135589.19 201.55
-9755519.39 5135585.10 201.58
-9755519.35 5135584.17 201.58
-9755518.46 5135588.92 201.54
-9755517.02 5135581.75 201.69
-9755516.71 5135582.41 201.64
-9755517.62 5135581.51 201.68
-9755518.47 5135584.19 201.57
-9755507.03 5135581.18 201.50
-9755516.69 5135585.62 201.57
-9755508.70 5135590.01 201.53
-9755511.56 5135582.00 202.49
-9755519.31 5135591.59 201.53
-9755511.05 5135583.35 202.41
-9755506.11 5135584.08 201.59
-9755506.09 5135585.56 201.57
-9755506.40 5135588.24 201.54
-9755505.19 5135585.01 201.58
-9755506.13 5135583.22 201.60
-9755505.22 5135582.62 201.58
-9755506.14 5135580.87 201.48
-9755505.24 5135584.08 201.60
-9755505.22 5135586.46 201.57
-9755506.08 5135586.76 201.57
-9755503.79 5135576.67 201.21
-9755503.49 5135578.44 201.32
-9755503.78 5135582.62 201.58
-9755503.48 5135586.73 201.56
-9755504.37 5135580.82 201.48
-9755504.60 5135585.56 201.58
-9755503.69 5135591.51 201.53
-9755606.82 5135576.15 181.07
-9755604.15 5135576.49 181.19
-9755599.99 5135576.13 181.24
-9755604.99 5135576.42 181.08
-9755600.01 5135576.72 181.23
-9755604.19 5135575.91 181.15
-9755595.90 5135576.47 181.06
-9755596.77 5135576.08 181.08
-9755595.12 5135575.93 181.04
-9755594.43 5135575.78 181.07
-9755590.21 5135576.96 181.05
-9755587.89 5135575.81 181.05
-9755585.81 5135575.69 181.02
-9755575.29 5135576.79 181.05
-9755566.40 5135576.50 181.09
-9755562.86 5135576.10 181.07
-9755567.31 5135575.99 181.09
-9755572.26 5135575.65 181.06
-9755568.84 5135576.55 181.06
-9755561.45 5135575.66 181.10
-9755564.03 5135575.92 181.11
-9755569.31 5135575.71 181.07
-9755548.75 5135576.10 181.16
-9755552.31 5135576.17 181.16
-9755547.28 5135576.73 181.17
-9755551.39 5135576.68 181.16
-9755549.95 5135576.14 181.16
-9755541.62 5135575.78 181.21
-9755534.11 5135575.81 185.53
-9755533.10 5135575.91 184.56
-9755532.52 5135575.85 184.00
-9755531.69 5135575.86 184.25
-9755532.55 5135575.85 186.08
-9755531.60 5135575.81 186.18
-9755531.61 5135575.56 185.44
-9755532.49 5135576.30 186.13
-9755532.91 5135575.98 183.90
-9755530.25 5135576.75 184.75
-9755527.51 5135575.70 181.48
-9755521.68 5135575.95 194.66
-9755522.74 5135576.02 194.74
-9755523.60 5135575.72 183.02
-9755523.08 5135577.11 194.71
-9755522.57 5135576.09 191.02
-9755523.35 5135575.80 184.44
-9755522.89 5135575.82 199.18
-9755523.42 5135575.85 185.20
-9755521.80 5135575.83 191.04
-9755523.44 5135576.06 186.56
-9755523.09 5135575.97 187.49
-9755522.72 5135575.96 202.48
-9755522.71 5135575.62 195.50
-9755523.41 5135575.66 182.40
-9755522.93 5135576.59 195.48
-9755526.62 5135576.04 181.49
-9755522.01 5135575.81 198.34
-9755521.95 5135576.65 190.96
-9755522.77 5135575.74 191.97
-9755523.11 5135575.65 188.18
-9755522.02 5135575.63 187.36
-9755522.74 5135576.00 198.51
-9755522.58 5135575.98 188.21
-9755523.63 5135575.72 181.55
-9755522.92 5135575.94 184.58
-9755523.35 5135576.03 202.05
-9755528.07 5135576.01 181.46
-9755515.85 5135576.14 202.00
-9755519.44 5135575.87 202.00
-9755516.79 5135575.84 202.02
-9755512.06 5135576.13 202.00
-9755603.27 5135620.48 184.22
-9755601.60 5135620.70 184.94
-9755603.02 5135620.07 185.50
-9755603.67 5135620.94 185.47
-9755602.43 5135620.58 185.53
-9755602.12 5135620.59 185.32
-9755601.31 5135620.35 186.26
-9755602.07 5135620.94 184.80
-9755603.89 5135620.30 181.09
-9755601.34 5135620.57 185.20
-9755600.89 5135620.07 186.15
-9755601.31 5135620.57 186.28
-9755608.66 5135620.66 181.09
-9755601.53 5135620.62 186.29
-9755600.69 5135620.32 186.13
-9755602.23 5135620.09 184.81
-9755604.21 5135620.39 185.19
-9755603.60 5135620.65 185.52
-9755601.82 5135620.74 184.92
-9755603.63 5135620.36 185.51
-9755603.35 5135620.64 185.60
-9755601.42 5135620.22 185.35
-9755600.72 5135620.66 186.10
-9755601.82 5135620.32 186.24
-9755603.88 5135620.73 185.32
-9755603.59 5135620.77 183.98
-9755602.11 5135620.37 185.41
-9755598.63 5135620.25 181.08
-9755594.09 5135620.75 180.96
-9755589.73 5135620.27 181.05
-9755593.55 5135620.56 181.09
-9755595.70 5135620.57 181.07
-9755594.74 5135620.58 181.09
-9755596.49 5135620.24 181.07
-9755597.70 5135620.18 181.04
-9755600.31 5135620.23 186.52
-9755602.46 5135620.04 186.93
-9755601.90 5135620.93 186.21
-9755600.67 5135621.11 181.26
-9755601.78 5135625.03 185.18
-9755601.53 5135621.39 186.19
-9755602.51 5135625.12 186.53
-9755602.45 5135627.01 188.32
-9755600.88 5135624.96 187.48
-9755601.95 5135627.31 190.03
-9755602.46 5135625.54 186.52
-9755605.36 5135623.03 181.02
-9755601.26 5135625.07 185.55
-9755603.92 5135627.55 188.66
-9755600.95 5135623.22 181.26
-9755603.16 5135621.50 183.93
-9755601.20 5135627.86 187.52
-9755601.28 5135623.84 185.53
-9755601.17 5135623.66 187.54
-9755600.76 5135626.70 187.64
-9755602.18 5135623.33 185.37
-9755601.56 5135623.35 185.57
-9755600.02 5135626.47 187.79
-9755601.78 5135625.05 185.76
-9755599.68 5135627.96 187.38
-9755604.50 5135627.59 185.10
-9755599.74 5135623.19 181.23
-9755602.67 5135623.28 185.86
-9755600.43 5135627.76 187.42
-9755603.63 5135625.99 187.27
-9755600.59 5135625.32 185.24
-9755600.07 5135623.59 186.70
-9755602.10 5135623.75 184.02
-9755600.72 5135624.74 185.86
-9755604.55 5135627.83 185.14
-9755608.31 5135625.07 181.10
-9755603.61 5135627.35 188.50
-9755604.84 5135622.40 181.12
-9755601.50 5135625.36 187.34
-9755601.48 5135627.52 190.17
-9755599.82 5135628.16 189.00
-9755602.45 5135620.99 184.19
-9755601.91 5135625.60 189.56
-9755601.29 5135621.32 185.04
-9755601.77 5135621.71 181.26
-9755600.49 5135624.77 185.92
-9755600.37 5135627.29 189.74
-9755599.79 5135626.47 187.00
-9755602.98 5135625.95 181.22
-9755603.63 5135627.52 189.08
-9755600.15 5135621.50 184.73
-9755601.68 5135628.15 190.79
-9755599.69 5135623.76 186.74
-9755603.88 5135627.99 188.28
-9755600.39 5135624.84 186.99
-9755601.90 5135624.24 185.58
-9755600.68 5135625.67 186.74
-9755603.57 5135628.18 188.74
-9755602.22 5135626.48 190.76
-9755601.18 5135627.34 190.34
-9755603.56 5135626.48 190.20
-9755600.61 5135627.73 187.14
-9755601.56 5135627.28 185.40
-9755599.76 5135623.87 186.52
-9755605.05 5135627.44 188.03
-9755607.36 5135623.20 181.09
-9755603.59 5135628.06 188.75
-9755602.46 5135627.96 189.96
-9755601.92 5135623.40 185.73
-9755603.09 5135626.64 190.14
-9755602.13 5135624.76 185.79
-9755606.14 5135625.35 181.12
-9755601.59 5135626.89 190.74
-9755601.77 5135627.24 190.23
-9755603.83 5135628.01 188.72
-9755602.16 5135627.24 190.31
-9755603.65 5135625.89 187.64
-9755599.86 5135628.16 185.09
-9755599.82 5135626.12 188.95
-9755601.96 5135625.79 189.99
-9755600.37 5135620.99 184.87
-9755603.38 5135627.49 186.94
-9755601.89 5135624.93 187.06
-9755600.70 5135625.92 187.48
-9755602.94 5135626.73 190.41
-9755600.37 5135623.56 187.39
-9755599.87 5135627.43 187.45
-9755607.15 5135625.69 181.10
-9755602.10 5135624.67 181.29
-9755604.43 5135626.52 181.13
-9755604.49 5135628.14 188.64
-9755602.06 5135625.97 188.41
-9755602.36 5135626.79 189.17
-9755601.81 5135621.01 184.94
-9755605.27 5135627.33 186.76
-9755602.61 5135626.03 184.98
-9755599.89 5135626.40 186.54
-9755602.37 5135625.40 184.55
-9755599.68 5135627.89 189.08
-9755604.80 5135628.01 188.09
-9755603.33 5135627.47 188.35
-9755603.16 5135625.56 188.21
-9755605.31 5135627.72 181.09
-9755602.94 5135627.60 189.02
-9755603.59 5135621.01 183.93
-9755603.86 5135627.30 188.46
-9755604.45 5135624.38 181.14
-9755602.12 5135627.53 189.95
-9755602.41 5135623.90 184.01
-9755599.69 5135624.20 186.39
-9755600.07 5135623.85 186.74
-9755601.73 5135627.65 189.14
-9755601.32 5135623.67 187.39
-9755602.91 5135628.02 188.06
-9755601.79 5135627.14 185.31
-9755600.10 5135628.13 190.25
-9755601.12 5135623.97 183.74
-9755600.22 5135626.35 190.04
-9755600.59 5135623.19 184.22
-9755600.46 5135624.06 183.92
-9755603.03 5135626.75 187.39
-9755602.94 5135627.09 187.09
-9755599.51 5135627.12 187.71
-9755603.90 5135626.36 187.51
-9755601.45 5135627.32 187.76
-9755606.29 5135625.02 181.11
-9755603.38 5135626.71 190.30
-9755602.26 5135625.72 184.51
-9755601.83 5135623.63 185.71
-9755603.04 5135623.27 181.26
-9755602.61 5135621.49 184.15
-9755604.77 5135626.59 187.99
-9755600.11 5135625.65 187.65
-9755600.34 5135625.74 188.81
-9755599.81 5135623.04 185.23
-9755601.25 5135627.81 190.40
-9755602.11 5135624.20 187.21
-9755599.77 5135625.88 189.91
-9755602.35 5135626.33 185.00
-9755604.81 5135627.37 188.01
-9755602.23 5135626.58 188.25
-9755601.98 5135627.18 189.32
-9755601.05 5135626.82 189.50
-9755603.34 5135625.94 187.62
-9755600.09 5135624.08 186.71
-9755601.51 5135626.01 189.10
-9755607.09 5135620.89 181.11
-9755603.29 5135624.13 181.14
-9755601.59 5135625.71 189.56
-9755602.77 5135627.36 190.32
-9755602.42 5135627.36 188.38
-9755602.74 5135627.87 188.95
-9755603.00 5135625.98 187.79
-9755599.59 5135628.14 190.44
-9755604.54 5135626.70 187.31
-9755606.52 5135621.79 181.10
-9755602.77 5135627.18 189.26
-9755602.77 5135625.46 184.68
-9755602.77 5135627.56 189.06
-9755602.92 5135627.76 187.07
-9755603.27 5135625.03 187.58
-9755603.00 5135623.97 185.34
-9755602.37 5135627.06 189.22
-9755604.40 5135626.98 188.24
-9755604.01 5135627.32 188.21
-9755601.63 5135623.40 184.14
-9755602.70 5135626.62 188.72
-9755604.52 5135626.56 187.29
-9755600.58 5135627.56 190.34
-9755600.36 5135627.57 187.03
-9755607.75 5135623.26 181.12
-9755605.56 5135625.91 181.12
-9755601.29 5135626.03 190.10
-9755602.22 5135627.53 190.66
-9755602.25 5135626.55 190.43
-9755602.16 5135624.21 183.88
-9755600.13 5135627.86 188.41
-9755602.39 5135624.78 185.78
-9755604.74 5135626.23 187.12
-9755603.72 5135621.07 183.82
-9755605.38 5135622.07 181.10
-9755600.32 5135626.02 190.17
-9755600.48 5135626.36 188.96
-9755604.54 5135627.89 188.13
-9755605.09 5135625.89 181.14
-9755603.66 5135625.82 188.32
-9755601.39 5135625.59 190.10
-9755603.57 5135626.41 187.77
-9755603.91 5135627.12 181.13
-9755605.11 5135627.09 186.81
-9755601.42 5135625.53 188.97
-9755601.24 5135622.44 184.79
-9755601.72 5135622.50 184.85
-9755600.81 5135625.09 185.32
-9755600.06 5135623.21 185.23
-9755608.29 5135622.21 181.08
-9755603.67 5135627.61 189.27
-9755602.23 5135626.45 189.71
-9755602.96 5135621.76 181.25
-9755600.04 5135627.21 189.28
-9755600.41 5135626.90 188.55
-9755601.53 5135621.59 185.00
-9755602.96 5135621.54 184.10
-9755603.71 5135626.76 190.12
-9755606.29 5135621.26 181.07
-9755600.34 5135625.34 186.13
-9755601.88 5135621.57 184.86
-9755602.17 5135624.26 185.55
-9755599.49 5135623.55 185.94
-9755602.16 5135626.96 189.32
-9755604.21 5135626.80 188.34
-9755603.39 5135626.49 188.42
-9755603.88 5135626.96 188.42
-9755599.79 5135625.58 187.10
-9755601.77 5135627.80 189.95
-9755601.26 5135622.21 184.90
-9755601.27 5135626.22 189.01
-9755602.29 5135625.02 186.97
-9755599.84 5135626.96 189.80
-9755602.19 5135621.01 185.18
-9755601.20 5135627.19 188.88
-9755601.20 5135624.33 187.22
-9755604.42 5135628.00 181.15
-9755601.15 5135627.00 188.55
-9755605.35 5135627.40 188.06
-9755601.94 5135623.52 185.46
-9755600.33 5135624.72 181.26
-9755602.43 5135627.37 181.33
-9755601.43 5135626.85 189.13
-9755599.77 5135627.79 188.63
-9755599.72 5135623.58 186.03
-9755599.73 5135623.31 186.10
-9755600.75 5135626.92 189.68
-9755602.50 5135626.70 189.51
-9755602.79 5135625.96 187.46
-9755604.79 5135628.00 184.84
-9755603.06 5135626.06 190.39
-9755602.02 5135625.12 184.75
-9755602.90 5135627.66 188.13
-9755603.30 5135626.53 181.12
-9755601.62 5135624.82 185.27
-9755603.29 5135626.15 187.62
-9755599.41 5135625.91 189.00
-9755601.54 5135622.75 185.19
-9755603.06 5135621.11 184.05
-9755601.27 5135626.15 187.35
-9755600.37 5135626.50 190.35
-9755602.78 5135624.49 185.58
-9755601.57 5135628.02 187.18
-9755603.83 5135624.95 181.12
-9755602.12 5135623.87 185.55
-9755599.86 5135623.99 185.27
-9755603.10 5135626.48 190.42
-9755599.39 5135623.90 186.33
-9755602.96 5135625.04 181.26
-9755602.01 5135626.19 186.94
-9755601.86 5135625.66 187.27
-9755601.17 5135627.98 189.00
-9755604.24 5135626.45 187.24
-9755603.68 5135627.99 189.27
-9755600.39 5135627.54 190.44
-9755602.78 5135626.33 189.83
-9755603.99 5135626.53 188.43
-9755600.52 5135626.48 189.82
-9755599.76 5135625.41 189.47
-9755601.10 5135626.52 189.42
-9755602.80 5135627.33 188.55
-9755601.16 5135626.97 185.76
-9755602.12 5135621.58 184.82
-9755603.01 5135626.09 188.43
-9755603.29 5135620.98 185.60
-9755600.63 5135626.95 188.60
-9755600.16 5135623.27 186.61
-9755603.92 5135626.78 181.11
-9755608.61 5135622.01 181.08
-9755600.37 5135626.37 190.41
-9755603.12 5135624.91 183.73
-9755603.32 5135626.80 187.38
-9755602.90 5135625.03 187.35
-9755599.78 5135624.26 185.27
-9755601.89 5135625.37 187.28
-9755602.89 5135627.61 188.44
-9755603.35 5135624.10 185.55
-9755602.21 5135627.42 185.25
-9755599.72 5135627.93 189.54
-9755602.34 5135625.94 188.24
-9755603.42 5135627.65 188.20
-9755602.48 5135626.36 189.75
-9755600.42 5135627.55 189.87
-9755601.95 5135625.36 190.22
-9755607.67 5135625.91 181.09
-9755599.72 5135623.56 186.70
-9755601.27 5135621.58 185.03
-9755601.69 5135624.90 185.99
-9755604.53 5135627.02 188.74
-9755602.87 5135626.60 190.09
-9755605.35 5135626.87 187.06
-9755599.61 5135627.01 189.93
-9755602.69 5135625.86 184.99
-9755604.45 5135628.07 186.13
-9755605.22 5135624.10 181.14
-9755600.37 5135625.56 186.17
-9755604.52 5135626.84 186.94
-9755600.39 5135625.55 189.59
-9755605.72 5135627.12 181.13
-9755602.67 5135621.04 184.15
-9755601.09 5135627.09 185.76
-9755599.81 5135626.69 189.80
-9755602.39 5135624.76 187.05
-9755599.03 5135627.97 189.23
-9755599.49 5135626.85 189.76
-9755596.61 5135628.15 189.71
-9755599.47 5135626.75 181.34
-9755595.29 5135625.64 187.74
-9755595.66 5135623.28 181.11
-9755589.09 5135624.33 181.03
-9755598.10 5135625.37 185.16
-9755597.70 5135625.83 188.24
-9755595.85 5135624.99 187.97
-9755595.08 5135624.95 187.80
-9755595.60 5135627.83 188.92
-9755599.48 5135625.26 189.24
-9755599.21 5135624.20 186.64
-9755597.79 5135628.14 188.05
-9755595.57 5135625.18 188.02
-9755591.27 5135621.08 181.06
-9755595.33 5135626.39 188.40
-9755588.83 5135625.85 181.02
-9755596.50 5135627.30 188.48
-9755599.14 5135627.14 181.33
-9755599.47 5135625.75 187.78
-9755599.46 5135624.46 186.31
-9755597.40 5135627.58 188.01
-9755597.93 5135625.78 185.10
-9755598.65 5135624.84 186.14
-9755596.12 5135626.68 185.70
-9755599.60 5135626.20 186.97
-9755597.13 5135625.85 187.95
-9755595.30 5135624.94 186.81
-9755595.78 5135625.77 188.33
-9755594.75 5135621.70 181.10
-9755598.10 5135627.16 186.42
-9755597.08 5135627.79 189.38
-9755594.48 5135626.65 188.42
-9755598.55 5135626.54 185.04
-9755596.25 5135624.97 187.72
-9755594.73 5135626.44 188.35
-9755599.09 5135627.20 190.04
-9755599.46 5135622.05 181.22
-9755596.80 5135625.86 187.49
-9755598.03 5135624.25 185.04
-9755594.83 5135625.79 188.40
-9755595.28 5135625.61 186.52
-9755598.79 5135627.49 189.51
-9755598.38 5135627.54 189.67
-9755595.60 5135626.47 189.11
-9755598.59 5135624.00 185.14
-9755595.33 5135625.86 185.99
-9755596.03 5135626.68 185.28
-9755595.71 5135626.08 188.39
-9755597.47 5135626.30 185.28
-9755596.51 5135626.15 187.39
-9755597.07 5135626.07 187.95
-9755596.92 5135627.66 189.07
-9755596.60 5135627.58 189.45
-9755595.91 5135627.13 187.61
-9755595.03 5135625.19 188.34
-9755597.57 5135628.15 189.79
-9755597.60 5135625.49 185.14
-9755599.12 5135624.76 186.64
-9755598.99 5135624.40 186.64
-9755598.10 5135628.13 188.74
-9755597.12 5135627.90 188.60
-9755597.39 5135626.85 186.65
-9755597.19 5135627.22 188.42
-9755599.19 5135624.14 184.96
-9755597.18 5135625.65 188.02
-9755598.19 5135627.60 189.83
-9755588.84 5135627.00 181.03
-9755595.57 5135622.57 181.11
-9755595.96 5135625.82 187.63
-9755595.47 5135627.88 188.64
-9755599.18 5135628.15 189.60
-9755596.12 5135625.29 185.06
-9755596.34 5135626.89 187.42
-9755595.41 5135626.21 187.10
-9755591.12 5135624.88 181.04
-9755596.83 5135627.25 181.08
-9755591.49 5135627.62 181.07
-9755597.94 5135626.73 189.36
-9755595.85 5135625.80 187.78
-9755593.92 5135621.09 181.09
-9755597.02 5135622.09 181.13
-9755588.83 5135626.67 181.03
-9755589.05 5135622.26 181.05
-9755594.17 5135626.58 185.71
-9755595.97 5135621.74 181.06
-9755596.87 5135628.09 189.77
-9755597.33 5135625.68 188.48
-9755595.91 5135626.50 187.75
-9755595.06 5135624.90 186.79
-9755596.03 5135625.07 185.12
-9755597.04 5135628.14 188.60
-9755595.33 5135625.82 185.64
-9755588.86 5135625.29 181.04
-9755595.41 5135624.64 187.57
-9755598.87 5135621.45 181.12
-9755594.80 5135626.12 187.89
-9755595.90 5135625.25 188.26
-9755596.15 5135625.19 188.17
-9755597.46 5135627.98 189.88
-9755594.84 5135626.69 187.79
