-9755214.67 5135384.10 181.06
-9755214.66 5135386.52 181.06
-9755219.47 5135377.07 181.12
-9755213.45 5135386.45 181.14
-9755214.05 5135388.06 181.78
-9755214.43 5135379.96 181.13
-9755214.69 5135377.26 181.15
-9755214.52 5135377.78 187.62
-9755213.51 5135382.31 181.13
-9755217.02 5135391.24 181.08
-9755215.22 5135391.50 181.11
-9755216.38 5135390.02 181.08
-9755221.08 5135390.03 181.15
-9755214.60 5135389.76 181.09
-9755214.34 5135390.62 181.11
-9755213.73 5135391.53 181.22
-9755213.43 5135390.61 181.18
-9755222.65 5135377.32 181.18
-9755224.44 5135377.36 181.19
-9755226.83 5135375.91 181.14
-9755225.94 5135375.89 181.14
-9755217.04 5135376.54 186.21
-9755217.14 5135377.26 183.77
-9755214.50 5135376.86 185.31
-9755217.88 5135376.30 184.66
-9755218.61 5135376.41 185.46
-9755214.45 5135375.92 190.53
-9755217.69 5135375.80 188.82
-9755215.07 5135376.55 181.07
-9755218.27 5135375.73 185.22
-9755216.83 5135375.86 181.05
-9755216.30 5135375.80 186.28
-9755214.48 5135375.66 191.91
-9755216.76 5135376.43 181.05
-9755215.05 5135375.63 187.20
-9755219.44 5135375.82 181.09
-9755214.41 5135376.73 184.55
-9755213.81 5135377.57 181.23
-9755213.49 5135381.17 181.13
-9755210.26 5135384.11 181.30
-9755207.89 5135385.56 181.42
-9755213.11 5135378.74 185.99
-9755207.33 5135381.42 181.42
-9755206.16 5135379.94 181.43
-9755204.62 5135380.48 181.43
-9755209.48 5135384.73 186.09
-9755204.66 5135387.93 181.40
-9755212.25 5135388.83 181.22
-9755211.15 5135380.87 181.26
-9755207.00 5135388.76 181.38
-9755202.66 5135383.13 181.49
-9755212.66 5135377.41 186.20
-9755212.65 5135382.32 181.18
-9755207.67 5135379.02 189.17
-9755209.69 5135384.98 181.33
-9755205.81 5135382.24 181.45
-9755211.36 5135388.83 181.26
-9755209.70 5135381.12 181.31
-9755204.86 5135387.27 181.41
-9755201.40 5135379.90 181.46
-9755212.93 5135380.84 181.17
-9755209.64 5135383.80 181.33
-9755210.93 5135377.39 185.86
-9755209.39 5135384.57 189.38
-9755212.60 5135387.38 181.19
-9755202.88 5135380.45 181.42
-9755207.65 5135379.66 189.16
-9755209.04 5135386.46 181.36
-9755209.47 5135381.40 185.77
-9755208.58 5135378.17 186.72
-9755209.29 5135387.33 181.34
-9755210.57 5135379.04 181.28
-9755211.10 5135387.35 181.27
-9755207.35 5135382.67 189.28
-9755205.58 5135386.42 181.42
-9755206.14 5135379.05 181.45
-9755202.93 5135378.10 181.51
-9755207.39 5135377.97 189.22
-9755208.55 5135381.26 189.24
-9755206.19 5135382.27 181.45
-9755204.66 5135381.43 181.45
-9755203.14 5135388.75 181.44
-9755202.22 5135388.75 181.38
-9755207.48 5135380.84 189.20
-9755209.61 5135388.83 181.33
-9755203.44 5135384.90 181.45
-9755203.71 5135386.66 181.41
-9755204.65 5135379.61 181.44
-9755210.23 5135388.83 181.33
-9755207.04 5135380.82 181.44
-9755212.91 5135383.19 181.18
-9755207.05 5135378.13 181.42
-9755209.45 5135383.32 185.83
-9755201.38 5135385.51 181.42
-9755202.28 5135383.73 181.47
-9755209.64 5135386.88 189.56
-9755201.14 5135383.13 181.47
-9755202.29 5135379.85 181.44
-9755204.71 5135384.65 181.42
-9755210.27 5135380.76 181.30
-9755208.35 5135384.59 189.42
-9755205.81 5135388.83 181.37
-9755213.15 5135388.86 181.16
-9755211.33 5135377.94 184.27
-9755208.61 5135384.85 189.42
-9755212.30 5135385.55 181.20
-9755210.54 5135382.30 181.30
-9755207.04 5135377.24 181.44
-9755207.93 5135377.57 181.39
-9755213.54 5135379.50 186.31
-9755209.60 5135391.18 181.39
-9755212.24 5135391.19 181.26
-9755208.64 5135388.90 189.71
-9755207.68 5135390.83 189.89
-9755210.48 5135389.70 181.32
-9755207.85 5135389.75 181.36
-9755206.36 5135390.85 181.37
-9755206.37 5135389.69 181.39
-9755208.61 5135389.70 189.86
-9755211.39 5135389.71 181.27
-9755202.25 5135389.72 181.36
-9755202.77 5135391.46 181.36
-9755211.37 5135390.86 181.29
-9755202.30 5135377.50 181.54
-9755211.46 5135376.71 181.27
-9755203.81 5135375.48 181.53
-9755213.86 5135376.28 190.44
-9755202.10 5135376.65 181.55
-9755205.30 5135375.75 181.49
-9755212.15 5135375.83 186.16
-9755208.88 5135376.54 185.53
-9755213.55 5135375.76 181.24
-9755209.45 5135376.59 189.16
-9755213.74 5135375.75 190.12
-9755201.44 5135376.60 181.57
-9755211.46 5135376.89 184.88
-9755208.97 5135375.49 185.54
-9755210.56 5135376.76 181.28
-9755225.97 5135366.41 181.14
-9755224.21 5135370.89 181.16
-9755226.80 5135374.72 181.14
-9755225.37 5135368.21 181.16
-9755223.61 5135366.70 181.18
-9755224.56 5135368.19 181.16
-9755223.63 5135373.50 181.15
-9755227.73 5135372.37 181.10
-9755223.03 5135369.09 181.16
-9755223.63 5135367.29 181.16
-9755225.36 5135371.70 181.16
-9755222.71 5135373.19 181.15
-9755222.77 5135366.73 181.17
-9755223.57 5135372.32 181.16
-9755222.15 5135375.86 181.15
-9755224.50 5135373.22 181.15
-9755225.09 5135366.68 181.16
-9755222.71 5135375.61 181.16
-9755216.22 5135374.74 191.39
-9755216.06 5135374.06 192.20
-9755216.22 5135368.42 186.83
-9755217.07 5135368.06 186.17
-9755218.64 5135374.23 187.91
-9755215.45 5135368.63 187.15
-9755217.13 5135373.35 190.19
-9755216.13 5135369.02 188.58
-9755216.91 5135369.26 189.79
-9755218.70 5135374.94 186.26
-9755217.72 5135372.43 189.85
-9755216.36 5135366.81 185.52
-9755218.64 5135369.09 186.13
-9755216.42 5135373.98 188.01
-9755218.45 5135375.01 187.15
-9755217.00 5135370.01 189.70
-9755220.40 5135370.52 181.10
-9755217.18 5135370.90 190.48
-9755216.10 5135374.18 190.46
-9755216.79 5135373.98 181.07
-9755215.49 5135368.88 188.76
-9755216.87 5135374.25 191.35
-9755216.33 5135367.57 185.32
-9755216.84 5135374.66 188.12
-9755215.39 5135371.73 191.26
-9755216.30 5135374.15 191.46
-9755218.34 5135373.94 190.02
-9755215.42 5135365.78 181.00
-9755219.80 5135367.60 181.13
-9755217.03 5135371.54 188.84
-9755221.55 5135371.11 181.13
-9755217.94 5135375.57 181.07
-9755217.67 5135371.66 188.69
-9755222.47 5135365.81 181.16
-9755216.10 5135373.39 188.03
-9755219.18 5135371.72 187.96
-9755217.77 5135370.94 189.61
-9755215.39 5135370.32 187.14
-9755216.12 5135370.55 181.01
-9755216.91 5135371.02 181.04
-9755217.81 5135370.74 188.92
-9755218.53 5135374.18 185.21
-9755216.67 5135367.72 185.32
-9755216.05 5135375.08 189.72
-9755216.25 5135370.75 188.83
-9755217.74 5135370.58 186.02
-9755216.90 5135374.87 188.78
-9755217.16 5135371.37 181.04
-9755214.51 5135374.77 191.14
-9755216.91 5135374.92 189.80
-9755218.59 5135373.86 188.84
-9755214.53 5135369.00 188.74
-9755216.95 5135368.13 187.04
-9755220.10 5135369.05 181.12
-9755216.75 5135369.32 188.59
-9755214.54 5135374.75 192.72
-9755215.97 5135369.97 181.02
-9755217.73 5135368.46 181.05
-9755215.45 5135369.93 189.31
-9755216.32 5135372.43 190.47
-9755215.30 5135372.51 187.35
-9755214.52 5135369.20 188.10
-9755219.53 5135372.53 188.04
-9755216.29 5135374.71 186.92
-9755220.35 5135372.65 181.12
-9755217.82 5135374.20 190.48
-9755217.90 5135369.95 188.12
-9755219.44 5135372.31 185.44
-9755217.82 5135370.89 185.72
-9755216.12 5135369.05 185.79
-9755214.64 5135368.98 190.14
-9755215.33 5135370.14 188.83
-9755215.18 5135372.23 189.35
-9755218.59 5135373.40 188.89
-9755215.30 5135372.79 192.01
-9755218.66 5135365.75 181.09
-9755218.92 5135372.09 185.19
-9755216.29 5135372.47 188.96
-9755217.28 5135370.14 188.77
-9755218.80 5135370.83 181.10
-9755215.42 5135370.64 189.55
-9755218.61 5135371.65 181.09
-9755217.18 5135373.35 189.59
-9755219.51 5135370.78 187.76
-9755217.74 5135372.49 188.09
-9755216.94 5135370.55 187.45
-9755219.47 5135369.90 181.10
-9755216.88 5135369.91 181.04
-9755220.15 5135374.02 188.01
-9755222.08 5135374.62 181.16
-9755217.08 5135368.41 181.06
-9755215.94 5135368.39 188.09
-9755216.36 5135374.37 181.06
-9755217.98 5135368.49 185.42
-9755220.09 5135371.71 181.12
-9755217.11 5135374.94 185.66
-9755217.74 5135371.28 189.72
-9755217.94 5135371.41 181.05
-9755214.42 5135374.84 186.07
-9755214.22 5135366.65 181.18
-9755214.49 5135372.27 192.04
-9755219.46 5135374.91 184.75
-9755217.01 5135369.16 187.84
-9755214.48 5135372.24 189.74
-9755215.38 5135369.62 187.91
-9755218.75 5135373.47 186.29
-9755215.46 5135374.17 191.32
-9755217.79 5135370.22 181.06
-9755220.03 5135374.09 181.12
-9755214.53 5135368.45 185.47
-9755216.23 5135368.48 181.03
-9755214.36 5135369.35 187.21
-9755215.32 5135367.29 180.99
-9755215.10 5135372.03 188.57
-9755221.81 5135369.09 181.15
-9755214.60 5135366.68 185.53
-9755216.34 5135368.25 184.87
-9755214.54 5135368.08 188.73
-9755221.16 5135373.80 181.13
-9755219.44 5135369.33 181.09
-9755217.85 5135369.85 189.79
-9755215.97 5135367.67 184.79
-9755217.77 5135373.49 181.05
-9755217.40 5135368.75 185.37
-9755220.37 5135369.63 181.13
-9755221.20 5135374.97 181.14
-9755216.88 5135367.56 181.06
-9755221.20 5135371.42 181.12
-9755214.26 5135366.58 184.84
-9755217.99 5135369.32 181.07
-9755216.29 5135367.04 186.02
-9755215.16 5135369.13 185.38
-9755218.86 5135368.16 181.10
-9755215.16 5135369.28 187.18
-9755214.40 5135372.68 191.22
-9755222.14 5135369.97 181.14
-9755217.16 5135369.02 181.06
-9755217.11 5135366.73 181.05
-9755214.23 5135369.03 181.19
-9755220.30 5135374.96 181.11
-9755215.99 5135373.69 189.35
-9755217.36 5135372.35 187.26
-9755215.91 5135365.77 181.01
-9755217.07 5135371.89 187.30
-9755221.24 5135372.60 181.13
-9755217.89 5135371.11 181.08
-9755215.18 5135369.96 186.15
-9755216.39 5135370.06 185.91
-9755216.32 5135369.76 189.65
-9755219.48 5135371.51 184.91
-9755215.35 5135368.17 181.02
-9755216.49 5135368.50 186.54
-9755215.13 5135372.50 185.95
-9755218.96 5135372.88 185.25
-9755218.23 5135374.13 185.77
-9755214.80 5135367.51 181.10
-9755215.53 5135372.43 187.64
-9755218.89 5135371.54 186.05
-9755216.85 5135372.01 186.21
-9755213.64 5135369.91 186.47
-9755214.57 5135372.92 187.57
-9755213.90 5135372.54 187.15
-9755214.42 5135373.31 187.35
-9755213.64 5135374.25 190.45
-9755213.76 5135373.03 190.21
-9755213.59 5135373.41 187.85
-9755213.61 5135369.00 186.97
-9755213.66 5135372.25 181.29
-9755213.91 5135372.68 185.20
-9755213.58 5135367.59 187.01
-9755213.68 5135373.15 193.05
-9755214.20 5135370.55 186.38
-9755214.04 5135372.04 191.26
-9755213.79 5135371.76 189.62
-9755213.69 5135368.32 186.89
-9755213.61 5135371.66 181.23
-9755213.53 5135368.89 185.25
-9755209.44 5135374.78 185.73
-9755213.70 5135371.70 185.35
-9755210.59 5135375.01 186.28
-9755212.74 5135367.54 181.23
-9755212.10 5135364.86 181.23
-9755210.42 5135372.41 186.35
-9755212.02 5135368.43 186.97
-9755208.95 5135369.08 185.55
-9755212.18 5135372.39 185.54
-9755212.10 5135372.40 186.32
-9755212.04 5135370.85 186.05
-9755211.95 5135370.02 186.44
-9755205.61 5135374.90 181.47
-9755209.47 5135366.90 181.35
-9755207.98 5135365.15 181.36
-9755212.72 5135370.80 187.57
-9755208.89 5135374.73 185.54
-9755213.69 5135371.44 187.71
-9755202.96 5135375.12 181.54
-9755211.49 5135366.67 181.23
-9755209.54 5135364.84 181.35
-9755202.07 5135368.02 181.59
-9755203.82 5135374.25 181.53
-9755212.78 5135369.90 187.03
-9755211.92 5135374.94 186.27
-9755213.92 5135373.95 189.85
-9755207.11 5135370.15 181.34
-9755212.71 5135373.23 186.43
-9755213.10 5135368.32 187.55
-9755202.11 5135365.04 181.65
-9755202.04 5135370.68 181.58
-9755207.67 5135373.40 181.41
-9755204.78 5135365.11 181.57
-9755213.06 5135368.18 185.18
-9755209.45 5135369.87 181.37
-9755212.99 5135365.78 181.23
-9755213.90 5135366.40 181.20
-9755213.71 5135367.68 186.65
-9755210.47 5135369.04 185.51
-9755206.21 5135369.87 181.43
-9755207.68 5135365.75 181.40
-9755209.75 5135368.14 181.34
-9755209.45 5135365.76 181.36
-9755204.74 5135366.87 181.56
-9755213.61 5135364.87 181.17
-9755212.92 5135371.64 186.22
-9755202.05 5135374.87 181.58
-9755213.02 5135366.67 181.21
-9755212.12 5135365.72 181.21
-9755201.51 5135368.04 181.60
-9755203.86 5135370.09 181.54
-9755212.95 5135367.20 185.14
-9755207.09 5135374.27 181.42
-9755210.30 5135372.52 181.29
-9755210.34 5135366.05 181.25
-9755202.72 5135366.54 181.62
-9755206.21 5135368.37 181.44
-9755212.76 5135369.25 181.23
-9755208.66 5135365.18 185.75
-9755208.54 5135370.16 181.28
-9755203.88 5135368.02 181.56
-9755204.97 5135371.61 181.50
-9755202.96 5135368.94 181.57
-9755210.28 5135368.96 181.26
-9755211.95 5135368.24 185.24
-9755205.66 5135365.07 181.51
-9755211.55 5135364.87 181.22
-9755206.24 5135365.68 181.48
-9755208.97 5135373.30 185.48
-9755212.22 5135367.54 187.59
-9755203.83 5135369.21 181.55
-9755207.06 5135366.88 181.40
-9755212.79 5135366.87 185.14
-9755213.64 5135369.09 186.32
-9755208.34 5135374.92 189.31
-9755212.12 5135374.08 185.47
-9755212.67 5135375.26 185.35
-9755210.33 5135373.15 181.29
-9755206.14 5135370.73 181.44
-9755212.04 5135370.76 181.21
-9755213.29 5135373.40 192.21
-9755209.05 5135371.65 185.50
-9755206.19 5135365.10 181.48
-9755202.38 5135366.58 181.63
-9755202.97 5135370.15 181.56
-9755202.96 5135367.74 181.58
-9755211.24 5135366.02 181.25
-9755204.70 5135373.99 181.52
-9755205.88 5135372.23 181.47
-9755205.00 5135372.50 181.50
-9755209.18 5135373.30 185.48
-9755209.41 5135374.90 181.42
-9755208.60 5135365.82 185.72
-9755212.42 5135371.88 184.93
-9755203.00 5135371.32 181.56
-9755208.55 5135370.61 185.54
-9755212.93 5135371.00 181.23
-9755201.49 5135370.68 181.57
-9755207.38 5135371.57 189.45
-9755210.42 5135369.86 181.26
-9755209.70 5135370.76 181.37
-9755207.05 5135373.09 181.42
-9755201.46 5135373.97 181.57
-9755213.33 5135368.40 187.53
-9755207.67 5135368.21 189.66
-9755201.43 5135373.08 181.59
-9755200.55 5135385.52 181.43
-9755200.50 5135386.38 181.43
-9755199.68 5135379.88 181.50
-9755199.96 5135383.15 181.45
-9755196.98 5135386.40 181.39
-9755196.47 5135384.82 181.41
-9755199.60 5135384.09 181.45
-9755196.94 5135388.17 181.37
-9755198.16 5135381.60 181.45
-9755194.96 5135379.26 181.50
-9755197.26 5135382.87 181.44
-9755200.24 5135383.17 181.46
-9755195.48 5135387.88 181.37
-9755199.99 5135382.15 181.47
-9755199.04 5135387.55 181.39
-9755195.56 5135384.57 181.41
-9755196.66 5135385.50 181.42
-9755199.02 5135388.75 181.39
-9755197.26 5135390.81 181.32
-9755196.35 5135389.59 181.35
-9755199.04 5135389.64 181.35
-9755195.84 5135377.46 181.57
-9755199.64 5135376.27 181.58
-9755199.08 5135376.32 181.57
-9755195.59 5135376.58 181.60
-9755194.95 5135376.55 181.60
-9755195.57 5135375.97 181.62
-9755194.08 5135379.25 181.53
-9755193.73 5135383.12 181.43
-9755193.76 5135384.00 181.43
-9755193.66 5135388.16 181.34
-9755193.80 5135377.48 181.58
-9755194.07 5135381.66 181.46
-9755193.19 5135378.05 181.58
-9755194.07 5135379.54 181.51
-9755192.81 5135385.48 181.38
-9755193.10 5135386.38 181.36
-9755187.52 5135378.95 182.18
-9755188.92 5135379.04 182.19
-9755193.12 5135384.86 181.39
-9755190.60 5135378.21 183.23
-9755189.12 5135378.14 182.76
-9755191.32 5135384.84 181.38
-9755192.02 5135378.33 181.55
-9755192.02 5135382.15 181.45
-9755191.39 5135377.98 183.20
-9755192.31 5135379.22 181.51
-9755190.52 5135388.12 181.31
-9755189.58 5135387.23 181.31
-9755192.93 5135377.45 181.61
-9755189.61 5135380.71 181.47
-9755191.65 5135387.90 181.33
-9755189.94 5135378.94 182.77
-9755187.26 5135380.66 181.43
-9755189.62 5135388.13 181.30
-9755191.06 5135378.31 182.04
-9755190.78 5135382.19 181.44
-9755190.53 5135379.78 181.48
-9755191.16 5135378.97 181.57
-9755191.75 5135378.31 181.57
-9755187.29 5135381.54 181.40
-9755189.06 5135384.82 181.37
-9755190.84 5135378.86 183.19
-9755187.48 5135379.76 182.68
-9755190.78 5135380.40 183.19
-9755188.73 5135385.40 181.34
-9755191.42 5135379.50 181.50
-9755191.06 5135380.90 184.11
-9755191.40 5135377.44 181.64
-9755187.22 5135387.26 181.28
-9755190.90 5135381.15 183.17
-9755188.97 5135388.69 181.27
-9755189.93 5135386.33 181.34
-9755188.32 5135389.59 181.27
-9755192.27 5135389.57 181.30
-9755190.72 5135389.89 181.28
-9755192.91 5135375.66 181.66
-9755193.78 5135376.58 181.60
-9755191.15 5135376.44 183.06
-9755190.63 5135376.50 181.76
-9755188.24 5135375.92 181.74
-9755191.47 5135375.64 181.73
-9755189.10 5135375.66 181.76
-9755187.34 5135377.11 181.71
-9755188.24 5135376.83 181.77
-9755189.70 5135376.84 181.78
-9755187.25 5135376.21 182.33
-9755189.66 5135375.96 181.77
-9755187.30 5135376.52 181.71
-9755200.59 5135367.43 181.60
-9755200.61 5135368.32 181.58
-9755194.68 5135375.10 181.65
-9755195.57 5135375.05 181.63
-9755195.63 5135373.27 182.94
-9755195.54 5135370.89 182.82
-9755199.72 5135372.76 181.59
-9755200.54 5135364.67 201.07
-9755200.60 5135372.48 181.58
-9755199.74 5135374.24 181.58
-9755200.52 5135365.13 198.48
-9755198.24 5135370.98 181.64
-9755195.80 5135370.90 182.10
-9755200.43 5135365.01 185.49
-9755195.75 5135370.10 182.09
-9755196.42 5135372.99 181.72
-9755198.83 5135371.87 181.62
-9755200.68 5135365.98 205.22
-9755196.49 5135371.47 182.78
-9755200.54 5135366.05 210.81
-9755196.55 5135365.88 212.47
-9755199.16 5135368.31 181.51
-9755200.63 5135364.97 184.78
-9755199.99 5135373.37 181.59
-9755194.87 5135369.08 207.90
-9755200.50 5135365.85 197.16
-9755194.77 5135369.26 196.00
-9755200.59 5135371.30 181.59
-9755201.17 5135365.68 182.23
-9755194.72 5135368.18 203.69
-9755196.99 5135366.56 212.43
-9755194.83 5135369.75 207.62
-9755200.57 5135365.83 212.50
-9755197.91 5135368.27 181.53
-9755194.83 5135368.40 201.06
-9755197.09 5135370.91 182.74
-9755200.58 5135364.98 203.44
-9755194.93 5135368.46 204.24
-9755198.27 5135368.89 181.55
-9755200.57 5135365.85 188.52
-9755196.49 5135370.07 181.59
-9755200.66 5135365.00 187.10
-9755198.22 5135372.44 182.07
-9755194.68 5135370.68 211.71
-9755194.81 5135370.03 194.34
-9755200.46 5135365.24 209.21
-9755198.27 5135365.08 212.46
-9755194.86 5135368.37 210.25
-9755194.92 5135369.97 200.32
-9755195.31 5135369.73 181.66
-9755196.51 5135370.03 182.75
-9755200.56 5135365.88 203.45
-9755194.91 5135369.82 201.00
-9755200.53 5135365.12 196.94
-9755194.92 5135370.91 183.00
-9755194.85 5135369.90 212.47
-9755200.55 5135366.08 207.83
-9755200.63 5135365.08 186.38
-9755199.71 5135374.88 181.58
-9755199.16 5135368.91 181.56
-9755196.46 5135368.89 181.58
-9755195.55 5135365.87 212.93
-9755194.81 5135368.12 203.04
-9755200.64 5135365.74 189.44
-9755194.91 5135371.51 198.49
-9755199.78 5135365.90 181.65
-9755198.80 5135372.45 181.62
-9755198.83 5135373.04 181.59
-9755194.85 5135370.96 202.11
-9755197.05 5135372.44 181.66
-9755199.78 5135368.33 181.57
-9755200.46 5135365.08 191.76
-9755194.94 5135369.38 188.92
-9755197.38 5135365.04 212.46
-9755194.94 5135369.80 186.98
-9755194.56 5135370.76 205.05
-9755199.48 5135367.42 181.55
-9755194.82 5135369.07 195.30
-9755200.66 5135365.05 191.22
-9755194.66 5135370.85 184.01
-9755194.66 5135367.46 211.97
-9755194.89 5135369.59 190.05
-9755199.49 5135366.27 212.50
-9755194.91 5135369.67 201.84
-9755197.06 5135373.33 181.59
-9755194.75 5135370.81 211.03
-9755197.90 5135366.48 212.65
-9755194.74 5135369.89 211.94
-9755194.77 5135367.35 212.46
-9755194.75 5135367.48 206.01
-9755194.77 5135369.06 209.11
-9755194.68 5135371.39 186.09
-9755194.89 5135369.96 183.06
-9755197.72 5135372.38 182.58
-9755194.79 5135369.82 198.27
-9755194.65 5135369.73 196.41
-9755195.30 5135369.92 210.05
-9755194.83 5135371.44 202.77
-9755199.43 5135369.78 181.61
-9755194.76 5135371.34 191.09
-9755196.92 5135369.94 182.34
-9755194.73 5135365.03 212.42
-9755194.60 5135367.79 204.88
-9755197.97 5135373.98 181.58
-9755194.87 5135370.84 212.48
-9755195.39 5135369.94 188.63
-9755195.25 5135370.52 207.45
-9755194.86 5135371.53 205.26
-9755194.61 5135369.08 200.95
-9755194.85 5135371.42 189.61
-9755194.80 5135371.54 195.00
-9755194.97 5135371.39 210.35
-9755194.67 5135367.75 203.53
-9755194.80 5135368.05 210.85
-9755194.94 5135371.45 200.06
-9755194.82 5135369.25 197.72
-9755194.29 5135370.87 181.84
-9755194.11 5135373.06 182.39
-9755194.68 5135369.23 181.76
-9755194.79 5135371.33 187.27
-9755194.75 5135371.01 193.37
-9755194.78 5135371.54 201.17
-9755194.78 5135369.91 183.45
-9755192.90 5135374.75 181.72
-9755194.81 5135371.04 206.81
-9755194.62 5135369.71 184.54
-9755194.74 5135371.03 209.45
-9755194.80 5135369.42 187.70
-9755194.86 5135369.34 197.04
-9755194.22 5135372.94 182.90
-9755194.61 5135369.61 187.54
-9755194.13 5135372.54 182.66
-9755194.73 5135371.24 188.61
-9755194.67 5135369.48 194.80
-9755194.74 5135371.58 209.41
-9755189.07 5135374.78 181.80
-9755191.45 5135374.75 181.76
-9755193.23 5135367.42 212.39
-9755192.36 5135367.37 212.39
-9755189.93 5135374.75 181.84
-9755190.59 5135369.15 212.40
-9755189.15 5135365.03 212.35
-9755192.37 5135369.17 212.41
-9755189.97 5135373.96 181.77
-9755187.34 5135370.61 212.43
-9755188.21 5135367.36 212.36
-9755190.54 5135371.86 212.57
-9755189.66 5135366.76 212.38
-9755189.10 5135370.91 212.42
-9755189.72 5135368.29 212.38
-9755188.80 5135367.37 212.37
-9755187.28 5135371.50 212.46
-9755189.98 5135371.52 211.56
-9755188.82 5135369.17 212.40
-9755188.26 5135365.31 212.35
-9755190.55 5135368.27 212.40
-9755191.99 5135374.14 181.76
-9755189.71 5135369.42 212.42
-9755238.03 5135415.02 181.33
-9755237.81 5135415.04 181.30
-9755236.57 5135415.09 181.23
-9755234.29 5135414.80 181.14
-9755236.36 5135415.33 181.23
-9755233.09 5135415.06 181.12
-9755237.18 5135415.97 181.34
-9755238.22 5135416.53 192.35
-9755235.33 5135415.94 181.22
-9755237.21 5135414.46 181.21
-9755239.62 5135415.68 192.35
-9755238.43 5135416.65 192.37
-9755238.17 5135417.16 192.38
-9755239.59 5135416.89 192.39
-9755236.29 5135416.52 181.31
-9755238.22 5135416.88 192.39
-9755238.48 5135417.18 192.39
-9755237.50 5135417.18 192.20
-9755233.07 5135414.45 181.11
-9755230.67 5135415.59 181.10
-9755232.13 5135415.03 181.11
-9755228.34 5135414.79 181.15
-9755229.79 5135414.40 181.12
-9755229.83 5135415.58 181.10
-9755230.69 5135414.42 181.12
-9755228.26 5135417.07 181.08
-9755232.21 5135416.80 181.13
-9755230.96 5135417.11 181.13
-9755230.64 5135416.83 181.12
-9755229.20 5135417.11 181.08
-9755233.05 5135414.19 181.12
-9755228.03 5135416.45 183.44
-9755234.57 5135409.73 181.15
-9755236.71 5135413.33 181.18
-9755236.90 5135412.43 181.15
-9755236.36 5135407.96 181.16
-9755239.21 5135414.16 181.34
-9755239.00 5135410.54 181.19
-9755236.35 5135411.75 181.16
-9755235.42 5135411.15 181.14
-9755237.79 5135410.30 181.15
-9755236.35 5135409.40 181.14
-9755236.29 5135412.40 181.16
-9755239.59 5135408.30 181.17
-9755233.07 5135411.82 181.13
-9755234.26 5135407.37 181.20
-9755233.36 5135412.35 181.11
-9755233.68 5135412.65 181.10
-9755235.75 5135411.45 181.15
-9755235.93 5135413.89 181.18
-9755233.64 5135410.62 181.14
-9755234.28 5135409.70 181.15
-9755238.95 5135411.17 181.17
-9755234.24 5135409.06 181.16
-9755239.31 5135409.10 181.16
-9755236.88 5135409.74 181.14
-9755239.62 5135410.90 181.20
-9755236.06 5135410.00 181.15
-9755233.38 5135410.00 181.17
-9755239.62 5135413.24 181.33
-9755238.73 5135410.62 181.18
-9755233.67 5135407.67 181.18
-9755239.35 5135407.65 181.17
-9755236.09 5135408.53 181.15
-9755237.81 5135412.37 181.18
-9755237.81 5135408.81 181.14
-9755239.58 5135409.46 181.18
-9755236.68 5135408.24 181.16
-9755233.16 5135407.29 182.05
-9755238.85 5135397.12 185.89
-9755238.81 5135400.15 183.38
-9755238.39 5135395.98 183.56
-9755239.10 5135396.77 185.76
-9755239.49 5135396.71 185.49
-9755239.07 5135396.02 185.42
-9755239.37 5135401.96 182.69
-9755238.47 5135399.87 183.71
-9755239.64 5135395.70 183.90
-9755239.16 5135397.64 185.91
-9755237.55 5135395.72 183.56
-9755239.04 5135400.12 183.39
-9755237.65 5135395.91 184.77
-9755237.91 5135400.46 183.55
-9755233.72 5135402.27 182.53
-9755233.66 5135402.07 181.95
-9755239.61 5135395.73 184.23
-9755236.77 5135400.08 183.51
-9755238.21 5135396.29 183.52
-9755237.28 5135395.12 184.84
-9755238.18 5135400.16 183.54
-9755235.25 5135402.18 183.46
-9755234.36 5135397.58 181.35
-9755237.86 5135396.50 184.33
-9755234.35 5135400.79 183.33
-9755237.29 5135400.44 183.50
-9755234.86 5135400.72 183.11
-9755239.09 5135396.98 181.45
-9755237.02 5135399.51 183.50
-9755236.72 5135396.01 183.50
-9755236.71 5135398.37 183.51
-9755239.62 5135402.59 181.59
-9755233.48 5135400.82 181.34
-9755237.91 5135395.34 184.73
-9755237.79 5135395.73 184.90
-9755238.99 5135396.26 185.70
-9755237.95 5135399.21 183.58
-9755234.62 5135400.52 181.42
-9755238.46 5135401.13 182.78
-9755237.57 5135401.71 182.50
-9755234.89 5135399.31 181.40
-9755239.22 5135399.01 183.29
-9755239.46 5135397.62 185.64
-9755238.18 5135399.48 183.62
-9755238.82 5135396.26 184.85
-9755236.39 5135402.51 183.12
-9755233.72 5135402.22 183.31
-9755238.53 5135399.26 182.72
-9755239.63 5135401.43 181.34
-9755234.65 5135396.98 181.36
-9755237.31 5135397.83 183.51
-9755237.64 5135396.85 183.56
-9755236.11 5135396.38 181.40
-9755238.22 5135395.68 183.61
-9755235.27 5135402.25 182.35
-9755237.93 5135401.41 181.40
-9755238.17 5135398.96 183.61
-9755239.09 5135398.96 183.57
-9755239.09 5135401.47 181.86
-9755238.80 5135400.11 182.27
-9755239.65 5135399.85 183.66
-9755238.54 5135395.32 184.53
-9755237.27 5135401.99 182.65
-9755237.29 5135400.14 183.51
-9755237.86 5135398.95 183.53
-9755236.44 5135397.29 181.86
-9755238.84 5135396.17 184.70
-9755238.08 5135401.74 181.38
-9755238.79 5135398.35 183.50
-9755236.71 5135397.77 183.48
-9755234.61 5135398.69 181.35
-9755236.64 5135399.85 183.39
-9755234.63 5135401.82 182.51
-9755238.54 5135400.23 181.84
-9755238.46 5135398.60 183.59
-9755236.63 5135402.59 181.39
-9755238.50 5135400.70 183.78
-9755238.77 5135397.11 184.36
-9755238.99 5135398.93 182.56
-9755237.35 5135394.98 184.74
-9755233.18 5135401.47 182.77
-9755237.04 5135395.10 184.94
-9755234.06 5135401.14 181.39
-9755239.48 5135398.14 185.42
-9755233.16 5135396.99 181.30
-9755235.81 5135401.01 183.45
-9755238.15 5135399.63 182.72
-9755239.36 5135395.99 184.65
-9755238.20 5135400.40 183.75
-9755236.54 5135399.61 183.28
-9755238.88 5135400.49 181.44
-9755237.02 5135401.88 183.46
-9755235.76 5135402.50 182.35
-9755238.76 5135399.38 182.43
-9755235.79 5135400.14 182.89
-9755237.03 5135398.66 183.51
-9755233.80 5135396.05 181.32
-9755237.56 5135401.31 183.54
-9755238.79 5135399.32 181.50
-9755237.36 5135399.16 181.46
-9755238.02 5135399.47 182.72
-9755238.88 5135397.69 186.17
-9755233.44 5135401.85 183.40
-9755238.71 5135399.04 182.03
-9755238.73 5135400.48 182.26
-9755235.23 5135400.43 183.11
-9755236.46 5135400.07 183.48
-9755238.25 5135399.29 181.47
-9755236.64 5135400.52 182.74
-9755236.10 5135397.22 183.33
-9755236.43 5135400.70 183.57
-9755236.43 5135401.33 183.54
-9755238.36 5135400.82 182.68
-9755237.01 5135402.30 181.40
-9755238.57 5135400.42 183.55
-9755237.12 5135397.21 183.00
-9755238.96 5135396.63 185.33
-9755236.24 5135401.98 181.49
-9755237.39 5135395.64 184.84
-9755238.91 5135396.27 181.46
-9755237.63 5135397.48 183.56
-9755233.98 5135407.04 181.26
-9755236.34 5135403.17 181.39
-9755236.26 5135403.04 183.48
-9755239.02 5135404.15 181.23
-9755233.55 5135404.56 183.33
-9755233.16 5135403.32 183.47
-9755233.99 5135404.69 181.36
-9755233.75 5135402.76 183.47
-9755234.62 5135405.27 181.35
-9755233.17 5135404.15 181.43
-9755235.54 5135402.83 182.62
-9755235.20 5135403.71 183.33
-9755234.33 5135403.08 183.46
-9755234.58 5135403.72 181.42
-9755233.84 5135403.80 181.25
-9755234.04 5135405.79 181.37
-9755237.82 5135403.23 181.32
-9755234.56 5135404.68 182.73
-9755233.74 5135403.37 183.49
-9755234.04 5135403.05 183.47
-9755236.10 5135406.46 181.19
-9755234.48 5135403.42 181.45
-9755235.14 5135404.02 182.59
-9755234.58 5135404.12 181.39
-9755234.32 5135406.51 181.24
-9755233.23 5135402.57 182.88
-9755239.59 5135406.40 181.16
-9755236.36 5135404.69 181.29
-9755235.51 5135402.83 181.44
-9755238.18 5135403.80 181.27
-9755233.11 5135404.56 182.97
-9755234.59 5135403.46 182.53
-9755236.65 5135404.10 181.31
-9755233.36 5135404.55 183.06
-9755235.50 5135403.71 181.40
-9755234.71 5135403.62 182.99
-9755237.19 5135405.50 181.22
-9755233.10 5135406.41 181.36
-9755238.75 5135405.59 181.19
-9755235.77 5135405.27 181.27
-9755234.94 5135403.67 183.41
-9755233.48 5135403.08 183.27
-9755234.61 5135406.13 181.34
-9755236.66 5135405.00 181.27
-9755236.90 5135405.65 181.22
-9755233.41 5135403.48 182.72
-9755236.17 5135402.57 181.42
-9755228.60 5135411.63 183.80
-9755231.32 5135413.21 181.11
-9755228.98 5135412.64 181.17
-9755228.32 5135406.73 182.67
-9755228.41 5135412.78 185.58
-9755229.86 5135410.86 181.27
-9755228.13 5135408.64 183.41
-9755230.44 5135410.56 181.23
-9755228.67 5135412.46 185.08
-9755228.68 5135412.50 183.98
-9755228.48 5135412.15 183.88
-9755229.53 5135412.92 181.15
-9755231.02 5135409.93 181.24
-9755228.18 5135412.72 183.84
-9755228.44 5135413.20 181.18
-9755228.71 5135411.89 183.88
-9755232.21 5135407.60 181.36
-9755228.74 5135407.62 182.53
-9755228.38 5135407.45 183.27
-9755231.56 5135411.78 181.13
-9755228.47 5135412.67 181.38
-9755228.95 5135409.34 181.42
-9755229.31 5135407.23 183.28
-9755230.15 5135409.97 181.30
-9755229.65 5135411.75 181.19
-9755228.22 5135413.15 183.85
-9755229.57 5135408.19 181.44
-9755228.12 5135412.76 185.69
-9755228.34 5135408.17 181.46
-9755228.40 5135407.48 182.04
-9755228.13 5135413.11 184.88
-9755228.71 5135412.55 181.20
-9755228.63 5135412.92 181.15
-9755228.68 5135412.25 183.58
-9755231.01 5135412.33 181.12
-9755229.56 5135411.76 181.35
-9755229.55 5135407.38 183.84
-9755232.19 5135412.31 181.10
-9755231.40 5135407.28 181.41
-9755228.97 5135407.86 181.44
-9755229.24 5135407.01 181.93
-9755230.71 5135407.88 181.41
-9755228.43 5135412.51 183.87
-9755229.54 5135411.11 182.01
-9755232.20 5135410.25 181.16
-9755231.32 5135406.97 181.43
-9755229.87 5135407.65 181.42
-9755228.13 5135412.31 183.70
-9755228.13 5135407.19 183.29
-9755228.79 5135412.74 184.03
-9755229.91 5135406.96 181.45
-9755229.58 5135407.28 181.45
-9755232.27 5135401.93 181.33
-9755229.00 5135402.24 181.14
-9755229.68 5135397.54 181.12
-9755231.36 5135400.25 181.28
-9755230.76 5135400.80 181.24
-9755231.98 5135400.79 181.31
-9755231.15 5135398.45 181.19
-9755232.26 5135402.77 183.39
-9755232.50 5135401.68 181.34
-9755231.43 5135395.20 181.22
-9755232.35 5135402.55 183.19
-9755231.72 5135402.73 183.32
-9755229.02 5135400.76 181.15
-9755230.53 5135396.39 181.10
-9755229.28 5135398.43 181.16
-9755231.93 5135397.55 181.25
-9755228.78 5135399.00 181.16
-9755232.84 5135402.20 183.39
-9755232.59 5135402.14 183.09
-9755228.13 5135400.20 181.16
-9755229.88 5135401.97 181.13
-9755229.03 5135395.48 181.14
-9755231.14 5135396.94 181.17
-9755232.23 5135399.31 181.30
-9755228.15 5135401.11 181.17
-9755229.09 5135396.38 181.14
-9755232.26 5135397.26 181.26
-9755232.61 5135396.67 181.28
-9755231.71 5135396.95 181.23
-9755228.16 5135398.71 181.16
-9755232.27 5135400.19 181.31
-9755229.05 5135398.66 181.16
-9755231.34 5135406.73 181.43
-9755231.39 5135404.54 183.40
-9755231.09 5135404.87 183.40
-9755232.87 5135403.94 183.38
-9755228.24 5135407.32 181.33
-9755230.81 5135405.15 183.30
-9755232.54 5135403.63 183.41
-9755228.90 5135405.09 183.26
-9755231.23 5135406.63 183.19
-9755228.74 5135406.60 183.29
-9755232.39 5135405.31 182.74
-9755231.18 5135405.06 182.76
-9755231.37 5135405.64 183.78
-9755231.34 5135402.82 182.74
-9755228.40 5135406.33 183.28
-9755230.23 5135404.96 181.40
-9755228.96 5135405.76 181.37
-9755230.78 5135405.75 183.34
-9755231.42 5135403.11 183.29
-9755229.01 5135406.31 183.29
-9755229.76 5135405.22 182.94
-9755230.77 5135405.47 183.35
-9755229.34 5135405.70 183.29
-9755230.73 5135403.98 183.33
-9755232.25 5135405.51 181.41
-9755231.93 5135405.45 183.44
-9755229.31 5135406.55 183.28
-9755231.90 5135405.65 183.84
-9755229.92 5135406.02 183.34
-9755232.87 5135404.55 183.42
-9755232.28 5135405.11 183.42
-9755232.50 5135405.29 181.82
-9755230.57 5135406.49 183.46
-9755230.15 5135404.04 181.33
-9755230.74 5135403.64 182.60
-9755233.05 5135403.41 182.99
-9755231.02 5135405.16 183.28
-9755230.55 5135406.27 183.43
-9755231.73 5135403.68 182.40
-9755231.07 5135405.73 183.71
-9755229.28 5135405.09 183.11
-9755228.41 5135406.61 183.29
-9755231.31 5135404.82 183.19
-9755229.88 5135405.08 183.39
-9755230.21 5135405.90 183.28
-9755229.32 5135405.15 183.03
-9755232.28 5135404.30 181.64
-9755231.35 5135403.40 181.39
-9755231.92 5135405.72 182.21
-9755231.67 5135404.80 183.40
-9755229.57 5135405.46 183.36
-9755232.50 5135405.17 182.68
-9755228.73 5135405.56 181.34
-9755231.98 5135403.07 183.41
-9755232.25 5135404.40 182.55
-9755230.80 5135406.39 183.80
-9755232.82 5135405.56 181.38
-9755230.99 5135405.85 181.42
-9755229.60 5135405.72 183.35
-9755231.57 5135406.34 183.41
-9755229.90 5135403.45 181.26
-9755231.96 5135405.96 183.27
-9755230.39 5135406.65 183.34
-9755232.83 5135405.78 181.39
-9755237.93 5135393.87 184.51
-9755238.45 5135393.37 183.41
-9755237.32 5135392.74 184.47
-9755238.84 5135393.91 184.89
-9755237.32 5135394.84 183.60
-9755239.65 5135392.39 184.70
-9755239.45 5135392.76 184.89
-9755238.04 5135393.14 183.10
-9755234.96 5135392.55 181.34
-9755238.78 5135393.44 183.45
-9755238.85 5135392.96 184.47
-9755237.28 5135393.89 184.13
-9755235.26 5135392.86 181.35
-9755239.41 5135393.86 184.82
-9755239.42 5135392.96 184.90
-9755238.53 5135393.29 184.70
-9755239.36 5135394.31 184.08
-9755236.84 5135394.70 184.93
-9755239.38 5135393.26 184.52
-9755237.66 5135392.95 184.36
-9755234.68 5135391.90 181.33
-9755236.45 5135393.58 184.16
-9755237.25 5135393.57 183.39
-9755236.77 5135393.27 184.06
-9755238.03 5135392.85 183.22
-9755237.37 5135393.56 184.69
-9755239.41 5135394.61 184.94
-9755233.77 5135392.80 181.30
-9755238.63 5135394.07 181.51
-9755237.60 5135392.79 181.37
-9755238.77 5135393.97 181.49
-9755235.56 5135392.25 181.36
-9755237.37 5135394.45 184.65
-9755238.96 5135393.98 183.57
-9755239.32 5135393.54 184.82
-9755239.46 5135392.69 184.85
-9755238.17 5135393.22 183.74
-9755239.12 5135392.34 184.70
-9755238.87 5135392.65 184.43
-9755239.15 5135394.43 184.91
-9755239.15 5135394.87 184.81
-9755238.97 5135393.74 181.48
-9755238.78 5135394.75 184.38
-9755237.34 5135394.20 183.57
-9755238.85 5135394.13 184.88
-9755236.90 5135393.89 182.92
-9755239.33 5135392.07 184.34
-9755238.59 5135394.16 184.72
-9755236.78 5135393.89 184.17
-9755228.18 5135394.83 181.15
-9755230.27 5135392.75 181.10
-9755229.36 5135394.24 181.12
-9755229.66 5135394.56 181.12
-9755231.41 5135394.55 181.19
-9755228.47 5135394.29 181.14
-9755230.59 5135392.18 181.09
-9755229.70 5135393.07 181.12
-9755229.95 5135393.72 181.12
-9755228.19 5135393.64 181.13
-9755227.27 5135416.02 183.36
-9755227.55 5135414.90 183.31
-9755225.77 5135415.72 184.53
-9755225.09 5135414.78 185.44
-9755226.61 5135416.11 183.10
-9755222.69 5135414.14 186.07
-9755225.72 5135415.67 184.59
-9755222.85 5135416.42 187.31
-9755227.45 5135416.06 183.39
-9755222.52 5135414.08 186.14
-9755224.85 5135416.24 185.97
-9755224.81 5135416.11 183.81
-9755227.17 5135414.51 184.94
-9755226.64 5135415.07 184.10
-9755227.20 5135415.73 184.14
-9755226.60 5135416.46 181.15
-9755222.69 5135414.87 186.60
-9755223.09 5135415.63 186.10
-9755228.08 5135414.27 184.58
-9755226.53 5135416.04 183.60
-9755224.01 5135415.29 186.62
-9755222.49 5135414.76 186.60
-9755226.62 5135415.52 181.18
-9755224.17 5135416.14 185.75
-9755223.94 5135414.43 186.51
-9755222.32 5135414.64 186.90
-9755225.77 5135415.64 185.42
-9755227.22 5135414.64 181.18
-9755223.38 5135414.44 186.40
-9755225.78 5135414.96 185.53
-9755227.19 5135414.33 183.04
-9755224.81 5135415.32 186.54
-9755222.82 5135415.76 187.32
-9755226.02 5135415.59 185.48
-9755226.26 5135415.05 184.26
-9755222.42 5135415.45 186.10
-9755227.15 5135415.11 185.11
-9755222.49 5135415.63 186.36
-9755224.18 5135415.61 186.12
-9755227.47 5135414.48 184.78
-9755226.05 5135414.77 184.73
-9755223.62 5135415.70 186.61
-9755226.65 5135414.49 184.90
-9755222.48 5135415.54 187.21
-9755223.36 5135414.71 186.50
-9755225.43 5135414.47 185.87
-9755224.95 5135415.38 184.65
-9755223.27 5135415.88 185.97
-9755227.41 5135415.86 183.27
-9755226.57 5135415.97 184.21
-9755223.89 5135416.41 185.41
-9755228.01 5135416.32 182.99
-9755225.20 5135414.45 185.76
-9755227.38 5135414.31 182.74
-9755222.55 5135416.18 187.36
-9755222.81 5135414.99 187.53
-9755225.16 5135414.73 185.73
-9755227.58 5135414.48 184.72
-9755222.18 5135414.15 186.38
-9755225.23 5135414.09 186.63
-9755222.84 5135414.81 187.33
-9755222.23 5135415.81 187.12
-9755227.49 5135416.01 183.36
-9755225.42 5135415.97 184.41
-9755224.23 5135416.27 185.58
-9755227.22 5135415.82 183.22
-9755226.94 5135415.66 184.15
-9755226.00 5135415.66 184.93
-9755228.01 5135415.02 181.13
-9755222.44 5135415.24 187.26
-9755222.78 5135416.15 187.36
-9755224.22 5135416.50 186.15
-9755226.90 5135414.78 184.13
-9755223.12 5135414.11 186.03
-9755223.06 5135414.44 187.08
-9755223.71 5135415.66 186.04
-9755223.07 5135414.70 186.53
-9755226.88 5135414.46 184.88
-9755226.89 5135414.21 184.93
-9755225.26 5135414.90 186.03
-9755225.15 5135414.98 186.69
-9755222.23 5135414.34 187.42
-9755227.70 5135414.15 184.06
-9755224.58 5135414.40 186.43
-9755222.54 5135414.62 186.87
-9755224.24 5135416.50 185.56
-9755226.27 5135415.31 185.48
-9755224.82 5135414.12 186.36
-9755226.29 5135414.51 184.75
-9755225.11 5135416.36 183.79
-9755222.87 5135414.64 187.10
-9755226.06 5135415.47 184.91
-9755223.67 5135416.54 186.26
-9755223.34 5135416.76 186.25
-9755223.91 5135416.79 185.82
-9755226.26 5135417.26 183.45
-9755223.38 5135416.79 185.82
-9755223.69 5135417.09 186.44
-9755224.23 5135417.13 186.61
-9755222.27 5135416.90 187.07
-9755224.81 5135417.05 183.89
-9755225.74 5135416.56 184.49
-9755224.76 5135416.67 184.23
-9755225.08 5135417.20 183.90
-9755226.30 5135417.25 182.98
-9755222.51 5135417.10 186.05
-9755226.39 5135416.99 183.51
-9755224.63 5135417.16 183.10
-9755223.12 5135416.83 185.82
-9755226.01 5135416.68 184.10
-9755222.81 5135417.01 187.26
-9755224.79 5135416.60 183.77
-9755224.77 5135416.73 182.85
-9755225.71 5135416.91 184.19
-9755226.84 5135416.62 183.65
-9755226.07 5135417.09 183.19
-9755227.99 5135416.77 181.09
-9755226.00 5135417.26 183.24
-9755224.76 5135416.86 183.76
-9755222.34 5135416.50 186.48
-9755224.49 5135417.27 183.85
-9755226.32 5135416.66 182.97
-9755225.95 5135416.67 182.83
-9755224.50 5135416.54 185.40
-9755226.61 5135416.64 183.60
-9755224.24 5135416.76 185.70
-9755225.67 5135416.91 183.95
-9755224.56 5135416.63 183.86
-9755222.18 5135417.04 186.46
-9755222.17 5135415.88 186.39
-9755217.79 5135415.57 185.81
-9755218.05 5135414.79 185.12
-9755215.35 5135414.80 182.95
-9755220.21 5135415.91 185.95
-9755221.68 5135414.89 187.57
-9755219.30 5135416.49 185.28
-9755218.01 5135415.63 185.52
-9755220.83 5135414.77 185.29
-9755217.49 5135414.22 185.68
-9755217.98 5135415.94 185.27
-9755218.59 5135415.61 185.32
-9755216.64 5135415.00 184.20
-9755222.14 5135414.39 187.70
-9755216.73 5135415.71 183.75
-9755216.85 5135414.25 183.33
-9755217.45 5135415.88 185.75
-9755217.85 5135415.83 185.26
-9755221.34 5135416.44 186.28
-9755218.01 5135415.58 185.49
-9755220.46 5135415.61 185.87
-9755220.70 5135415.32 186.48
-9755216.81 5135414.40 183.26
-9755219.46 5135414.82 183.97
-9755220.22 5135415.07 186.53
-9755221.89 5135414.38 187.42
-9755215.72 5135414.20 183.86
-9755216.85 5135414.84 183.39
-9755218.68 5135416.42 185.67
-9755216.27 5135414.25 183.69
-9755219.94 5135414.48 186.04
-9755214.18 5135414.51 184.17
-9755221.90 5135415.84 187.19
-9755219.82 5135414.39 185.44
-9755220.15 5135416.45 184.54
-9755220.76 5135414.41 186.74
-9755214.48 5135415.69 183.32
-9755221.31 5135415.01 186.64
-9755221.32 5135414.10 186.74
-9755220.99 5135415.61 187.34
-9755219.78 5135416.50 185.22
-9755214.21 5135415.97 183.32
-9755218.81 5135414.75 184.95
-9755216.90 5135415.13 183.42
-9755216.50 5135414.10 184.03
-9755214.18 5135415.61 185.39
-9755215.64 5135415.18 182.14
-9755221.54 5135415.98 186.26
-9755221.60 5135415.34 187.18
-9755221.35 5135416.20 186.29
-9755220.68 5135415.16 184.86
-9755218.40 5135414.75 185.08
-9755219.20 5135414.70 185.12
-9755214.19 5135414.98 185.50
-9755218.43 5135416.17 185.54
-9755216.56 5135415.73 182.22
-9755214.56 5135414.21 184.23
-9755218.03 5135414.35 185.98
-9755220.74 5135416.28 184.49
-9755220.72 5135414.42 186.05
-9755217.49 5135416.26 185.96
-9755221.93 5135414.31 186.57
-9755217.73 5135414.61 185.93
-9755219.23 5135416.44 185.33
-9755221.61 5135415.80 187.28
-9755218.14 5135414.18 185.93
-9755221.27 5135415.21 186.98
-9755220.43 5135415.02 186.51
-9755218.67 5135414.88 183.97
-9755215.39 5135414.82 182.90
-9755216.60 5135414.31 181.77
-9755217.15 5135414.79 184.16
-9755220.98 5135414.12 186.70
-9755219.77 5135414.10 185.86
-9755214.76 5135415.90 185.07
-9755214.80 5135415.19 182.15
-9755214.78 5135416.03 182.25
-9755213.94 5135414.73 185.45
-9755213.89 5135416.23 183.41
-9755213.88 5135414.67 184.18
-9755213.98 5135414.06 184.28
-9755213.89 5135414.30 184.07
-9755213.92 5135414.96 185.42
-9755213.66 5135415.88 185.43
-9755220.97 5135416.56 185.27
-9755214.45 5135416.58 183.36
-9755218.94 5135416.77 185.74
-9755216.84 5135417.28 182.24
-9755219.49 5135416.56 183.38
-9755221.66 5135417.31 186.00
-9755220.94 5135417.03 184.02
-9755219.03 5135417.16 184.08
-9755221.27 5135417.21 183.89
-9755213.89 5135415.72 182.25
-9755221.99 5135417.06 186.50
-9755219.08 5135417.09 184.07
-9755218.92 5135416.55 183.33
-9755217.37 5135417.22 184.90
-9755218.16 5135417.20 184.12
-9755216.18 5135417.26 182.28
-9755219.61 5135417.09 184.07
-9755214.17 5135416.59 183.37
-9755214.48 5135417.22 182.33
-9755220.70 5135416.82 185.38
-9755215.06 5135416.93 182.30
-9755220.10 5135417.08 185.33
-9755218.88 5135416.99 182.10
-9755213.81 5135416.37 185.49
-9755213.63 5135416.76 185.72
-9755213.66 5135416.56 185.72
-9755213.67 5135416.87 183.46
-9755213.41 5135416.36 182.30
-9755213.35 5135414.43 185.22
-9755207.54 5135414.76 186.07
-9755201.80 5135415.62 184.40
-9755213.57 5135416.38 185.40
-9755208.46 5135415.00 185.82
-9755208.44 5135416.37 185.64
-9755202.83 5135415.61 184.83
-9755203.01 5135414.18 181.99
-9755201.84 5135415.27 185.06
-9755205.60 5135414.72 182.12
-9755201.08 5135415.87 184.98
-9755201.53 5135415.64 184.50
-9755213.38 5135414.96 185.32
-9755202.42 5135415.70 185.30
-9755208.94 5135414.09 185.60
-9755211.33 5135415.80 185.61
-9755206.30 5135415.39 183.48
-9755208.92 5135414.36 185.98
-9755212.80 5135416.28 183.53
-9755213.27 5135414.34 184.13
-9755210.42 5135414.94 186.21
-9755208.08 5135414.25 184.91
-9755213.34 5135414.14 185.27
-9755202.15 5135415.53 185.61
-9755207.49 5135415.40 186.53
-9755207.49 5135415.49 186.31
-9755201.55 5135415.53 185.14
-9755213.07 5135415.90 185.37
-9755212.20 5135415.86 185.28
-9755205.45 5135414.15 183.75
-9755201.47 5135416.29 186.27
-9755212.44 5135414.12 184.22
-9755208.38 5135414.93 186.40
-9755208.61 5135414.05 185.95
-9755212.03 5135416.34 185.89
-9755206.30 5135415.47 185.82
-9755211.01 5135414.11 184.96
-9755212.93 5135415.38 185.09
-9755209.81 5135415.28 186.12
-9755206.82 5135415.37 185.61
-9755211.21 5135416.44 185.55
-9755210.99 5135414.99 185.03
-9755213.14 5135414.76 185.26
-9755201.99 5135415.30 184.30
-9755207.82 5135416.33 186.60
-9755201.18 5135415.79 185.32
-9755211.81 5135415.08 185.75
-9755202.67 5135415.85 184.81
-9755208.05 5135416.43 186.87
-9755202.12 5135414.21 182.03
-9755201.29 5135415.99 185.18
-9755202.41 5135415.88 185.73
-9755203.09 5135415.35 184.26
-9755212.35 5135416.46 183.83
-9755213.63 5135414.12 185.27
-9755208.91 5135414.97 185.90
-9755201.23 5135415.20 185.02
-9755206.80 5135415.81 187.01
-9755209.49 5135414.69 186.01
-9755209.45 5135416.40 186.47
-9755209.50 5135415.53 186.24
-9755201.84 5135414.21 182.03
-9755210.21 5135415.87 185.22
-9755201.83 5135416.31 185.52
-9755210.59 5135414.74 185.00
-9755206.38 5135416.27 183.10
-9755205.99 5135415.64 186.33
-9755211.00 5135414.95 186.40
-9755206.22 5135415.05 183.75
-9755201.00 5135415.29 185.27
-9755202.64 5135416.14 185.20
-9755203.24 5135415.32 184.80
-9755201.59 5135414.68 184.98
-9755211.86 5135416.22 185.39
-9755208.98 5135414.92 186.44
-9755201.62 5135414.41 185.01
-9755208.41 5135414.27 185.97
-9755201.83 5135414.11 184.75
-9755205.14 5135415.66 183.07
-9755206.87 5135415.73 186.53
-9755201.56 5135415.81 185.15
-9755202.12 5135415.26 185.59
-9755209.26 5135414.03 186.04
-9755210.40 5135414.07 185.44
-9755203.09 5135414.97 184.28
-9755211.26 5135414.71 185.06
-9755206.84 5135414.75 183.79
-9755208.62 5135415.78 186.63
-9755209.23 5135415.28 185.97
-9755202.41 5135415.19 185.31
-9755213.56 5135416.11 185.03
-9755210.60 5135414.93 185.54
-9755206.24 5135415.64 182.44
-9755202.51 5135415.50 184.24
-9755212.51 5135415.86 185.81
-9755205.64 5135415.61 183.01
-9755204.47 5135415.04 182.89
-9755209.73 5135415.24 185.21
-9755207.66 5135415.56 185.70
-9755207.17 5135415.22 185.80
-9755205.10 5135415.10 182.67
-9755206.85 5135415.86 185.68
-9755208.30 5135414.66 186.42
-9755211.61 5135415.39 185.62
-9755209.25 5135415.41 186.21
-9755208.38 5135414.90 186.66
-9755206.55 5135415.77 186.70
-9755209.84 5135415.55 186.19
-9755211.87 5135416.39 185.51
-9755202.66 5135415.65 182.34
-9755209.24 5135415.31 185.34
-9755201.83 5135415.90 186.10
-9755201.84 5135416.33 186.06
-9755208.33 5135415.10 186.49
-9755201.24 5135415.07 182.25
-9755208.05 5135416.34 186.11
-9755212.23 5135415.53 185.66
-9755201.41 5135415.76 184.91
-9755213.15 5135414.03 181.73
-9755209.50 5135415.81 186.29
-9755208.63 5135414.32 185.97
-9755202.03 5135415.66 182.37
-9755202.68 5135415.62 184.34
-9755208.06 5135415.82 186.19
-9755207.97 5135416.10 185.84
-9755210.13 5135414.38 184.96
-9755211.35 5135416.47 185.60
-9755209.82 5135414.98 185.98
-9755208.02 5135415.18 186.64
-9755205.67 5135416.42 183.23
-9755208.90 5135414.85 186.65
-9755212.46 5135415.56 185.21
-9755203.33 5135415.96 182.39
-9755213.08 5135414.14 185.15
-9755210.71 5135416.46 186.29
-9755201.29 5135415.82 186.05
-9755202.14 5135416.37 186.05
-9755205.03 5135415.93 183.11
-9755202.72 5135415.80 185.54
-9755205.93 5135415.44 186.64
-9755210.67 5135416.10 185.12
-9755208.03 5135416.09 186.61
-9755211.86 5135415.28 185.60
-9755210.32 5135414.76 185.02
-9755207.74 5135416.05 186.59
-9755211.63 5135414.10 184.88
-9755201.05 5135414.65 185.23
-9755202.38 5135414.96 184.24
-9755203.85 5135415.85 184.82
-9755210.64 5135414.34 184.95
-9755201.05 5135415.73 185.95
-9755211.31 5135414.96 186.44
-9755207.71 5135416.15 186.26
-9755204.18 5135414.55 182.11
-9755206.34 5135416.42 186.08
-9755205.19 5135416.03 186.33
-9755201.21 5135415.21 184.40
-9755201.49 5135415.23 184.92
-9755201.61 5135415.89 184.70
-9755211.07 5135415.56 185.56
-9755206.57 5135414.63 185.81
-9755200.92 5135416.36 186.40
-9755212.18 5135416.41 185.56
-9755202.17 5135415.54 184.08
-9755206.38 5135414.89 186.42
-9755210.13 5135414.16 184.97
-9755213.09 5135414.39 185.15
-9755204.76 5135415.95 183.00
-9755213.59 5135414.83 182.15
-9755212.97 5135415.88 185.34
-9755207.43 5135414.14 184.39
-9755208.95 5135415.24 185.98
-9755203.29 5135414.79 182.14
-9755210.71 5135415.25 185.05
-9755201.79 5135415.81 185.13
-9755208.94 5135414.91 184.90
-9755201.25 5135416.37 186.29
-9755208.39 5135414.56 184.83
-9755211.31 5135415.35 185.07
-9755207.39 5135415.18 186.28
-9755200.94 5135415.47 185.09
-9755211.91 5135414.68 185.03
-9755209.51 5135414.18 185.20
-9755209.53 5135414.05 186.04
-9755211.56 5135416.45 185.54
-9755210.39 5135414.64 186.04
-9755212.80 5135414.17 184.12
-9755210.95 5135416.11 185.56
-9755200.97 5135415.74 186.14
-9755209.81 5135416.44 186.46
-9755203.31 5135414.20 182.00
-9755201.81 5135415.24 185.56
-9755212.38 5135414.53 184.24
-9755204.47 5135415.98 183.20
-9755203.87 5135415.25 183.10
-9755202.53 5135415.22 185.19
-9755211.00 5135414.75 185.03
-9755211.91 5135414.11 184.19
-9755213.35 5135415.03 182.20
-9755202.18 5135416.49 184.81
-9755203.29 5135416.56 182.42
-9755202.80 5135416.45 185.20
-9755210.99 5135416.67 185.55
-9755207.05 5135416.96 185.93
-9755201.29 5135416.41 184.70
-9755213.54 5135416.61 183.48
-9755202.67 5135416.01 182.40
-9755204.44 5135417.06 182.77
-9755207.36 5135416.58 186.50
-9755213.59 5135417.19 183.96
-9755201.81 5135417.17 182.42
-9755211.94 5135417.06 185.69
-9755206.56 5135417.29 186.20
-9755211.49 5135416.69 186.36
-9755213.36 5135417.02 185.53
-9755209.30 5135417.31 186.66
-9755200.98 5135416.39 185.61
-9755212.16 5135417.31 184.31
-9755213.38 5135417.29 182.37
-9755204.18 5135416.84 183.20
-9755207.49 5135416.96 186.93
-9755203.16 5135417.07 182.43
-9755201.95 5135416.45 184.05
-9755202.74 5135416.61 185.22
-9755208.12 5135416.64 185.51
-9755212.97 5135417.02 183.62
-9755208.57 5135416.69 186.80
-9755203.86 5135416.50 182.38
-9755203.85 5135416.54 183.18
