-9755636.25 5135639.86 185.20
-9755633.85 5135637.52 185.07
-9755633.58 5135642.53 185.08
-9755629.15 5135639.21 185.01
-9755636.25 5135636.57 185.22
-9755634.48 5135644.26 185.00
-9755637.12 5135640.11 185.17
-9755632.41 5135643.65 185.10
-9755634.74 5135644.84 184.98
-9755635.63 5135640.41 185.16
-9755633.87 5135636.56 185.04
-9755630.07 5135639.49 185.09
-9755634.20 5135638.05 185.01
-9755625.59 5135644.24 185.07
-9755629.74 5135646.63 185.05
-9755629.14 5135644.17 185.00
-9755625.30 5135643.34 185.08
-9755618.22 5135640.22 181.01
-9755621.71 5135645.96 184.90
-9755621.26 5135637.05 184.78
-9755621.50 5135640.07 184.90
-9755618.23 5135644.09 180.96
-9755617.38 5135639.89 182.20
-9755624.37 5135639.48 184.94
-9755621.47 5135638.29 184.82
-9755621.44 5135641.82 184.82
-9755622.95 5135645.12 184.93
-9755618.81 5135636.94 181.03
-9755622.99 5135639.21 184.95
-9755622.97 5135638.31 184.95
-9755620.68 5135640.11 184.68
-9755624.76 5135637.44 185.06
-9755618.78 5135642.60 180.98
-9755624.74 5135640.99 185.03
-9755620.66 5135640.87 184.69
-9755617.92 5135641.67 181.01
-9755617.57 5135641.14 181.04
-9755622.43 5135636.76 184.90
-9755624.44 5135640.02 184.97
-9755623.83 5135640.90 184.91
-9755617.93 5135644.96 180.96
-9755624.78 5135640.06 185.05
-9755617.94 5135639.69 182.68
-9755617.09 5135639.21 182.56
-9755623.80 5135645.12 184.89
-9755624.77 5135642.45 185.03
-9755624.73 5135644.21 185.00
-9755625.00 5135644.24 185.05
-9755618.18 5135642.64 180.99
-9755616.42 5135647.61 180.93
-9755613.16 5135647.29 180.98
-9755617.02 5135658.16 186.86
-9755614.09 5135657.30 186.35
-9755614.59 5135658.98 185.55
-9755615.59 5135660.02 186.46
-9755617.25 5135659.66 184.36
-9755614.81 5135660.74 184.82
-9755614.88 5135659.98 186.07
-9755614.66 5135658.02 186.40
-9755615.54 5135658.19 186.39
-9755615.48 5135657.36 187.09
-9755614.86 5135657.54 185.19
-9755616.36 5135657.54 185.49
-9755614.08 5135660.65 184.86
-9755616.38 5135659.80 185.39
-9755614.97 5135655.06 185.50
-9755617.26 5135655.91 180.68
-9755616.38 5135657.26 187.20
-9755615.18 5135649.97 180.91
-9755614.89 5135653.27 180.80
-9755614.91 5135659.94 183.92
-9755615.81 5135655.75 186.26
-9755613.20 5135659.82 184.85
-9755613.21 5135654.91 185.15
-9755616.62 5135660.69 185.47
-9755613.50 5135656.79 186.32
-9755613.48 5135656.58 184.61
-9755614.95 5135658.35 185.26
-9755614.04 5135651.71 180.86
-9755615.60 5135659.00 186.17
-9755612.57 5135656.60 184.17
-9755614.87 5135655.94 186.25
-9755615.82 5135656.55 187.09
-9755616.43 5135658.13 186.39
-9755616.32 5135655.93 180.68
-9755614.92 5135658.01 180.61
-9755616.63 5135655.75 184.68
-9755615.80 5135653.23 180.79
-9755613.44 5135658.07 186.83
-9755616.95 5135658.90 185.31
-9755616.61 5135658.21 182.48
-9755613.13 5135658.32 184.66
-9755614.88 5135648.20 180.96
-9755616.66 5135656.56 185.60
-9755616.50 5135655.88 185.22
-9755616.56 5135660.57 186.43
-9755615.66 5135658.41 185.35
-9755613.20 5135659.65 182.98
-9755615.04 5135655.03 184.41
-9755615.46 5135654.75 180.75
-9755615.54 5135660.69 186.15
-9755612.48 5135659.86 183.88
-9755613.16 5135650.57 180.86
-9755614.91 5135649.11 180.93
-9755615.53 5135657.42 184.64
-9755616.51 5135656.63 182.92
-9755614.98 5135660.45 186.04
-9755613.05 5135660.78 183.79
-9755612.53 5135658.36 183.06
-9755616.42 5135660.90 183.23
-9755614.40 5135659.86 186.04
-9755614.65 5135658.92 186.24
-9755616.92 5135660.84 184.64
-9755616.97 5135659.34 184.40
-9755613.25 5135659.66 183.65
-9755616.42 5135658.48 187.07
-9755615.14 5135658.31 186.70
-9755616.57 5135659.76 180.52
-9755615.19 5135658.88 187.09
-9755616.59 5135658.82 183.41
-9755615.57 5135660.37 186.76
-9755613.88 5135660.06 185.37
-9755616.39 5135658.17 183.12
-9755615.76 5135660.08 186.69
-9755616.38 5135659.00 183.10
-9755613.44 5135649.98 180.90
-9755616.03 5135658.86 186.96
-9755613.64 5135659.29 183.88
-9755613.88 5135654.14 184.93
-9755615.79 5135660.92 183.30
-9755613.13 5135660.57 184.46
-9755616.65 5135653.54 180.77
-9755613.78 5135658.94 186.77
-9755613.56 5135658.90 185.92
-9755613.11 5135652.31 180.81
-9755613.81 5135654.81 185.03
-9755613.76 5135658.05 187.13
-9755616.43 5135648.23 180.92
-9755615.83 5135655.94 186.79
-9755614.90 5135651.48 180.86
-9755616.54 5135660.94 183.48
-9755616.65 5135656.91 183.86
-9755612.25 5135660.16 184.32
-9755615.14 5135659.55 186.72
-9755611.35 5135647.89 180.90
-9755610.76 5135650.54 180.78
-9755610.76 5135649.99 180.79
-9755610.72 5135655.89 180.65
-9755611.91 5135655.72 184.75
-9755616.94 5135661.08 185.40
-9755617.98 5135661.17 183.54
-9755614.76 5135663.91 180.29
-9755616.58 5135661.16 183.20
-9755614.81 5135661.53 180.49
-9755615.75 5135661.24 184.11
-9755615.94 5135661.42 184.73
-9755613.96 5135664.21 180.29
-9755613.93 5135665.66 180.21
-9755614.36 5135661.23 185.30
-9755616.36 5135661.37 184.43
-9755616.32 5135662.16 183.68
-9755613.90 5135665.63 181.45
-9755610.67 5135664.76 180.25
-9755611.56 5135662.40 180.34
-9755611.59 5135665.71 180.22
-9755610.74 5135665.91 180.73
-9755609.42 5135646.44 180.74
-9755610.30 5135648.50 180.96
-9755609.02 5135649.02 180.66
-9755609.25 5135655.88 180.57
-9755609.85 5135648.42 180.67
-9755609.93 5135652.65 180.67
-9755609.89 5135656.83 180.59
-9755610.20 5135653.24 180.69
-9755609.22 5135665.66 180.23
-9755609.79 5135665.09 180.24
-9755609.67 5135665.91 181.58
-9755610.09 5135664.18 180.27
-9755609.88 5135666.41 181.72
-9755608.84 5135666.09 181.55
-9755615.01 5135639.51 182.76
-9755614.70 5135640.12 182.37
-9755615.63 5135637.80 182.32
-9755610.80 5135646.72 180.77
-9755616.48 5135639.46 182.12
-9755615.80 5135638.55 182.33
-9755614.98 5135644.33 181.05
-9755615.86 5135641.98 181.11
-9755613.82 5135640.15 182.02
-9755615.59 5135640.14 182.60
-9755616.42 5135644.94 181.00
-9755615.55 5135640.05 181.16
-9755612.61 5135640.11 181.16
-9755615.86 5135642.60 181.09
-9755615.36 5135637.22 182.31
-9755615.55 5135639.17 182.72
-9755617.36 5135639.29 181.09
-9755613.21 5135640.15 181.19
-9755614.09 5135639.22 182.23
-9755614.05 5135641.69 181.13
-9755616.45 5135637.79 181.15
-9755613.14 5135643.45 181.08
-9755613.50 5135639.30 181.20
-9755614.10 5135636.93 181.23
-9755613.50 5135642.54 181.12
-9755612.37 5135637.54 181.03
-9755614.11 5135637.56 181.22
-9755615.56 5135637.77 181.19
-9755614.83 5135640.07 182.61
-9755612.56 5135646.70 180.98
-9755616.19 5135637.23 182.20
-9755614.07 5135641.12 181.15
-9755615.57 5135636.98 181.19
-9755612.59 5135643.47 181.08
-9755617.31 5135646.70 180.97
-9755615.29 5135641.55 182.57
-9755612.28 5135643.01 180.88
-9755611.70 5135641.96 180.94
-9755611.69 5135645.84 180.97
-9755610.86 5135641.05 180.93
-9755610.83 5135645.48 180.80
-9755610.50 5135641.65 180.91
-9755612.03 5135644.31 181.03
-9755609.99 5135640.69 180.94
-9755609.76 5135636.87 181.04
-9755609.96 5135644.25 180.86
-9755610.56 5135641.92 180.89
-9755711.33 5135621.13 186.19
-9755712.10 5135621.27 185.44
-9755713.60 5135621.28 185.49
-9755709.29 5135621.21 185.44
-9755706.97 5135620.98 185.46
-9755710.36 5135621.27 186.39
-9755706.76 5135621.80 185.45
-9755710.58 5135621.02 185.05
-9755707.70 5135621.63 185.39
-9755712.99 5135621.34 184.97
-9755713.94 5135621.89 185.01
-9755706.84 5135622.11 186.32
-9755706.51 5135621.20 186.39
-9755710.89 5135627.52 186.33
-9755710.34 5135635.36 186.33
-9755711.07 5135633.72 186.27
-9755713.63 5135630.19 186.34
-9755711.15 5135632.85 186.36
-9755712.19 5135632.59 186.21
-9755710.28 5135624.54 186.39
-9755706.25 5135634.50 186.49
-9755707.03 5135634.24 186.34
-9755707.96 5135625.38 185.01
-9755710.30 5135629.29 185.04
-9755711.13 5135632.58 185.04
-9755706.99 5135632.83 186.36
-9755710.87 5135629.24 186.34
-9755710.32 5135631.89 186.38
-9755709.40 5135622.83 185.43
-9755711.13 5135631.15 186.26
-9755713.70 5135632.83 186.89
-9755706.53 5135630.08 186.37
-9755712.13 5135630.08 186.13
-9755709.76 5135633.60 186.48
-9755707.92 5135626.25 185.42
-9755712.88 5135630.21 185.01
-9755706.07 5135633.45 186.14
-9755708.79 5135632.79 186.31
-9755711.11 5135628.49 186.25
-9755707.64 5135630.27 186.86
-9755706.87 5135627.77 185.49
-9755708.71 5135630.92 185.84
-9755711.23 5135631.86 186.28
-9755712.92 5135633.64 185.45
-9755709.16 5135622.66 185.44
-9755706.97 5135634.20 185.52
-9755708.18 5135628.60 186.26
-9755709.36 5135634.40 185.38
-9755708.48 5135632.93 185.48
-9755709.69 5135635.11 186.28
-9755712.71 5135624.27 185.39
-9755706.55 5135628.16 185.49
-9755710.31 5135633.66 186.36
-9755707.92 5135627.79 185.41
-9755710.42 5135625.14 186.38
-9755707.67 5135626.67 185.41
-9755706.84 5135626.84 185.45
-9755707.04 5135633.59 185.48
-9755712.09 5135623.08 185.47
-9755706.42 5135632.80 186.40
-9755706.97 5135624.75 186.33
-9755706.93 5135626.40 185.45
-9755712.71 5135632.24 185.96
-9755713.76 5135634.38 185.45
-9755707.95 5135631.01 186.24
-9755712.71 5135623.36 185.00
-9755707.96 5135623.65 185.41
-9755709.11 5135634.97 185.42
-9755713.63 5135628.61 186.19
-9755706.57 5135633.49 185.47
-9755711.70 5135631.87 186.23
-9755708.54 5135624.57 184.99
-9755711.99 5135623.71 185.31
-9755708.79 5135633.68 185.43
-9755710.90 5135623.69 185.01
-9755711.46 5135631.04 185.02
-9755706.79 5135627.14 186.34
-9755709.59 5135631.82 186.53
-9755712.99 5135628.74 184.99
-9755712.89 5135632.50 185.89
-9755706.46 5135624.47 186.32
-9755709.65 5135627.88 185.44
-9755709.69 5135634.21 186.38
-9755712.89 5135634.91 185.00
-9755713.99 5135623.03 185.45
-9755709.42 5135633.67 185.41
-9755710.63 5135627.79 186.37
-9755712.31 5135635.25 185.45
-9755707.63 5135632.74 185.64
-9755706.45 5135627.10 186.35
-9755712.40 5135627.81 185.00
-9755712.04 5135622.10 186.14
-9755711.15 5135632.00 185.04
-9755712.95 5135628.23 186.21
-9755710.87 5135627.25 185.02
-9755707.06 5135635.27 185.44
-9755710.93 5135624.54 186.30
-9755712.94 5135633.23 186.92
-9755710.86 5135634.00 186.28
-9755711.03 5135625.38 186.25
-9755713.49 5135633.44 184.98
-9755712.69 5135633.37 185.88
-9755710.29 5135631.10 185.06
-9755712.09 5135625.97 186.67
-9755707.04 5135627.45 186.31
-9755709.21 5135630.69 186.76
-9755708.86 5135626.37 185.01
-9755706.88 5135624.71 185.47
-9755709.39 5135634.60 185.01
-9755708.24 5135634.35 185.01
-9755711.64 5135622.81 186.74
-9755711.76 5135623.64 186.76
-9755706.51 5135625.74 186.35
-9755707.92 5135634.93 185.43
-9755713.06 5135621.94 185.01
-9755710.89 5135635.16 186.33
-9755713.84 5135633.32 186.86
-9755708.53 5135634.59 185.01
-9755710.53 5135636.91 186.32
-9755707.09 5135636.62 186.35
-9755707.17 5135636.10 186.23
-9755711.15 5135635.82 186.22
-9755707.06 5135636.27 185.43
-9755707.07 5135636.81 185.47
-9755708.55 5135636.67 185.01
-9755711.09 5135637.03 186.23
-9755708.51 5135636.96 185.02
-9755713.83 5135636.12 184.99
-9755707.61 5135636.70 185.00
-9755707.95 5135636.68 185.43
-9755713.51 5135636.70 184.97
-9755710.91 5135636.42 184.92
-9755708.74 5135635.80 185.01
-9755709.36 5135636.96 185.00
-9755708.46 5135636.12 185.02
-9755711.87 5135607.94 185.45
-9755713.97 5135608.06 185.00
-9755707.17 5135607.97 186.35
-9755708.97 5135608.78 186.37
-9755710.32 5135608.09 186.40
-9755711.79 5135608.24 185.94
-9755710.07 5135608.81 186.39
-9755708.01 5135608.84 186.35
-9755711.42 5135607.93 185.47
-9755711.91 5135608.87 185.45
-9755708.61 5135620.18 185.00
-9755711.63 5135614.88 185.47
-9755712.18 5135612.99 185.43
-9755710.43 5135610.32 186.32
-9755708.85 5135614.48 184.98
-9755709.15 5135614.41 185.39
-9755713.61 5135610.36 185.44
-9755707.65 5135620.29 185.01
-9755707.20 5135612.99 185.43
-9755710.38 5135619.76 186.37
-9755707.39 5135612.12 185.42
-9755711.96 5135612.96 185.98
-9755709.52 5135612.99 185.45
-9755712.08 5135617.16 185.44
-9755708.00 5135613.31 185.01
-9755710.38 5135617.09 186.36
-9755709.54 5135611.19 186.26
-9755706.97 5135619.55 185.45
-9755707.74 5135616.25 185.00
-9755712.10 5135614.40 186.06
-9755706.75 5135618.86 185.02
-9755711.01 5135619.54 185.04
-9755712.81 5135613.93 185.43
-9755707.10 5135613.87 185.03
-9755708.72 5135609.69 186.36
-9755712.99 5135616.22 185.43
-9755709.54 5135612.39 186.23
-9755710.38 5135613.88 186.38
-9755708.60 5135617.84 184.99
-9755707.78 5135611.25 186.26
-9755713.63 5135620.14 184.98
-9755711.56 5135609.36 185.41
-9755711.97 5135620.34 185.57
-9755707.15 5135611.20 186.32
-9755712.85 5135611.22 185.43
-9755706.81 5135615.37 185.01
-9755712.09 5135615.56 186.68
-9755710.87 5135619.77 186.33
-9755712.18 5135610.66 185.46
-9755711.04 5135609.48 185.01
-9755711.97 5135615.41 185.43
-9755713.92 5135619.26 184.97
-9755707.76 5135613.52 185.40
-9755706.55 5135619.59 185.69
-9755710.63 5135614.50 185.00
-9755712.25 5135618.67 185.46
-9755708.00 5135620.37 185.42
-9755713.06 5135614.78 185.01
-9755708.36 5135616.89 185.01
-9755713.05 5135619.63 185.46
-9755711.55 5135613.89 185.04
-9755711.56 5135612.81 185.50
-9755707.39 5135615.89 185.00
-9755706.53 5135618.05 185.70
-9755711.98 5135617.92 185.37
-9755709.27 5135614.52 185.34
-9755711.93 5135609.78 185.41
-9755712.20 5135617.22 186.01
-9755713.63 5135611.90 185.00
-9755707.16 5135610.29 186.33
-9755713.58 5135617.17 185.45
-9755710.39 5135609.60 186.36
-9755710.34 5135618.83 186.39
-9755708.57 5135618.63 184.98
-9755713.56 5135613.16 185.48
-9755713.07 5135614.56 185.46
-9755712.05 5135618.97 186.12
-9755713.69 5135609.79 185.00
-9755707.74 5135612.38 185.41
-9755709.51 5135621.26 185.00
-9755713.06 5135618.56 185.00
-9755713.85 5135619.73 186.11
-9755706.33 5135614.67 186.37
-9755706.64 5135613.86 185.40
-9755713.93 5135613.62 185.01
-9755711.93 5135613.75 186.03
-9755708.04 5135613.85 185.00
-9755709.24 5135617.11 184.97
-9755709.24 5135613.01 185.00
-9755710.87 5135620.46 186.29
-9755713.41 5135611.12 185.50
-9755707.38 5135618.97 185.00
-9755706.30 5135609.65 186.35
-9755708.85 5135619.86 184.98
-9755707.81 5135614.49 185.36
-9755710.10 5135610.12 185.01
-9755713.89 5135616.90 185.00
-9755706.30 5135612.91 186.34
-9755709.41 5135612.35 185.45
-9755713.03 5135610.16 185.00
-9755711.94 5135609.43 186.61
-9755706.59 5135612.26 185.61
-9755711.89 5135611.11 186.71
-9755713.15 5135611.83 185.42
-9755711.37 5135616.92 186.76
-9755714.03 5135609.68 185.32
-9755709.41 5135613.97 185.33
-9755708.30 5135617.23 185.00
-9755706.62 5135618.91 185.48
-9755711.39 5135613.96 186.72
-9755707.99 5135614.45 184.98
-9755706.64 5135617.16 185.48
-9755711.59 5135611.19 186.74
-9755709.44 5135620.10 185.00
-9755713.02 5135620.43 184.98
-9755709.16 5135618.98 185.02
-9755706.75 5135614.80 185.01
-9755706.29 5135613.83 186.35
-9755706.58 5135612.59 185.46
-9755711.95 5135617.60 185.93
-9755698.83 5135620.95 186.27
-9755704.73 5135621.22 185.05
-9755695.83 5135621.15 186.48
-9755705.28 5135621.24 186.48
-9755701.33 5135621.14 186.29
-9755700.66 5135621.25 185.04
-9755705.47 5135632.95 186.27
-9755706.19 5135631.03 184.99
-9755705.87 5135634.30 184.98
-9755706.14 5135629.57 185.00
-9755705.31 5135625.13 185.04
-9755705.57 5135633.40 185.00
-9755699.13 5135622.08 186.24
-9755697.02 5135627.04 186.27
-9755704.68 5135625.99 185.06
-9755704.44 5135626.96 185.06
-9755697.35 5135631.89 186.22
-9755697.94 5135630.96 186.26
-9755698.88 5135628.56 186.22
-9755701.15 5135631.67 185.06
-9755698.81 5135632.79 186.23
-9755698.30 5135622.06 186.28
-9755704.29 5135631.08 185.08
-9755700.65 5135623.65 185.06
-9755703.21 5135631.87 186.30
-9755696.46 5135623.55 186.31
-9755703.82 5135625.35 186.30
-9755696.28 5135621.79 186.32
-9755694.73 5135624.50 184.97
-9755703.69 5135629.66 185.05
-9755698.86 5135627.72 186.24
-9755697.84 5135624.66 185.79
-9755701.49 5135631.01 185.07
-9755699.80 5135622.75 185.02
-9755696.48 5135624.38 186.31
-9755701.55 5135626.86 186.37
-9755701.22 5135624.46 185.07
-9755704.06 5135625.49 185.10
-9755699.65 5135627.09 186.23
-9755705.82 5135634.93 185.01
-9755697.31 5135630.35 186.24
-9755697.94 5135631.86 186.24
-9755699.71 5135629.18 186.21
-9755699.71 5135626.23 185.02
-9755704.40 5135628.58 185.05
-9755703.80 5135627.77 185.05
-9755703.80 5135631.29 185.06
-9755703.72 5135630.51 185.11
-9755696.46 5135627.65 186.28
-9755703.74 5135633.72 185.07
-9755700.28 5135631.88 185.02
-9755698.01 5135632.57 186.23
-9755697.07 5135621.99 186.28
-9755699.47 5135622.09 186.25
-9755694.07 5135633.65 185.01
-9755702.98 5135625.07 186.28
-9755695.80 5135621.73 186.78
-9755700.60 5135622.72 185.03
-9755699.34 5135633.97 185.00
-9755703.82 5135631.98 185.55
-9755699.34 5135633.69 185.87
-9755700.54 5135623.08 186.15
-9755703.79 5135629.19 186.29
-9755696.50 5135627.04 186.29
-9755697.19 5135630.96 185.96
-9755695.93 5135630.02 186.41
-9755700.60 5135627.16 185.02
-9755700.57 5135628.03 185.04
-9755703.61 5135623.04 185.02
-9755699.64 5135627.17 185.01
-9755696.41 5135634.25 185.01
-9755704.73 5135624.54 185.04
-9755704.82 5135623.59 186.26
-9755703.84 5135624.48 185.04
-9755696.37 5135630.12 186.28
-9755702.07 5135630.45 185.07
-9755702.29 5135633.56 185.07
-9755702.24 5135633.40 186.28
-9755703.78 5135635.30 185.07
-9755699.77 5135623.94 185.04
-9755703.23 5135621.83 185.05
-9755697.50 5135633.40 185.66
-9755697.39 5135626.23 186.29
-9755697.39 5135625.29 186.26
-9755698.76 5135634.14 186.24
-9755695.04 5135622.96 184.93
-9755703.59 5135628.46 185.06
-9755699.00 5135627.06 186.25
-9755703.81 5135630.32 186.29
-9755694.09 5135627.98 185.01
-9755705.31 5135630.44 185.04
-9755698.95 5135630.99 186.27
-9755697.98 5135633.54 186.22
-9755698.83 5135623.60 186.29
-9755703.33 5135625.34 185.09
-9755698.76 5135631.87 186.22
-9755697.90 5135627.67 186.27
-9755701.13 5135626.32 185.06
-9755694.13 5135626.85 185.01
-9755702.00 5135632.88 185.07
-9755699.65 5135624.75 185.03
-9755699.42 5135633.68 185.00
-9755703.87 5135626.92 185.06
-9755695.82 5135631.86 184.95
-9755699.44 5135623.70 185.01
-9755700.61 5135630.13 185.00
-9755704.62 5135635.38 186.29
-9755698.87 5135629.39 186.25
-9755701.44 5135632.50 185.08
-9755698.10 5135634.66 186.87
-9755704.54 5135625.38 185.06
-9755705.25 5135634.35 185.02
-9755692.02 5135623.59 185.01
-9755694.09 5135632.83 185.01
-9755694.96 5135634.23 184.94
-9755692.92 5135631.28 185.01
-9755699.66 5135630.02 186.22
-9755698.47 5135635.05 186.76
-9755698.24 5135635.14 186.27
-9755702.05 5135635.06 186.29
-9755701.18 5135626.59 185.06
-9755705.33 5135626.87 186.35
-9755691.46 5135632.18 185.47
-9755691.38 5135632.73 185.00
-9755690.65 5135632.12 184.76
-9755691.08 5135630.11 185.01
-9755690.84 5135631.20 185.00
-9755705.31 5135636.91 186.38
-9755705.53 5135636.39 184.99
-9755703.73 5135636.92 186.30
-9755696.42 5135635.35 186.31
-9755702.86 5135636.92 186.26
-9755698.14 5135636.09 185.01
-9755693.75 5135637.22 185.01
-9755701.97 5135635.99 186.29
-9755703.18 5135636.00 186.31
-9755694.65 5135635.13 184.97
-9755693.14 5135636.00 184.98
-9755698.72 5135636.36 185.00
-9755698.57 5135636.78 185.51
-9755690.80 5135636.87 184.96
-9755687.70 5135621.37 186.31
-9755685.56 5135621.45 184.98
-9755684.15 5135621.06 186.69
-9755680.21 5135621.33 186.04
-9755681.46 5135621.10 185.45
-9755683.88 5135621.17 184.97
-9755680.04 5135620.50 186.74
-9755678.85 5135620.09 185.58
-9755678.57 5135621.35 186.43
-9755678.49 5135621.13 186.76
-9755688.25 5135630.94 186.27
-9755681.34 5135633.44 185.94
-9755685.60 5135631.75 186.27
-9755681.62 5135630.94 185.41
-9755685.84 5135634.41 186.24
-9755682.59 5135627.94 184.99
-9755686.44 5135630.32 186.21
-9755683.17 5135632.88 186.02
-9755687.25 5135627.62 186.28
-9755686.52 5135625.44 185.53
-9755680.58 5135624.36 186.30
-9755686.43 5135629.41 186.17
-9755689.61 5135632.47 186.39
-9755684.59 5135625.27 186.53
-9755690.86 5135623.30 185.01
-9755688.96 5135630.88 186.25
-9755688.30 5135629.46 186.21
-9755682.59 5135627.77 185.41
-9755688.24 5135624.17 185.00
-9755682.25 5135629.44 184.99
-9755689.08 5135634.49 184.94
-9755687.39 5135628.47 186.38
-9755680.86 5135634.49 186.38
-9755683.95 5135631.92 186.32
-9755682.34 5135631.84 186.34
-9755681.37 5135631.94 186.87
-9755684.65 5135629.44 184.89
-9755685.85 5135627.02 185.91
-9755680.29 5135626.45 185.50
-9755684.06 5135633.32 184.95
-9755687.35 5135632.66 186.21
-9755690.82 5135627.98 185.00
-9755684.68 5135624.78 184.89
-9755679.21 5135631.13 186.51
-9755684.06 5135626.06 186.68
-9755683.48 5135622.92 185.44
-9755683.11 5135626.96 184.99
-9755680.74 5135625.26 185.51
-9755680.26 5135623.63 186.25
-9755680.02 5135622.90 186.31
-9755684.08 5135627.00 186.69
-9755688.12 5135626.03 186.16
-9755682.36 5135625.52 185.49
-9755683.65 5135633.45 185.99
-9755679.89 5135632.71 184.98
-9755684.10 5135622.80 186.72
-9755688.13 5135624.43 186.04
-9755682.30 5135634.17 186.33
-9755681.35 5135631.73 186.35
-9755682.71 5135632.94 186.70
-9755683.09 5135631.76 186.32
-9755682.49 5135628.56 185.44
-9755684.15 5135625.28 186.64
-9755689.03 5135631.80 186.27
-9755684.03 5135624.43 185.42
-9755687.29 5135622.55 186.28
-9755686.36 5135628.47 186.20
-9755680.75 5135627.60 185.45
-9755686.41 5135622.89 186.21
-9755679.96 5135622.13 186.76
-9755688.99 5135628.50 186.17
-9755682.28 5135630.38 184.97
-9755687.40 5135627.14 186.23
-9755680.88 5135630.30 185.00
-9755687.60 5135622.02 186.31
-9755680.24 5135626.97 186.70
-9755689.08 5135625.64 184.98
-9755683.41 5135628.54 185.41
-9755688.70 5135631.78 185.01
-9755689.04 5135629.40 186.25
-9755679.21 5135627.48 186.36
-9755685.61 5135626.23 184.98
-9755680.60 5135631.07 186.32
-9755681.67 5135626.37 185.46
-9755689.08 5135628.05 184.97
-9755682.34 5135624.97 184.99
-9755681.77 5135622.07 185.01
-9755682.31 5135622.65 185.01
-9755689.11 5135633.53 186.26
-9755689.11 5135630.37 184.96
-9755680.57 5135627.05 185.47
-9755682.17 5135625.84 185.52
-9755680.82 5135630.30 185.43
-9755687.90 5135627.07 185.01
-9755688.30 5135621.85 185.49
-9755687.33 5135623.48 186.31
-9755684.68 5135621.80 184.94
-9755684.13 5135634.49 186.75
-9755681.69 5135627.89 184.99
-9755679.87 5135634.17 186.77
-9755685.76 5135630.29 186.24
-9755680.59 5135622.91 186.76
-9755682.31 5135621.73 185.00
-9755681.52 5135628.56 185.48
-9755684.32 5135627.67 184.91
-9755689.92 5135633.64 184.89
-9755680.50 5135624.60 186.73
-9755684.13 5135624.39 186.69
-9755683.47 5135631.76 186.84
-9755680.81 5135631.95 186.67
-9755687.29 5135626.43 186.20
-9755681.45 5135625.32 185.47
-9755688.80 5135624.76 185.00
-9755684.12 5135629.77 184.94
-9755682.58 5135626.17 185.00
-9755688.87 5135626.85 184.98
-9755680.81 5135634.35 186.85
-9755688.46 5135627.94 186.21
-9755685.79 5135633.50 186.26
-9755680.89 5135625.87 185.00
-9755689.94 5135629.23 184.90
-9755683.37 5135634.32 186.86
-9755687.31 5135631.77 186.23
-9755682.97 5135625.33 184.99
-9755684.66 5135626.15 184.90
-9755685.76 5135631.19 186.22
-9755689.06 5135630.32 186.25
-9755690.62 5135628.59 184.99
-9755679.04 5135626.43 186.47
-9755683.52 5135627.05 185.44
-9755679.10 5135624.70 185.01
-9755684.35 5135624.47 184.90
-9755688.30 5135626.97 186.01
-9755690.59 5135624.47 185.00
-9755685.77 5135632.19 184.82
-9755684.46 5135625.78 186.64
-9755689.08 5135629.43 184.99
-9755689.12 5135622.68 184.97
-9755680.17 5135630.16 185.45
-9755683.14 5135624.68 185.00
-9755684.03 5135629.35 186.74
-9755683.46 5135626.22 184.96
-9755684.04 5135631.24 184.94
-9755680.74 5135629.13 186.70
-9755681.51 5135629.02 186.34
-9755680.30 5135626.69 186.21
-9755689.03 5135626.18 185.00
-9755680.22 5135628.80 185.47
-9755679.17 5135634.18 186.32
-9755685.94 5135624.63 186.00
-9755679.04 5135631.77 186.46
-9755688.78 5135625.34 185.92
-9755681.51 5135633.84 186.67
-9755678.90 5135629.65 186.41
-9755684.08 5135632.16 184.94
-9755680.15 5135621.91 186.02
-9755682.38 5135633.41 186.15
-9755679.07 5135633.42 186.73
-9755679.99 5135629.25 186.79
-9755681.73 5135622.88 185.47
-9755679.36 5135631.80 184.98
-9755679.02 5135622.87 186.45
-9755678.72 5135630.24 186.56
-9755678.96 5135632.90 186.44
-9755677.55 5135634.34 185.50
-9755678.75 5135631.22 186.72
-9755678.49 5135627.00 186.57
-9755678.52 5135623.46 186.45
-9755677.21 5135629.21 185.51
-9755678.80 5135622.59 185.03
-9755678.55 5135622.82 186.74
-9755676.67 5135634.69 185.08
-9755676.69 5135629.44 185.37
-9755676.38 5135625.86 185.44
-9755683.77 5135635.09 186.33
-9755680.28 5135635.24 186.75
-9755681.35 5135635.35 186.33
-9755689.05 5135635.90 186.26
-9755683.13 5135636.62 184.99
-9755684.83 5135635.08 184.86
-9755683.10 5135634.98 186.31
-9755688.94 5135635.07 184.98
-9755689.01 5135635.07 186.27
-9755688.99 5135636.86 186.25
-9755683.99 5135634.95 186.69
-9755689.56 5135637.37 186.39
-9755679.25 5135635.21 186.41
-9755688.13 5135635.31 186.27
-9755684.53 5135635.20 185.38
-9755688.08 5135636.95 185.49
-9755682.63 5135635.31 185.42
-9755679.87 5135635.99 184.97
-9755680.73 5135635.42 186.15
-9755682.55 5135635.96 185.00
-9755679.04 5135637.03 186.87
-9755688.99 5135635.97 184.99
-9755686.72 5135635.98 185.55
-9755681.73 5135636.33 185.46
-9755684.88 5135636.01 184.90
-9755689.64 5135635.99 184.91
-9755679.05 5135635.80 186.30
-9755683.49 5135634.80 186.83
-9755682.30 5135634.99 186.32
-9755686.34 5135635.97 185.00
-9755680.43 5135636.08 186.27
-9755680.19 5135634.95 186.36
-9755676.80 5135635.44 185.48
-9755677.46 5135636.88 185.46
-9755677.48 5135635.96 185.05
-9755704.58 5135608.85 185.04
-9755698.07 5135607.85 186.27
-9755704.55 5135608.73 186.23
-9755698.05 5135608.22 184.99
-9755703.04 5135608.79 186.30
-9755693.65 5135608.22 185.05
-9755699.67 5135609.03 186.10
-9755705.40 5135616.24 185.00
-9755700.62 5135620.32 185.04
-9755698.05 5135610.49 186.52
-9755698.03 5135611.16 186.27
-9755704.50 5135620.40 185.04
-9755697.96 5135615.53 186.27
-9755704.72 5135619.45 186.22
-9755702.15 5135615.41 185.07
-9755703.95 5135617.96 186.28
-9755698.32 5135609.93 185.65
-9755698.67 5135616.13 185.97
-9755697.45 5135615.47 186.24
-9755704.45 5135615.29 185.03
-9755703.90 5135614.48 185.03
-9755695.70 5135612.90 185.01
-9755704.78 5135614.73 185.03
-9755696.20 5135613.81 185.00
-9755696.53 5135618.77 186.29
-9755697.42 5135614.72 186.26
-9755694.76 5135611.16 184.99
-9755697.36 5135620.32 186.28
-9755701.51 5135610.59 186.21
-9755702.14 5135612.09 186.00
-9755698.36 5135612.21 185.53
-9755700.58 5135617.12 185.05
-9755698.91 5135612.95 185.00
-9755692.99 5135613.77 185.03
-9755697.17 5135611.51 186.30
-9755697.96 5135614.42 186.25
-9755693.95 5135609.10 185.05
-9755703.95 5135610.27 186.18
-9755699.74 5135618.87 186.27
-9755703.08 5135609.71 186.29
-9755698.07 5135617.05 186.28
-9755698.01 5135608.82 186.23
-9755698.97 5135608.84 184.98
-9755702.93 5135618.75 187.30
-9755694.15 5135611.18 185.03
-9755704.55 5135620.32 186.38
-9755703.79 5135616.19 186.30
-9755696.60 5135608.75 186.26
-9755703.51 5135612.98 185.08
-9755698.92 5135615.28 185.01
-9755694.74 5135609.72 184.99
-9755696.59 5135615.27 186.18
-9755695.92 5135618.57 186.36
-9755693.00 5135610.55 185.04
-9755695.62 5135611.80 185.66
-9755697.13 5135616.07 186.21
-9755699.49 5135609.66 186.23
-9755701.44 5135620.29 186.32
-9755697.02 5135616.45 185.74
-9755697.99 5135620.33 186.26
-9755692.98 5135614.38 185.04
-9755699.58 5135609.76 185.31
-9755703.68 5135619.74 185.05
-9755698.86 5135613.54 185.00
-9755698.95 5135616.16 185.01
-9755695.64 5135614.43 184.98
-9755694.71 5135620.29 184.98
-9755703.04 5135612.98 186.29
-9755700.65 5135612.04 185.04
-9755698.83 5135617.90 186.25
-9755701.31 5135609.70 186.31
-9755695.64 5135609.68 184.98
-9755703.08 5135611.99 186.31
-9755697.96 5135618.78 186.27
-9755693.00 5135612.03 185.03
-9755703.01 5135610.53 186.30
-9755702.53 5135616.22 186.31
-9755695.37 5135613.78 184.97
-9755705.39 5135609.71 185.01
-9755705.38 5135614.49 184.99
-9755703.56 5135613.79 186.28
-9755698.05 5135612.85 186.24
-9755703.90 5135617.71 185.05
-9755697.15 5135612.88 186.28
-9755702.14 5135609.66 186.24
-9755703.54 5135616.24 185.04
-9755698.05 5135614.00 186.23
-9755695.36 5135612.03 184.98
-9755702.99 5135614.97 184.95
-9755694.99 5135617.98 184.94
-9755703.00 5135619.72 186.30
-9755698.11 5135609.59 186.25
-9755703.53 5135613.52 185.48
-9755703.83 5135620.31 186.19
-9755704.47 5135613.88 185.02
-9755697.74 5135610.30 186.68
-9755696.81 5135614.98 186.03
-9755694.18 5135612.22 185.97
-9755700.33 5135611.16 185.03
-9755697.96 5135609.66 187.22
-9755704.68 5135618.01 185.03
-9755698.93 5135614.63 185.85
-9755698.88 5135611.20 184.98
-9755692.33 5135617.97 185.01
-9755697.20 5135617.90 186.28
-9755704.53 5135612.12 185.04
-9755701.34 5135610.92 186.19
-9755704.16 5135611.82 185.96
-9755704.80 5135610.65 185.01
-9755692.14 5135614.34 185.04
-9755703.80 5135619.38 187.37
-9755692.40 5135609.67 185.03
-9755705.12 5135613.52 185.02
-9755700.72 5135609.42 185.07
-9755695.93 5135617.63 186.53
-9755693.35 5135611.11 185.05
-9755704.46 5135616.54 185.03
-9755691.23 5135616.21 185.02
-9755691.30 5135608.75 185.02
-9755691.23 5135613.17 185.03
-9755691.57 5135609.66 185.03
-9755691.51 5135615.28 185.03
-9755692.17 5135611.44 185.00
-9755690.63 5135613.55 185.02
-9755692.33 5135617.06 185.01
-9755690.67 5135611.42 185.03
-9755690.88 5135607.88 185.01
-9755685.69 5135608.04 186.25
-9755683.84 5135608.07 186.07
-9755682.36 5135608.03 186.81
-9755687.19 5135608.07 186.25
-9755688.28 5135608.04 186.25
-9755680.71 5135608.10 186.37
-9755681.51 5135608.19 186.37
-9755688.89 5135608.04 186.28
-9755680.27 5135608.08 186.37
-9755686.52 5135607.90 186.26
-9755678.48 5135620.69 186.68
-9755688.35 5135615.40 186.23
-9755681.48 5135615.55 185.48
-9755685.68 5135614.88 186.25
-9755688.87 5135612.23 186.34
-9755684.75 5135620.21 184.94
-9755679.97 5135609.53 186.20
-9755687.42 5135609.04 185.51
-9755680.15 5135615.28 186.12
-9755688.05 5135611.36 186.25
-9755687.38 5135609.54 186.25
-9755690.59 5135620.03 185.00
-9755681.50 5135611.11 185.00
-9755686.27 5135610.42 186.27
-9755679.81 5135608.88 186.76
-9755685.64 5135612.81 186.27
-9755680.11 5135616.37 185.50
-9755690.68 5135608.74 185.02
-9755684.11 5135620.50 186.68
-9755680.64 5135608.97 186.33
-9755682.58 5135619.67 184.99
-9755686.51 5135611.32 186.23
-9755682.35 5135610.46 184.97
-9755686.61 5135618.76 186.24
-9755680.86 5135617.84 185.47
-9755686.60 5135614.55 186.23
-9755683.88 5135619.41 184.97
-9755685.66 5135609.83 186.25
-9755686.64 5135614.01 186.26
-9755688.21 5135611.98 185.52
-9755679.99 5135620.49 185.49
-9755682.66 5135611.98 185.49
-9755689.98 5135619.45 184.94
-9755682.38 5135620.54 185.00
-9755681.46 5135614.61 185.00
-9755680.05 5135616.96 185.46
-9755679.74 5135611.12 185.00
-9755687.41 5135619.71 184.96
-9755680.14 5135613.58 186.10
-9755687.36 5135617.93 186.26
-9755688.99 5135613.95 186.44
-9755682.30 5135618.49 185.45
-9755685.65 5135613.96 186.27
-9755680.13 5135617.92 185.48
-9755684.19 5135620.49 185.35
-9755679.86 5135612.76 185.49
-9755687.34 5135616.99 186.25
-9755682.42 5135617.82 185.45
-9755683.86 5135615.40 186.70
-9755685.05 5135612.29 186.26
-9755682.37 5135616.34 185.48
-9755685.10 5135620.09 186.28
-9755689.74 5135614.06 184.92
-9755687.61 5135620.54 184.97
-9755679.98 5135612.26 185.53
-9755684.15 5135609.69 184.91
-9755684.09 5135615.26 184.96
-9755683.82 5135617.90 185.42
-9755680.08 5135617.77 186.10
-9755690.60 5135612.03 185.01
-9755682.34 5135618.85 185.00
-9755680.07 5135612.16 186.76
-9755687.84 5135619.85 186.11
-9755686.56 5135616.91 186.26
-9755679.16 5135619.67 184.99
-9755688.83 5135616.52 185.48
-9755683.42 5135608.85 186.72
-9755690.90 5135618.52 185.00
-9755683.81 5135616.17 184.97
-9755680.67 5135612.18 185.46
-9755684.18 5135612.20 186.71
-9755690.38 5135608.50 185.00
-9755690.06 5135618.25 184.93
-9755690.01 5135611.42 184.95
-9755686.55 5135620.35 186.23
-9755679.80 5135616.30 186.75
-9755684.20 5135614.51 186.70
-9755683.28 5135614.63 185.44
-9755687.38 5135616.40 186.26
-9755685.08 5135611.56 186.28
-9755688.06 5135609.63 186.25
-9755680.13 5135616.55 185.93
-9755681.50 5135616.14 185.01
-9755682.19 5135609.25 186.33
-9755680.35 5135618.36 186.10
-9755689.19 5135609.67 185.00
-9755686.79 5135619.61 186.24
-9755681.25 5135609.50 186.32
-9755687.30 5135615.30 186.25
-9755686.45 5135612.77 186.24
-9755680.02 5135619.37 186.15
-9755679.19 5135612.23 184.98
-9755687.39 5135619.62 186.24
-9755685.13 5135612.88 186.36
-9755689.10 5135617.35 185.00
-9755680.67 5135612.78 185.44
-9755689.75 5135614.37 184.91
-9755679.13 5135618.12 184.99
-9755683.23 5135609.36 184.98
-9755680.56 5135617.87 185.01
-9755687.08 5135615.23 185.45
-9755687.91 5135616.22 186.19
-9755685.56 5135618.78 185.00
-9755680.62 5135614.66 185.46
-9755686.57 5135616.14 186.26
-9755690.32 5135619.43 184.97
-9755681.47 5135610.74 184.99
-9755683.25 5135617.91 185.01
-9755690.35 5135614.65 185.00
-9755688.90 5135609.87 186.37
-9755689.19 5135614.39 184.98
-9755680.20 5135613.22 186.01
-9755680.04 5135614.93 186.12
-9755684.42 5135613.72 186.66
-9755685.17 5135610.75 186.28
-9755686.80 5135617.88 186.22
-9755684.41 5135614.94 186.66
-9755680.40 5135613.58 186.07
-9755682.46 5135608.99 186.35
-9755687.36 5135618.43 185.51
-9755680.19 5135617.12 185.97
-9755688.87 5135611.40 185.01
-9755683.25 5135611.10 186.71
-9755684.17 5135616.74 184.95
-9755680.96 5135609.44 186.32
-9755679.12 5135614.93 185.00
-9755688.60 5135613.22 185.01
-9755690.39 5135609.63 185.01
-9755688.32 5135608.81 185.00
-9755681.15 5135608.59 186.86
-9755683.51 5135617.86 186.71
-9755678.81 5135619.61 186.46
-9755678.38 5135610.94 186.95
-9755678.22 5135612.20 186.90
-9755678.27 5135608.93 186.40
-9755677.40 5135613.69 186.50
-9755678.90 5135612.96 186.71
-9755677.39 5135620.23 185.52
-9755678.34 5135613.61 186.92
-9755677.36 5135616.40 185.51
-9755678.81 5135617.88 186.38
-9755678.29 5135615.37 186.86
-9755678.30 5135617.31 186.45
-9755678.85 5135617.92 186.97
-9755677.35 5135613.63 186.79
-9755677.38 5135612.17 186.75
-9755678.79 5135611.28 186.94
-9755678.74 5135610.60 186.94
-9755678.76 5135618.70 186.99
-9755677.34 5135616.30 186.74
-9755678.79 5135618.39 185.03
-9755678.72 5135615.21 186.67
-9755678.92 5135615.23 186.57
-9755678.23 5135614.88 186.92
-9755678.82 5135612.20 186.95
-9755677.82 5135612.27 184.97
-9755678.59 5135616.93 187.00
-9755670.96 5135621.13 185.44
-9755671.50 5135621.01 186.83
-9755676.77 5135620.22 185.06
-9755667.02 5135621.34 185.09
-9755670.34 5135621.25 186.79
-9755672.32 5135621.15 184.94
-9755669.32 5135620.98 186.67
-9755675.06 5135624.31 185.47
-9755671.64 5135629.68 185.38
-9755671.77 5135634.36 185.33
-9755669.96 5135622.07 186.38
-9755675.89 5135622.28 185.48
-9755669.97 5135622.72 186.76
-9755676.12 5135634.46 185.48
-9755675.79 5135629.38 185.05
-9755675.12 5135629.32 185.47
-9755671.63 5135626.93 186.11
-9755669.26 5135628.50 185.30
-9755674.86 5135626.73 186.49
-9755675.03 5135625.30 185.50
-9755668.52 5135629.24 186.60
-9755669.31 5135630.21 185.31
-9755675.13 5135633.59 185.52
-9755674.97 5135623.81 185.52
-9755669.34 5135626.89 185.35
-9755674.99 5135628.81 185.53
-9755670.47 5135625.10 185.37
-9755672.81 5135629.72 186.05
-9755668.65 5135626.96 186.63
-9755674.99 5135630.86 185.48
-9755669.92 5135624.29 185.36
-9755670.25 5135629.38 185.35
-9755669.16 5135623.69 186.70
-9755671.10 5135627.00 184.92
-9755671.35 5135624.58 184.93
-9755669.11 5135626.89 185.97
-9755673.47 5135630.02 184.96
-9755671.02 5135632.59 184.92
-9755672.89 5135624.29 186.70
-9755674.94 5135627.61 185.50
-9755668.74 5135630.90 186.59
-9755671.52 5135633.41 185.37
-9755672.71 5135628.72 186.39
-9755672.61 5135623.47 184.96
-9755670.78 5135633.50 185.35
-9755669.37 5135631.14 185.32
-9755671.40 5135623.77 185.35
-9755674.75 5135631.30 186.76
-9755674.96 5135630.46 186.33
-9755669.18 5135630.90 186.48
-9755672.80 5135632.06 184.93
-9755665.80 5135631.72 185.11
-9755668.72 5135625.33 186.70
-9755670.00 5135623.50 184.90
-9755669.28 5135629.39 185.31
-9755670.82 5135628.74 185.36
-9755669.38 5135632.42 185.35
-9755669.99 5135626.12 185.36
-9755672.46 5135624.49 186.41
-9755669.42 5135624.57 185.33
-9755671.14 5135627.93 184.93
-9755668.98 5135623.75 184.93
-9755668.72 5135626.13 186.78
-9755671.68 5135628.00 185.36
-9755672.24 5135626.98 185.36
-9755674.93 5135632.04 185.54
-9755671.08 5135628.80 184.92
-9755670.62 5135626.89 185.37
-9755669.10 5135627.70 185.31
-9755671.67 5135632.96 184.92
-9755669.23 5135633.65 186.51
-9755671.58 5135624.58 185.38
-9755669.33 5135625.98 185.35
-9755669.21 5135627.80 186.51
-9755674.96 5135633.36 186.75
-9755671.78 5135630.16 185.38
-9755671.64 5135625.18 184.92
-9755671.06 5135633.51 184.92
-9755670.24 5135630.23 185.36
-9755675.04 5135622.01 185.50
-9755672.46 5135632.49 186.54
-9755675.13 5135631.65 186.68
-9755671.99 5135633.57 184.93
-9755673.14 5135629.58 186.65
-9755670.90 5135629.67 184.93
-9755669.97 5135626.71 184.91
-9755669.22 5135634.56 186.43
-9755666.65 5135628.76 185.11
-9755667.26 5135630.27 185.06
-9755674.72 5135634.44 186.67
-9755675.90 5135630.01 185.48
-9755665.78 5135628.48 185.11
-9755668.16 5135630.28 185.00
-9755674.93 5135630.17 185.47
-9755671.97 5135622.15 186.69
-9755671.67 5135622.78 186.78
-9755667.82 5135629.09 185.04
-9755671.11 5135630.26 184.93
-9755669.26 5135625.22 185.31
-9755672.59 5135631.06 186.62
-9755672.76 5135626.97 186.05
-9755672.98 5135624.31 186.37
-9755671.06 5135634.37 184.92
-9755671.74 5135632.02 185.37
-9755672.39 5135622.63 186.77
-9755668.74 5135624.89 186.67
-9755673.09 5135631.79 186.61
-9755670.18 5135631.64 185.36
-9755674.70 5135623.93 186.73
-9755669.30 5135630.09 186.24
-9755670.46 5135629.34 185.35
-9755672.95 5135626.04 186.00
-9755667.51 5135631.73 185.07
-9755676.05 5135632.63 185.05
-9755674.97 5135632.91 185.50
-9755670.14 5135627.95 184.92
-9755669.02 5135633.58 185.37
-9755668.16 5135631.73 185.02
-9755670.88 5135630.92 185.34
-9755674.93 5135624.58 186.74
-9755669.12 5135629.26 186.58
-9755673.46 5135627.00 184.96
-9755672.59 5135622.32 184.93
-9755673.09 5135624.90 186.35
-9755669.08 5135631.85 185.44
-9755667.27 5135626.98 185.06
-9755674.94 5135632.62 186.78
-9755673.16 5135627.85 186.43
-9755673.48 5135628.64 186.35
-9755669.33 5135626.37 184.92
-9755670.52 5135622.85 186.76
-9755670.18 5135628.75 184.93
-9755668.78 5135627.15 185.42
-9755665.73 5135623.72 185.12
-9755668.78 5135625.76 185.41
-9755672.53 5135634.83 186.42
-9755673.07 5135627.30 186.45
-9755672.07 5135623.65 186.68
-9755664.42 5135621.92 185.13
-9755664.92 5135624.64 185.11
-9755665.24 5135627.84 185.10
-9755664.28 5135631.12 185.13
-9755663.99 5135633.47 185.13
-9755672.44 5135636.96 186.55
-9755676.00 5135635.95 185.54
-9755670.85 5135636.72 185.36
-9755675.06 5135636.23 185.49
-9755669.33 5135636.75 185.32
-9755670.15 5135636.78 184.91
-9755671.63 5135636.07 185.36
-9755669.26 5135636.31 185.31
-9755669.25 5135635.17 185.37
-9755668.76 5135635.48 186.64
-9755669.86 5135635.28 185.35
-9755667.81 5135636.76 185.06
-9755669.16 5135635.04 186.31
-9755673.45 5135635.90 184.96
-9755670.77 5135635.87 184.93
-9755671.61 5135636.19 184.94
-9755675.29 5135635.00 185.48
-9755669.05 5135636.21 186.03
-9755675.37 5135636.79 185.42
-9755668.69 5135636.81 185.00
-9755673.08 5135636.09 186.41
-9755669.80 5135635.10 184.93
-9755670.75 5135637.05 184.93
-9755673.06 5135637.55 186.59
-9755664.36 5135634.98 185.13
-9755654.34 5135621.01 185.57
-9755655.16 5135621.28 185.56
-9755663.20 5135621.03 185.17
-9755653.41 5135621.24 185.56
-9755657.89 5135621.33 185.13
-9755654.35 5135620.56 186.33
-9755661.70 5135621.32 185.19
-9755653.80 5135620.47 186.17
-9755662.58 5135620.42 185.16
-9755663.51 5135620.18 185.16
-9755653.54 5135620.37 185.60
-9755650.81 5135621.01 185.29
-9755652.02 5135620.40 186.66
-9755656.02 5135630.96 186.53
-9755656.95 5135633.62 186.40
-9755652.74 5135634.51 185.60
-9755655.17 5135621.89 185.56
-9755656.05 5135625.37 186.54
-9755654.54 5135626.29 185.63
-9755654.90 5135622.75 185.52
-9755655.23 5135625.42 185.61
-9755657.87 5135626.88 185.14
-9755656.11 5135624.49 186.53
-9755652.51 5135625.31 186.18
-9755652.68 5135632.83 186.22
-9755663.49 5135626.06 185.14
-9755656.14 5135631.87 185.14
-9755652.72 5135632.82 185.54
-9755652.64 5135633.34 186.10
-9755652.73 5135633.37 185.56
-9755655.40 5135631.94 185.61
-9755656.99 5135627.25 185.14
-9755662.55 5135632.57 185.14
-9755652.84 5135622.72 185.49
-9755652.50 5135622.10 186.48
-9755655.15 5135632.89 185.65
-9755661.70 5135625.18 185.20
-9755661.05 5135629.64 185.11
-9755652.88 5135621.92 185.54
-9755654.51 5135630.43 185.62
-9755654.56 5135633.41 185.51
-9755658.42 5135623.36 185.13
-9755654.32 5135628.65 185.62
-9755656.94 5135630.20 185.12
-9755652.74 5135624.80 186.28
-9755660.19 5135627.86 185.10
-9755652.81 5135626.23 185.56
-9755658.43 5135626.32 185.10
-9755656.01 5135626.84 186.52
-9755658.40 5135631.07 185.13
-9755662.54 5135631.11 185.17
-9755652.52 5135622.94 186.47
-9755660.24 5135623.67 185.11
-9755659.26 5135628.73 185.09
-9755652.43 5135625.97 186.48
-9755652.51 5135624.50 185.55
-9755656.91 5135629.28 185.13
-9755663.17 5135625.18 185.17
-9755656.04 5135631.88 186.56
-9755660.19 5135632.02 185.10
-9755661.62 5135634.39 185.15
-9755652.51 5135628.91 186.48
-9755656.47 5135626.59 186.52
-9755652.69 5135630.01 186.51
-9755663.74 5135621.92 185.15
-9755656.26 5135632.52 186.25
-9755660.13 5135628.77 185.08
-9755652.78 5135629.45 186.49
-9755652.80 5135628.36 185.57
-9755662.51 5135629.36 185.15
-9755656.66 5135630.92 186.44
-9755659.25 5135633.45 185.08
-9755658.41 5135632.55 185.12
-9755656.68 5135624.56 185.11
-9755663.39 5135629.63 185.17
-9755661.37 5135629.93 185.13
-9755661.04 5135631.10 185.10
-9755656.70 5135628.70 185.09
-9755653.71 5135625.99 185.59
-9755660.24 5135622.17 185.11
-9755657.78 5135631.99 185.15
-9755656.68 5135632.17 186.49
-9755661.67 5135621.91 185.19
-9755657.85 5135626.37 185.13
-9755657.79 5135631.04 185.16
-9755652.55 5135627.56 186.32
-9755660.16 5135631.06 185.11
-9755653.68 5135627.81 185.13
-9755656.15 5135627.81 185.62
-9755663.45 5135623.07 185.17
-9755658.44 5135633.50 185.12
-9755661.67 5135627.81 185.17
-9755662.51 5135633.47 185.15
-9755648.68 5135625.36 185.31
-9755649.31 5135629.53 185.31
-9755652.32 5135628.07 186.51
-9755648.65 5135634.22 185.31
-9755652.27 5135625.40 186.52
-9755647.83 5135625.41 185.33
-9755648.72 5135626.28 185.30
-9755651.97 5135627.17 185.15
-9755649.65 5135622.12 185.31
-9755648.68 5135630.44 185.31
-9755652.28 5135627.14 186.51
-9755649.52 5135633.37 185.32
-9755651.04 5135625.10 185.27
-9755648.68 5135632.74 185.31
-9755649.29 5135622.98 185.32
-9755648.08 5135634.30 185.32
-9755647.24 5135627.74 185.31
-9755651.06 5135623.92 185.28
-9755647.49 5135624.50 185.31
-9755650.53 5135625.40 185.31
-9755649.32 5135626.87 185.32
-9755652.06 5135622.66 186.48
-9755652.08 5135629.29 186.96
-9755652.22 5135631.94 186.50
-9755647.76 5135631.87 185.31
-9755651.97 5135624.23 186.50
-9755648.47 5135623.57 185.31
-9755649.26 5135626.26 185.30
-9755652.27 5135630.95 186.53
-9755657.76 5135636.97 185.15
-9755656.14 5135636.01 186.49
-9755654.29 5135636.04 185.56
-9755656.68 5135635.46 186.43
-9755655.41 5135635.16 185.56
-9755652.82 5135635.22 185.57
-9755659.29 5135635.22 185.11
-9755656.59 5135636.07 186.43
-9755660.14 5135636.67 185.09
-9755652.66 5135635.43 186.26
-9755653.59 5135636.07 185.54
-9755662.50 5135634.99 185.18
-9755661.03 5135634.93 185.11
-9755662.48 5135636.12 185.16
-9755652.80 5135636.59 185.61
-9755652.81 5135636.01 186.39
-9755658.65 5135636.15 185.09
-9755663.43 5135634.97 185.15
-9755659.24 5135636.75 185.09
-9755660.19 5135635.89 185.06
-9755663.68 5135635.84 185.15
-9755651.30 5135636.04 185.26
-9755648.68 5135636.02 185.31
-9755652.30 5135635.13 186.52
-9755652.27 5135636.50 186.53
-9755650.99 5135636.96 185.29
-9755648.70 5135635.15 185.30
-9755672.70 5135607.07 186.45
-9755670.89 5135607.24 185.35
-9755670.64 5135608.10 184.90
-9755669.43 5135608.09 184.87
-9755671.55 5135608.09 185.38
-9755671.50 5135608.08 184.91
-9755672.53 5135607.86 186.15
-9755669.47 5135608.30 185.32
-9755667.37 5135608.03 185.02
-9755665.89 5135608.01 185.11
-9755667.31 5135620.49 185.05
-9755675.00 5135617.23 185.51
-9755672.64 5135616.35 186.21
-9755672.44 5135612.38 186.62
-9755675.01 5135610.70 185.49
-9755665.81 5135620.45 185.12
-9755672.55 5135612.93 186.39
-9755675.03 5135613.60 186.39
-9755672.67 5135619.57 186.38
-9755671.82 5135613.66 185.36
-9755669.96 5135617.80 185.32
-9755671.78 5135616.96 185.38
-9755668.66 5135611.37 186.30
-9755670.10 5135610.50 185.32
-9755669.76 5135611.33 184.91
-9755675.14 5135612.21 186.87
-9755670.91 5135610.41 185.35
-9755672.93 5135618.72 186.39
-9755672.59 5135618.13 184.94
-9755669.13 5135608.96 185.34
-9755672.35 5135612.22 184.94
-9755669.08 5135615.52 185.29
-9755670.85 5135617.29 184.91
-9755672.41 5135608.95 186.64
-9755670.89 5135612.19 184.90
-9755670.80 5135619.57 184.88
-9755672.48 5135617.94 186.75
-9755676.70 5135614.90 187.00
-9755670.60 5135618.64 184.90
-9755670.83 5135619.37 185.35
-9755666.46 5135616.35 185.10
-9755673.79 5135620.21 184.97
-9755669.36 5135619.60 184.90
-9755671.51 5135610.44 184.92
-9755676.52 5135616.92 185.50
-9755669.33 5135619.33 185.36
-9755674.97 5135608.69 185.47
-9755669.09 5135618.78 185.34
-9755670.60 5135615.41 184.90
-9755669.02 5135619.55 186.73
-9755666.17 5135613.05 185.11
-9755670.29 5135614.59 184.91
-9755669.12 5135617.00 185.35
-9755672.42 5135611.22 186.50
-9755672.50 5135617.01 186.17
-9755673.24 5135616.97 184.96
-9755670.22 5135616.95 184.90
-9755672.48 5135614.27 186.20
-9755669.39 5135615.17 184.88
-9755676.82 5135613.86 186.24
-9755676.72 5135612.99 186.95
-9755669.44 5135614.61 184.89
-9755674.76 5135618.55 186.97
-9755668.66 5135615.24 185.43
-9755669.02 5135617.90 185.35
-9755671.49 5135615.80 184.92
-9755676.86 5135614.23 186.17
-9755668.52 5135609.10 185.38
-9755668.81 5135609.73 186.57
-9755669.97 5135610.44 184.89
-9755674.47 5135610.35 185.68
-9755677.12 5135614.84 186.99
-9755670.28 5135615.76 185.37
-9755666.78 5135608.67 185.08
-9755670.02 5135613.67 184.90
-9755674.91 5135616.95 186.97
-9755668.50 5135613.55 186.60
-9755667.37 5135613.96 185.03
-9755667.70 5135608.64 184.99
-9755670.01 5135611.17 185.35
-9755669.12 5135616.91 184.90
-9755668.84 5135608.37 186.58
-9755667.89 5135618.10 185.00
-9755672.34 5135620.27 184.93
-9755675.07 5135613.57 186.88
-9755674.74 5135619.57 186.74
-9755668.49 5135609.52 186.59
-9755671.20 5135611.37 184.90
-9755669.16 5135611.32 184.90
-9755670.23 5135612.33 185.29
-9755670.03 5135619.48 185.36
-9755668.47 5135615.88 185.32
-9755674.91 5135612.73 186.92
-9755674.46 5135609.78 186.98
-9755675.65 5135616.39 186.75
-9755669.96 5135608.92 185.36
-9755668.98 5135617.48 186.73
-9755669.19 5135612.77 185.33
-9755668.67 5135613.78 185.47
-9755676.47 5135616.25 186.74
-9755675.86 5135614.03 186.44
-9755670.82 5135620.56 186.69
-9755672.96 5135619.74 186.21
-9755667.05 5135616.92 185.08
-9755668.89 5135610.70 185.35
-9755675.98 5135613.70 186.95
-9755672.94 5135615.97 186.42
-9755672.09 5135610.63 186.38
-9755668.49 5135613.16 185.66
-9755668.37 5135612.44 185.60
-9755668.79 5135609.39 185.32
-9755674.46 5135615.64 186.99
-9755670.03 5135616.33 184.90
-9755667.91 5135613.05 184.98
-9755667.66 5135610.69 185.00
-9755668.75 5135617.99 185.64
-9755671.44 5135614.26 185.29
-9755674.66 5135618.27 186.99
-9755673.52 5135614.59 184.94
-9755671.44 5135619.26 185.36
-9755674.74 5135614.78 186.96
-9755668.77 5135614.85 185.43
-9755664.96 5135617.22 185.10
-9755665.25 5135617.80 185.11
-9755665.89 5135610.42 185.12
-9755664.17 5135608.93 185.11
-9755664.44 5135609.80 185.11
-9755664.11 5135614.50 185.10
-9755664.96 5135620.44 185.13
-9755665.29 5135614.54 185.13
-9755664.98 5135613.65 185.12
-9755648.16 5135620.37 185.32
-9755654.47 5135607.94 185.14
-9755655.21 5135607.04 185.60
-9755660.93 5135608.02 185.16
-9755655.28 5135607.76 186.82
-9755659.45 5135607.98 185.11
-9755661.78 5135608.00 185.24
-9755650.26 5135607.94 185.31
-9755660.25 5135617.13 185.10
-9755656.10 5135612.81 186.23
-9755662.66 5135615.66 185.18
-9755657.04 5135618.94 185.12
-9755663.78 5135612.12 185.15
-9755654.42 5135615.03 186.33
-9755653.90 5135611.96 186.63
-9755653.77 5135616.28 186.66
-9755655.26 5135617.05 186.69
-9755654.42 5135611.21 185.12
-9755662.62 5135616.24 185.18
-9755655.84 5135619.79 186.66
-9755659.34 5135617.76 185.10
-9755655.38 5135614.49 186.42
-9755655.93 5135619.53 185.11
-9755657.60 5135618.66 185.15
-9755660.88 5135610.36 185.15
-9755655.36 5135610.33 185.13
