-9755157.72 5135703.16 189.96
-9755158.20 5135703.53 188.05
-9755159.42 5135704.74 188.41
-9755157.36 5135704.74 189.06
-9755160.50 5135706.71 189.41
-9755158.63 5135703.97 191.12
-9755157.61 5135706.04 190.07
-9755154.75 5135702.81 190.60
-9755155.60 5135703.10 191.26
-9755154.05 5135707.01 189.64
-9755154.99 5135707.04 187.07
-9755154.43 5135706.00 190.16
-9755156.60 5135703.64 191.32
-9755156.24 5135706.43 189.61
-9755157.14 5135707.25 189.86
-9755154.35 5135705.92 188.55
-9755156.35 5135703.86 190.79
-9755154.75 5135706.96 187.09
-9755154.15 5135705.04 191.19
-9755157.14 5135704.93 189.35
-9755155.68 5135705.20 191.49
-9755154.74 5135703.61 191.73
-9755154.34 5135703.89 186.23
-9755156.40 5135705.09 188.49
-9755154.46 5135704.02 190.95
-9755156.89 5135706.40 190.77
-9755154.72 5135704.50 190.85
-9755154.70 5135703.82 191.76
-9755155.22 5135706.99 189.96
-9755156.62 5135703.51 190.45
-9755154.79 5135705.46 190.70
-9755154.76 5135703.78 190.45
-9755154.73 5135703.61 192.15
-9755154.07 5135707.25 189.75
-9755154.39 5135704.63 189.52
-9755154.45 5135704.55 191.12
-9755154.62 5135705.64 188.72
-9755157.16 5135704.38 191.36
-9755154.96 5135706.35 187.15
-9755156.42 5135706.98 190.39
-9755155.27 5135705.59 187.08
-9755155.72 5135703.57 191.22
-9755154.59 5135704.02 191.14
-9755157.22 5135704.02 190.04
-9755154.12 5135704.33 190.96
-9755154.90 5135703.99 190.66
-9755155.27 5135705.27 188.39
-9755154.35 5135707.00 189.85
-9755155.62 5135703.70 191.58
-9755156.46 5135704.86 191.19
-9755156.99 5135705.55 190.11
-9755155.90 5135706.10 191.18
-9755156.45 5135704.28 191.36
-9755154.46 5135703.24 192.17
-9755156.49 5135705.23 190.71
-9755154.46 5135705.04 188.35
-9755156.96 5135704.42 190.13
-9755154.50 5135706.01 187.32
-9755154.36 5135704.82 190.63
-9755154.40 5135703.18 190.58
-9755155.72 5135703.18 191.58
-9755156.47 5135702.91 190.30
-9755155.36 5135705.21 190.73
-9755155.15 5135703.90 192.03
-9755154.80 5135706.38 190.16
-9755155.88 5135706.41 190.93
-9755156.59 5135703.96 189.95
-9755154.51 5135703.15 189.79
-9755157.12 5135706.45 189.53
-9755155.59 5135705.84 190.13
-9755156.71 5135705.53 189.82
-9755156.76 5135703.25 190.45
-9755157.05 5135705.16 189.31
-9755153.94 5135703.11 190.31
-9755149.98 5135702.33 187.70
-9755146.51 5135702.39 189.55
-9755146.67 5135702.30 188.20
-9755145.43 5135702.94 189.03
-9755150.85 5135702.69 187.53
-9755149.02 5135702.64 187.00
-9755145.29 5135702.15 190.98
-9755144.52 5135702.47 190.41
-9755145.03 5135702.70 190.08
-9755153.03 5135701.93 190.12
-9755151.82 5135702.28 188.34
-9755151.88 5135703.05 191.13
-9755149.77 5135702.31 187.54
-9755150.73 5135702.19 190.72
-9755152.79 5135702.38 191.68
-9755153.16 5135702.99 188.79
-9755149.14 5135702.40 186.68
-9755148.16 5135701.99 188.23
-9755153.25 5135702.17 191.80
-9755152.50 5135702.67 191.34
-9755144.90 5135702.43 190.46
-9755152.68 5135702.11 191.68
-9755151.77 5135702.00 190.69
-9755151.53 5135702.48 189.54
-9755151.92 5135702.17 190.77
-9755153.41 5135702.73 191.83
-9755146.94 5135704.06 185.43
-9755145.05 5135702.88 190.37
-9755146.16 5135704.63 189.05
-9755151.52 5135704.21 190.93
-9755150.90 5135706.51 186.87
-9755145.63 5135705.13 189.21
-9755151.02 5135704.81 186.84
-9755146.49 5135704.37 189.03
-9755151.50 5135705.35 188.26
-9755147.33 5135704.56 189.01
-9755150.26 5135703.72 187.69
-9755151.08 5135704.81 186.84
-9755152.91 5135703.78 189.18
-9755152.39 5135706.95 184.78
-9755152.68 5135706.78 188.33
-9755153.57 5135703.94 191.12
-9755153.60 5135703.44 189.92
-9755151.48 5135704.07 190.09
-9755152.00 5135704.82 190.78
-9755151.43 5135704.43 188.21
-9755152.31 5135704.79 190.24
-9755152.32 5135704.91 189.63
-9755152.89 5135704.05 190.40
-9755150.78 5135706.82 186.82
-9755152.14 5135703.95 190.80
-9755152.42 5135703.90 186.77
-9755144.77 5135704.74 191.99
-9755152.39 5135706.57 186.37
-9755151.38 5135705.91 188.12
-9755153.08 5135704.05 189.94
-9755152.44 5135705.31 189.47
-9755145.07 5135706.78 186.51
-9755151.94 5135704.34 189.86
-9755147.35 5135705.21 188.44
-9755149.75 5135704.08 187.88
-9755145.07 5135703.29 192.03
-9755151.52 5135706.32 186.35
-9755152.72 5135705.85 189.63
-9755152.76 5135703.69 189.23
-9755145.06 5135706.47 188.46
-9755152.11 5135705.18 187.39
-9755150.34 5135703.17 188.11
-9755153.48 5135705.42 187.90
-9755153.61 5135706.29 188.41
-9755152.68 5135705.13 190.55
-9755150.88 5135703.28 188.27
-9755144.75 5135704.41 191.97
-9755145.32 5135705.51 188.00
-9755144.77 5135703.46 192.03
-9755144.99 5135704.22 192.34
-9755152.79 5135704.73 189.31
-9755153.16 5135705.32 181.54
-9755145.28 5135704.16 192.05
-9755152.38 5135704.78 191.04
-9755150.35 5135703.11 187.92
-9755152.38 5135703.95 189.49
-9755147.35 5135706.10 188.71
-9755150.32 5135703.52 188.22
-9755146.72 5135705.20 188.20
-9755145.27 5135703.11 190.15
-9755150.92 5135703.50 188.23
-9755152.51 5135705.86 188.85
-9755150.70 5135705.96 187.85
-9755151.49 5135705.48 190.35
-9755145.89 5135705.53 188.72
-9755153.61 5135704.56 190.84
-9755150.64 5135703.44 188.22
-9755145.07 5135703.94 190.53
-9755151.55 5135706.06 185.22
-9755145.52 5135703.53 192.29
-9755149.15 5135703.76 188.06
-9755145.01 5135706.62 186.54
-9755152.92 5135704.79 190.31
-9755151.28 5135703.12 190.77
-9755145.42 5135703.27 191.77
-9755153.00 5135705.66 188.68
-9755152.22 5135707.16 186.95
-9755146.79 5135704.94 189.12
-9755151.75 5135705.17 190.05
-9755151.50 5135704.62 190.30
-9755144.83 5135704.39 190.12
-9755150.28 5135702.91 187.29
-9755152.83 5135706.17 189.08
-9755146.35 5135703.91 185.30
-9755152.35 5135703.98 188.74
-9755144.79 5135702.99 191.19
-9755151.27 5135706.66 187.03
-9755153.77 5135706.17 189.00
-9755151.41 5135706.76 187.06
-9755150.50 5135706.26 186.70
-9755153.38 5135704.08 191.48
-9755147.07 5135705.57 188.54
-9755150.90 5135705.53 187.43
-9755151.54 5135703.68 190.88
-9755145.90 5135706.97 188.25
-9755144.50 5135704.93 190.81
-9755149.74 5135703.55 187.77
-9755152.52 5135703.14 189.48
-9755150.94 5135704.07 188.14
-9755145.24 5135703.98 192.29
-9755146.21 5135704.31 188.29
-9755145.58 5135704.44 189.04
-9755152.63 5135706.40 189.10
-9755157.98 5135699.31 189.49
-9755158.03 5135700.82 191.56
-9755159.14 5135701.68 189.18
-9755158.48 5135700.70 186.85
-9755158.95 5135701.27 190.66
-9755158.49 5135699.72 190.74
-9755158.39 5135698.94 190.82
-9755158.89 5135698.69 186.22
-9755157.55 5135699.43 189.74
-9755157.68 5135700.05 191.34
-9755158.40 5135701.35 191.07
-9755157.99 5135698.94 190.81
-9755158.55 5135699.81 191.37
-9755158.93 5135701.07 190.74
-9755158.90 5135700.77 190.20
-9755157.72 5135700.47 190.55
-9755157.71 5135700.51 191.52
-9755158.02 5135698.69 190.87
-9755157.44 5135699.04 189.50
-9755158.91 5135701.57 189.18
-9755157.67 5135701.02 189.83
-9755158.92 5135698.89 186.62
-9755160.11 5135701.47 187.62
-9755158.11 5135699.01 191.12
-9755158.70 5135700.64 191.23
-9755157.80 5135700.81 191.23
-9755157.47 5135699.74 191.14
-9755157.70 5135700.71 191.56
-9755156.85 5135700.71 191.35
-9755154.12 5135698.82 189.25
-9755157.13 5135701.87 190.77
-9755155.53 5135700.64 191.32
-9755155.61 5135701.17 191.27
-9755156.27 5135701.75 189.59
-9755155.69 5135699.84 190.71
-9755156.04 5135699.74 191.64
-9755154.11 5135700.05 190.74
-9755156.77 5135701.57 190.79
-9755154.74 5135698.22 189.82
-9755154.80 5135700.68 190.27
-9755155.70 5135699.25 190.84
-9755156.85 5135700.15 191.48
-9755155.71 5135698.90 191.91
-9755156.26 5135699.81 191.13
-9755156.95 5135699.93 191.48
-9755155.65 5135699.80 191.82
-9755156.24 5135700.79 190.37
-9755156.14 5135700.74 191.50
-9755156.24 5135700.65 190.88
-9755156.15 5135699.90 191.85
-9755155.98 5135699.68 190.02
-9755156.39 5135699.43 192.14
-9755154.72 5135701.53 191.76
-9755154.80 5135700.69 191.27
-9755157.12 5135701.66 190.77
-9755154.78 5135701.65 191.53
-9755154.68 5135701.90 190.58
-9755156.86 5135698.65 191.69
-9755154.83 5135698.88 191.99
-9755155.45 5135699.05 189.80
-9755155.43 5135699.43 191.82
-9755156.51 5135701.49 189.69
-9755154.61 5135699.03 190.70
-9755155.10 5135700.15 189.79
-9755155.32 5135699.87 190.66
-9755154.77 5135700.26 190.45
-9755154.02 5135701.71 191.22
-9755156.54 5135698.71 192.29
-9755156.02 5135699.80 191.02
-9755154.74 5135700.24 190.38
-9755157.66 5135698.23 186.06
-9755155.72 5135698.99 189.26
-9755157.18 5135699.64 190.71
-9755155.63 5135700.12 191.81
-9755157.20 5135701.27 191.55
-9755154.26 5135699.53 190.72
-9755155.27 5135698.99 189.77
-9755154.76 5135700.88 191.51
-9755156.65 5135700.60 189.62
-9755154.09 5135701.23 191.64
-9755156.18 5135699.77 191.02
-9755160.31 5135690.84 181.39
-9755160.35 5135692.04 181.36
-9755155.06 5135697.88 190.99
-9755154.77 5135697.82 190.10
-9755157.21 5135698.10 191.16
-9755156.93 5135696.99 189.09
-9755154.14 5135698.00 189.02
-9755156.74 5135698.04 191.62
-9755156.02 5135697.36 189.05
-9755154.22 5135697.77 189.29
-9755154.31 5135697.78 190.59
-9755157.00 5135697.84 189.19
-9755155.66 5135697.73 189.54
-9755154.78 5135697.43 188.79
-9755155.67 5135696.75 188.78
-9755155.07 5135696.15 189.13
-9755155.65 5135691.72 181.38
-9755153.91 5135698.93 190.46
-9755152.71 5135700.88 192.36
-9755150.55 5135701.52 186.78
-9755152.35 5135701.73 189.75
-9755145.69 5135700.28 185.79
-9755151.90 5135700.70 191.02
-9755150.36 5135699.58 185.10
-9755152.29 5135698.37 187.02
-9755152.83 5135700.56 191.63
-9755153.58 5135699.05 190.42
-9755151.40 5135700.30 189.09
-9755152.40 5135701.57 191.05
-9755150.17 5135699.85 188.04
-9755146.49 5135698.86 185.77
-9755149.14 5135699.78 185.03
-9755150.40 5135698.97 185.41
-9755146.16 5135699.98 185.81
-9755146.76 5135700.67 188.52
-9755150.90 5135699.43 187.26
-9755150.97 5135701.06 190.72
-9755146.20 5135700.19 188.77
-9755151.89 5135701.07 191.84
-9755151.45 5135700.77 186.61
-9755149.08 5135699.78 184.38
-9755148.39 5135699.82 185.00
-9755146.63 5135700.57 188.44
-9755146.46 5135700.68 188.61
-9755151.01 5135699.87 188.31
-9755152.79 5135700.19 191.66
-9755145.60 5135698.57 185.11
-9755145.31 5135700.71 190.46
-9755152.19 5135701.53 192.12
-9755151.56 5135701.51 191.68
-9755145.61 5135699.41 185.79
-9755152.01 5135698.26 186.73
-9755151.27 5135701.13 190.73
-9755151.51 5135701.47 186.58
-9755153.88 5135701.08 188.91
-9755148.76 5135699.58 184.98
-9755152.37 5135700.91 191.66
-9755152.18 5135699.88 191.47
-9755149.53 5135701.72 187.52
-9755144.77 5135698.64 189.87
-9755150.25 5135698.35 185.18
-9755147.09 5135699.91 188.50
-9755144.51 5135699.73 190.69
-9755153.65 5135698.46 189.60
-9755151.55 5135701.06 190.43
-9755150.98 5135701.80 190.22
-9755150.36 5135699.71 185.10
-9755150.78 5135701.26 190.61
-9755152.12 5135699.87 190.69
-9755152.23 5135698.71 188.17
-9755149.93 5135700.48 188.70
-9755151.15 5135701.44 188.06
-9755153.08 5135698.98 189.62
-9755152.36 5135701.57 190.24
-9755146.56 5135701.89 189.63
-9755146.80 5135699.56 188.36
-9755150.65 5135700.78 188.24
-9755147.42 5135701.11 188.13
-9755146.76 5135700.20 188.62
-9755150.31 5135699.65 188.28
-9755151.48 5135700.77 191.15
-9755145.03 5135699.39 186.01
-9755150.84 5135701.01 188.20
-9755145.18 5135701.45 191.20
-9755150.39 5135701.05 188.99
-9755152.32 5135699.50 187.11
-9755151.86 5135701.30 190.75
-9755150.41 5135700.28 188.42
-9755145.74 5135699.15 185.72
-9755147.93 5135699.82 184.70
-9755151.90 5135700.58 189.25
-9755152.42 5135699.88 190.45
-9755152.58 5135699.89 192.01
-9755148.40 5135699.88 185.36
-9755147.38 5135701.38 188.16
-9755153.38 5135701.51 191.24
-9755150.41 5135698.77 187.96
-9755144.70 5135701.60 188.50
-9755148.84 5135700.06 185.02
-9755150.90 5135701.06 188.98
-9755147.88 5135701.52 186.89
-9755149.93 5135699.27 185.36
-9755152.62 5135699.98 189.77
-9755152.35 5135701.17 192.23
-9755153.05 5135698.79 187.17
-9755150.40 5135699.08 187.08
-9755146.47 5135701.42 188.28
-9755149.02 5135699.11 185.37
-9755147.41 5135699.11 184.64
-9755149.86 5135699.13 185.40
-9755153.54 5135701.26 191.80
-9755149.50 5135698.88 185.14
-9755150.42 5135699.85 188.20
-9755153.06 5135700.69 191.20
-9755151.29 5135700.20 190.63
-9755151.58 5135698.79 187.89
-9755153.27 5135701.33 192.00
-9755149.06 5135700.63 185.40
-9755152.03 5135699.12 185.60
-9755151.94 5135698.79 188.23
-9755153.40 5135699.36 189.14
-9755152.68 5135699.89 191.35
-9755144.49 5135699.77 190.45
-9755149.99 5135698.87 185.40
-9755150.02 5135700.83 188.72
-9755152.09 5135700.62 190.64
-9755152.01 5135699.07 190.10
-9755147.14 5135700.28 188.16
-9755144.40 5135698.39 189.96
-9755150.71 5135700.25 188.26
-9755153.88 5135698.26 190.82
-9755153.58 5135698.50 190.81
-9755152.07 5135698.23 187.82
-9755151.46 5135701.45 191.07
-9755144.47 5135699.12 189.59
-9755150.90 5135700.27 188.27
-9755151.61 5135701.04 188.91
-9755151.47 5135699.82 188.32
-9755151.57 5135701.15 187.88
-9755150.47 5135699.54 185.13
-9755146.83 5135700.21 186.80
-9755147.39 5135699.54 188.47
-9755146.98 5135698.25 185.96
-9755151.52 5135697.73 186.45
-9755151.52 5135697.67 186.55
-9755151.16 5135697.35 181.19
-9755152.35 5135697.42 187.37
-9755153.93 5135698.16 189.16
-9755151.65 5135697.74 186.66
-9755152.32 5135697.71 187.60
-9755153.97 5135697.45 189.39
-9755151.50 5135697.61 186.25
-9755145.01 5135697.96 186.16
-9755153.14 5135697.26 190.24
-9755153.27 5135696.89 189.97
-9755153.55 5135697.70 190.80
-9755153.92 5135697.42 188.80
-9755145.25 5135697.89 186.02
-9755152.16 5135697.78 190.60
-9755152.52 5135696.98 190.20
-9755150.71 5135697.64 186.19
-9755152.79 5135697.17 190.52
-9755151.52 5135697.73 187.59
-9755144.82 5135695.82 186.88
-9755152.82 5135697.44 190.39
-9755148.27 5135693.13 181.37
-9755151.32 5135697.40 187.41
-9755144.18 5135702.99 191.19
-9755144.09 5135702.44 189.44
-9755140.04 5135702.35 190.97
-9755138.60 5135701.98 188.49
-9755142.06 5135702.73 190.87
-9755138.43 5135702.03 189.17
-9755137.69 5135702.16 188.95
-9755143.30 5135702.61 191.56
-9755138.26 5135701.96 189.16
-9755143.86 5135702.62 186.70
-9755139.47 5135702.28 190.68
-9755142.51 5135702.96 191.23
-9755140.57 5135702.35 191.52
-9755138.87 5135701.91 189.45
-9755139.36 5135701.74 187.53
-9755136.25 5135702.30 187.03
-9755136.83 5135701.93 189.34
-9755139.01 5135702.24 188.75
-9755136.09 5135701.94 187.07
-9755137.08 5135702.15 189.39
-9755136.69 5135702.42 189.04
-9755136.39 5135702.23 188.91
-9755139.38 5135701.90 190.16
-9755138.15 5135702.85 187.91
-9755136.55 5135702.12 189.24
-9755135.88 5135702.37 186.54
-9755141.47 5135702.78 190.32
-9755136.68 5135702.14 189.31
-9755143.25 5135702.73 190.63
-9755136.63 5135702.49 187.34
-9755137.32 5135702.70 189.49
-9755139.11 5135702.35 188.88
-9755143.56 5135701.95 188.37
-9755140.87 5135702.64 191.18
-9755143.49 5135702.62 187.06
-9755138.22 5135701.98 189.14
-9755140.89 5135702.45 191.18
-9755144.14 5135705.08 190.50
-9755144.48 5135704.21 191.84
-9755144.50 5135704.10 190.82
-9755143.98 5135706.73 189.07
-9755143.83 5135704.87 189.98
-9755143.94 5135706.43 191.12
-9755143.92 5135707.18 187.56
-9755144.10 5135704.73 191.78
-9755144.19 5135703.89 191.26
-9755144.03 5135705.29 190.66
-9755143.91 5135703.66 191.64
-9755144.44 5135706.58 186.26
-9755144.28 5135707.21 189.93
-9755144.25 5135704.30 192.35
-9755144.01 5135703.66 191.26
-9755143.84 5135704.46 191.50
-9755143.83 5135706.49 188.90
-9755144.15 5135704.41 191.79
-9755143.88 5135706.05 189.55
-9755138.25 5135705.80 190.46
-9755139.24 5135703.31 190.79
-9755143.27 5135705.14 191.03
-9755138.22 5135706.04 185.20
-9755141.52 5135705.24 187.14
-9755141.11 5135703.63 189.28
-9755142.46 5135706.51 191.17
-9755135.87 5135706.49 186.49
-9755137.05 5135703.95 186.11
-9755141.49 5135705.67 190.40
-9755141.52 5135707.11 191.36
-9755141.21 5135706.36 190.47
-9755136.46 5135705.76 189.94
-9755137.72 5135706.36 190.83
-9755138.26 5135703.15 187.88
-9755141.16 5135706.49 190.89
-9755140.85 5135704.18 189.85
-9755138.83 5135707.21 190.66
-9755138.81 5135704.78 190.64
-9755142.51 5135706.54 191.21
-9755137.66 5135705.16 189.03
-9755137.57 5135705.24 181.49
-9755141.80 5135706.01 191.58
-9755140.01 5135706.26 191.53
-9755137.08 5135707.26 188.14
-9755142.04 5135705.56 189.22
-9755140.31 5135706.35 191.21
-9755139.61 5135707.08 188.27
-9755140.17 5135704.33 191.53
-9755137.07 5135703.96 189.39
-9755140.88 5135702.96 191.65
-9755139.91 5135706.31 190.16
-9755141.52 5135705.79 190.71
-9755140.30 5135705.95 191.56
-9755139.11 5135705.51 187.14
-9755139.89 5135705.97 191.13
-9755140.30 5135703.11 190.63
-9755143.49 5135704.93 190.32
-9755138.99 5135705.60 190.03
-9755143.28 5135703.30 192.01
-9755137.94 5135703.17 187.95
-9755140.91 5135704.33 186.32
-9755141.24 5135705.66 191.27
-9755141.63 5135703.70 183.80
-9755143.47 5135705.10 191.11
-9755137.40 5135706.31 190.77
-9755137.90 5135705.01 187.00
-9755136.35 5135706.71 186.67
-9755140.35 5135703.30 191.65
-9755139.06 5135703.94 190.11
-9755140.06 5135705.64 186.96
-9755138.88 5135704.47 190.74
-9755140.07 5135703.48 191.70
-9755138.04 5135705.58 189.89
-9755137.06 5135704.67 189.62
-9755138.74 5135703.92 190.43
-9755141.36 5135707.12 190.79
-9755141.20 5135707.26 191.85
-9755139.11 5135706.83 191.15
-9755136.44 5135703.56 186.92
-9755137.03 5135706.44 187.23
-9755136.48 5135705.71 186.71
-9755139.41 5135707.24 188.27
-9755139.77 5135706.02 188.95
-9755138.06 5135703.10 187.68
-9755138.61 5135704.04 188.95
-9755143.23 5135702.84 188.72
-9755143.39 5135704.00 189.25
-9755141.48 5135704.69 190.11
-9755138.84 5135704.57 190.68
-9755141.66 5135704.31 187.55
-9755143.38 5135703.90 190.79
-9755139.65 5135707.26 181.51
-9755142.35 5135703.04 191.31
-9755137.46 5135705.72 190.69
-9755136.15 5135706.44 187.16
-9755141.15 5135706.28 191.19
-9755141.98 5135706.48 191.59
-9755137.13 5135703.14 187.69
-9755137.26 5135703.47 187.10
-9755142.91 5135703.21 191.57
-9755140.05 5135703.59 191.22
-9755140.84 5135704.21 190.86
-9755139.76 5135704.79 190.94
-9755139.08 5135706.49 191.12
-9755139.75 5135703.67 191.58
-9755137.58 5135705.63 190.71
-9755141.78 5135707.14 191.48
-9755142.89 5135705.71 191.14
-9755140.36 5135706.29 191.53
-9755141.84 5135707.23 190.79
-9755142.61 5135706.82 191.22
-9755141.19 5135705.08 190.88
-9755138.71 5135706.24 191.45
-9755139.05 5135704.12 190.15
-9755139.46 5135703.63 190.77
-9755141.30 5135704.12 188.32
-9755139.74 5135706.53 189.92
-9755142.43 5135705.73 191.14
-9755138.54 5135706.92 190.52
-9755143.04 5135703.69 190.46
-9755143.26 5135704.25 189.24
-9755142.42 5135703.47 191.38
-9755136.50 5135706.38 189.94
-9755138.72 5135706.39 189.44
-9755140.89 5135703.91 190.85
-9755139.98 5135703.26 188.83
-9755140.99 5135703.05 192.01
-9755138.23 5135706.86 190.70
-9755138.03 5135704.40 189.00
-9755141.13 5135707.18 190.00
-9755141.70 5135705.27 181.56
-9755136.44 5135705.22 186.67
-9755140.32 5135705.27 190.87
-9755143.19 5135705.77 188.95
-9755141.75 5135703.29 188.19
-9755142.40 5135704.19 191.63
-9755136.49 5135706.82 186.73
-9755136.45 5135703.60 187.31
-9755140.27 5135703.88 191.59
-9755140.06 5135705.38 191.43
-9755142.45 5135704.45 191.28
-9755136.40 5135704.51 189.25
-9755139.88 5135705.60 186.66
-9755136.73 5135706.94 190.19
-9755142.51 5135705.91 191.69
-9755137.90 5135703.12 188.96
-9755139.34 5135706.13 188.71
-9755142.39 5135704.43 190.82
-9755137.69 5135703.99 187.34
-9755139.43 5135707.04 192.42
-9755141.52 5135704.78 189.65
-9755141.76 5135703.93 188.31
-9755139.15 5135705.09 190.77
-9755135.93 5135703.57 187.07
-9755141.84 5135704.05 189.38
-9755140.30 5135705.57 187.14
-9755141.68 5135706.66 189.93
-9755139.98 5135707.23 190.50
-9755137.91 5135704.70 187.13
-9755136.71 5135706.87 186.72
-9755139.77 5135704.37 189.63
-9755139.21 5135706.26 190.84
-9755134.45 5135704.79 188.18
-9755134.22 5135703.59 185.48
-9755144.49 5135698.45 188.60
-9755144.38 5135701.23 191.18
-9755144.46 5135699.93 186.11
-9755144.19 5135700.48 188.28
-9755144.43 5135700.73 190.35
-9755144.17 5135699.23 189.71
-9755144.19 5135699.47 189.65
-9755144.20 5135700.71 191.32
-9755143.78 5135702.06 185.42
-9755144.12 5135701.41 191.00
-9755143.83 5135699.50 189.95
-9755143.83 5135701.57 191.32
-9755142.47 5135701.61 190.12
-9755142.96 5135701.49 190.09
-9755135.92 5135700.20 188.31
-9755136.22 5135700.65 189.87
-9755141.23 5135698.92 187.82
-9755139.59 5135701.55 187.32
-9755143.29 5135701.63 190.38
-9755141.75 5135699.49 190.43
-9755137.67 5135700.13 189.31
-9755136.61 5135701.51 187.18
-9755139.19 5135698.26 189.44
-9755141.13 5135699.85 190.77
-9755136.74 5135699.20 189.09
-9755143.26 5135700.67 190.70
-9755138.32 5135698.64 188.93
-9755141.24 5135698.95 189.70
-9755143.05 5135699.80 190.05
-9755143.26 5135701.50 189.98
-9755138.26 5135701.91 189.82
-9755140.68 5135698.98 189.28
-9755141.25 5135700.85 191.17
-9755137.92 5135698.87 189.67
-9755141.80 5135699.81 190.77
-9755137.97 5135701.54 189.73
-9755140.35 5135701.06 187.49
-9755142.42 5135698.95 189.48
-9755139.74 5135701.57 191.57
-9755139.15 5135699.20 189.42
-9755140.92 5135699.46 190.70
-9755137.97 5135701.21 189.34
-9755141.74 5135700.79 190.36
-9755140.29 5135699.52 189.95
-9755143.22 5135699.62 189.74
-9755140.33 5135699.82 189.54
-9755141.20 5135698.50 188.72
-9755142.96 5135698.40 187.48
-9755141.19 5135701.50 191.54
-9755142.93 5135700.92 190.74
-9755141.34 5135699.78 190.14
-9755137.61 5135700.17 186.95
-9755137.62 5135699.89 189.42
-9755141.20 5135701.77 191.47
-9755143.39 5135699.14 186.07
-9755142.00 5135700.51 189.44
-9755136.82 5135700.97 187.86
-9755135.57 5135699.80 189.62
-9755141.75 5135700.15 189.02
-9755136.49 5135699.79 189.37
-9755142.04 5135698.29 189.50
-9755136.72 5135701.07 187.29
-9755142.09 5135700.95 189.79
-9755138.22 5135701.35 187.93
-9755143.03 5135698.30 189.61
-9755138.73 5135699.92 189.52
-9755142.40 5135698.56 190.21
-9755139.36 5135701.56 187.68
-9755140.79 5135699.90 188.23
-9755139.09 5135698.73 188.86
-9755142.36 5135699.14 187.66
-9755143.96 5135698.91 185.71
-9755143.89 5135699.29 189.65
-9755142.39 5135700.70 190.68
-9755140.93 5135698.53 190.77
-9755141.13 5135700.64 190.04
-9755143.52 5135701.34 189.97
-9755141.40 5135700.70 190.86
-9755138.28 5135699.93 189.43
-9755143.18 5135699.55 189.79
-9755136.55 5135700.70 188.72
-9755142.30 5135700.64 190.01
-9755143.78 5135699.87 190.32
-9755138.75 5135700.90 187.13
-9755143.57 5135699.01 186.19
-9755138.20 5135701.15 188.26
-9755138.55 5135701.09 188.46
-9755142.10 5135700.06 189.49
-9755137.40 5135700.66 186.84
-9755135.90 5135700.64 186.82
-9755143.51 5135699.08 185.71
-9755140.64 5135701.51 191.24
-9755135.95 5135700.20 188.29
-9755141.50 5135700.60 191.13
-9755140.22 5135699.45 189.29
-9755141.23 5135700.45 189.21
-9755141.54 5135701.05 190.80
-9755140.82 5135700.90 189.17
-9755143.59 5135699.87 190.70
-9755141.57 5135698.34 190.43
-9755142.48 5135698.32 190.25
-9755139.73 5135699.02 189.26
-9755137.71 5135701.59 189.13
-9755140.40 5135701.04 190.94
-9755139.15 5135698.85 189.23
-9755135.87 5135699.84 189.06
-9755140.06 5135700.53 190.45
-9755137.10 5135701.56 189.52
-9755142.45 5135700.18 188.67
-9755138.36 5135700.43 189.46
-9755141.12 5135701.33 190.61
-9755137.02 5135700.77 188.64
-9755137.89 5135701.09 189.31
-9755137.14 5135698.60 189.02
-9755136.18 5135699.45 189.21
-9755136.62 5135701.26 189.53
-9755135.93 5135701.39 187.13
-9755137.09 5135699.75 189.51
-9755138.62 5135701.08 187.11
-9755143.57 5135699.23 189.64
-9755139.11 5135698.23 188.26
-9755140.51 5135701.48 188.96
-9755143.21 5135701.07 188.76
-9755137.78 5135700.44 189.18
-9755137.07 5135699.42 189.43
-9755137.86 5135699.72 189.52
-9755136.08 5135698.96 189.38
-9755140.69 5135700.88 190.39
-9755140.40 5135698.71 190.24
-9755141.33 5135700.65 190.88
-9755135.70 5135699.95 189.00
-9755142.74 5135700.36 189.96
-9755139.86 5135701.32 186.68
-9755144.46 5135697.49 189.55
-9755144.18 5135695.68 185.79
-9755144.15 5135696.11 186.20
-9755143.91 5135697.76 189.39
-9755144.19 5135696.11 185.87
-9755144.19 5135695.48 185.92
-9755144.12 5135696.56 189.40
-9755138.31 5135698.11 188.97
-9755141.83 5135695.75 188.61
-9755142.05 5135697.41 189.05
-9755140.92 5135696.60 187.23
-9755135.89 5135694.01 181.37
-9755141.24 5135697.17 189.06
-9755141.57 5135696.63 188.74
-9755140.73 5135697.18 188.56
-9755142.16 5135697.80 190.18
-9755142.41 5135695.73 186.33
-9755139.20 5135696.55 187.88
-9755139.75 5135697.78 188.75
-9755141.26 5135696.12 188.39
-9755141.25 5135695.73 188.09
-9755141.45 5135697.17 186.25
-9755142.47 5135696.56 189.19
-9755139.15 5135696.33 188.82
-9755142.37 5135695.17 186.68
-9755143.25 5135695.60 185.82
-9755142.43 5135696.98 189.17
-9755140.13 5135697.37 186.04
-9755142.12 5135696.61 189.35
-9755142.08 5135696.82 189.33
-9755140.38 5135697.25 188.12
-9755140.36 5135696.16 188.27
-9755143.41 5135696.61 188.29
-9755139.13 5135693.06 181.39
-9755140.11 5135696.84 188.69
-9755138.92 5135697.77 188.44
-9755141.57 5135696.10 186.17
-9755142.50 5135697.41 190.04
-9755140.08 5135696.50 188.46
-9755140.01 5135696.18 186.01
-9755141.26 5135696.62 188.81
-9755140.94 5135695.77 188.72
-9755139.67 5135696.73 188.59
-9755143.24 5135697.78 188.64
-9755141.52 5135697.71 189.21
-9755141.19 5135695.47 188.10
-9755141.40 5135697.85 188.53
-9755141.54 5135696.80 189.29
-9755138.02 5135697.26 188.49
-9755138.76 5135697.11 188.77
-9755142.69 5135697.48 190.03
-9755139.14 5135696.88 188.84
-9755140.85 5135696.62 189.08
-9755140.06 5135697.44 188.30
-9755139.17 5135697.79 188.49
-9755140.87 5135697.78 189.15
-9755140.89 5135697.71 190.13
-9755142.31 5135697.84 189.62
-9755141.46 5135695.47 185.86
-9755139.11 5135696.55 188.50
-9755143.56 5135696.66 186.31
-9755142.08 5135697.77 188.87
-9755143.54 5135696.22 186.63
-9755140.61 5135696.14 186.18
-9755134.68 5135699.90 181.24
-9755134.97 5135696.96 181.29
-9755159.74 5135688.77 181.39
-9755154.47 5135686.67 181.42
-9755156.58 5135685.47 181.37
-9755156.88 5135683.43 181.36
-9755151.49 5135688.73 181.43
-9755151.52 5135685.79 181.42
-9755148.61 5135688.36 181.45
-9755153.87 5135683.36 181.37
-9755158.91 5135682.23 181.34
-9755137.36 5135688.32 181.44
-9755138.29 5135686.28 181.46
-9755139.14 5135684.19 181.44
-9755135.03 5135687.14 181.48
-9755135.05 5135681.54 181.38
-9755186.08 5135728.33 181.25
-9755176.02 5135732.41 181.23
-9755173.71 5135732.42 181.23
-9755174.60 5135725.30 181.28
-9755172.84 5135727.01 181.27
-9755172.84 5135724.09 181.28
-9755182.85 5135720.56 181.30
-9755171.37 5135720.82 181.30
-9755171.99 5135720.82 181.30
-9755167.21 5135729.06 181.27
-9755170.11 5135732.69 181.25
-9755166.62 5135733.24 181.26
-9755165.70 5135733.24 181.27
-9755161.03 5135728.77 181.29
-9755167.54 5135723.74 181.30
-9755170.43 5135724.69 181.27
-9755167.21 5135723.76 181.30
-9755164.85 5135727.00 181.28
-9755164.28 5135723.76 181.30
-9755167.51 5135719.61 181.31
-9755163.42 5135719.58 181.30
-9755186.27 5135712.65 183.09
-9755185.70 5135714.66 185.27
-9755186.81 5135707.77 187.37
-9755184.80 5135713.86 186.34
-9755184.48 5135715.38 185.82
-9755184.62 5135713.91 186.14
-9755184.91 5135714.64 186.14
-9755186.86 5135709.30 188.53
-9755185.28 5135707.64 190.35
-9755186.93 5135708.43 187.82
-9755185.29 5135715.45 183.16
-9755186.72 5135709.28 187.42
-9755186.31 5135707.90 187.43
-9755186.51 5135707.29 187.95
-9755184.49 5135714.54 184.97
-9755185.24 5135713.51 186.61
-9755184.68 5135714.18 185.89
-9755185.28 5135708.73 187.92
-9755184.97 5135713.07 185.89
-9755185.57 5135709.61 187.84
-9755185.66 5135707.77 189.87
-9755186.58 5135707.93 187.30
-9755186.84 5135708.40 188.75
-9755185.09 5135709.30 189.02
-9755184.77 5135713.94 185.43
-9755184.75 5135715.43 183.12
-9755185.17 5135707.67 190.28
-9755185.36 5135714.11 185.95
-9755186.00 5135708.87 187.29
-9755178.73 5135707.46 191.13
-9755177.37 5135709.84 188.57
-9755179.97 5135712.84 183.24
-9755177.16 5135707.66 189.78
-9755176.92 5135710.15 188.20
-9755179.64 5135713.03 182.84
-9755181.14 5135715.72 183.21
-9755184.49 5135708.68 188.01
-9755181.19 5135713.39 183.21
-9755179.24 5135707.38 190.80
-9755180.37 5135707.73 189.13
-9755176.82 5135711.45 187.32
-9755177.76 5135709.58 188.31
-9755180.48 5135708.45 188.36
-9755182.86 5135714.73 185.17
-9755182.77 5135708.15 190.05
-9755180.56 5135714.84 183.30
-9755181.21 5135707.73 189.36
-9755175.36 5135708.49 187.05
-9755176.15 5135709.76 186.56
-9755183.30 5135713.30 184.97
-9755178.82 5135715.43 183.28
-9755177.91 5135714.86 183.26
-9755175.41 5135709.62 187.25
-9755176.21 5135713.05 183.26
-9755183.28 5135712.74 185.15
-9755175.22 5135716.34 181.57
-9755180.35 5135710.09 188.68
-9755179.40 5135708.43 187.88
-9755181.13 5135716.72 181.54
-9755177.03 5135713.11 183.23
-9755177.62 5135711.43 186.92
-9755176.30 5135710.78 186.28
-9755176.23 5135707.82 185.02
-9755176.43 5135707.40 189.96
-9755184.75 5135713.03 185.89
-9755182.10 5135714.25 183.24
-9755180.33 5135708.65 189.39
-9755177.72 5135711.51 187.14
-9755176.29 5135707.68 187.12
-9755175.85 5135713.64 183.25
-9755174.62 5135708.26 186.77
-9755176.88 5135708.02 189.63
-9755183.26 5135712.70 185.86
-9755184.09 5135713.27 185.92
-9755182.99 5135708.87 190.01
-9755173.80 5135713.07 183.19
-9755176.92 5135709.28 187.48
-9755177.99 5135710.14 189.10
-9755173.74 5135709.63 186.64
-9755180.01 5135714.28 183.36
-9755178.27 5135709.06 190.05
-9755183.32 5135713.19 186.04
-9755177.91 5135711.39 187.14
-9755176.89 5135707.67 189.75
-9755178.30 5135709.32 189.99
-9755173.71 5135716.16 182.23
-9755183.20 5135714.28 185.00
-9755179.12 5135709.25 188.61
-9755180.05 5135708.43 189.35
-9755182.92 5135713.61 183.90
-9755182.40 5135708.40 189.80
-9755181.57 5135708.89 189.32
-9755182.89 5135714.53 183.94
-9755177.44 5135716.30 183.34
-9755184.14 5135714.69 186.48
-9755173.54 5135709.31 186.49
-9755177.81 5135709.24 188.69
-9755178.21 5135712.22 187.42
-9755180.01 5135709.55 189.49
-9755177.05 5135715.74 183.26
-9755184.08 5135708.57 188.18
-9755178.99 5135708.10 187.70
-9755182.73 5135707.84 189.55
-9755177.06 5135710.80 186.80
-9755183.80 5135713.28 185.87
-9755182.04 5135713.42 183.24
-9755179.09 5135715.42 183.29
-9755184.17 5135709.36 189.07
-9755176.13 5135715.11 183.29
-9755178.29 5135709.01 189.45
-9755179.63 5135716.01 183.19
-9755183.83 5135714.16 185.81
-9755178.71 5135709.07 190.00
-9755175.90 5135708.97 186.75
-9755177.67 5135709.39 186.32
-9755177.89 5135713.96 183.26
-9755178.27 5135708.27 189.81
-9755176.49 5135713.10 183.11
-9755178.21 5135707.31 190.88
-9755182.92 5135713.93 184.22
-9755184.29 5135709.44 189.10
-9755180.69 5135708.96 189.47
-9755176.49 5135710.52 186.40
-9755182.00 5135715.15 183.19
-9755182.02 5135713.13 183.21
-9755176.51 5135709.19 189.86
-9755184.42 5135713.88 185.04
-9755178.51 5135712.80 183.04
-9755181.81 5135708.05 191.60
-9755178.39 5135708.25 187.69
-9755177.48 5135707.72 189.23
-9755181.61 5135708.02 189.39
-9755178.00 5135709.92 189.05
-9755179.39 5135714.30 183.31
-9755182.82 5135708.66 187.74
-9755183.29 5135715.17 184.30
-9755176.44 5135713.35 183.30
-9755177.82 5135709.41 188.13
-9755176.99 5135707.99 189.73
-9755175.55 5135715.11 183.26
-9755177.44 5135710.43 188.91
-9755177.39 5135711.38 186.92
-9755182.20 5135707.65 191.31
-9755177.37 5135712.03 187.34
-9755179.03 5135708.50 187.72
-9755175.68 5135710.50 186.35
-9755176.69 5135713.16 181.63
-9755177.10 5135710.18 187.42
-9755184.41 5135715.18 184.38
-9755177.10 5135708.58 190.03
-9755182.49 5135708.69 189.44
-9755180.16 5135708.07 188.97
-9755182.67 5135708.07 189.55
-9755177.28 5135713.02 183.21
-9755173.75 5135716.05 183.19
-9755177.51 5135711.58 186.83
-9755181.56 5135707.38 191.20
-9755180.56 5135714.23 183.26
-9755183.62 5135713.00 186.09
-9755179.66 5135714.53 183.33
-9755176.23 5135709.30 188.18
-9755183.89 5135714.71 186.48
-9755182.60 5135714.26 184.02
-9755178.82 5135708.55 187.91
-9755182.44 5135708.41 189.33
-9755174.15 5135708.36 186.83
-9755183.22 5135712.97 185.04
-9755182.72 5135707.29 189.42
-9755182.18 5135708.56 189.55
-9755184.13 5135713.01 186.13
-9755184.42 5135713.89 185.32
-9755176.65 5135707.74 188.16
-9755174.14 5135708.15 185.79
-9755179.08 5135709.21 189.74
-9755183.94 5135708.65 189.96
-9755180.98 5135709.88 188.70
-9755177.04 5135709.59 181.46
-9755174.12 5135716.26 183.19
-9755183.05 5135715.02 185.01
-9755184.42 5135715.07 185.66
-9755177.32 5135715.09 183.27
-9755177.04 5135713.37 183.27
-9755177.06 5135709.14 189.40
-9755174.21 5135708.07 186.88
-9755176.97 5135708.98 188.38
-9755178.27 5135708.77 186.35
-9755178.64 5135708.88 189.94
-9755177.25 5135708.07 188.86
-9755182.95 5135715.06 186.12
-9755183.63 5135708.77 189.11
-9755183.87 5135712.65 186.14
-9755184.22 5135708.80 187.91
-9755176.90 5135708.21 189.87
-9755180.28 5135707.63 188.24
-9755177.02 5135713.62 183.27
-9755172.89 5135715.67 183.27
-9755173.60 5135707.67 188.65
-9755172.18 5135708.68 186.83
-9755172.88 5135708.23 186.46
-9755172.94 5135708.56 186.76
-9755172.72 5135707.47 188.80
-9755172.16 5135707.50 186.64
-9755172.16 5135708.21 186.92
-9755172.16 5135707.64 189.00
-9755172.93 5135709.02 186.77
-9755172.27 5135708.59 186.96
-9755171.76 5135711.33 181.50
-9755172.11 5135708.32 186.91
-9755172.10 5135714.05 187.05
-9755172.05 5135716.29 183.11
-9755172.42 5135708.96 187.06
-9755172.15 5135716.23 182.23
-9755172.14 5135707.64 190.77
-9755172.89 5135713.33 183.21
-9755172.04 5135709.32 186.75
-9755172.15 5135714.62 185.72
-9755171.46 5135715.57 185.33
-9755171.60 5135707.67 190.19
-9755172.19 5135709.05 186.72
-9755172.31 5135716.30 183.12
-9755171.31 5135707.64 190.57
-9755171.45 5135714.67 186.87
-9755170.96 5135714.65 185.85
-9755170.91 5135714.61 186.84
-9755171.23 5135715.10 186.50
-9755171.28 5135712.68 185.87
-9755171.18 5135708.24 189.85
-9755171.16 5135715.66 185.06
-9755164.17 5135707.33 186.00
-9755170.03 5135707.29 192.82
-9755171.13 5135713.50 186.56
-9755170.89 5135708.63 189.82
-9755167.99 5135708.71 188.70
-9755169.94 5135713.86 183.83
-9755170.57 5135712.98 183.75
-9755166.79 5135707.86 191.40
-9755168.80 5135715.39 183.26
-9755169.66 5135714.67 185.07
-9755165.83 5135715.61 183.29
-9755168.24 5135708.85 189.56
-9755167.18 5135708.25 188.39
-9755168.91 5135708.54 189.27
-9755167.86 5135713.05 183.11
-9755165.28 5135715.96 183.28
-9755165.84 5135713.56 183.37
-9755168.31 5135709.15 189.88
-9755168.83 5135707.33 191.62
-9755168.81 5135707.62 189.09
-9755170.02 5135709.10 185.54
-9755170.45 5135715.58 186.38
-9755167.17 5135707.27 191.98
-9755167.91 5135708.98 188.48
-9755170.13 5135707.54 192.52
-9755166.05 5135716.24 182.00
-9755167.90 5135713.86 183.31
-9755169.12 5135707.30 191.61
-9755169.14 5135708.48 185.83
-9755167.29 5135715.37 183.30
-9755162.87 5135715.94 183.31
-9755170.85 5135713.06 186.60
-9755170.32 5135709.23 188.71
-9755163.53 5135715.58 183.37
-9755169.93 5135715.12 183.25
-9755169.63 5135708.82 190.30
-9755166.74 5135713.59 183.25
-9755170.06 5135714.78 185.38
-9755162.66 5135707.29 185.60
-9755162.32 5135713.04 183.26
-9755165.92 5135707.83 187.46
-9755170.43 5135715.72 186.34
-9755165.53 5135711.03 181.52
-9755165.56 5135713.89 183.41
-9755164.14 5135708.39 186.23
-9755168.76 5135716.65 181.56
-9755170.87 5135709.40 189.07
-9755167.78 5135708.84 188.64
-9755169.70 5135714.73 185.39
-9755171.24 5135715.25 186.45
-9755162.27 5135716.32 181.59
-9755170.53 5135713.83 186.31
-9755165.56 5135709.86 181.51
-9755167.75 5135708.96 189.98
-9755169.64 5135714.23 183.33
-9755168.83 5135707.29 189.88
-9755170.07 5135713.86 185.29
-9755162.28 5135716.21 183.28
-9755169.98 5135715.31 185.40
-9755170.41 5135714.31 186.17
-9755169.68 5135708.16 185.58
-9755168.98 5135707.63 188.27
-9755164.37 5135707.27 186.10
-9755166.41 5135715.06 183.35
-9755169.66 5135714.36 186.00
-9755166.67 5135715.95 183.24
-9755170.51 5135716.32 181.61
-9755164.32 5135715.41 183.33
-9755170.58 5135712.91 186.15
-9755168.00 5135709.20 189.29
-9755165.50 5135716.06 182.55
-9755169.16 5135707.28 191.97
-9755170.31 5135715.21 186.56
-9755164.66 5135715.97 183.26
-9755168.84 5135708.00 189.19
-9755170.57 5135713.58 184.59
-9755170.53 5135715.88 185.85
-9755166.13 5135715.36 183.36
-9755169.36 5135714.80 183.37
-9755170.80 5135713.30 185.86
-9755170.85 5135715.30 186.23
-9755170.85 5135713.01 183.54
-9755170.52 5135715.70 184.24
-9755170.82 5135713.58 185.08
-9755169.82 5135714.20 185.72
-9755169.66 5135715.42 184.66
-9755162.67 5135712.81 183.29
-9755170.62 5135708.50 189.36
-9755168.75 5135707.78 188.90
-9755167.14 5135707.58 191.12
-9755168.77 5135714.51 183.33
-9755170.10 5135713.74 184.91
-9755169.43 5135715.07 183.33
-9755166.71 5135713.90 183.35
-9755167.96 5135708.33 189.17
-9755170.34 5135713.86 185.22
-9755165.53 5135715.08 183.33
-9755170.31 5135709.71 185.07
-9755169.94 5135708.41 188.32
-9755170.84 5135714.87 186.18
-9755163.74 5135715.95 183.30
-9755167.91 5135708.67 188.66
-9755169.06 5135709.67 189.70
-9755166.32 5135714.53 183.32
-9755170.09 5135715.00 184.97
-9755165.23 5135707.53 186.34
-9755167.39 5135708.52 189.52
-9755162.33 5135707.72 181.49
-9755167.56 5135711.32 181.53
-9755161.38 5135713.32 183.26
-9755161.40 5135714.19 183.34
-9755156.02 5135727.81 181.30
-9755156.56 5135729.92 181.30
-9755156.87 5135731.13 181.29
-9755158.99 5135724.94 181.30
-9755160.20 5135724.59 181.30
-9755156.01 5135724.00 181.30
-9755156.33 5135723.70 181.31
-9755153.63 5135728.71 181.30
-9755147.76 5135728.68 181.28
-9755150.69 5135728.71 181.28
-9755149.21 5135727.82 181.28
-9755147.74 5135727.80 181.27
-9755145.34 5135731.31 181.25
-9755151.54 5135731.96 181.26
-9755145.11 5135722.17 181.30
-9755153.05 5135722.50 181.30
-9755150.71 5135722.49 181.29
-9755151.62 5135722.48 181.29
-9755160.16 5135721.08 181.30
-9755157.54 5135718.38 181.32
-9755146.92 5135717.99 181.57
-9755142.36 5135732.80 181.21
-9755137.12 5135732.78 181.19
-9755135.07 5135725.05 181.27
-9755137.78 5135725.42 181.26
-9755140.70 5135726.25 181.26
-9755143.38 5135722.16 181.29
-9755139.18 5135724.20 181.26
-9755143.67 5135718.02 181.55
-9755139.84 5135719.15 181.31
-9755136.88 5135721.21 181.30
-9755158.14 5135713.77 184.65
-9755158.82 5135716.08 184.55
-9755157.69 5135714.70 185.13
-9755158.23 5135715.09 183.39
-9755159.56 5135713.39 183.05
-9755158.27 5135714.83 186.74
-9755158.55 5135714.58 186.98
-9755157.95 5135713.91 186.55
-9755159.01 5135713.85 183.95
-9755159.15 5135714.81 186.89
-9755160.55 5135707.72 181.50
-9755159.01 5135713.06 184.04
-9755160.00 5135715.35 184.19
-9755157.30 5135715.13 185.79
-9755159.66 5135714.95 185.61
-9755158.68 5135716.73 184.43
-9755159.88 5135716.21 183.19
-9755158.84 5135714.68 183.98
-9755159.34 5135715.56 184.12
-9755157.87 5135711.86 181.60
-9755158.84 5135713.46 184.97
-9755157.96 5135714.36 185.79
-9755158.84 5135714.64 186.01
-9755157.70 5135716.18 184.61
-9755159.72 5135707.37 188.55
-9755157.71 5135714.62 186.60
-9755158.86 5135714.64 186.54
-9755157.56 5135714.36 185.84
-9755159.15 5135712.99 184.22
-9755158.48 5135714.85 186.83
-9755157.75 5135713.57 185.03
-9755159.30 5135713.65 186.47
-9755159.68 5135715.82 185.76
-9755160.17 5135714.56 184.15
-9755159.34 5135707.49 188.26
-9755160.24 5135715.93 184.41
-9755158.93 5135716.72 184.43
-9755158.21 5135715.85 185.46
-9755157.61 5135715.90 185.06
-9755159.42 5135712.96 184.90
-9755159.10 5135714.27 186.85
-9755158.22 5135713.56 184.61
-9755159.35 5135714.87 186.90
-9755157.30 5135715.54 184.94
-9755157.91 5135715.60 186.64
-9755158.18 5135707.68 188.25
-9755157.68 5135714.08 186.44
-9755157.90 5135716.12 184.61
-9755158.52 5135716.46 184.45
-9755157.99 5135715.46 184.93
-9755158.22 5135716.40 184.25
-9755158.42 5135716.05 186.10
-9755155.23 5135714.45 183.24
-9755154.94 5135713.87 183.25
-9755155.88 5135708.19 187.88
-9755156.63 5135716.47 183.16
-9755154.46 5135707.31 189.92
-9755157.24 5135713.72 185.09
-9755155.60 5135708.39 188.02
-9755155.90 5135708.21 187.59
-9755157.23 5135715.87 183.20
-9755156.43 5135710.67 181.57
-9755154.64 5135715.90 183.25
-9755156.58 5135713.45 185.03
-9755155.55 5135714.46 182.88
-9755155.64 5135707.65 187.62
-9755154.62 5135714.99 183.30
-9755154.64 5135707.28 189.49
-9755157.23 5135714.26 185.42
-9755155.79 5135715.90 183.22
-9755157.28 5135707.53 189.95
-9755155.61 5135708.34 187.78
-9755155.85 5135708.45 187.77
-9755154.27 5135716.35 182.68
-9755158.17 5135717.05 184.49
-9755158.14 5135717.46 181.58
-9755156.63 5135717.16 181.57
-9755150.82 5135709.71 181.54
-9755144.34 5135714.63 183.29
-9755144.87 5135714.29 184.91
-9755153.13 5135715.85 183.30
-9755144.57 5135714.29 184.86
-9755145.24 5135708.68 185.46
-9755144.35 5135707.71 186.42
-9755151.11 5135713.78 183.29
-9755145.60 5135707.57 186.21
-9755146.53 5135715.90 185.05
-9755152.22 5135715.56 183.36
-9755146.10 5135715.44 185.31
-9755152.97 5135707.31 184.87
-9755145.05 5135708.23 186.88
-9755144.26 5135708.49 186.78
-9755144.94 5135714.86 186.03
-9755146.43 5135713.89 186.23
-9755151.95 5135715.89 183.33
-9755152.27 5135716.71 183.15
-9755145.35 5135708.91 186.82
-9755145.83 5135714.24 185.86
-9755144.93 5135708.06 186.25
-9755150.18 5135713.80 183.29
-9755152.32 5135708.54 181.53
-9755153.22 5135707.32 188.38
-9755144.33 5135710.56 185.51
-9755145.24 5135708.42 183.93
-9755145.87 5135715.63 185.12
-9755153.12 5135715.58 183.31
-9755150.20 5135715.57 183.34
-9755148.37 5135711.79 181.59
-9755148.14 5135713.79 183.21
-9755149.28 5135714.70 183.30
-9755145.85 5135708.03 186.22
-9755145.86 5135707.37 186.29
-9755145.26 5135710.35 184.90
-9755145.44 5135714.57 186.03
-9755152.22 5135713.79 183.32
-9755145.71 5135713.40 184.21
-9755145.57 5135715.04 185.88
-9755152.70 5135708.40 184.98
-9755145.45 5135708.70 184.13
-9755145.79 5135707.63 186.26
-9755145.00 5135713.51 184.12
-9755153.14 5135711.82 181.61
-9755145.85 5135715.07 185.54
-9755144.76 5135707.69 186.71
-9755144.90 5135715.14 184.84
-9755144.89 5135716.14 183.21
-9755149.91 5135713.78 183.26
-9755145.42 5135714.94 185.89
-9755144.90 5135714.66 184.47
-9755151.55 5135707.36 186.64
-9755144.93 5135714.04 184.88
-9755144.32 5135716.12 184.26
-9755146.19 5135707.34 188.35
-9755144.36 5135714.63 184.50
-9755150.76 5135712.98 181.69
-9755145.78 5135714.95 185.06
-9755149.89 5135716.17 183.28
-9755151.55 5135707.54 184.92
-9755151.07 5135713.81 183.14
-9755153.15 5135707.69 186.68
-9755145.20 5135714.24 185.34
-9755149.90 5135714.68 183.35
-9755152.16 5135708.08 184.70
-9755144.35 5135708.22 186.65
-9755144.59 5135716.40 183.21
-9755153.41 5135717.17 181.58
-9755143.78 5135708.65 185.83
-9755144.14 5135708.57 186.34
-9755143.73 5135708.00 185.34
-9755144.20 5135708.37 186.27
-9755144.09 5135707.68 187.54
-9755144.02 5135713.82 183.26
-9755144.02 5135709.25 185.75
-9755143.50 5135707.36 186.63
-9755143.72 5135716.40 183.23
-9755139.00 5135710.34 187.12
-9755140.03 5135708.66 190.70
-9755141.23 5135707.35 190.84
-9755143.67 5135710.51 185.03
-9755140.84 5135708.09 191.25
-9755140.11 5135707.97 190.49
-9755138.94 5135710.62 185.71
-9755137.53 5135713.74 183.24
-9755138.54 5135708.58 187.03
-9755138.73 5135708.89 186.75
-9755143.45 5135708.58 185.83
-9755137.51 5135708.76 186.69
-9755143.40 5135710.07 185.58
-9755139.09 5135707.46 185.41
-9755134.86 5135713.87 185.55
-9755139.61 5135711.40 181.58
-9755137.90 5135707.85 188.71
-9755140.42 5135710.58 181.59
-9755143.55 5135708.98 185.49
-9755137.08 5135708.24 186.80
-9755137.50 5135708.75 181.53
-9755136.98 5135715.49 183.36
-9755139.56 5135714.64 183.31
-9755140.80 5135710.57 186.46
-9755138.66 5135709.45 186.65
-9755137.60 5135707.32 187.24
-9755140.39 5135707.81 191.53
-9755136.64 5135715.17 183.32
-9755137.93 5135709.06 186.59
-9755136.67 5135710.23 181.56
-9755141.16 5135709.18 186.31
-9755139.95 5135707.88 190.44
-9755137.26 5135713.81 183.29
-9755134.90 5135714.35 185.32
-9755141.25 5135708.74 186.82
-9755140.85 5135709.03 186.53
-9755142.90 5135710.29 185.72
-9755138.79 5135709.58 186.77
-9755138.75 5135710.43 185.69
-9755137.80 5135715.52 183.36
-9755137.50 5135715.21 183.36
-9755137.07 5135707.87 186.83
-9755140.81 5135707.64 187.77
-9755138.72 5135714.62 183.34
-9755136.68 5135707.62 181.51
-9755137.35 5135707.73 190.16
-9755139.91 5135709.96 186.27
-9755141.24 5135707.44 187.14
-9755140.48 5135710.04 187.35
-9755137.57 5135707.38 189.58
-9755141.44 5135710.56 185.54
-9755139.15 5135710.12 185.89
-9755138.12 5135714.28 183.34
-9755141.40 5135707.88 188.20
-9755134.93 5135714.20 184.48
-9755139.99 5135709.49 187.08
-9755137.62 5135710.94 185.68
-9755138.12 5135710.97 185.66
-9755139.89 5135709.39 187.45
-9755137.59 5135709.77 186.45
-9755139.59 5135715.47 183.30
-9755136.98 5135714.01 183.25
-9755142.84 5135709.59 184.29
-9755139.98 5135708.20 189.37
-9755134.96 5135715.06 185.82
-9755140.27 5135710.60 187.33
-9755139.63 5135709.44 186.67
-9755140.47 5135715.51 183.34
-9755139.30 5135710.26 187.45
-9755138.47 5135707.77 191.42
-9755140.30 5135709.59 186.25
-9755139.56 5135713.74 183.22
-9755140.78 5135709.90 187.16
-9755139.99 5135709.43 186.00
-9755143.26 5135709.38 185.76
-9755142.36 5135708.50 188.25
-9755141.48 5135708.52 188.14
-9755138.59 5135707.82 187.83
-9755140.52 5135710.07 187.16
-9755139.15 5135709.98 187.34
-9755138.74 5135708.00 191.41
-9755138.77 5135710.03 185.76
-9755142.81 5135714.96 183.35
-9755137.66 5135708.46 186.86
-9755140.86 5135709.22 186.36
-9755135.76 5135714.62 183.27
-9755139.94 5135710.57 187.25
-9755137.49 5135715.53 183.37
-9755141.38 5135715.52 183.34
-9755137.78 5135707.34 191.34
-9755136.30 5135713.59 183.28
-9755137.81 5135713.36 183.32
-9755138.81 5135708.22 186.98
-9755134.83 5135715.05 185.78
-9755141.69 5135715.83 183.29
-9755142.79 5135716.43 183.26
-9755141.62 5135716.56 181.58
-9755137.51 5135716.68 183.18
-9755143.19 5135716.75 183.16
-9755135.11 5135716.36 183.15
-9755136.31 5135717.35 181.59
-9755140.46 5135717.11 181.58
-9755134.32 5135709.35 181.54
-9755134.62 5135714.79 185.97
-9755134.41 5135714.89 184.17
-9755134.25 5135715.89 186.27
-9755134.27 5135716.25 186.48
-9755135.00 5135713.67 185.58
-9755134.25 5135715.33 185.68
-9755134.50 5135716.27 186.55
-9755134.78 5135716.78 182.87
-9755185.79 5135728.60 181.25
-9755178.67 5135730.07 181.25
-9755175.68 5135730.30 181.25
-9755177.82 5135728.86 181.26
-9755173.73 5135727.94 181.26
-9755180.18 5135728.89 181.26
-9755176.91 5135727.68 181.26
-9755181.34 5135729.19 181.26
-9755186.03 5135732.45 181.23
-9755185.13 5135733.36 181.22
-9755186.90 5135731.28 181.23
-9755179.60 5135730.36 181.24
-9755179.27 5135730.37 181.24
-9755176.92 5135731.22 181.23
-9755183.70 5135732.15 181.23
-9755184.29 5135731.88 181.23
-9755180.43 5135732.69 181.24
-9755177.82 5135730.33 181.24
-9755175.73 5135732.72 181.23
-9755183.11 5135731.85 181.23
-9755181.62 5135732.73 181.23
-9755176.35 5135732.99 181.23
-9755186.10 5135723.85 181.27
-9755185.20 5135726.22 181.26
-9755186.07 5135727.44 181.25
-9755185.83 5135725.33 181.27
-9755185.49 5135726.85 181.25
-9755185.19 5135724.73 181.26
-9755186.69 5135725.02 181.26
-9755185.22 5135723.56 181.28
-9755181.95 5135723.87 181.29
-9755184.02 5135726.22 181.26
-9755182.26 5135724.43 181.28
-9755176.63 5135727.09 181.26
-9755182.56 5135727.73 181.26
-9755176.96 5135725.56 181.28
-9755180.77 5135725.31 181.28
-9755183.15 5135727.12 181.26
-9755179.33 5135722.09 181.30
-9755176.96 5135722.02 181.30
-9755183.45 5135727.11 181.26
-9755182.83 5135725.29 181.28
-9755178.74 5135723.22 181.30
-9755177.24 5135727.10 181.26
-9755173.70 5135725.87 181.27
-9755180.20 5135725.31 181.28
-9755178.75 5135721.72 181.31
-9755177.80 5135726.79 181.27
-9755180.51 5135725.00 181.28
-9755183.43 5135725.63 181.27
-9755183.47 5135721.79 181.30
-9755173.70 5135726.47 181.28
-9755180.19 5135726.23 181.28
-9755177.56 5135726.15 181.27
-9755179.36 5135721.44 181.31
-9755181.69 5135725.33 181.28
-9755177.57 5135722.91 181.29
-9755179.92 5135725.30 181.29
-9755176.06 5135725.90 181.27
-9755172.49 5135727.06 181.27
-9755173.12 5135726.16 181.28
-9755172.24 5135722.88 181.29
-9755171.33 5135725.55 181.26
-9755172.86 5135721.44 181.30
-9755172.26 5135723.81 181.28
-9755171.35 5135724.40 181.28
-9755186.41 5135719.46 181.30
-9755184.63 5135720.32 181.29
-9755186.11 5135719.13 181.30
-9755186.71 5135718.57 181.31
-9755178.77 5135720.28 181.31
-9755175.22 5135718.19 181.32
-9755176.99 5135719.95 181.31
-9755175.22 5135720.55 181.31
-9755180.49 5135720.59 181.30
-9755176.38 5135718.17 181.32
-9755182.25 5135719.69 181.30
-9755179.36 5135719.39 181.30
