-9755172.07 5135352.22 195.92
-9755165.96 5135350.47 184.47
-9755171.62 5135349.95 184.49
-9755173.01 5135352.13 184.44
-9755167.12 5135352.13 184.45
-9755168.32 5135350.00 184.47
-9755170.46 5135348.23 181.67
-9755171.45 5135349.64 184.47
-9755170.71 5135350.60 184.50
-9755170.35 5135349.95 184.45
-9755170.34 5135348.83 191.78
-9755172.21 5135351.93 199.46
-9755165.39 5135351.15 184.48
-9755168.26 5135348.83 192.91
-9755166.06 5135347.92 190.86
-9755171.87 5135352.04 184.51
-9755165.38 5135350.79 184.46
-9755167.51 5135352.03 184.48
-9755169.33 5135349.00 184.85
-9755165.66 5135351.71 184.75
-9755168.95 5135350.13 184.48
-9755168.97 5135348.39 184.62
-9755172.24 5135348.64 192.63
-9755172.83 5135348.75 191.59
-9755172.38 5135352.06 184.52
-9755167.10 5135348.69 184.47
-9755172.34 5135351.97 199.16
-9755170.65 5135352.06 184.51
-9755172.73 5135349.67 191.28
-9755171.81 5135349.06 184.48
-9755172.51 5135349.68 184.47
-9755165.69 5135348.70 191.78
-9755171.00 5135352.13 198.14
-9755172.84 5135352.02 189.99
-9755170.26 5135348.43 193.00
-9755169.71 5135349.34 192.28
-9755169.02 5135348.83 191.53
-9755167.17 5135350.90 184.46
-9755165.45 5135351.94 184.79
-9755168.16 5135349.07 184.83
-9755168.33 5135348.25 181.64
-9755170.16 5135348.77 192.53
-9755167.84 5135348.32 192.82
-9755165.08 5135348.18 185.42
-9755170.65 5135351.18 184.49
-9755164.52 5135348.69 185.14
-9755172.24 5135352.13 195.91
-9755172.76 5135350.55 184.49
-9755169.25 5135350.46 184.46
-9755173.01 5135349.12 184.47
-9755167.05 5135347.93 190.40
-9755173.15 5135348.68 191.86
-9755168.39 5135349.53 191.58
-9755173.08 5135350.89 184.49
-9755168.35 5135350.49 184.48
-9755172.74 5135349.90 184.47
-9755166.60 5135350.76 184.48
-9755171.20 5135348.79 184.45
-9755168.69 5135348.35 191.34
-9755169.45 5135352.07 184.46
-9755166.83 5135348.14 190.99
-9755167.17 5135350.23 184.48
-9755164.47 5135348.18 185.59
-9755168.72 5135349.02 192.94
-9755171.83 5135350.57 184.49
-9755167.62 5135349.74 189.81
-9755171.34 5135351.83 195.77
-9755168.78 5135348.68 192.16
-9755170.04 5135348.65 192.67
-9755171.24 5135351.74 184.51
-9755173.53 5135352.13 186.33
-9755168.38 5135348.32 193.40
-9755171.26 5135352.00 195.64
-9755166.02 5135348.96 185.00
-9755173.69 5135351.15 184.51
-9755166.25 5135351.12 184.48
-9755168.64 5135349.06 184.81
-9755165.62 5135348.99 185.68
-9755170.28 5135348.07 192.90
-9755169.80 5135350.84 184.47
-9755165.52 5135351.94 184.50
-9755173.65 5135351.72 184.53
-9755169.89 5135349.08 184.51
-9755169.04 5135348.04 192.49
-9755168.62 5135350.87 184.45
-9755173.15 5135352.09 191.90
-9755167.81 5135348.93 191.53
-9755165.65 5135347.81 190.28
-9755167.44 5135348.27 181.62
-9755173.69 5135348.40 191.77
-9755167.74 5135352.02 184.46
-9755164.82 5135351.97 184.49
-9755172.75 5135351.15 184.50
-9755164.78 5135350.86 184.48
-9755165.88 5135348.32 181.65
-9755162.11 5135350.81 184.45
-9755162.10 5135351.11 184.47
-9755161.20 5135351.09 184.45
-9755161.78 5135348.68 184.84
-9755160.68 5135348.60 184.76
-9755164.49 5135351.06 184.47
-9755163.06 5135349.38 184.82
-9755164.22 5135350.80 184.48
-9755162.18 5135350.39 184.83
-9755164.51 5135351.65 184.49
-9755163.90 5135350.48 184.47
-9755161.59 5135349.58 184.83
-9755162.72 5135351.61 184.46
-9755161.66 5135348.42 184.83
-9755161.55 5135348.70 184.43
-9755162.09 5135348.10 184.80
-9755161.51 5135348.43 184.43
-9755164.25 5135349.87 184.83
-9755161.28 5135350.36 184.83
-9755163.36 5135348.26 181.66
-9755161.85 5135350.46 184.45
-9755162.54 5135348.39 184.82
-9755160.97 5135348.39 184.78
-9755160.97 5135349.90 184.84
-9755160.39 5135350.49 184.81
-9755163.84 5135351.69 184.48
-9755162.35 5135352.00 184.47
-9755162.47 5135350.19 184.82
-9755163.60 5135349.91 184.79
-9755160.60 5135348.75 181.66
-9755161.23 5135351.74 184.48
-9755160.53 5135352.45 185.05
-9755160.64 5135349.56 185.38
-9755160.97 5135349.77 185.84
-9755162.46 5135349.02 184.46
-9755162.41 5135350.47 184.46
-9755160.57 5135352.35 188.30
-9755163.63 5135352.00 184.49
-9755163.18 5135348.24 185.83
-9755163.63 5135348.24 181.66
-9755161.87 5135349.84 184.85
-9755163.19 5135352.02 184.93
-9755162.11 5135348.21 185.65
-9755161.28 5135348.04 184.81
-9755161.23 5135351.96 184.48
-9755163.60 5135351.34 184.48
-9755163.29 5135350.85 184.47
-9755162.05 5135348.10 185.42
-9755163.60 5135348.74 184.44
-9755163.16 5135352.40 191.36
-9755161.26 5135348.26 181.65
-9755162.99 5135348.09 185.36
-9755161.24 5135348.99 184.46
-9755164.73 5135352.46 184.47
-9755160.99 5135350.79 184.78
-9755164.41 5135352.00 184.50
-9755161.56 5135348.07 185.38
-9755162.44 5135351.36 184.47
-9755163.93 5135352.02 184.49
-9755162.19 5135348.65 184.81
-9755163.58 5135348.87 185.10
-9755160.29 5135348.29 181.66
-9755160.29 5135349.54 185.38
-9755158.03 5135351.67 184.48
-9755158.55 5135349.89 184.46
-9755160.41 5135348.71 184.43
-9755157.40 5135351.97 185.29
-9755159.17 5135349.88 184.46
-9755160.15 5135349.65 185.72
-9755159.92 5135348.07 185.15
-9755157.96 5135348.92 184.75
-9755157.13 5135351.62 185.28
-9755160.41 5135350.37 185.65
-9755158.27 5135349.94 184.44
-9755157.93 5135352.96 181.66
-9755156.52 5135351.33 185.27
-9755159.31 5135348.38 184.86
-9755157.40 5135350.44 184.46
-9755157.36 5135349.32 184.47
-9755157.12 5135352.14 184.94
-9755156.57 5135351.04 184.45
-9755159.53 5135349.50 184.73
-9755157.15 5135349.51 185.39
-9755157.34 5135352.44 184.81
-9755160.14 5135352.47 186.07
-9755159.20 5135348.95 184.78
-9755159.24 5135351.64 184.47
-9755157.12 5135350.50 185.39
-9755160.34 5135349.27 184.43
-9755158.83 5135348.71 184.79
-9755157.19 5135349.31 184.61
-9755159.17 5135348.67 184.45
-9755157.08 5135351.67 184.46
-9755157.42 5135351.09 184.46
-9755157.39 5135350.46 185.10
-9755157.86 5135349.55 184.65
-9755157.23 5135348.74 184.68
-9755157.01 5135348.36 185.25
-9755158.63 5135349.62 184.79
-9755157.08 5135348.19 181.68
-9755157.38 5135351.64 184.48
-9755160.14 5135352.90 185.39
-9755157.78 5135348.15 181.66
-9755160.05 5135352.22 184.47
-9755160.22 5135352.06 184.66
-9755159.47 5135348.92 184.62
-9755156.76 5135348.70 185.34
-9755156.77 5135352.02 184.43
-9755159.10 5135350.73 184.45
-9755157.38 5135353.92 181.66
-9755158.60 5135350.46 184.46
-9755159.20 5135348.72 184.79
-9755160.09 5135350.49 184.46
-9755159.45 5135349.31 184.43
-9755160.18 5135348.18 184.85
-9755158.53 5135348.33 184.76
-9755160.07 5135350.78 184.46
-9755157.12 5135348.42 184.62
-9755159.69 5135348.22 181.64
-9755158.89 5135348.51 181.66
-9755157.40 5135348.40 184.69
-9755174.54 5135346.68 191.06
-9755174.19 5135339.86 193.08
-9755174.76 5135340.69 191.26
-9755174.31 5135339.00 190.79
-9755174.50 5135337.46 187.08
-9755174.04 5135343.25 193.84
-9755173.99 5135343.44 193.16
-9755174.38 5135343.28 189.77
-9755174.37 5135340.40 192.67
-9755174.35 5135345.15 193.33
-9755174.04 5135347.51 192.05
-9755174.02 5135341.54 181.36
-9755174.03 5135345.95 193.45
-9755174.40 5135340.19 192.21
-9755174.50 5135338.27 181.32
-9755173.89 5135342.57 190.00
-9755174.06 5135339.27 192.20
-9755174.11 5135339.33 190.06
-9755174.04 5135337.34 181.23
-9755173.88 5135337.27 190.33
-9755174.30 5135336.84 187.40
-9755174.51 5135344.17 181.60
-9755174.26 5135346.58 181.79
-9755173.95 5135339.74 181.38
-9755174.30 5135344.55 181.69
-9755174.32 5135343.03 192.78
-9755174.29 5135341.06 192.40
-9755174.02 5135337.99 191.54
-9755174.07 5135338.30 192.39
-9755173.96 5135347.43 181.80
-9755172.48 5135347.87 192.44
-9755167.74 5135347.81 192.64
-9755168.79 5135341.06 192.41
-9755168.46 5135348.03 192.85
-9755172.57 5135347.79 193.37
-9755173.80 5135346.26 193.64
-9755170.21 5135343.46 191.13
-9755167.91 5135339.79 193.03
-9755168.68 5135338.47 192.27
-9755167.99 5135347.93 181.69
-9755169.87 5135346.34 193.12
-9755173.73 5135342.97 192.75
-9755167.81 5135338.30 192.40
-9755165.04 5135346.76 189.34
-9755167.92 5135340.89 191.38
-9755164.15 5135348.03 185.37
-9755168.85 5135337.01 190.44
-9755172.87 5135340.28 191.71
-9755165.67 5135337.58 186.76
-9755171.13 5135347.74 192.47
-9755170.13 5135339.89 190.91
-9755166.66 5135340.12 191.56
-9755171.40 5135338.05 192.42
-9755169.88 5135340.08 192.99
-9755169.30 5135339.23 191.75
-9755167.27 5135341.08 191.14
-9755173.51 5135343.03 193.71
-9755170.32 5135342.55 192.11
-9755171.79 5135338.07 192.18
-9755170.83 5135346.53 193.32
-9755167.75 5135341.25 191.19
-9755170.99 5135343.09 192.29
-9755173.59 5135338.94 181.36
-9755171.13 5135340.41 192.80
-9755167.00 5135337.54 189.76
-9755173.52 5135337.99 192.05
-9755169.83 5135346.67 192.84
-9755164.80 5135342.10 188.90
-9755173.48 5135337.50 191.52
-9755174.46 5135342.41 192.01
-9755170.19 5135337.24 191.77
-9755170.42 5135342.82 193.19
-9755167.81 5135339.47 192.55
-9755169.37 5135342.13 191.47
-9755167.78 5135346.58 192.61
-9755167.84 5135338.14 190.68
-9755165.43 5135346.74 189.36
-9755164.92 5135345.01 186.05
-9755167.20 5135342.04 181.44
-9755169.35 5135342.15 191.98
-9755165.43 5135346.05 190.06
-9755172.03 5135343.41 192.53
-9755168.76 5135337.22 191.40
-9755165.44 5135337.54 187.38
-9755167.81 5135342.04 181.47
-9755171.10 5135342.23 192.48
-9755165.75 5135338.04 186.95
-9755166.38 5135340.51 190.53
-9755168.62 5135347.54 191.76
-9755165.71 5135343.22 190.92
-9755168.13 5135338.33 192.40
-9755167.52 5135344.02 190.63
-9755171.40 5135339.76 193.01
-9755166.20 5135337.58 186.98
-9755169.36 5135339.79 191.98
-9755170.50 5135343.13 192.09
-9755172.81 5135343.76 193.38
-9755166.70 5135337.24 189.91
-9755165.72 5135338.95 190.30
-9755170.19 5135340.95 192.61
-9755171.29 5135345.57 193.05
-9755173.46 5135344.24 193.22
-9755170.71 5135344.00 193.05
-9755166.41 5135338.67 190.38
-9755169.45 5135344.56 191.01
-9755173.48 5135346.00 193.60
-9755166.84 5135337.64 188.33
-9755170.27 5135339.90 191.85
-9755173.07 5135345.40 181.76
-9755169.12 5135337.95 192.34
-9755169.08 5135346.65 192.37
-9755167.22 5135337.16 186.84
-9755173.65 5135338.54 188.89
-9755168.84 5135345.24 191.54
-9755169.02 5135343.06 192.16
-9755172.00 5135336.63 190.45
-9755168.40 5135341.19 190.75
-9755170.85 5135337.14 191.44
-9755172.55 5135343.28 192.46
-9755169.46 5135344.19 193.34
-9755164.88 5135341.69 188.47
-9755170.24 5135345.76 192.77
-9755173.55 5135338.96 192.38
-9755171.44 5135341.60 191.64
-9755172.81 5135343.83 193.86
-9755171.09 5135342.94 193.23
-9755172.82 5135341.31 190.58
-9755170.75 5135342.51 192.63
-9755166.50 5135340.91 181.44
-9755172.73 5135341.07 190.03
-9755172.13 5135343.08 192.65
-9755166.41 5135344.92 190.20
-9755165.48 5135345.82 189.58
-9755170.13 5135343.00 191.45
-9755165.96 5135347.98 181.67
-9755168.21 5135338.57 192.98
-9755165.44 5135347.74 188.85
-9755172.46 5135342.42 192.86
-9755166.62 5135341.63 191.50
-9755167.23 5135340.99 190.22
-9755170.32 5135345.07 192.57
-9755166.90 5135345.39 192.06
-9755169.40 5135337.15 191.81
-9755169.82 5135339.89 181.43
-9755169.74 5135342.17 192.22
-9755171.86 5135340.64 191.29
-9755173.58 5135337.22 190.85
-9755168.98 5135346.38 192.80
-9755165.95 5135341.22 190.01
-9755167.82 5135339.91 191.38
-9755169.56 5135338.51 181.45
-9755170.03 5135340.31 193.16
-9755168.47 5135341.56 191.99
-9755171.36 5135345.96 193.17
-9755168.51 5135338.99 190.57
-9755172.30 5135337.17 191.46
-9755167.52 5135345.04 192.73
-9755168.57 5135337.10 190.67
-9755171.97 5135342.27 192.19
-9755168.40 5135337.28 191.41
-9755169.92 5135337.65 191.72
-9755169.07 5135340.99 193.16
-9755172.27 5135338.18 190.87
-9755166.66 5135344.91 191.27
-9755173.00 5135340.59 192.21
-9755166.51 5135346.80 181.66
-9755169.07 5135341.31 191.93
-9755171.34 5135344.78 193.02
-9755166.99 5135341.26 191.49
-9755172.38 5135342.33 193.87
-9755171.33 5135341.24 181.41
-9755165.99 5135340.13 189.02
-9755169.77 5135341.53 181.41
-9755173.67 5135341.38 181.37
-9755165.72 5135343.47 190.25
-9755171.97 5135341.47 193.06
-9755167.31 5135343.03 190.64
-9755172.10 5135340.57 181.45
-9755171.42 5135342.01 191.07
-9755172.54 5135343.73 192.42
-9755166.69 5135342.83 190.78
-9755165.84 5135343.50 189.87
-9755166.98 5135338.42 189.79
-9755172.33 5135337.55 188.85
-9755165.36 5135342.21 189.42
-9755170.98 5135336.87 191.25
-9755169.05 5135344.48 193.45
-9755165.09 5135338.83 181.48
-9755167.92 5135346.24 192.39
-9755170.33 5135338.11 191.11
-9755166.73 5135344.77 190.20
-9755168.14 5135342.45 191.77
-9755173.03 5135344.75 181.66
-9755168.65 5135347.85 191.89
-9755168.19 5135338.83 192.44
-9755172.87 5135347.44 193.37
-9755166.12 5135344.15 189.85
-9755172.28 5135346.29 193.37
-9755165.31 5135341.91 191.55
-9755164.88 5135346.35 189.65
-9755172.87 5135339.19 191.35
-9755165.43 5135340.79 189.32
-9755173.23 5135348.01 181.78
-9755168.50 5135338.87 193.02
-9755166.63 5135343.48 189.97
-9755169.64 5135344.37 193.86
-9755166.19 5135341.47 181.49
-9755168.08 5135338.26 181.43
-9755171.82 5135337.57 191.93
-9755165.66 5135344.14 181.62
-9755169.59 5135343.48 190.86
-9755169.86 5135339.18 193.15
-9755165.13 5135344.77 185.80
-9755169.80 5135341.14 189.64
-9755166.95 5135346.55 181.67
-9755171.25 5135343.28 192.69
-9755171.91 5135338.06 191.44
-9755167.40 5135345.02 181.63
-9755172.18 5135337.70 181.37
-9755165.72 5135338.29 188.29
-9755166.46 5135340.06 181.46
-9755168.34 5135337.16 191.62
-9755167.23 5135344.03 191.09
-9755172.65 5135337.96 181.33
-9755172.37 5135341.78 189.53
-9755172.60 5135343.94 192.56
-9755172.18 5135344.20 181.59
-9755170.72 5135337.09 190.21
-9755172.32 5135342.94 194.29
-9755164.92 5135338.46 186.68
-9755168.69 5135336.99 190.16
-9755169.75 5135341.35 192.65
-9755166.57 5135339.68 181.49
-9755169.63 5135338.67 191.74
-9755166.68 5135343.39 191.45
-9755168.20 5135347.55 191.89
-9755167.19 5135341.75 190.34
-9755173.44 5135340.74 191.82
-9755168.79 5135338.17 191.64
-9755169.07 5135340.96 191.72
-9755170.67 5135339.31 190.87
-9755165.76 5135346.85 189.22
-9755167.90 5135336.91 190.16
-9755171.95 5135341.02 191.51
-9755171.00 5135338.35 191.38
-9755164.85 5135339.89 189.24
-9755166.86 5135341.43 181.49
-9755164.84 5135346.95 189.56
-9755171.14 5135340.97 192.01
-9755170.29 5135338.35 192.41
-9755167.01 5135338.93 192.17
-9755173.12 5135340.26 191.75
-9755172.14 5135338.75 191.75
-9755166.02 5135339.39 188.45
-9755167.07 5135343.09 191.89
-9755164.88 5135337.67 186.39
-9755170.16 5135344.05 190.13
-9755167.65 5135343.96 191.58
-9755167.76 5135340.87 190.07
-9755173.48 5135340.17 192.22
-9755168.65 5135346.70 192.27
-9755173.10 5135338.33 191.37
-9755166.41 5135341.34 191.65
-9755173.12 5135345.99 193.80
-9755166.19 5135345.14 186.61
-9755170.52 5135340.68 188.31
-9755173.11 5135347.81 191.90
-9755169.49 5135346.49 181.67
-9755165.03 5135346.28 189.51
-9755173.36 5135344.19 188.49
-9755172.23 5135347.19 193.01
-9755167.34 5135342.06 188.34
-9755167.80 5135339.75 193.36
-9755165.47 5135343.74 191.43
-9755169.69 5135343.47 190.07
-9755165.22 5135340.45 190.10
-9755168.51 5135346.36 192.89
-9755167.68 5135342.39 181.45
-9755167.79 5135346.87 191.34
-9755166.19 5135343.03 191.29
-9755171.40 5135341.01 191.93
-9755169.44 5135342.40 192.60
-9755168.34 5135339.21 192.31
-9755168.93 5135345.97 181.66
-9755171.49 5135344.13 193.40
-9755169.37 5135342.49 191.71
-9755170.84 5135341.60 191.95
-9755167.83 5135338.86 192.67
-9755166.89 5135337.05 181.44
-9755172.51 5135343.29 192.94
-9755164.78 5135341.69 189.93
-9755170.42 5135341.23 181.42
-9755166.62 5135346.35 190.84
-9755173.14 5135338.86 192.62
-9755164.62 5135338.30 186.79
-9755168.11 5135347.65 190.84
-9755171.40 5135339.20 192.77
-9755168.23 5135337.78 192.37
-9755167.49 5135347.46 192.55
-9755171.97 5135341.28 192.47
-9755165.68 5135338.77 188.50
-9755171.95 5135342.40 181.43
-9755172.61 5135337.23 190.94
-9755166.42 5135338.18 188.52
-9755165.35 5135340.58 189.18
-9755170.56 5135338.31 192.52
-9755171.25 5135337.09 181.34
-9755165.46 5135346.96 189.38
-9755166.26 5135338.13 187.25
-9755167.60 5135340.77 190.44
-9755167.78 5135342.69 191.30
-9755166.98 5135341.86 191.73
-9755172.52 5135346.37 192.55
-9755168.66 5135347.07 190.77
-9755165.49 5135344.10 185.97
-9755171.34 5135338.06 191.85
-9755168.93 5135347.43 191.53
-9755171.11 5135339.98 188.07
-9755173.44 5135344.72 181.66
-9755169.83 5135347.45 193.42
-9755165.72 5135341.62 191.13
-9755168.95 5135339.04 190.85
-9755165.11 5135339.70 181.50
-9755166.61 5135337.60 187.25
-9755168.93 5135337.31 190.97
-9755171.94 5135336.90 190.18
-9755164.71 5135340.97 187.35
-9755172.25 5135342.49 192.82
-9755165.39 5135347.69 181.66
-9755170.00 5135345.02 193.12
-9755172.09 5135345.35 193.75
-9755168.16 5135339.81 191.39
-9755168.54 5135338.52 181.44
-9755165.65 5135345.64 181.65
-9755169.87 5135346.52 192.17
-9755171.07 5135345.08 193.27
-9755169.41 5135340.91 192.03
-9755171.38 5135341.25 188.05
-9755173.10 5135338.06 189.39
-9755170.27 5135339.22 193.31
-9755166.25 5135337.55 188.64
-9755168.65 5135347.16 181.66
-9755172.83 5135345.55 183.98
-9755168.83 5135347.26 189.68
-9755171.37 5135343.47 192.59
-9755168.70 5135340.19 190.70
-9755173.00 5135343.29 181.44
-9755170.20 5135338.02 192.47
-9755170.22 5135341.83 192.58
-9755168.46 5135343.98 192.89
-9755169.13 5135338.75 192.55
-9755173.86 5135337.99 181.33
-9755172.60 5135337.68 181.37
-9755172.44 5135343.28 181.44
-9755168.15 5135340.03 181.46
-9755166.97 5135339.15 192.46
-9755164.85 5135338.04 186.42
-9755169.96 5135343.36 192.44
-9755168.03 5135346.21 181.68
-9755171.84 5135343.89 192.11
-9755170.80 5135344.17 192.73
-9755167.22 5135342.25 191.28
-9755164.89 5135345.49 190.49
-9755173.00 5135337.88 191.25
-9755170.99 5135339.76 191.41
-9755170.95 5135343.34 192.43
-9755170.51 5135339.18 192.36
-9755172.80 5135345.58 188.50
-9755166.41 5135346.68 190.51
-9755172.55 5135346.63 192.59
-9755170.86 5135337.61 181.39
-9755170.66 5135347.52 192.62
-9755172.15 5135347.12 181.75
-9755169.10 5135344.00 192.11
-9755169.49 5135340.45 181.41
-9755170.09 5135347.20 190.54
-9755168.12 5135340.74 190.09
-9755173.36 5135346.48 181.83
-9755166.07 5135336.82 186.38
-9755170.70 5135343.80 181.51
-9755166.84 5135345.76 189.05
-9755167.01 5135341.79 181.45
-9755171.02 5135339.20 181.42
-9755165.43 5135346.59 189.58
-9755170.51 5135343.69 191.15
-9755173.61 5135343.86 181.51
-9755173.11 5135346.35 192.81
-9755169.24 5135339.83 181.41
-9755165.17 5135339.82 189.63
-9755165.47 5135346.43 189.58
-9755167.41 5135347.39 181.66
-9755170.73 5135336.85 188.74
-9755171.98 5135338.41 191.29
-9755169.23 5135337.41 191.45
-9755169.25 5135344.46 193.82
-9755167.46 5135344.10 181.58
-9755168.13 5135336.83 181.44
-9755165.98 5135341.75 181.48
-9755173.27 5135339.74 181.39
-9755173.04 5135342.07 181.42
-9755168.15 5135337.24 190.99
-9755171.99 5135340.72 189.84
-9755173.47 5135339.97 189.69
-9755166.12 5135343.07 190.00
-9755168.17 5135346.22 191.88
-9755169.26 5135336.91 190.66
-9755165.75 5135337.24 186.79
-9755173.69 5135346.49 191.23
-9755167.90 5135339.23 192.89
-9755172.99 5135344.83 192.22
-9755171.63 5135343.30 192.14
-9755170.71 5135344.83 192.09
-9755168.22 5135340.12 190.79
-9755166.21 5135347.53 190.43
-9755171.48 5135341.56 181.41
-9755172.11 5135338.01 181.38
-9755167.05 5135342.28 189.74
-9755165.68 5135341.77 190.11
-9755166.52 5135338.19 181.48
-9755167.83 5135340.17 190.42
-9755169.05 5135342.29 181.46
-9755169.05 5135343.10 191.03
-9755169.82 5135340.86 190.42
-9755171.93 5135341.49 189.85
-9755171.14 5135347.12 192.90
-9755166.12 5135338.15 188.49
-9755173.70 5135339.38 188.90
-9755168.68 5135339.04 190.92
-9755169.34 5135339.74 193.59
-9755169.02 5135346.27 192.04
-9755170.10 5135337.12 190.35
-9755165.19 5135347.32 188.47
-9755165.54 5135346.35 185.73
-9755174.45 5135338.98 190.08
-9755167.03 5135345.43 189.31
-9755164.68 5135340.57 188.75
-9755169.63 5135338.47 190.63
-9755172.16 5135341.95 181.39
-9755169.06 5135340.39 191.02
-9755172.68 5135346.55 192.09
-9755167.88 5135340.45 190.40
-9755171.17 5135344.17 193.51
-9755169.65 5135339.77 191.13
-9755172.57 5135345.70 193.82
-9755166.33 5135342.93 181.39
-9755169.21 5135343.64 192.52
-9755165.75 5135347.47 190.73
-9755169.72 5135342.53 192.91
-9755164.56 5135340.51 189.76
-9755171.10 5135347.30 192.45
-9755170.28 5135344.71 190.18
-9755164.90 5135341.31 190.47
-9755170.66 5135342.11 181.41
-9755166.07 5135337.98 181.46
-9755170.39 5135346.81 189.62
-9755170.39 5135338.51 191.66
-9755170.23 5135343.30 193.19
-9755166.28 5135346.07 190.60
-9755165.60 5135337.37 186.21
-9755168.97 5135340.84 189.63
-9755166.86 5135340.60 189.29
-9755172.86 5135342.74 194.14
-9755169.99 5135340.73 190.12
-9755173.18 5135344.08 181.56
-9755168.16 5135338.73 191.52
-9755167.16 5135346.96 193.08
-9755168.19 5135338.45 190.65
-9755169.07 5135342.09 191.53
-9755169.64 5135343.35 192.91
-9755165.08 5135341.53 181.50
-9755166.16 5135347.30 190.46
-9755171.03 5135341.79 181.40
-9755173.61 5135336.96 188.95
-9755167.72 5135343.27 181.48
-9755164.38 5135341.02 190.10
-9755167.41 5135347.17 181.67
-9755173.78 5135345.15 193.69
-9755167.04 5135345.89 190.77
-9755167.44 5135339.89 191.28
-9755169.17 5135337.45 190.62
-9755171.22 5135341.52 181.40
-9755165.78 5135341.78 181.48
-9755169.92 5135342.48 181.42
-9755169.03 5135336.99 181.42
-9755169.48 5135339.35 181.43
-9755170.66 5135342.34 192.33
-9755170.72 5135341.28 187.73
-9755172.28 5135341.85 192.31
-9755167.31 5135340.02 193.17
-9755169.85 5135343.79 193.21
-9755165.31 5135338.29 187.29
-9755168.20 5135340.38 190.78
-9755167.03 5135338.16 188.37
-9755168.98 5135345.46 189.88
-9755169.45 5135339.41 193.08
-9755172.38 5135344.01 189.85
-9755171.31 5135346.17 181.76
-9755168.14 5135343.61 190.89
-9755165.23 5135340.41 189.93
-9755171.71 5135339.87 191.27
-9755166.74 5135339.17 192.46
-9755171.86 5135340.93 187.89
-9755165.52 5135340.58 189.70
-9755171.42 5135338.38 181.26
-9755168.18 5135340.69 190.92
-9755172.51 5135340.12 181.41
-9755172.34 5135345.48 188.76
-9755171.45 5135336.67 190.18
-9755171.31 5135342.90 191.85
-9755170.46 5135341.89 181.42
-9755168.64 5135337.81 191.16
-9755169.49 5135341.66 181.48
-9755169.51 5135337.89 181.43
-9755171.77 5135345.76 191.96
-9755169.03 5135343.43 192.25
-9755169.72 5135338.40 191.67
-9755165.48 5135337.17 186.85
-9755165.92 5135343.26 187.93
-9755169.56 5135344.29 192.92
-9755171.55 5135343.70 192.49
-9755166.65 5135347.56 190.93
-9755167.01 5135342.19 192.59
-9755173.82 5135337.77 191.10
-9755168.25 5135344.14 181.58
-9755168.43 5135338.25 190.65
-9755166.99 5135343.16 191.14
-9755172.68 5135340.22 191.59
-9755164.85 5135338.55 181.50
-9755170.36 5135339.55 191.67
-9755173.58 5135342.12 192.78
-9755164.55 5135345.51 189.84
-9755167.85 5135341.60 191.05
-9755172.15 5135345.02 181.73
-9755166.36 5135347.80 190.85
-9755165.12 5135337.32 181.51
-9755162.39 5135347.99 181.63
-9755164.50 5135344.97 181.66
-9755163.95 5135339.96 187.07
-9755164.64 5135338.19 181.53
-9755160.71 5135340.86 181.58
-9755164.06 5135340.49 189.29
-9755164.07 5135341.40 187.05
-9755162.43 5135342.13 185.77
-9755163.88 5135344.09 189.36
-9755161.58 5135347.93 181.64
-9755163.81 5135341.31 186.71
-9755160.99 5135342.39 181.55
-9755163.97 5135342.92 188.74
-9755163.69 5135337.56 181.52
-9755164.31 5135340.57 188.56
-9755163.95 5135344.63 189.69
-9755162.42 5135338.76 181.53
-9755164.07 5135342.59 188.67
-9755164.03 5135340.74 189.12
-9755161.24 5135347.39 181.63
-9755161.93 5135340.83 181.54
-9755164.23 5135337.60 181.50
-9755163.69 5135341.77 187.40
-9755162.19 5135339.38 181.53
-9755163.96 5135342.70 187.23
-9755164.32 5135340.53 189.14
-9755161.85 5135344.14 181.65
-9755162.32 5135342.42 186.33
-9755163.76 5135340.96 187.80
-9755162.68 5135342.89 186.04
-9755161.23 5135339.99 181.55
-9755163.11 5135339.33 181.51
-9755163.32 5135346.49 181.67
-9755164.09 5135338.31 185.79
-9755163.87 5135340.40 186.25
-9755162.77 5135344.10 181.63
-9755160.67 5135339.97 181.56
-9755161.28 5135340.93 181.55
-9755163.95 5135341.35 189.88
-9755163.06 5135340.41 186.63
-9755163.46 5135339.88 187.78
-9755160.93 5135345.63 181.66
-9755160.73 5135339.13 181.57
-9755162.44 5135342.56 181.55
-9755161.91 5135340.01 181.54
-9755161.20 5135346.51 181.63
-9755163.65 5135340.49 187.74
-9755163.66 5135337.29 181.49
-9755164.61 5135339.70 187.06
-9755160.96 5135344.04 181.63
-9755163.15 5135340.86 187.20
-9755163.41 5135342.14 186.41
-9755162.46 5135337.26 181.52
-9755163.05 5135342.93 181.54
-9755158.03 5135347.91 184.80
-9755160.43 5135339.92 181.56
-9755158.91 5135347.92 181.64
-9755158.66 5135343.91 185.26
-9755158.28 5135343.54 181.67
-9755158.58 5135345.12 185.10
-9755158.86 5135343.82 181.66
-9755160.41 5135336.71 181.56
-9755158.92 5135345.59 181.66
-9755157.30 5135346.68 185.19
-9755158.64 5135344.06 181.66
-9755160.38 5135338.22 181.56
-9755157.43 5135344.71 184.90
-9755158.88 5135347.04 181.63
-9755157.08 5135341.54 185.52
-9755158.05 5135345.11 185.69
-9755157.67 5135346.46 187.28
-9755157.48 5135347.46 184.93
-9755157.46 5135340.85 181.69
-9755160.13 5135337.57 181.55
-9755157.37 5135343.15 181.69
-9755157.23 5135346.63 185.60
-9755157.70 5135346.01 185.13
-9755156.97 5135343.79 186.09
-9755157.12 5135346.63 185.00
-9755159.57 5135339.97 181.58
-9755157.13 5135342.43 184.87
-9755157.79 5135342.55 184.50
-9755157.96 5135347.91 181.64
-9755157.49 5135342.45 184.55
-9755157.12 5135341.55 184.53
-9755157.19 5135342.98 185.66
-9755157.50 5135345.48 185.70
-9755160.10 5135344.98 181.64
-9755157.65 5135344.02 184.84
-9755158.26 5135345.85 181.65
-9755157.47 5135343.11 185.17
-9755158.70 5135348.08 184.89
-9755157.20 5135346.34 185.37
-9755158.39 5135343.05 185.31
-9755158.31 5135341.56 185.50
-9755158.34 5135345.08 185.15
-9755157.00 5135342.86 186.69
-9755159.79 5135344.67 181.65
-9755157.72 5135344.06 181.65
-9755158.31 5135347.33 181.64
-9755158.03 5135343.48 181.69
-9755157.48 5135345.89 185.15
-9755159.20 5135344.08 181.66
-9755159.22 5135336.95 181.58
-9755157.72 5135346.58 185.57
-9755158.63 5135343.25 185.29
-9755156.88 5135347.54 188.51
-9755159.83 5135338.52 181.56
-9755158.05 5135346.47 181.64
-9755157.01 5135347.09 185.34
-9755157.19 5135341.72 181.71
-9755156.97 5135344.89 186.26
-9755158.63 5135344.57 185.41
-9755157.10 5135345.59 188.17
-9755157.94 5135347.02 181.64
-9755160.04 5135345.54 181.65
-9755157.14 5135345.07 185.77
-9755157.08 5135347.96 181.68
-9755156.79 5135347.94 181.70
-9755158.30 5135346.46 181.64
-9755157.14 5135346.58 187.40
-9755157.19 5135341.43 181.70
-9755157.19 5135347.04 188.36
-9755157.18 5135339.32 181.68
-9755156.94 5135344.05 185.86
-9755157.16 5135346.51 181.66
-9755157.15 5135340.84 181.70
-9755158.65 5135339.64 181.60
-9755159.49 5135338.42 181.55
-9755157.45 5135342.71 185.57
-9755159.49 5135346.49 181.64
-9755158.17 5135342.93 184.44
-9755159.19 5135342.05 181.63
-9755157.36 5135345.84 181.68
-9755156.97 5135341.49 185.17
-9755157.54 5135342.20 184.76
-9755158.64 5135342.33 181.67
-9755158.84 5135344.65 181.67
-9755157.11 5135345.03 181.68
-9755157.06 5135345.89 185.29
-9755157.51 5135343.82 185.82
-9755158.75 5135343.88 184.89
-9755156.60 5135347.21 184.96
-9755156.85 5135342.94 185.70
-9755156.59 5135352.06 184.93
-9755157.11 5135348.62 181.67
-9755156.83 5135349.79 185.38
-9755155.13 5135351.97 184.82
-9755148.03 5135348.22 186.32
-9755152.54 5135347.78 189.42
-9755155.40 5135351.96 184.43
-9755152.06 5135348.17 186.53
-9755154.83 5135351.62 185.64
-9755155.37 5135352.24 185.13
-9755155.33 5135351.65 185.61
-9755151.20 5135350.01 188.17
-9755151.62 5135349.52 188.69
-9755153.84 5135349.98 187.69
-9755156.63 5135348.27 184.29
-9755153.91 5135348.76 189.31
-9755155.94 5135349.84 185.39
-9755154.48 5135348.23 187.39
-9755152.94 5135351.49 181.67
-9755155.38 5135350.43 186.90
-9755152.35 5135348.42 181.79
-9755155.12 5135351.95 185.64
-9755154.86 5135348.53 187.46
-9755156.02 5135349.07 188.50
-9755155.16 5135351.06 185.09
-9755150.00 5135349.39 185.75
-9755156.47 5135353.53 181.66
-9755155.43 5135351.56 184.76
-9755152.72 5135350.85 187.87
-9755153.27 5135354.48 181.66
-9755154.72 5135354.98 181.67
-9755151.65 5135348.38 188.89
-9755156.30 5135349.04 188.52
-9755155.72 5135349.11 185.21
-9755152.61 5135349.32 185.99
-9755148.83 5135352.27 181.80
-9755152.47 5135348.49 189.43
-9755152.21 5135350.51 186.30
-9755153.84 5135348.88 181.74
-9755151.47 5135355.88 181.67
-9755154.73 5135348.72 189.29
-9755151.81 5135349.93 188.35
-9755151.50 5135355.03 181.68
-9755154.97 5135349.10 185.38
-9755155.06 5135352.13 185.34
-9755152.20 5135351.49 186.34
-9755147.65 5135354.38 181.66
-9755150.95 5135349.66 187.88
-9755155.12 5135351.31 184.76
-9755155.96 5135351.63 185.26
-9755155.41 5135350.95 185.39
-9755153.36 5135348.37 189.28
-9755152.01 5135350.01 185.89
-9755155.35 5135352.28 184.44
-9755151.01 5135349.70 188.71
-9755152.24 5135349.13 188.56
-9755155.92 5135350.53 185.28
-9755153.87 5135350.11 185.94
-9755149.26 5135348.24 186.16
-9755154.29 5135348.68 189.11
-9755156.63 5135348.09 184.93
-9755151.46 5135351.46 181.69
-9755152.24 5135348.38 188.65
-9755150.60 5135347.97 187.40
-9755156.82 5135350.45 185.38
-9755155.89 5135353.00 181.64
-9755151.45 5135352.06 181.68
-9755148.93 5135349.11 186.71
-9755155.91 5135352.27 184.47
-9755153.02 5135350.90 187.88
-9755155.66 5135349.51 185.37
-9755150.44 5135348.77 189.01
-9755151.76 5135353.82 181.65
-9755153.50 5135350.51 181.69
-9755154.69 5135354.37 181.65
-9755154.57 5135348.99 186.37
-9755151.76 5135355.53 181.69
-9755154.93 5135348.60 185.16
-9755152.18 5135347.86 189.27
-9755156.29 5135350.45 185.36
-9755155.43 5135348.75 189.40
-9755155.52 5135352.05 184.75
-9755155.32 5135349.73 184.82
-9755149.58 5135349.18 185.89
-9755151.73 5135348.76 186.46
-9755147.92 5135353.83 181.64
-9755155.42 5135349.99 188.48
-9755155.62 5135349.24 184.69
-9755149.10 5135355.30 181.66
-9755150.03 5135352.02 181.80
-9755155.06 5135352.95 181.62
-9755156.24 5135348.45 181.66
-9755150.71 5135350.61 187.44
-9755148.89 5135348.57 187.10
-9755151.56 5135348.16 188.31
-9755151.26 5135349.88 185.69
-9755152.12 5135348.39 189.49
-9755155.27 5135349.64 188.60
-9755151.81 5135349.57 185.91
-9755152.33 5135354.71 181.68
-9755149.12 5135353.43 181.65
-9755153.32 5135348.16 181.81
-9755151.32 5135348.84 188.35
-9755153.28 5135352.63 181.63
-9755154.56 5135350.56 187.84
-9755151.28 5135350.27 188.18
-9755153.90 5135349.69 188.06
-9755155.32 5135351.40 184.47
-9755150.56 5135355.27 181.68
-9755149.57 5135347.95 186.77
-9755151.34 5135348.63 189.34
-9755152.74 5135348.72 181.80
-9755153.25 5135355.33 181.68
-9755152.14 5135352.35 185.82
-9755148.83 5135355.85 181.68
-9755153.32 5135348.68 189.21
-9755147.62 5135352.01 181.79
-9755154.78 5135351.35 185.39
-9755153.91 5135348.45 189.36
-9755153.83 5135350.51 185.41
-9755156.17 5135349.01 188.79
-9755152.13 5135350.47 186.21
-9755156.59 5135350.80 185.14
-9755155.14 5135349.49 185.18
-9755151.05 5135351.23 185.97
-9755152.04 5135350.87 181.72
-9755152.74 5135350.20 188.93
-9755148.28 5135353.23 181.68
-9755151.88 5135349.76 187.73
-9755155.13 5135350.18 184.90
-9755153.89 5135351.38 185.47
-9755153.09 5135351.53 186.06
-9755153.26 5135352.03 181.65
-9755151.85 5135350.45 186.04
-9755154.80 5135349.76 187.07
-9755150.63 5135348.38 186.21
-9755153.85 5135348.90 186.38
-9755149.22 5135349.44 186.67
-9755154.49 5135349.67 188.95
-9755148.63 5135349.33 185.89
-9755154.85 5135349.50 185.64
-9755149.77 5135348.86 186.42
-9755154.14 5135353.55 181.63
-9755154.93 5135348.16 181.72
-9755153.87 5135351.18 186.81
-9755151.87 5135352.33 185.56
-9755152.94 5135355.29 181.68
-9755155.06 5135350.33 185.38
-9755155.87 5135351.95 185.28
-9755156.51 5135349.24 185.40
-9755152.74 5135351.51 186.42
-9755153.97 5135347.83 189.68
-9755153.40 5135348.41 189.62
-9755150.69 5135349.63 185.96
-9755150.37 5135349.47 185.76
-9755156.25 5135352.22 184.47
-9755155.90 5135352.42 184.78
-9755155.81 5135348.85 188.54
-9755155.34 5135350.49 184.62
-9755155.65 5135352.14 184.72
-9755148.52 5135354.72 181.69
-9755153.34 5135349.12 186.09
-9755155.25 5135347.89 186.66
-9755150.01 5135352.93 181.65
-9755154.88 5135348.26 186.86
-9755151.55 5135348.72 189.16
-9755153.02 5135348.07 188.80
-9755152.77 5135348.07 185.93
-9755156.52 5135341.76 181.71
-9755156.69 5135346.67 188.09
-9755157.13 5135345.27 181.68
-9755156.81 5135346.51 181.66
-9755150.08 5135347.88 188.97
-9755153.32 5135347.95 181.80
-9755150.77 5135344.35 188.19
-9755155.72 5135347.38 181.71
-9755153.08 5135343.06 188.61
-9755155.72 5135344.74 188.08
-9755155.75 5135345.52 188.87
-9755156.34 5135342.81 184.85
-9755151.44 5135344.36 188.59
-9755148.04 5135345.57 185.09
-9755154.82 5135341.07 181.76
-9755156.85 5135339.07 181.69
-9755149.71 5135344.62 186.76
-9755151.83 5135343.06 187.75
-9755150.55 5135347.31 187.67
-9755155.70 5135343.34 187.50
-9755154.52 5135342.63 186.98
-9755149.18 5135344.36 187.00
-9755148.91 5135341.21 186.16
-9755156.98 5135347.30 187.96
-9755148.25 5135342.98 185.50
-9755149.86 5135342.03 186.43
-9755151.26 5135339.32 181.76
-9755150.17 5135341.38 186.40
-9755150.42 5135345.82 189.00
-9755151.01 5135347.20 189.23
-9755152.23 5135340.82 187.46
-9755157.18 5135344.03 181.68
-9755149.62 5135343.14 187.25
-9755151.61 5135347.49 189.30
-9755150.94 5135347.01 189.06
-9755152.39 5135348.03 181.78
-9755148.89 5135343.53 186.14
-9755150.42 5135343.46 189.01
-9755147.67 5135340.45 181.80
-9755149.53 5135343.34 188.18
-9755155.01 5135344.92 188.35
-9755154.78 5135340.19 181.76
-9755148.92 5135342.85 186.32
-9755155.46 5135341.73 187.33
-9755151.50 5135347.06 188.36
-9755150.67 5135344.32 186.75
-9755149.66 5135343.85 185.60
-9755150.48 5135342.69 187.67
-9755154.56 5135343.38 188.55
-9755151.59 5135341.38 181.75
-9755153.05 5135344.34 188.97
-9755149.67 5135342.58 187.22
-9755150.39 5135343.97 188.46
-9755150.15 5135342.20 188.09
-9755149.53 5135347.00 188.49
-9755149.59 5135340.91 185.26
-9755150.68 5135338.15 181.77
-9755149.56 5135346.62 188.48
-9755154.76 5135347.98 181.72
-9755153.01 5135343.14 188.91
-9755155.52 5135342.92 186.72
-9755147.61 5135344.54 185.28
-9755150.07 5135343.45 187.82
-9755147.73 5135346.51 185.26
-9755157.19 5135337.02 181.60
-9755150.71 5135341.70 186.46
-9755156.28 5135344.35 188.10
-9755156.65 5135344.12 184.86
-9755152.78 5135342.21 188.43
-9755152.46 5135338.13 181.75
-9755154.47 5135340.89 187.55
-9755152.98 5135346.46 181.71
-9755149.49 5135341.32 185.26
-9755150.40 5135344.61 189.04
-9755148.35 5135346.16 187.30
-9755149.57 5135343.38 185.27
-9755151.37 5135346.96 188.31
-9755148.88 5135344.94 186.51
-9755150.94 5135343.91 188.05
-9755150.13 5135344.64 187.73
-9755147.93 5135347.14 185.73
-9755154.28 5135345.70 185.42
-9755155.90 5135345.60 181.70
-9755149.20 5135342.06 186.37
-9755156.64 5135344.18 186.78
-9755152.16 5135347.39 186.49
-9755155.05 5135343.98 181.75
-9755147.70 5135339.32 181.81
-9755151.31 5135345.54 189.04
-9755149.32 5135346.47 187.05
-9755153.09 5135339.90 181.76
-9755152.19 5135347.82 186.43
-9755156.38 5135345.65 186.49
-9755155.42 5135341.71 187.62
-9755156.36 5135342.66 186.87
-9755152.41 5135341.67 181.77
-9755153.42 5135342.31 187.47
-9755151.23 5135342.25 187.75
-9755156.59 5135343.45 181.70
-9755153.31 5135347.55 189.61
-9755150.96 5135342.03 186.48
-9755151.52 5135339.62 181.76
-9755153.00 5135343.22 181.73
-9755151.27 5135346.45 181.70
-9755148.61 5135342.29 186.35
-9755153.66 5135346.67 189.48
-9755150.54 5135342.62 187.14
-9755147.74 5135341.86 185.04
-9755150.07 5135341.41 184.95
-9755148.60 5135339.26 181.81
-9755154.13 5135343.22 181.76
-9755147.98 5135341.53 185.46
-9755147.75 5135346.69 185.96
-9755153.45 5135340.80 187.80
-9755149.88 5135344.37 187.49
-9755148.97 5135340.84 185.49
-9755151.31 5135343.28 187.69
-9755155.77 5135341.87 186.06
-9755152.79 5135342.25 188.89
-9755148.59 5135342.47 181.81
-9755149.21 5135347.60 187.90
-9755151.36 5135342.33 188.14
-9755149.24 5135347.05 186.71
-9755151.26 5135342.46 188.16
-9755155.17 5135341.27 186.78
-9755151.66 5135341.91 188.43
-9755155.26 5135343.20 188.06
-9755153.12 5135342.25 188.00
-9755150.39 5135342.27 188.24
-9755148.30 5135346.94 181.71
-9755154.19 5135345.03 185.64
-9755153.75 5135346.40 189.79
-9755149.25 5135343.48 187.61
-9755148.84 5135343.99 188.14
-9755148.97 5135342.40 185.63
-9755148.16 5135345.78 186.28
-9755153.33 5135344.96 185.66
-9755147.73 5135339.00 181.82
-9755150.78 5135344.22 189.25
-9755153.12 5135341.63 188.36
-9755147.53 5135344.06 184.47
-9755152.78 5135346.38 188.78
-9755152.12 5135340.81 181.76
-9755147.75 5135337.51 181.81
-9755155.39 5135341.25 186.07
-9755149.81 5135339.30 181.77
-9755151.65 5135342.29 188.05
-9755149.30 5135346.61 187.38
-9755155.41 5135345.02 187.72
-9755153.26 5135344.74 181.71
-9755151.57 5135338.10 181.76
-9755153.00 5135347.86 181.76
-9755148.60 5135347.03 187.38
-9755156.59 5135343.76 186.71
-9755150.80 5135344.73 187.78
-9755155.94 5135340.78 181.74
-9755148.90 5135346.93 181.70
-9755151.51 5135344.72 181.67
-9755153.89 5135339.95 181.77
-9755153.86 5135341.55 187.19
-9755148.36 5135345.87 187.26
-9755149.81 5135346.03 187.90
-9755154.90 5135341.40 186.15
-9755153.15 5135347.66 188.91
-9755153.99 5135342.37 181.78
-9755148.77 5135343.18 185.28
-9755153.66 5135340.76 187.74
-9755153.97 5135347.06 186.43
-9755153.94 5135342.61 187.40
-9755155.46 5135341.44 187.32
-9755153.28 5135341.41 181.76
-9755152.74 5135340.56 187.39
-9755150.46 5135342.06 187.23
-9755151.22 5135342.28 186.94
-9755155.67 5135343.51 181.72
-9755154.73 5135344.11 181.73
-9755148.38 5135346.61 187.46
-9755150.35 5135342.42 186.53
-9755148.46 5135344.95 186.54
-9755154.88 5135341.79 185.70
-9755152.36 5135341.04 186.35
-9755150.96 5135341.53 186.21
-9755149.81 5135347.54 188.58
-9755149.83 5135342.21 187.18
-9755149.79 5135346.37 181.69
-9755153.01 5135340.52 181.77
-9755148.29 5135342.83 185.16
-9755150.45 5135341.67 185.87
-9755150.76 5135341.71 187.23
-9755156.23 5135342.56 181.71
-9755150.11 5135344.89 186.96
-9755150.98 5135347.02 181.67
-9755152.16 5135339.06 181.76
-9755153.22 5135346.68 188.41
-9755151.00 5135347.53 188.37
-9755150.37 5135340.68 185.00
-9755156.30 5135343.79 187.21
-9755154.36 5135345.01 185.10
-9755150.05 5135342.52 187.35
-9755152.46 5135342.06 186.46
-9755151.63 5135342.51 188.33
-9755155.26 5135345.24 189.16
-9755150.70 5135341.15 184.93
-9755154.83 5135344.94 187.78
-9755147.54 5135345.93 186.41
-9755147.49 5135345.05 186.32
-9755149.58 5135340.90 185.62
-9755148.97 5135341.17 184.80
-9755148.25 5135346.20 185.52
-9755149.90 5135340.70 185.28
-9755148.83 5135346.16 186.53
-9755150.12 5135345.53 187.99
-9755156.11 5135343.73 186.90
-9755150.96 5135340.14 181.73
-9755153.89 5135337.25 181.75
-9755151.56 5135343.40 181.76
-9755153.86 5135342.87 187.11
-9755156.30 5135344.65 188.21
-9755147.73 5135340.88 185.43
-9755149.22 5135342.04 186.24
-9755153.16 5135344.87 181.70
-9755150.09 5135341.20 185.69
-9755154.63 5135341.40 186.83
-9755151.66 5135346.42 185.64
-9755151.86 5135337.52 181.75
-9755151.81 5135345.04 187.33
-9755150.98 5135344.03 181.67
-9755154.52 5135339.03 181.74
-9755151.23 5135342.07 186.62
-9755156.32 5135345.80 188.83
-9755151.03 5135342.40 187.70
-9755153.33 5135342.82 188.58
-9755148.94 5135346.99 187.22
-9755153.68 5135343.18 181.76
-9755150.69 5135346.91 181.66
-9755150.71 5135340.59 185.82
-9755150.03 5135345.48 187.65
-9755151.58 5135344.95 187.66
-9755154.79 5135346.18 181.71
-9755151.03 5135342.93 187.64
-9755150.10 5135344.07 181.71
-9755151.51 5135346.26 185.82
-9755151.24 5135347.26 189.26
-9755154.13 5135346.44 181.68
-9755154.09 5135347.24 187.94
-9755148.29 5135346.79 185.84
-9755155.34 5135347.32 186.80
-9755152.74 5135345.65 181.68
-9755148.06 5135340.83 185.39
-9755150.06 5135346.41 181.69
-9755150.92 5135347.33 181.68
-9755156.28 5135341.47 181.73
-9755149.23 5135344.58 188.52
-9755152.51 5135341.16 187.34
-9755156.88 5135341.45 185.58
-9755148.31 5135344.98 186.07
-9755147.56 5135343.38 184.74
-9755156.30 5135347.24 188.97
-9755150.88 5135342.40 187.95
-9755154.77 5135342.89 181.76
-9755154.33 5135344.58 189.21
-9755150.35 5135342.19 186.38
-9755148.06 5135344.43 185.33
-9755156.69 5135343.60 185.91
-9755148.83 5135347.12 186.54
-9755156.28 5135341.92 185.57
-9755156.30 5135343.51 187.18
-9755155.40 5135346.37 189.19
-9755147.47 5135345.34 184.90
-9755156.24 5135339.93 181.72
-9755147.42 5135339.58 181.81
-9755149.51 5135344.70 187.93
-9755155.45 5135343.07 187.13
-9755152.13 5135345.57 185.97
-9755151.88 5135345.46 189.08
-9755154.76 5135341.73 186.81
-9755153.89 5135346.76 188.75
-9755148.31 5135345.30 184.67
-9755151.63 5135343.18 188.49
-9755151.26 5135346.38 188.69
-9755148.29 5135341.42 185.37
-9755150.83 5135345.80 181.67
-9755155.04 5135346.97 189.04
-9755154.51 5135341.63 181.78
-9755149.33 5135342.38 186.28
-9755152.43 5135337.24 181.75
-9755151.22 5135340.78 181.74
-9755154.77 5135345.22 181.71
-9755152.43 5135344.61 188.04
-9755156.49 5135344.23 185.48
-9755155.04 5135344.17 188.26
-9755150.13 5135341.75 186.38
-9755155.39 5135342.92 187.71
-9755156.19 5135347.35 181.72
-9755151.34 5135346.54 187.74
-9755151.00 5135346.64 189.00
-9755152.85 5135340.71 188.04
-9755150.32 5135342.20 186.88
-9755154.25 5135343.93 188.62
-9755154.93 5135342.00 187.35
-9755153.37 5135341.64 181.75
-9755151.65 5135346.76 181.68
-9755154.28 5135341.69 186.70
-9755150.08 5135337.49 181.76
-9755153.38 5135346.37 181.71
-9755150.67 5135347.10 188.00
-9755152.45 5135340.82 181.76
-9755148.94 5135347.34 187.46
-9755153.89 5135346.37 181.68
-9755149.15 5135347.00 188.21
-9755155.69 5135338.18 181.72
-9755152.87 5135342.56 188.29
-9755148.46 5135345.63 186.56
-9755148.15 5135346.16 185.97
-9755152.42 5135340.17 181.76
-9755151.37 5135344.74 187.72
-9755148.36 5135343.40 181.78
-9755155.69 5135346.71 181.68
-9755151.51 5135341.72 181.76
-9755149.35 5135340.58 184.95
-9755148.01 5135343.72 184.90
-9755149.09 5135345.74 181.70
-9755151.51 5135344.94 181.67
-9755152.11 5135344.72 188.10
-9755150.71 5135346.89 187.14
-9755156.55 5135343.80 186.50
-9755147.97 5135341.19 184.80
-9755147.77 5135345.19 186.04
-9755148.26 5135343.31 184.73
-9755151.04 5135344.85 187.75
-9755151.79 5135346.39 181.69
-9755152.42 5135347.51 186.40
-9755153.64 5135344.04 186.49
-9755153.05 5135340.78 187.91
-9755149.50 5135341.03 184.98
-9755155.98 5135344.16 188.10
-9755151.24 5135347.50 188.88
-9755150.94 5135339.02 181.78
-9755150.84 5135344.98 181.70
-9755150.61 5135342.88 187.69
-9755149.89 5135340.94 185.26
-9755154.16 5135346.21 186.79
-9755150.77 5135342.41 186.39
-9755152.19 5135343.00 187.55
-9755156.36 5135346.17 187.02
-9755150.12 5135347.27 187.16
-9755155.64 5135341.74 181.75
-9755151.25 5135338.09 181.76
-9755148.88 5135340.81 181.83
-9755152.51 5135340.79 187.35
-9755152.99 5135346.68 181.73
-9755154.82 5135340.60 186.37
-9755150.60 5135341.25 184.99
-9755156.23 5135342.16 185.64
-9755149.81 5135340.45 181.79
-9755154.05 5135343.45 188.26
-9755152.51 5135342.58 181.74
-9755153.89 5135337.84 181.74
-9755154.47 5135344.30 188.58
-9755151.54 5135346.06 188.27
-9755149.29 5135344.69 186.89
-9755150.29 5135343.65 186.60
-9755154.12 5135342.36 186.77
-9755153.88 5135336.96 181.75
-9755151.37 5135346.64 188.68
-9755151.00 5135343.25 187.45
-9755153.20 5135341.97 188.36
-9755151.49 5135345.32 181.68
-9755156.26 5135346.35 181.69
-9755156.68 5135347.69 188.68
-9755147.28 5135359.37 182.47
-9755146.75 5135359.42 182.40
-9755146.77 5135357.65 181.75
-9755147.32 5135357.04 181.72
-9755147.10 5135358.48 181.79
-9755146.78 5135356.78 181.69
-9755142.76 5135359.96 182.29
-9755143.15 5135359.89 181.83
-9755145.91 5135358.23 181.76
-9755144.92 5135357.63 181.75
-9755142.88 5135358.21 181.76
-9755143.77 5135359.40 182.66
-9755143.45 5135358.21 181.75
-9755141.46 5135359.34 182.45
-9755144.38 5135358.20 182.69
-9755141.04 5135359.62 183.33
-9755140.04 5135359.56 183.30
-9755142.28 5135359.93 181.85
-9755144.94 5135358.73 181.78
-9755145.49 5135359.48 182.49
-9755141.38 5135359.70 181.84
-9755142.02 5135359.91 181.85
-9755141.00 5135359.04 183.31
-9755141.44 5135359.74 183.66
-9755144.12 5135359.20 182.50
-9755144.68 5135359.73 193.66
-9755146.99 5135359.75 198.21
-9755145.53 5135358.78 182.48
-9755145.89 5135359.03 182.37
-9755143.21 5135359.33 182.42
-9755143.18 5135358.53 182.38
-9755145.13 5135358.12 182.30
-9755138.46 5135360.85 181.77
-9755140.86 5135358.67 182.84
-9755144.11 5135356.76 181.68
-9755141.38 5135359.88 182.78
-9755140.85 5135360.30 183.29
-9755143.82 5135359.86 181.84
-9755139.02 5135359.98 181.76
-9755141.24 5135360.03 196.61
-9755142.57 5135359.35 182.48
-9755145.21 5135359.16 181.83
-9755145.23 5135359.04 182.69
-9755146.44 5135359.87 181.85
-9755146.81 5135359.72 193.51
-9755145.13 5135359.31 182.80
-9755141.11 5135360.72 183.40
-9755144.41 5135359.03 183.00
-9755140.82 5135359.91 181.87
-9755142.86 5135359.79 181.83
-9755139.96 5135358.85 183.03
-9755141.44 5135358.50 181.74
-9755143.54 5135359.97 181.84
-9755144.32 5135359.39 182.88
-9755140.54 5135358.78 181.73
-9755142.33 5135358.22 181.76
-9755145.54 5135357.62 181.74
-9755143.29 5135359.89 182.50
-9755141.72 5135356.73 181.67
-9755144.94 5135359.00 182.98
-9755145.51 5135359.13 181.81
-9755142.33 5135355.83 181.68
-9755146.45 5135358.77 182.36
-9755145.29 5135358.49 182.53
-9755141.13 5135359.77 194.15
-9755145.07 5135358.50 182.72
-9755144.43 5135358.82 183.00
-9755143.54 5135358.53 182.33
-9755144.79 5135358.12 182.39
-9755141.27 5135358.30 182.58
-9755144.25 5135359.67 188.40
-9755143.51 5135358.50 181.75
-9755139.00 5135358.17 181.68
-9755143.49 5135359.52 182.37
-9755144.78 5135359.41 181.83
-9755139.39 5135356.99 181.69
-9755139.62 5135357.94 181.69
-9755143.50 5135358.87 181.81
-9755141.44 5135359.89 192.09
-9755142.28 5135356.15 181.68
-9755143.10 5135358.79 181.80
-9755146.11 5135359.11 181.81
-9755141.11 5135359.35 181.82
-9755138.24 5135356.70 181.69
-9755144.39 5135357.02 181.69
-9755141.11 5135359.79 182.25
-9755145.85 5135355.91 181.67
-9755145.55 5135359.74 182.63
-9755139.95 5135357.57 181.68
-9755138.48 5135359.58 181.72
-9755141.43 5135358.68 182.40
-9755142.01 5135359.73 192.27
-9755144.60 5135359.60 182.51
-9755144.07 5135356.17 181.66
-9755141.96 5135359.82 182.44
-9755144.36 5135357.57 181.73
-9755139.02 5135358.77 181.71
-9755145.30 5135358.23 181.74
-9755144.55 5135359.69 190.92
-9755145.29 5135359.37 181.83
-9755145.54 5135356.73 181.69
-9755143.72 5135359.06 182.40
-9755140.83 5135358.49 181.74
-9755141.44 5135361.28 184.49
-9755138.15 5135362.83 181.77
-9755138.19 5135361.41 181.77
-9755136.12 5135358.91 184.30
-9755135.57 5135359.15 185.24
-9755135.60 5135357.77 185.72
-9755136.16 5135357.84 184.35
-9755136.42 5135358.03 184.26
-9755136.15 5135357.28 181.69
-9755135.87 5135359.86 185.47
-9755135.71 5135358.28 185.06
-9755135.31 5135358.65 185.22
-9755136.36 5135359.66 181.67
-9755135.51 5135358.91 184.33
-9755135.23 5135356.89 185.11
-9755136.65 5135360.13 185.28
-9755136.40 5135358.39 184.73
-9755136.70 5135356.71 181.69
-9755135.79 5135359.97 181.66
-9755135.51 5135358.21 181.69
-9755136.17 5135358.21 184.36
-9755135.29 5135358.12 187.29
-9755136.10 5135358.73 181.69
-9755135.61 5135359.71 185.58
-9755135.40 5135359.41 185.73
-9755136.97 5135357.93 181.68
-9755137.00 5135359.64 181.68
-9755135.57 5135358.29 184.31
-9755135.53 5135360.65 185.47
-9755135.63 5135357.75 184.27
-9755136.72 5135360.79 181.70
-9755135.54 5135360.30 186.04
-9755137.31 5135358.77 181.67
-9755135.66 5135358.64 184.26
-9755135.87 5135356.71 181.68
-9755136.13 5135359.58 184.29
-9755135.85 5135357.42 184.54
-9755136.08 5135359.94 181.67
-9755135.85 5135357.13 184.54
-9755136.44 5135359.26 185.14
-9755135.32 5135360.04 186.03
-9755137.29 5135360.26 181.70
-9755136.06 5135359.47 185.33
-9755135.78 5135357.87 181.70
-9755135.06 5135359.42 185.19
-9755137.31 5135356.67 181.70
-9755135.84 5135359.06 181.69
-9755135.24 5135356.44 185.18
-9755136.19 5135359.83 186.30
-9755136.42 5135361.15 181.69
-9755136.97 5135361.21 181.71
-9755135.00 5135356.42 186.11
-9755134.67 5135359.74 186.86
-9755134.66 5135360.58 186.06
-9755134.39 5135360.23 186.62
-9755134.76 5135356.32 185.30
-9755134.94 5135359.22 185.75
-9755134.38 5135360.01 186.55
-9755135.03 5135359.90 181.70
-9755134.64 5135356.28 185.71
-9755134.25 5135360.58 186.66
-9755134.29 5135358.68 185.16
-9755135.22 5135357.99 185.70
-9755135.44 5135358.73 184.21
