-9755340.69 5135627.12 186.24
-9755343.63 5135624.78 185.84
-9755335.61 5135621.79 185.24
-9755336.24 5135621.55 185.20
-9755339.20 5135623.20 186.06
-9755341.25 5135623.85 185.59
-9755341.55 5135620.66 184.94
-9755337.15 5135620.04 184.92
-9755337.49 5135620.92 185.09
-9755336.21 5135620.06 184.95
-9755337.38 5135627.98 186.43
-9755341.50 5135624.15 185.76
-9755335.35 5135620.92 185.07
-9755344.62 5135623.22 185.89
-9755337.98 5135623.28 185.56
-9755342.44 5135619.46 184.82
-9755335.92 5135626.52 186.21
-9755343.92 5135619.76 184.91
-9755337.49 5135624.07 186.22
-9755339.48 5135622.37 185.35
-9755339.31 5135623.29 185.31
-9755336.21 5135627.06 186.32
-9755338.98 5135618.82 185.08
-9755334.42 5135623.60 185.56
-9755336.50 5135626.54 186.21
-9755339.21 5135620.37 184.93
-9755342.73 5135625.06 185.94
-9755336.23 5135619.47 184.82
-9755337.07 5135626.76 186.23
-9755335.33 5135620.08 184.92
-9755339.29 5135624.92 186.39
-9755337.92 5135621.73 185.14
-9755342.37 5135624.21 186.15
-9755342.73 5135623.32 185.57
-9755340.07 5135621.25 185.13
-9755340.07 5135625.28 186.49
-9755344.80 5135625.06 186.32
-9755339.46 5135623.24 185.56
-9755335.29 5135627.97 186.47
-9755342.72 5135625.38 186.00
-9755341.55 5135622.18 185.35
-9755339.18 5135619.58 185.37
-9755338.53 5135627.04 186.23
-9755334.73 5135625.57 186.01
-9755339.44 5135624.75 185.80
-9755335.00 5135627.91 186.45
-9755334.36 5135626.74 186.21
-9755341.21 5135625.39 186.02
-9755337.64 5135627.59 186.81
-9755337.12 5135621.21 185.13
-9755336.20 5135622.09 185.30
-9755340.37 5135621.27 185.12
-9755341.81 5135620.63 184.94
-9755338.57 5135623.87 185.57
-9755335.62 5135621.53 185.19
-9755344.79 5135627.44 186.40
-9755337.07 5135623.31 185.57
-9755340.58 5135620.67 184.96
-9755337.89 5135624.09 186.28
-9755340.62 5135624.78 185.80
-9755339.51 5135627.09 186.23
-9755340.36 5135624.76 185.80
-9755344.48 5135620.38 184.94
-9755339.44 5135625.08 185.86
-9755342.40 5135623.06 185.53
-9755340.35 5135625.32 186.02
-9755336.82 5135622.70 185.42
-9755336.51 5135623.00 185.50
-9755335.89 5135626.83 186.26
-9755343.32 5135624.23 185.73
-9755340.23 5135619.67 184.76
-9755338.32 5135619.47 184.74
-9755342.41 5135620.05 184.94
-9755337.72 5135624.18 186.25
-9755343.61 5135620.38 184.99
-9755343.90 5135620.06 184.94
-9755340.94 5135625.06 186.41
-9755334.40 5135619.52 185.33
-9755340.06 5135627.34 186.86
-9755334.66 5135619.96 185.53
-9755342.66 5135628.08 186.52
-9755339.19 5135620.05 184.93
-9755341.49 5135626.55 186.23
-9755337.39 5135624.72 185.79
-9755327.95 5135618.50 184.71
-9755332.05 5135626.94 186.61
-9755323.47 5135623.08 185.94
-9755324.39 5135627.86 186.48
-9755323.59 5135625.78 186.57
-9755329.40 5135624.96 185.99
-9755324.35 5135626.06 186.61
-9755325.92 5135623.17 185.57
-9755325.04 5135626.40 186.23
-9755322.32 5135618.95 185.34
-9755329.40 5135621.75 185.35
-9755326.36 5135624.89 186.22
-9755331.78 5135619.72 184.89
-9755322.99 5135627.85 186.45
-9755333.60 5135622.09 185.32
-9755325.33 5135625.85 186.46
-9755326.71 5135624.67 185.88
-9755325.62 5135623.22 185.59
-9755329.72 5135625.34 186.02
-9755331.11 5135627.29 186.91
-9755328.87 5135625.10 186.48
-9755324.14 5135619.10 184.74
-9755328.40 5135618.95 184.56
-9755328.85 5135619.67 185.30
-9755324.10 5135626.76 186.23
-9755327.08 5135625.25 186.01
-9755328.88 5135620.32 184.97
-9755333.85 5135623.85 185.59
-9755323.77 5135627.62 186.45
-9755333.26 5135623.05 185.54
-9755325.17 5135627.62 186.90
-9755331.25 5135624.71 186.41
-9755325.39 5135622.94 186.00
-9755326.70 5135624.75 186.43
-9755329.72 5135620.90 185.15
-9755328.52 5135623.53 185.63
-9755321.81 5135620.86 185.14
-9755330.11 5135625.96 186.59
-9755324.60 5135625.86 186.65
-9755329.47 5135622.32 185.36
-9755325.92 5135618.78 184.74
-9755329.14 5135625.57 186.01
-9755333.55 5135620.61 184.96
-9755333.01 5135622.64 185.35
-9755328.29 5135623.21 185.60
-9755332.95 5135619.77 184.91
-9755325.98 5135626.30 186.61
-9755322.65 5135620.50 185.11
-9755333.32 5135620.85 185.59
-9755331.57 5135621.84 185.32
-9755325.55 5135625.84 186.07
-9755329.10 5135619.37 184.85
-9755330.93 5135623.78 186.36
-9755331.81 5135625.87 186.03
-9755332.95 5135626.44 186.22
-9755321.43 5135627.01 186.41
-9755325.35 5135618.78 184.73
-9755332.96 5135619.97 184.92
-9755326.83 5135623.78 185.74
-9755322.99 5135622.01 185.37
-9755323.84 5135620.53 185.12
-9755331.99 5135627.01 186.65
-9755333.26 5135623.18 186.06
-9755328.56 5135627.66 186.46
-9755323.46 5135627.64 186.45
-9755325.26 5135627.60 186.45
-9755326.65 5135619.08 185.04
-9755332.99 5135625.89 186.01
-9755332.96 5135624.94 185.82
-9755333.32 5135625.94 186.44
-9755325.89 5135619.95 184.95
-9755333.84 5135626.77 186.22
-9755332.98 5135627.95 186.45
-9755324.61 5135626.66 186.81
-9755329.99 5135623.11 186.12
-9755329.17 5135621.44 185.16
-9755333.21 5135625.93 186.01
-9755322.64 5135626.71 186.25
-9755334.12 5135622.70 185.33
-9755327.94 5135622.09 185.39
-9755332.99 5135620.59 184.95
-9755330.01 5135619.72 185.37
-9755322.36 5135622.48 185.43
-9755330.05 5135619.72 184.91
-9755327.12 5135627.92 186.56
-9755327.64 5135624.36 185.86
-9755326.76 5135625.86 186.14
-9755323.22 5135619.37 184.90
-9755328.83 5135627.31 186.44
-9755327.09 5135618.81 184.75
-9755323.23 5135625.51 186.01
-9755329.14 5135619.73 184.94
-9755332.67 5135626.77 186.22
-9755322.98 5135620.89 185.12
-9755327.12 5135627.62 186.48
-9755326.82 5135621.19 185.15
-9755331.22 5135624.10 186.17
-9755323.48 5135621.69 185.36
-9755327.97 5135627.95 186.55
-9755325.83 5135626.42 186.24
-9755321.74 5135624.06 185.79
-9755324.41 5135621.32 185.70
-9755332.15 5135624.72 185.80
-9755331.56 5135624.97 186.29
-9755326.32 5135621.38 185.57
-9755330.62 5135625.22 186.51
-9755333.00 5135625.60 186.01
-9755326.26 5135619.13 185.23
-9755328.49 5135619.05 185.11
-9755324.74 5135622.32 185.36
-9755327.39 5135620.59 185.08
-9755332.05 5135622.66 185.36
-9755325.97 5135626.96 186.79
-9755327.65 5135624.68 185.92
-9755341.93 5135605.36 182.28
-9755336.28 5135605.37 182.32
-9755334.53 5135605.06 182.20
-9755323.00 5135605.19 182.70
-9755332.78 5135605.37 182.29
-9755331.86 5135605.12 182.76
-9755329.22 5135604.98 182.26
-9755322.72 5135605.03 182.81
-9755330.44 5135605.12 182.83
-9755330.39 5135605.01 182.22
-9755330.17 5135604.97 182.23
-9755344.82 5135606.02 182.43
-9755335.32 5135617.66 184.49
-9755342.75 5135612.41 183.56
-9755337.45 5135605.41 182.25
-9755336.27 5135611.80 183.44
-9755338.73 5135609.02 183.40
-9755342.14 5135618.02 184.54
-9755336.58 5135609.23 182.99
-9755339.31 5135606.84 182.62
-9755338.87 5135610.09 183.64
-9755340.98 5135612.05 183.42
-9755334.78 5135606.78 183.13
-9755335.39 5135609.19 182.96
-9755336.26 5135613.57 183.74
-9755341.81 5135609.52 182.99
-9755337.45 5135617.13 184.33
-9755339.16 5135615.36 184.13
-9755335.41 5135606.80 182.59
-9755342.48 5135611.90 183.46
-9755344.35 5135616.33 184.68
-9755337.44 5135613.58 183.73
-9755339.77 5135608.63 183.35
-9755344.85 5135607.37 183.22
-9755340.18 5135610.97 183.78
-9755338.54 5135612.71 183.55
-9755339.46 5135606.56 183.08
-9755344.98 5135605.78 183.01
-9755342.44 5135617.72 184.53
-9755338.59 5135613.92 183.76
-9755341.22 5135613.94 183.76
-9755340.39 5135609.49 182.98
-9755341.29 5135608.30 182.81
-9755340.95 5135609.98 183.48
-9755340.41 5135616.81 184.34
-9755339.49 5135610.67 183.19
-9755336.84 5135613.30 183.70
-9755340.67 5135607.37 183.22
-9755338.29 5135613.60 183.74
-9755337.23 5135615.89 184.78
-9755340.39 5135613.30 183.74
-9755342.78 5135611.59 183.41
-9755342.45 5135615.70 184.16
-9755344.00 5135613.01 184.17
-9755337.66 5135613.50 184.12
-9755342.08 5135616.50 184.78
-9755340.42 5135609.21 182.98
-9755336.84 5135614.78 183.96
-9755343.00 5135617.42 184.48
-9755335.36 5135609.45 182.98
-9755335.04 5135614.72 183.93
-9755341.85 5135615.10 183.97
-9755340.79 5135611.59 183.96
-9755344.38 5135606.47 183.01
-9755340.12 5135608.94 182.95
-9755338.33 5135607.09 182.62
-9755341.57 5135615.93 184.15
-9755342.78 5135606.90 182.61
-9755343.66 5135607.47 182.69
-9755340.72 5135605.65 182.43
-9755344.77 5135609.87 183.11
-9755341.68 5135608.53 183.31
-9755339.21 5135606.26 182.84
-9755341.50 5135615.74 184.75
-9755340.39 5135610.82 183.74
-9755334.50 5135616.23 184.13
-9755337.74 5135609.49 182.98
-9755344.81 5135607.47 182.62
-9755334.61 5135607.89 183.30
-9755338.92 5135610.91 183.72
-9755336.00 5135611.26 183.35
-9755336.50 5135610.90 183.27
-9755336.54 5135605.91 182.43
-9755340.08 5135615.37 184.55
-9755342.43 5135612.43 183.57
-9755338.24 5135617.04 184.95
-9755344.82 5135614.79 183.95
-9755339.20 5135606.57 182.46
-9755342.49 5135608.34 182.84
-9755343.60 5135614.23 183.87
-9755338.68 5135608.21 183.35
-9755340.34 5135616.58 184.33
-9755339.44 5135615.86 184.73
-9755339.21 5135609.01 183.36
-9755335.31 5135617.71 184.93
-9755338.35 5135609.47 182.98
-9755338.93 5135617.74 184.54
-9755338.94 5135607.44 182.63
-9755338.33 5135611.54 183.37
-9755336.84 5135610.66 183.22
-9755335.06 5135616.25 184.16
-9755337.43 5135615.71 184.64
-9755335.07 5135615.63 184.11
-9755334.43 5135609.50 182.98
-9755337.12 5135614.74 183.93
-9755336.24 5135610.37 183.19
-9755335.12 5135617.60 184.94
-9755339.54 5135609.50 182.99
-9755335.11 5135609.83 183.61
-9755338.28 5135614.73 183.93
-9755334.49 5135617.13 184.32
-9755342.80 5135605.96 182.44
-9755336.26 5135617.41 184.43
-9755340.66 5135614.79 183.94
-9755339.81 5135609.96 183.61
-9755341.62 5135607.46 182.63
-9755338.89 5135616.77 184.75
-9755343.60 5135615.95 184.19
-9755339.78 5135617.60 184.90
-9755338.64 5135611.52 183.37
-9755336.30 5135607.71 182.73
-9755339.54 5135613.12 183.65
-9755344.28 5135605.69 182.41
-9755335.13 5135605.91 182.42
-9755339.55 5135612.40 183.57
-9755341.89 5135605.67 182.43
-9755334.82 5135616.52 184.28
-9755335.94 5135614.48 183.91
-9755340.40 5135611.24 183.99
-9755341.26 5135606.59 182.47
-9755326.31 5135615.66 184.72
-9755322.80 5135608.14 183.18
-9755334.36 5135606.22 183.02
-9755334.18 5135611.53 183.35
-9755325.69 5135612.38 183.55
-9755327.74 5135613.55 183.79
-9755323.54 5135607.96 182.80
-9755331.91 5135612.39 184.15
-9755332.19 5135606.57 182.61
-9755328.61 5135612.05 183.53
-9755333.30 5135610.61 183.18
-9755327.13 5135605.59 182.44
-9755323.22 5135613.63 184.32
-9755330.95 5135608.24 183.37
-9755333.53 5135614.65 184.53
-9755327.02 5135617.10 184.91
-9755334.03 5135614.50 184.44
-9755330.37 5135615.33 184.11
-9755333.90 5135607.65 183.28
-9755329.46 5135616.39 184.88
-9755332.47 5135609.47 182.97
-9755332.72 5135607.95 182.78
-9755328.90 5135611.78 183.46
-9755323.65 5135614.06 184.54
-9755324.78 5135608.57 182.98
-9755329.18 5135612.99 183.61
-9755326.86 5135607.08 182.64
-9755327.13 5135610.59 183.22
-9755333.30 5135611.50 183.35
-9755327.17 5135608.30 182.84
-9755322.69 5135611.48 183.39
-9755331.84 5135614.72 183.91
-9755330.24 5135607.62 183.07
-9755322.73 5135615.27 184.54
-9755321.53 5135613.25 183.76
-9755334.19 5135615.11 183.95
-9755324.74 5135607.06 182.64
-9755327.67 5135617.07 184.46
-9755325.07 5135608.52 182.98
-9755322.37 5135616.74 184.34
-9755321.57 5135605.22 182.39
-9755329.19 5135615.59 184.14
-9755330.37 5135611.79 183.90
-9755324.80 5135609.95 183.16
-9755329.39 5135607.30 183.13
-9755323.12 5135617.48 184.75
-9755331.59 5135607.12 182.60
-9755330.40 5135607.64 182.79
-9755323.86 5135614.09 183.92
-9755329.08 5135608.50 183.32
-9755334.21 5135617.39 184.42
-9755331.95 5135614.67 184.48
-9755325.40 5135607.67 182.80
-9755324.27 5135607.28 183.25
-9755323.62 5135606.14 182.50
-9755326.90 5135615.95 184.68
-9755327.74 5135612.35 183.58
-9755325.72 5135608.55 182.96
-9755325.10 5135607.63 182.80
-9755331.27 5135614.05 183.75
-9755333.93 5135606.56 182.46
-9755327.13 5135610.93 183.35
-9755331.81 5135611.29 183.86
-9755327.95 5135617.65 184.54
-9755328.29 5135612.34 183.57
-9755331.22 5135606.51 182.99
-9755330.07 5135610.64 183.17
-9755322.70 5135611.99 183.54
-9755333.25 5135614.76 183.90
-9755329.50 5135614.44 183.91
-9755323.00 5135605.55 182.45
-9755323.84 5135614.41 183.92
-9755325.39 5135611.17 183.37
-9755331.50 5135615.00 184.49
-9755331.26 5135608.27 182.80
-9755321.54 5135609.38 183.11
-9755330.93 5135612.69 183.53
-9755333.68 5135608.58 182.82
-9755330.05 5135610.88 183.78
-9755326.83 5135614.74 183.95
-9755332.57 5135605.43 182.82
-9755322.11 5135614.42 183.93
-9755323.49 5135612.54 184.09
-9755334.27 5135610.61 183.77
-9755331.25 5135616.79 184.87
-9755332.15 5135612.39 183.54
-9755332.17 5135608.25 182.80
-9755332.62 5135614.45 184.42
-9755323.02 5135613.24 183.73
-9755332.23 5135608.50 183.31
-9755328.88 5135614.17 183.90
-9755331.73 5135615.41 184.49
-9755332.17 5135614.70 183.91
-9755329.16 5135609.47 183.01
-9755331.22 5135616.23 184.79
-9755328.01 5135609.44 183.07
-9755333.32 5135607.11 182.61
-9755326.79 5135615.91 184.17
-9755331.05 5135615.69 184.75
-9755329.78 5135614.06 184.33
-9755329.18 5135613.54 183.74
-9755331.45 5135617.75 184.93
-9755324.73 5135614.97 184.11
-9755332.11 5135606.16 182.44
-9755326.81 5135609.13 182.99
-9755331.79 5135607.28 183.16
-9755324.99 5135616.74 184.35
-9755328.33 5135608.55 182.92
-9755326.22 5135608.53 182.94
-9755332.65 5135609.74 183.47
-9755333.37 5135614.37 184.35
-9755329.50 5135610.30 183.17
-9755327.72 5135609.45 183.07
-9755323.64 5135613.81 183.77
-9755329.16 5135617.66 184.53
-9755321.49 5135614.36 183.95
-9755325.66 5135612.64 183.56
-9755331.86 5135612.66 183.54
-9755325.67 5135614.30 184.22
-9755330.09 5135607.35 183.29
-9755324.69 5135612.64 184.13
-9755331.28 5135609.43 182.97
-9755322.14 5135612.32 183.57
-9755330.08 5135611.81 183.41
-9755323.58 5135616.45 184.34
-9755326.24 5135611.43 183.91
-9755330.05 5135606.52 182.58
-9755330.95 5135609.45 182.97
-9755321.23 5135617.65 184.57
-9755332.51 5135615.80 184.67
-9755324.47 5135615.24 184.13
-9755323.70 5135607.31 183.22
-9755325.33 5135606.12 182.45
-9755333.02 5135608.30 182.80
-9755321.53 5135606.14 182.56
-9755331.25 5135606.20 182.44
-9755323.07 5135606.47 182.62
-9755319.80 5135617.90 184.54
-9755321.13 5135623.74 185.76
-9755321.18 5135620.51 185.11
-9755318.95 5135621.39 185.76
-9755320.61 5135623.48 185.69
-9755318.86 5135618.47 184.73
-9755320.34 5135619.63 184.93
-9755319.37 5135622.55 185.56
-9755318.82 5135625.31 186.62
-9755319.38 5135621.38 185.17
-9755320.32 5135620.28 185.04
-9755318.89 5135619.04 184.76
-9755319.37 5135623.42 185.57
-9755319.72 5135624.59 185.90
-9755319.73 5135623.41 185.69
-9755319.39 5135626.10 186.21
-9755319.52 5135625.22 186.60
-9755319.18 5135624.13 186.44
-9755310.59 5135618.16 184.74
-9755309.39 5135618.12 184.75
-9755308.21 5135618.09 184.74
-9755312.94 5135618.12 184.76
-9755318.59 5135622.46 185.98
-9755308.14 5135618.45 185.35
-9755309.01 5135624.20 186.51
-9755309.72 5135618.41 185.36
-9755314.72 5135618.44 185.12
-9755317.30 5135627.94 186.65
-9755314.71 5135621.71 185.36
-9755317.64 5135618.46 184.73
-9755318.24 5135628.15 186.63
-9755316.66 5135625.03 186.64
-9755307.95 5135622.44 186.09
-9755316.19 5135623.13 185.58
-9755311.39 5135623.89 186.38
-9755308.48 5135625.77 186.23
-9755317.60 5135625.16 186.57
-9755315.33 5135626.14 186.65
-9755307.91 5135623.03 186.34
-9755313.77 5135628.08 186.67
-9755316.59 5135621.15 185.78
-9755310.28 5135626.64 186.46
-9755309.84 5135618.70 185.44
-9755311.13 5135624.78 186.28
-9755312.33 5135618.99 184.94
-9755318.49 5135619.34 184.91
-9755316.19 5135626.66 186.25
-9755310.61 5135619.05 184.94
-9755308.79 5135626.62 186.45
-9755311.13 5135626.35 186.42
-9755308.23 5135622.25 185.57
-9755310.36 5135620.50 185.64
-9755307.94 5135622.80 186.28
-9755309.68 5135623.73 185.82
-9755316.08 5135624.29 186.41
-9755314.44 5135624.11 186.37
-9755315.85 5135619.00 185.28
-9755308.21 5135627.16 186.61
-9755318.18 5135626.76 186.37
-9755311.05 5135622.47 186.15
-9755317.05 5135625.77 186.20
-9755309.34 5135623.42 185.80
-9755314.68 5135624.60 186.00
-9755310.29 5135625.47 186.23
-9755315.31 5135625.21 186.60
-9755314.10 5135624.60 186.00
-9755308.46 5135624.97 186.21
-9755308.08 5135625.12 186.66
-9755315.58 5135626.71 186.42
-9755309.98 5135624.85 186.26
-9755315.62 5135621.39 185.34
-9755314.10 5135622.20 185.54
-9755314.69 5135619.34 184.94
-9755313.38 5135626.63 186.91
-9755308.10 5135619.61 185.66
-9755314.10 5135625.16 186.02
-9755308.22 5135620.77 185.34
-9755312.35 5135623.15 185.72
-9755317.67 5135620.24 185.09
-9755316.69 5135626.42 186.23
-9755307.92 5135627.13 187.05
-9755318.03 5135621.39 185.65
-9755309.07 5135626.93 186.46
-9755313.19 5135620.49 185.17
-9755315.14 5135623.54 186.25
-9755312.33 5135624.31 186.00
-9755317.49 5135620.82 185.72
-9755317.97 5135622.12 185.97
-9755318.44 5135619.07 185.13
-9755317.00 5135626.65 186.76
-9755313.48 5135622.26 185.57
-9755316.47 5135623.74 186.23
-9755317.30 5135622.45 185.90
-9755308.18 5135624.54 186.01
-9755318.48 5135624.55 185.83
-9755315.88 5135620.83 185.15
-9755316.17 5135623.44 185.78
-9755316.50 5135620.53 185.13
-9755310.86 5135622.27 185.58
-9755309.94 5135621.62 185.85
-9755315.28 5135625.43 186.09
-9755319.51 5135605.01 182.85
-9755321.24 5135604.99 182.37
-9755321.22 5135613.46 183.81
-9755321.24 5135606.42 182.61
-9755320.95 5135610.26 183.25
-9755321.82 5135611.14 183.40
-9755320.94 5135616.77 184.41
-9755320.63 5135609.72 183.14
-9755320.65 5135608.56 182.95
-9755319.42 5135617.02 184.48
-9755320.93 5135609.09 183.03
-9755318.88 5135615.56 184.13
-9755320.59 5135617.61 184.57
-9755320.33 5135611.51 183.86
-9755319.74 5135608.52 182.95
-9755319.46 5135613.52 183.71
-9755319.21 5135607.03 182.64
-9755319.81 5135606.44 182.61
-9755319.77 5135607.11 183.25
-9755319.81 5135609.69 183.14
-9755320.19 5135607.34 183.30
-9755319.50 5135606.66 183.04
-9755320.04 5135617.61 184.54
-9755319.44 5135616.36 184.32
-9755319.42 5135610.62 183.78
-9755320.04 5135609.99 183.16
-9755320.62 5135614.98 184.07
-9755320.50 5135606.15 183.11
-9755319.15 5135611.42 183.37
-9755318.90 5135607.89 182.80
-9755318.52 5135617.27 184.52
-9755319.57 5135613.51 184.29
-9755318.53 5135616.44 184.32
-9755310.62 5135615.77 184.34
-9755318.72 5135611.59 184.10
-9755314.46 5135617.86 184.72
-9755310.65 5135613.21 183.88
-9755318.47 5135615.21 184.70
-9755309.10 5135616.03 184.34
-9755309.73 5135615.25 184.31
-9755318.33 5135614.37 183.93
-9755312.10 5135610.51 183.37
-9755316.21 5135616.40 184.35
-9755315.67 5135606.97 183.22
-9755318.31 5135616.39 184.33
-9755308.25 5135613.46 183.92
-9755312.05 5135610.76 183.40
-9755315.34 5135613.16 183.74
-9755317.65 5135617.88 184.54
-9755309.13 5135615.46 184.34
-9755311.52 5135611.33 183.55
-9755309.46 5135608.40 183.52
-9755312.95 5135616.43 184.46
-9755316.28 5135613.36 183.75
-9755318.59 5135608.12 182.84
-9755308.31 5135615.90 184.62
-9755314.49 5135607.31 182.81
-9755311.58 5135613.46 184.45
-9755318.53 5135611.11 183.36
-9755311.54 5135607.85 182.96
-9755315.62 5135607.56 182.80
-9755310.33 5135616.13 184.99
-9755315.31 5135610.13 183.76
-9755309.46 5135614.21 184.47
-9755308.21 5135607.20 183.32
-9755315.09 5135605.26 182.44
-9755312.43 5135609.93 183.30
-9755313.55 5135612.58 183.75
-9755308.28 5135616.82 185.08
-9755314.17 5135609.36 183.17
-9755308.92 5135607.79 183.64
-9755308.24 5135616.00 184.35
-9755318.11 5135616.95 184.99
-9755315.33 5135616.10 184.33
-9755308.25 5135612.78 183.76
-9755315.96 5135612.26 184.18
-9755310.32 5135610.21 183.36
-9755313.24 5135614.04 184.01
-9755310.83 5135614.30 184.13
-9755310.32 5135616.63 184.54
-9755318.57 5135610.28 183.20
-9755312.37 5135609.04 183.16
-9755313.90 5135611.68 183.58
-9755317.65 5135614.66 184.05
-9755313.27 5135607.87 182.94
-9755310.62 5135607.83 182.96
-9755317.90 5135616.42 184.33
-9755315.71 5135606.01 183.04
-9755316.85 5135609.05 183.02
-9755308.57 5135608.99 183.16
-9755312.10 5135609.01 183.70
-9755318.23 5135607.49 183.35
-9755316.26 5135606.13 182.61
-9755317.03 5135616.71 184.34
-9755316.22 5135616.07 184.34
-9755309.61 5135616.88 184.90
-9755317.69 5135615.56 184.14
-9755309.51 5135605.52 182.57
-9755314.94 5135614.89 184.64
-9755312.62 5135616.05 184.41
-9755309.38 5135615.79 184.34
-9755315.56 5135609.29 183.67
-9755318.30 5135610.50 183.35
-9755313.87 5135617.49 185.15
-9755314.47 5135611.13 183.52
-9755313.27 5135613.16 183.86
-9755315.94 5135606.14 182.61
-9755311.48 5135616.97 184.54
-9755317.67 5135612.02 183.54
-9755308.23 5135616.39 184.53
-9755317.71 5135611.70 183.54
-9755313.55 5135611.11 183.50
-9755316.54 5135615.54 184.16
-9755309.38 5135616.95 184.54
-9755309.38 5135613.99 184.54
-9755314.45 5135605.82 182.59
-9755312.66 5135614.32 184.06
-9755312.97 5135612.04 183.66
-9755313.55 5135614.37 184.07
-9755308.54 5135610.23 183.89
-9755311.86 5135610.75 183.82
-9755309.46 5135609.03 183.18
-9755311.30 5135613.95 184.48
-9755311.44 5135612.81 184.34
-9755314.80 5135616.07 184.33
-9755309.78 5135606.96 182.80
-9755311.19 5135614.97 184.15
-9755313.59 5135606.07 182.63
-9755310.32 5135609.89 183.36
-9755313.87 5135606.38 182.67
-9755310.35 5135617.49 184.69
-9755308.90 5135605.49 182.59
-9755309.72 5135615.35 184.85
-9755311.44 5135608.72 183.61
-9755312.35 5135614.90 184.18
-9755307.71 5135605.78 182.63
-9755312.07 5135612.89 183.78
-9755309.75 5135609.02 183.17
-9755316.55 5135608.98 183.52
-9755315.61 5135616.43 184.33
-9755314.98 5135607.05 183.27
-9755313.00 5135609.64 183.25
-9755312.34 5135614.05 184.01
-9755314.46 5135612.82 183.74
-9755315.32 5135617.58 184.56
-9755309.26 5135616.49 184.91
-9755317.35 5135616.41 184.33
-9755316.22 5135609.90 183.63
-9755308.31 5135606.93 182.80
-9755315.24 5135611.95 183.92
-9755316.99 5135613.50 184.29
-9755311.73 5135612.77 184.33
-9755314.77 5135610.50 183.35
-9755315.63 5135609.31 183.18
-9755315.99 5135606.97 183.32
-9755316.84 5135611.18 183.41
-9755313.57 5135611.99 183.64
-9755342.57 5135591.79 181.47
-9755344.63 5135591.24 181.49
-9755333.43 5135591.79 181.46
-9755333.12 5135591.18 181.47
-9755340.75 5135605.10 182.21
-9755338.62 5135602.46 182.43
-9755340.20 5135598.08 181.38
-9755343.42 5135599.83 181.33
-9755343.67 5135600.13 181.31
-9755336.89 5135602.76 181.88
-9755335.14 5135600.39 181.51
-9755342.51 5135602.48 181.87
-9755339.60 5135595.96 181.40
-9755338.76 5135600.14 181.33
-9755339.30 5135592.10 181.47
-9755340.17 5135601.87 181.69
-9755343.66 5135595.99 181.40
-9755344.90 5135600.09 182.51
-9755336.59 5135597.98 182.02
-9755337.50 5135602.45 181.86
-9755344.93 5135599.19 182.54
-9755340.12 5135599.19 181.36
-9755339.23 5135603.59 182.02
-9755344.91 5135600.20 182.34
-9755337.99 5135604.54 182.22
-9755336.06 5135595.60 181.41
-9755339.80 5135602.63 182.43
-9755342.84 5135594.49 181.41
-9755340.74 5135604.21 182.08
-9755336.56 5135605.07 182.26
-9755344.32 5135594.83 181.41
-9755340.41 5135602.49 181.83
-9755338.37 5135600.68 181.54
-9755336.58 5135601.53 181.71
-9755334.51 5135604.52 182.17
-9755338.95 5135600.07 181.30
-9755335.18 5135604.46 182.62
-9755341.90 5135601.55 181.69
-9755337.83 5135599.76 182.26
-9755337.45 5135602.18 181.82
-9755343.36 5135595.99 181.41
-9755341.92 5135598.05 181.37
-9755335.46 5135595.33 181.41
-9755342.82 5135600.39 181.33
-9755344.01 5135592.12 181.46
-9755342.47 5135600.73 181.32
-9755336.87 5135602.13 181.78
-9755336.00 5135603.31 181.99
-9755334.60 5135598.06 181.97
-9755343.72 5135599.47 182.23
-9755340.75 5135601.60 181.67
-9755344.23 5135598.67 181.36
-9755335.96 5135601.50 181.69
-9755337.56 5135602.25 182.46
-9755342.48 5135601.57 181.70
-9755337.54 5135595.70 181.41
-9755339.02 5135602.19 181.80
-9755335.43 5135603.60 182.05
-9755334.50 5135600.36 181.50
-9755344.34 5135598.92 181.95
-9755339.53 5135603.63 182.02
-9755344.01 5135598.63 181.95
-9755341.62 5135601.82 181.70
-9755341.04 5135594.15 181.42
-9755342.52 5135593.29 181.45
-9755343.94 5135602.77 181.89
-9755339.82 5135602.80 181.86
-9755334.60 5135592.97 181.44
-9755342.83 5135602.43 181.86
-9755340.15 5135604.25 182.64
-9755341.94 5135595.10 181.41
-9755334.57 5135598.87 182.29
-9755336.64 5135595.04 181.40
-9755336.65 5135600.08 181.68
-9755336.63 5135598.56 182.23
-9755339.54 5135604.16 182.04
-9755344.93 5135593.61 181.45
-9755338.43 5135592.69 181.45
-9755336.60 5135594.77 181.40
-9755342.93 5135600.88 181.31
-9755341.32 5135602.45 181.85
-9755335.99 5135602.46 181.85
-9755344.56 5135603.64 182.02
-9755343.62 5135604.23 182.12
-9755336.61 5135599.99 182.04
-9755341.30 5135599.22 181.36
-9755336.96 5135598.78 181.80
-9755342.19 5135598.35 181.37
-9755344.52 5135599.20 182.47
-9755342.52 5135598.36 181.37
-9755334.78 5135601.02 182.06
-9755339.56 5135600.39 181.34
-9755335.45 5135593.51 181.41
-9755343.95 5135599.47 181.98
-9755339.55 5135601.56 181.67
-9755343.75 5135599.16 182.57
-9755336.65 5135600.42 181.64
-9755343.99 5135593.59 181.44
-9755335.18 5135594.16 181.42
-9755343.69 5135603.35 182.02
-9755342.21 5135594.46 181.41
-9755337.57 5135600.00 181.39
-9755341.33 5135603.64 182.05
-9755342.19 5135599.22 181.37
-9755338.38 5135601.54 181.68
-9755334.58 5135593.57 181.42
-9755334.33 5135602.12 182.26
-9755331.35 5135592.04 181.47
-9755326.34 5135602.05 181.87
-9755325.13 5135597.89 182.13
-9755326.41 5135600.73 181.69
-9755331.01 5135603.88 182.47
-9755324.78 5135600.01 181.52
-9755331.28 5135600.91 181.65
-9755333.42 5135595.61 181.42
-9755325.10 5135600.30 181.52
-9755322.80 5135595.29 181.38
-9755332.47 5135600.32 181.49
-9755333.59 5135599.71 181.82
-9755331.85 5135601.19 182.19
-9755325.99 5135593.52 181.41
-9755330.10 5135603.56 182.05
-9755322.20 5135595.84 181.37
-9755324.21 5135602.36 182.47
-9755333.44 5135592.64 181.45
-9755333.41 5135600.37 181.51
-9755332.73 5135604.21 182.06
-9755321.85 5135602.05 181.88
-9755324.81 5135598.75 182.27
-9755325.14 5135596.79 181.35
-9755328.09 5135600.33 181.56
-9755326.03 5135595.86 181.38
-9755328.38 5135595.05 181.41
-9755325.99 5135598.54 182.25
-9755326.00 5135603.28 182.05
-9755323.37 5135594.40 181.40
-9755322.22 5135594.38 181.39
-9755322.72 5135598.80 182.25
-9755330.21 5135598.19 181.32
-9755333.62 5135601.20 181.66
-9755322.73 5135604.10 182.23
-9755323.07 5135599.17 181.78
-9755321.85 5135599.36 181.84
-9755327.26 5135592.05 181.45
-9755330.48 5135596.51 181.37
-9755333.06 5135603.61 182.55
-9755331.85 5135600.05 181.49
-9755325.16 5135592.89 181.40
-9755332.16 5135598.49 181.45
-9755325.08 5135601.23 181.71
-9755325.72 5135596.75 181.35
-9755329.19 5135599.67 181.56
-9755332.78 5135601.54 181.67
-9755326.30 5135598.81 182.23
-9755326.89 5135598.16 181.32
-9755328.38 5135594.11 181.41
-9755322.74 5135600.25 182.08
-9755329.52 5135600.30 182.10
-9755325.45 5135598.41 182.26
-9755322.78 5135597.92 182.08
-9755332.44 5135600.96 182.15
-9755329.22 5135600.06 181.54
-9755325.25 5135604.35 182.66
-9755324.51 5135603.54 182.04
-9755330.74 5135600.08 181.50
-9755329.27 5135597.39 181.34
-9755332.22 5135602.09 181.82
-9755331.99 5135595.61 181.40
-9755331.34 5135604.53 181.92
-9755331.94 5135598.84 182.30
-9755326.02 5135599.68 181.55
-9755325.67 5135600.88 182.14
-9755330.15 5135597.69 181.34
-9755323.64 5135595.28 181.37
-9755321.89 5135600.00 181.56
-9755322.98 5135603.85 182.62
-9755326.25 5135601.11 181.69
-9755323.88 5135599.30 181.95
-9755323.92 5135604.42 182.22
-9755324.27 5135593.50 181.41
-9755323.32 5135602.87 182.51
-9755333.27 5135603.05 182.44
-9755329.78 5135604.06 182.50
-9755323.97 5135600.22 181.50
-9755322.77 5135594.95 181.39
-9755329.28 5135601.85 182.29
-9755331.85 5135604.42 182.65
-9755325.08 5135604.17 182.66
-9755329.54 5135599.99 182.03
-9755329.58 5135600.62 182.10
-9755330.10 5135604.11 182.07
-9755332.50 5135599.41 182.24
-9755325.41 5135600.00 181.51
-9755323.35 5135598.79 182.25
-9755321.81 5135599.99 181.96
-9755326.00 5135599.06 182.22
-9755326.30 5135604.13 182.20
-9755325.16 5135594.34 181.39
-9755330.46 5135603.28 182.51
-9755331.94 5135595.01 181.41
-9755324.21 5135603.51 182.04
-9755323.09 5135596.75 181.34
-9755323.48 5135598.00 182.16
-9755332.24 5135600.45 181.97
-9755333.92 5135603.61 182.03
-9755331.86 5135603.50 182.03
-9755329.60 5135592.66 181.45
-9755322.17 5135604.09 182.22
-9755328.69 5135596.49 181.37
-9755322.52 5135597.92 182.15
-9755333.97 5135603.28 181.94
-9755339.97 5135578.17 181.51
-9755345.00 5135577.30 181.53
-9755337.08 5135575.79 181.52
-9755338.81 5135575.49 181.53
-9755344.96 5135578.21 181.53
-9755342.08 5135576.13 181.54
-9755337.94 5135577.25 181.53
-9755341.48 5135575.55 181.53
-9755343.56 5135575.52 181.55
-9755336.16 5135576.95 181.52
-9755335.83 5135576.98 181.53
-9755338.84 5135577.90 181.53
-9755344.13 5135575.88 181.55
-9755342.64 5135577.60 181.54
-9755339.40 5135578.76 181.52
-9755342.08 5135577.90 181.52
-9755341.71 5135578.51 181.52
-9755325.54 5135578.13 181.49
-9755328.77 5135576.04 181.49
-9755326.45 5135577.19 181.49
-9755328.79 5135576.34 181.50
-9755322.00 5135576.89 181.46
-9755322.86 5135577.47 181.48
-9755327.32 5135577.84 181.49
-9755330.28 5135577.84 181.50
-9755331.15 5135577.26 181.50
-9755329.69 5135577.54 181.51
-9755326.45 5135576.04 181.49
-9755333.83 5135576.35 181.52
-9755329.72 5135576.90 181.51
-9755327.30 5135577.23 181.50
-9755332.04 5135578.11 181.52
-9755334.09 5135578.13 181.52
-9755334.09 5135577.28 181.52
-9755323.49 5135575.75 181.48
-9755340.25 5135578.78 181.51
-9755341.71 5135587.94 181.51
-9755342.61 5135580.88 181.54
-9755341.11 5135585.61 181.55
-9755336.96 5135586.46 181.54
-9755344.94 5135590.36 181.49
-9755336.67 5135587.63 181.51
-9755339.91 5135589.40 181.51
-9755337.27 5135590.33 181.49
-9755338.15 5135586.14 181.53
-9755337.87 5135588.81 181.51
-9755340.25 5135588.87 181.51
-9755339.33 5135590.03 181.51
-9755334.90 5135586.15 181.52
-9755337.26 5135587.90 181.51
-9755340.54 5135586.77 181.54
-9755338.76 5135586.15 181.54
-9755334.61 5135587.33 181.51
-9755338.70 5135589.44 181.51
-9755343.49 5135581.78 181.53
-9755338.74 5135585.59 181.54
-9755339.10 5135583.79 181.54
-9755342.03 5135581.42 181.54
-9755342.03 5135583.52 181.55
-9755337.02 5135580.81 181.53
-9755339.10 5135582.33 181.55
-9755338.47 5135590.89 181.49
-9755342.86 5135591.20 181.49
-9755343.45 5135590.05 181.50
-9755339.05 5135590.33 181.50
-9755339.07 5135583.18 181.55
-9755342.32 5135582.64 181.54
-9755340.25 5135583.22 181.54
-9755340.86 5135588.24 181.51
-9755339.10 5135580.55 181.53
-9755340.25 5135585.59 181.55
-9755337.61 5135587.66 181.51
-9755341.75 5135583.51 181.55
-9755340.79 5135587.68 181.52
-9755337.90 5135581.46 181.53
-9755334.91 5135584.65 181.54
-9755337.31 5135579.67 181.53
-9755341.71 5135585.59 181.55
-9755336.07 5135590.31 181.49
-9755341.36 5135587.05 181.53
-9755341.14 5135584.71 181.55
-9755335.52 5135583.52 181.54
-9755336.66 5135590.62 181.49
-9755337.89 5135585.56 181.53
-9755342.62 5135584.11 181.54
-9755331.64 5135591.16 181.45
-9755330.55 5135581.10 181.51
-9755322.81 5135590.54 181.44
-9755329.63 5135584.33 181.51
-9755331.98 5135586.14 181.51
-9755326.95 5135582.23 181.50
-9755331.71 5135580.50 181.52
-9755327.00 5135581.66 181.50
-9755332.32 5135582.87 181.52
-9755331.09 5135590.29 181.48
-9755329.33 5135587.60 181.49
-9755327.25 5135586.42 181.48
-9755331.69 5135586.45 181.50
-9755331.68 5135583.75 181.51
-9755324.88 5135587.87 181.47
-9755324.89 5135583.71 181.48
-9755327.55 5135586.12 181.49
-9755323.74 5135586.38 181.48
-9755325.20 5135585.47 181.49
-9755330.80 5135583.16 181.51
-9755323.71 5135590.82 181.44
-9755327.54 5135590.26 181.46
-9755323.43 5135586.35 181.48
-9755331.11 5135580.77 181.51
-9755326.40 5135583.72 181.50
-9755323.78 5135582.26 181.48
-9755321.96 5135579.56 181.48
-9755326.06 5135588.18 181.48
-9755323.76 5135579.02 181.48
-9755322.54 5135584.29 181.47
-9755326.95 5135585.53 181.50
-9755329.60 5135582.55 181.50
-9755333.77 5135581.10 181.53
-9755330.19 5135585.51 181.51
-9755331.98 5135584.91 181.52
-9755327.59 5135581.10 181.50
-9755332.83 5135588.52 181.50
-9755332.29 5135585.53 181.51
-9755321.97 5135584.62 181.47
-9755326.06 5135589.68 181.46
-9755332.83 5135589.67 181.49
-9755328.71 5135587.61 181.48
-9755323.37 5135590.20 181.44
-9755326.99 5135583.15 181.50
-9755322.87 5135580.75 181.48
-9755323.44 5135589.65 181.45
-9755327.52 5135586.44 181.48
-9755332.60 5135584.94 181.52
-9755326.06 5135590.82 181.46
-9755327.87 5135586.73 181.49
-9755322.84 5135585.76 181.49
-9755328.99 5135590.27 181.47
-9755333.18 5135580.51 181.53
-9755331.70 5135580.21 181.53
-9755325.22 5135581.67 181.49
-9755323.70 5135584.32 181.48
-9755326.99 5135579.00 181.49
-9755329.64 5135585.21 181.49
-9755327.24 5135587.56 181.48
-9755329.35 5135585.80 181.49
-9755331.70 5135584.37 181.52
-9755327.21 5135589.64 181.47
-9755334.65 5135579.59 181.53
-9755320.39 5135592.01 181.42
-9755321.34 5135599.88 181.92
-9755321.67 5135597.94 182.02
-9755320.44 5135595.82 181.37
-9755320.99 5135602.94 182.02
-9755320.99 5135600.86 181.67
-9755321.01 5135597.64 181.34
-9755321.00 5135603.84 182.15
-9755319.52 5135596.76 181.37
-9755318.95 5135603.49 182.04
-9755319.53 5135604.66 182.83
-9755320.09 5135598.48 181.34
-9755320.39 5135597.59 181.34
-9755319.77 5135604.35 182.24
-9755319.88 5135591.95 181.42
-9755318.97 5135598.80 181.58
-9755319.85 5135595.22 181.38
-9755317.78 5135591.71 181.41
-9755310.08 5135591.92 181.41
-9755318.70 5135591.39 181.43
-9755311.28 5135591.64 181.39
-9755318.69 5135591.09 181.43
-9755309.53 5135591.92 181.40
-9755312.79 5135591.62 181.40
-9755308.95 5135591.34 181.39
-9755311.89 5135591.94 181.39
-9755314.76 5135604.65 182.38
-9755318.60 5135602.51 182.52
-9755316.10 5135598.93 181.73
-9755316.23 5135600.81 181.71
-9755315.42 5135597.34 181.35
-9755312.70 5135601.96 181.91
-9755316.27 5135593.74 181.39
-9755317.75 5135599.12 181.76
-9755315.96 5135599.07 181.55
-9755311.57 5135602.59 182.06
-9755316.29 5135603.81 182.23
-9755316.31 5135600.52 181.69
-9755315.44 5135595.52 181.38
-9755308.91 5135596.35 181.36
-9755318.36 5135598.79 181.33
-9755309.51 5135598.43 181.76
-9755315.36 5135594.33 181.38
-9755310.40 5135595.50 181.37
-9755317.74 5135601.73 181.85
-9755311.82 5135601.67 181.87
-9755316.90 5135602.58 182.05
-9755312.07 5135603.36 182.71
-9755312.16 5135594.05 181.38
-9755312.76 5135598.44 181.32
-9755316.59 5135597.02 181.35
-9755312.48 5135593.67 181.39
-9755313.01 5135604.02 182.28
-9755309.77 5135603.17 182.17
-9755309.28 5135600.99 182.30
-9755313.28 5135602.00 181.94
-9755313.86 5135602.83 182.09
-9755314.48 5135603.76 182.24
-9755315.36 5135598.94 181.69
-9755317.18 5135597.60 181.35
-9755310.73 5135598.44 181.74
-9755315.63 5135603.77 182.23
-9755312.68 5135604.35 182.33
-9755317.73 5135600.24 182.15
-9755316.21 5135601.41 181.84
-9755314.78 5135602.89 182.07
-9755315.94 5135603.40 182.66
-9755316.60 5135601.73 181.86
-9755311.55 5135601.74 181.89
-9755310.22 5135600.20 182.34
-9755318.59 5135600.88 181.70
-9755308.95 5135599.70 181.65
-9755313.59 5135599.24 181.94
-9755313.91 5135602.04 181.96
-9755314.81 5135591.95 181.40
-9755307.95 5135601.86 182.51
-9755313.62 5135597.61 181.34
-9755318.08 5135593.45 181.39
-9755315.43 5135592.84 181.40
-9755310.63 5135603.73 182.24
-9755318.03 5135596.73 181.36
-9755308.05 5135595.48 181.36
-9755311.51 5135602.80 182.06
-9755312.14 5135599.36 181.54
-9755313.37 5135598.48 181.76
-9755310.64 5135600.18 181.69
-9755314.82 5135593.19 181.39
-9755309.48 5135603.42 182.23
-9755308.35 5135597.57 181.32
-9755309.83 5135602.25 182.04
-9755308.62 5135599.02 181.53
-9755317.42 5135602.60 181.99
-9755309.31 5135599.74 181.67
-9755320.53 5135576.32 181.46
-9755319.67 5135576.90 181.46
-9755319.96 5135578.07 181.48
-9755320.54 5135577.51 181.47
-9755321.94 5135587.27 181.47
-9755321.37 5135585.17 181.46
-9755319.83 5135591.10 181.44
-9755321.33 5135586.94 181.47
-9755320.43 5135589.32 181.45
-9755319.29 5135590.53 181.43
-9755320.48 5135588.41 181.45
-9755319.85 5135590.19 181.44
-9755320.50 5135581.02 181.46
-9755322.00 5135580.18 181.47
-9755319.33 5135583.97 181.46
-9755320.51 5135584.00 181.46
-9755319.63 5135584.87 181.46
-9755319.03 5135580.44 181.45
-9755320.45 5135589.94 181.45
-9755318.11 5135591.09 181.43
-9755319.36 5135581.07 181.47
-9755320.21 5135581.01 181.46
-9755309.62 5135576.82 181.42
-9755315.23 5135576.85 181.43
-9755313.46 5135576.23 181.44
-9755313.42 5135578.60 181.44
-9755314.96 5135576.54 181.43
-9755312.59 5135578.62 181.43
-9755309.93 5135577.71 181.42
-9755318.73 5135578.68 181.46
-9755316.15 5135576.58 181.44
-9755312.58 5135576.54 181.43
-9755311.40 5135577.44 181.43
-9755315.49 5135580.74 181.45
-9755318.69 5135590.52 181.43
-9755309.01 5135582.15 181.41
-9755314.87 5135581.90 181.44
-9755309.04 5135579.53 181.41
-9755318.09 5135586.63 181.45
-9755317.24 5135586.33 181.45
-9755314.06 5135581.27 181.44
-9755317.22 5135586.02 181.45
-9755317.83 5135583.71 181.46
-9755315.74 5135589.58 181.43
-9755314.59 5135581.59 181.44
-9755315.20 5135587.82 181.43
-9755310.72 5135585.12 181.42
-9755309.58 5135583.64 181.42
-9755314.58 5135587.19 181.43
-9755311.30 5135588.09 181.42
-9755316.91 5135589.32 181.44
-9755311.94 5135582.78 181.44
-9755315.78 5135582.77 181.44
-9755315.79 5135579.53 181.44
-9755312.26 5135580.64 181.44
-9755308.12 5135583.91 181.42
-9755312.59 5135579.79 181.44
-9755318.72 5135584.85 181.45
-9755315.19 5135579.23 181.44
-9755318.10 5135590.18 181.44
-9755315.46 5135583.63 181.44
-9755316.62 5135590.20 181.43
-9755312.25 5135583.97 181.42
-9755312.85 5135580.69 181.44
-9755316.94 5135588.41 181.44
-9755310.20 5135582.18 181.42
-9755313.15 5135587.17 181.43
-9755311.05 5135580.40 181.42
-9755316.07 5135587.24 181.45
-9755312.22 5135588.65 181.43
-9755317.25 5135583.97 181.46
-9755316.03 5135590.49 181.43
-9755313.70 5135588.37 181.43
-9755311.64 5135583.07 181.43
-9755309.59 5135585.09 181.41
-9755318.15 5135581.03 181.46
-9755308.11 5135587.49 181.42
-9755317.28 5135581.89 181.45
-9755313.70 5135584.55 181.44
-9755317.21 5135590.53 181.43
-9755318.70 5135587.79 181.45
-9755315.14 5135584.55 181.44
-9755310.43 5135588.03 181.43
-9755310.45 5135583.04 181.42
-9755318.72 5135579.55 181.46
-9755308.96 5135587.80 181.42
-9755312.84 5135586.61 181.43
-9755312.54 5135582.76 181.43
-9755312.78 5135589.31 181.42
-9755313.11 5135583.96 181.44
-9755315.78 5135586.07 181.44
-9755315.12 5135589.60 181.43
-9755304.65 5135626.88 186.58
-9755304.94 5135626.58 186.53
-9755302.26 5135627.26 187.14
-9755306.42 5135626.96 187.07
-9755307.33 5135626.33 186.44
-9755298.53 5135627.13 186.68
-9755298.76 5135627.19 186.69
-9755299.01 5135626.87 186.66
-9755307.31 5135627.22 186.63
-9755296.26 5135628.03 196.69
-9755300.48 5135626.87 186.65
-9755307.00 5135627.18 186.63
-9755305.83 5135627.52 186.67
-9755306.73 5135627.46 187.19
-9755301.17 5135626.44 187.00
-9755301.14 5135627.16 186.65
-9755301.25 5135628.16 196.71
-9755306.50 5135627.19 187.11
-9755299.11 5135627.85 196.68
-9755294.74 5135627.57 196.70
-9755293.20 5135628.17 196.12
-9755292.59 5135627.55 196.70
-9755300.29 5135620.87 185.89
-9755307.91 5135615.17 184.30
-9755301.47 5135616.34 184.54
-9755300.54 5135621.27 185.57
-9755300.02 5135613.65 184.12
-9755304.68 5135615.64 184.92
-9755299.73 5135615.13 184.36
-9755301.74 5135619.23 185.13
-9755303.84 5135612.82 183.90
-9755295.58 5135620.47 185.27
-9755296.41 5135616.55 184.74
-9755302.09 5135613.35 183.96
-9755304.52 5135613.99 184.53
-9755301.63 5135617.51 185.30
-9755302.34 5135617.63 185.30
-9755305.61 5135613.68 184.01
-9755298.49 5135614.50 184.34
-9755298.25 5135612.16 183.90
-9755305.30 5135622.23 185.66
-9755305.04 5135612.55 183.75
-9755302.08 5135615.98 184.53
-9755307.37 5135618.97 184.93
-9755304.10 5135620.92 185.91
-9755303.21 5135619.79 185.59
-9755304.08 5135619.29 185.09
-9755307.04 5135617.78 184.73
-9755307.67 5135622.31 186.18
-9755299.13 5135612.77 183.94
-9755303.83 5135614.83 184.81
-9755302.36 5135612.80 183.92
-9755299.09 5135615.09 184.36
-9755300.63 5135614.05 184.71
-9755303.25 5135613.38 184.47
-9755305.50 5135621.88 185.57
-9755294.66 5135611.83 183.92
-9755302.92 5135612.78 183.92
-9755302.36 5135618.21 185.52
-9755295.86 5135615.65 184.54
-9755306.51 5135613.73 184.02
-9755301.17 5135615.15 184.33
-9755303.21 5135620.13 185.29
-9755303.28 5135615.39 184.87
-9755300.27 5135616.61 184.73
-9755307.37 5135616.92 184.54
-9755302.38 5135614.78 184.31
-9755294.70 5135618.59 185.13
-9755300.92 5135617.65 184.83
-9755300.32 5135612.48 183.92
-9755303.62 5135616.78 185.16
-9755306.12 5135621.58 185.52
-9755299.10 5135619.21 185.13
-9755297.05 5135621.27 185.65
-9755296.46 5135618.54 185.52
-9755294.48 5135621.44 185.65
-9755297.01 5135620.92 185.59
-9755299.11 5135614.52 184.33
-9755299.02 5135619.46 185.76
-9755302.95 5135618.35 184.92
-9755304.99 5135615.44 184.32
-9755302.34 5135616.61 184.55
-9755306.23 5135612.82 183.85
-9755295.55 5135616.52 184.74
-9755302.03 5135621.01 185.55
-9755300.00 5135616.56 184.69
-9755296.70 5135614.00 184.82
-9755296.71 5135621.57 185.71
-9755299.67 5135616.90 184.73
-9755294.34 5135621.48 185.78
-9755305.60 5135619.85 185.17
-9755299.10 5135617.70 184.92
-9755307.39 5135612.52 183.75
-9755301.15 5135620.13 185.34
-9755304.07 5135615.15 184.30
-9755303.81 5135620.74 185.33
-9755300.28 5135620.75 185.93
-9755298.12 5135620.70 185.55
-9755297.59 5135620.67 185.52
-9755294.12 5135620.97 185.57
-9755303.24 5135618.10 184.90
-9755302.92 5135619.27 185.12
-9755306.75 5135611.93 183.71
-9755294.92 5135616.23 185.24
-9755304.48 5135617.01 184.68
-9755299.66 5135621.27 185.56
-9755296.70 5135622.11 185.82
-9755302.99 5135617.81 185.30
-9755306.18 5135614.85 184.23
-9755304.40 5135613.99 184.11
-9755300.80 5135612.99 184.42
-9755299.39 5135615.97 184.54
-9755305.58 5135614.28 184.15
-9755302.04 5135613.43 184.05
-9755304.58 5135614.38 184.72
-9755300.73 5135620.84 185.88
-9755300.88 5135611.86 183.73
-9755296.79 5135614.23 184.35
-9755295.91 5135619.21 185.67
-9755302.95 5135613.69 184.10
-9755298.88 5135614.25 184.76
-9755302.86 5135612.68 184.46
-9755300.24 5135619.23 185.14
-9755305.25 5135621.03 185.42
-9755305.62 5135618.10 184.85
-9755300.30 5135611.94 183.74
-9755302.00 5135620.09 185.71
-9755305.57 5135617.81 184.81
-9755302.92 5135621.34 185.55
-9755303.79 5135614.86 184.31
-9755298.87 5135615.16 184.96
-9755304.76 5135612.78 183.87
-9755307.35 5135614.90 184.16
-9755304.45 5135615.42 184.31
-9755302.26 5135621.28 185.57
-9755294.96 5135617.73 184.94
-9755307.28 5135619.46 185.54
-9755295.00 5135621.18 186.04
-9755304.07 5135616.32 184.51
-9755295.59 5135613.61 184.13
-9755299.89 5135620.43 185.96
-9755300.87 5135614.53 184.29
-9755299.83 5135612.30 184.32
-9755304.69 5135618.37 184.92
-9755301.41 5135617.76 184.80
-9755300.22 5135617.48 184.74
-9755306.75 5135613.99 184.08
-9755297.61 5135618.07 185.01
-9755296.48 5135617.71 184.95
-9755299.09 5135616.60 184.72
-9755296.41 5135618.02 184.98
-9755300.82 5135620.95 185.41
-9755307.04 5135620.15 185.15
-9755306.79 5135619.00 184.93
-9755301.12 5135616.00 184.53
-9755302.13 5135618.05 185.45
-9755305.88 5135620.15 185.22
-9755299.01 5135620.78 185.50
-9755305.89 5135622.21 185.64
-9755300.59 5135618.98 185.11
-9755295.96 5135613.91 184.29
-9755296.73 5135616.87 184.77
-9755299.13 5135614.87 184.95
-9755294.64 5135613.05 184.13
-9755304.93 5135619.72 185.78
-9755295.52 5135618.59 185.14
-9755307.03 5135621.33 185.86
-9755302.01 5135620.43 185.35
-9755305.04 5135615.13 184.32
-9755299.39 5135618.34 184.95
-9755307.30 5135622.17 185.57
-9755294.66 5135620.09 185.38
-9755304.34 5135618.98 184.95
-9755301.21 5135616.54 184.57
-9755301.13 5135617.48 184.74
-9755294.34 5135620.10 185.37
-9755296.18 5135615.69 184.54
-9755299.11 5135616.28 184.58
-9755307.27 5135614.88 184.72
-9755297.90 5135616.89 184.78
-9755306.16 5135617.54 184.74
-9755305.29 5135618.11 184.85
-9755295.56 5135617.74 184.95
-9755302.39 5135614.72 184.70
-9755305.15 5135615.12 184.70
-9755304.12 5135618.39 184.90
-9755294.07 5135621.79 185.79
-9755292.62 5135618.45 185.61
-9755292.90 5135618.89 185.16
-9755293.81 5135613.89 184.32
-9755292.85 5135619.16 185.83
-9755292.80 5135616.47 185.29
-9755292.39 5135617.77 185.55
-9755293.80 5135621.82 185.79
-9755292.91 5135617.13 184.94
-9755292.92 5135614.53 184.96
-9755293.77 5135617.70 184.95
-9755293.48 5135617.15 184.94
-9755293.24 5135621.23 185.68
-9755292.88 5135613.73 184.83
-9755293.23 5135615.39 184.54
-9755292.88 5135611.85 183.92
-9755293.05 5135617.44 185.32
-9755292.95 5135614.79 184.50
-9755293.88 5135614.52 184.96
-9755293.28 5135613.11 184.61
-9755293.27 5135613.90 184.33
-9755293.84 5135611.82 183.92
-9755293.51 5135622.10 186.10
-9755292.44 5135621.02 185.88
-9755295.52 5135626.24 186.65
-9755298.22 5135623.05 186.02
-9755304.08 5135622.18 185.57
-9755296.69 5135626.27 186.63
-9755307.26 5135624.90 186.66
-9755298.45 5135625.02 186.25
-9755297.31 5135622.14 185.80
-9755300.80 5135626.01 186.43
-9755294.85 5135625.94 186.56
-9755304.41 5135622.46 185.70
-9755302.83 5135625.68 186.41
-9755303.19 5135623.07 185.78
-9755303.24 5135626.01 186.41
-9755299.10 5135623.35 186.01
-9755304.07 5135623.44 185.94
-9755299.03 5135625.38 186.43
-9755295.84 5135623.31 186.03
-9755305.28 5135625.74 186.35
-9755299.69 5135622.75 185.80
-9755303.90 5135624.76 186.52
-9755302.01 5135622.50 185.78
-9755298.50 5135625.66 186.44
-9755298.72 5135624.10 186.60
-9755301.11 5135624.82 186.22
-9755301.35 5135624.31 186.63
-9755294.72 5135622.86 186.49
-9755297.88 5135622.14 185.79
-9755299.06 5135625.08 186.25
-9755302.88 5135623.92 186.01
-9755306.40 5135625.42 186.23
-9755295.53 5135624.16 186.25
-9755306.72 5135624.81 186.06
-9755294.59 5135625.57 187.06
-9755306.95 5135623.93 185.77
-9755303.23 5135625.39 186.22
-9755300.55 5135622.75 185.80
-9755294.47 5135622.65 186.49
-9755304.63 5135625.14 186.23
-9755297.28 5135624.46 186.26
-9755306.81 5135623.46 186.27
-9755306.14 5135623.09 185.79
-9755301.40 5135622.46 186.26
-9755302.00 5135625.59 186.27
-9755300.82 5135625.08 186.22
-9755298.99 5135622.85 186.39
-9755294.89 5135623.00 186.41
-9755298.50 5135624.80 186.24
-9755307.32 5135626.08 186.43
-9755301.44 5135622.25 185.78
-9755297.58 5135623.02 186.00
-9755299.64 5135623.90 186.02
-9755302.52 5135623.38 186.00
-9755302.32 5135623.94 186.01
-9755296.43 5135624.48 186.31
-9755296.68 5135625.09 186.40
-9755301.13 5135623.93 186.01
-9755294.69 5135622.74 186.02
-9755295.55 5135624.85 186.42
-9755301.42 5135625.67 186.70
-9755300.86 5135622.49 185.80
-9755303.82 5135623.94 186.00
-9755307.12 5135625.28 186.72
-9755302.99 5135622.39 186.23
-9755300.50 5135622.98 186.29
-9755294.96 5135625.41 186.45
-9755295.84 5135622.74 185.99
-9755297.30 5135625.69 186.48
-9755298.78 5135626.16 187.04
-9755307.59 5135623.39 185.79
-9755306.15 5135624.23 186.02
-9755302.36 5135622.48 186.30
-9755299.04 5135625.97 186.44
-9755294.62 5135624.42 186.77
-9755292.62 5135624.44 186.57
-9755293.47 5135625.49 186.99
-9755292.59 5135622.68 186.01
-9755292.87 5135624.74 186.43
-9755292.73 5135622.67 186.57
-9755299.85 5135610.32 183.97
-9755301.23 5135610.31 183.96
-9755295.57 5135611.89 183.92
-9755304.45 5135611.63 183.69
-9755303.79 5135611.59 183.68
-9755294.70 5135611.58 183.86
-9755305.48 5135610.72 183.97
-9755295.88 5135611.60 183.82
-9755304.01 5135611.02 184.00
-9755294.15 5135610.58 184.15
-9755299.44 5135611.61 184.19
-9755305.62 5135611.66 183.65
-9755307.13 5135611.08 183.54
-9755296.13 5135610.77 183.72
-9755304.14 5135610.74 183.52
-9755300.90 5135611.32 183.71
-9755307.39 5135610.47 183.39
-9755304.70 5135611.06 183.53
-9755296.88 5135610.35 184.01
-9755301.79 5135611.59 183.73
-9755302.87 5135611.23 184.15
-9755299.98 5135610.72 183.54
-9755299.71 5135611.67 184.28
-9755294.99 5135610.98 183.73
-9755297.92 5135611.03 183.71
-9755292.38 5135610.72 183.74
-9755292.90 5135610.96 184.31
-9755292.95 5135610.07 183.53
-9755293.81 5135611.05 184.15
-9755307.96 5135607.85 182.97
-9755298.84 5135606.89 182.98
-9755302.43 5135608.06 183.11
-9755302.05 5135608.21 183.76
-9755296.24 5135608.33 183.20
-9755303.60 5135606.98 182.90
-9755300.42 5135607.83 183.58
-9755302.08 5135607.50 182.95
-9755294.73 5135606.88 183.37
-9755296.56 5135606.96 183.31
-9755304.26 5135606.95 183.39
-9755294.72 5135607.44 183.16
-9755295.07 5135608.21 183.59
-9755295.90 5135607.47 183.15
-9755294.43 5135608.34 183.34
-9755295.54 5135608.35 183.67
