-9755305.43 5135442.30 183.51
-9755297.86 5135437.38 184.77
-9755296.62 5135437.95 185.34
-9755296.01 5135443.68 183.89
-9755299.56 5135439.28 184.33
-9755300.41 5135439.92 184.19
-9755301.29 5135444.02 184.11
-9755297.22 5135439.43 184.54
-9755299.16 5135441.48 184.08
-9755306.91 5135440.50 183.69
-9755300.43 5135443.38 183.65
-9755298.91 5135440.46 184.16
-9755308.11 5135441.66 183.50
-9755308.93 5135440.47 184.05
-9755306.47 5135442.30 183.92
-9755298.51 5135441.85 184.48
-9755304.60 5135437.44 184.30
-9755302.57 5135441.33 183.86
-9755306.34 5135443.80 183.16
-9755309.02 5135441.44 183.50
-9755303.70 5135442.57 183.58
-9755304.87 5135441.37 183.68
-9755306.92 5135444.34 183.15
-9755300.72 5135441.61 183.90
-9755302.77 5135441.36 183.83
-9755307.78 5135443.51 183.17
-9755309.03 5135436.90 184.27
-9755295.75 5135438.88 184.73
-9755305.54 5135439.33 184.49
-9755296.33 5135442.69 184.64
-9755306.17 5135442.58 183.44
-9755295.76 5135439.79 184.55
-9755300.59 5135437.52 185.17
-9755298.40 5135441.97 183.92
-9755308.45 5135437.23 184.14
-9755299.25 5135442.84 183.72
-9755305.51 5135443.38 183.83
-9755306.84 5135443.51 183.24
-9755307.50 5135443.18 183.31
-9755298.69 5135439.87 184.32
-9755305.43 5135443.79 183.32
-9755307.74 5135439.42 184.33
-9755297.22 5135436.81 184.94
-9755305.76 5135443.40 183.33
-9755297.57 5135438.42 185.18
-9755297.22 5135437.11 184.95
-9755303.20 5135442.28 184.11
-9755300.77 5135440.72 184.53
-9755301.99 5135436.88 184.72
-9755307.54 5135437.24 184.29
-9755304.54 5135443.45 183.41
-9755304.28 5135438.10 184.33
-9755306.72 5135441.61 184.11
-9755296.01 5135441.01 184.32
-9755303.70 5135439.55 184.09
-9755304.84 5135439.14 184.71
-9755301.63 5135439.58 184.13
-9755303.23 5135443.32 184.08
-9755301.33 5135444.04 183.52
-9755296.94 5135441.04 184.32
-9755304.87 5135438.68 184.11
-9755306.04 5135436.90 184.29
-9755300.49 5135436.55 184.76
-9755300.48 5135442.25 183.75
-9755304.85 5135442.28 183.54
-9755295.77 5135443.91 184.42
-9755298.70 5135437.74 184.73
-9755305.46 5135442.60 183.93
-9755298.95 5135441.91 183.90
-9755303.71 5135438.93 184.19
-9755302.81 5135440.46 183.98
-9755303.99 5135436.57 184.54
-9755304.57 5135438.69 184.12
-9755296.37 5135442.91 183.90
-9755296.92 5135441.29 184.28
-9755307.24 5135437.77 184.10
-9755303.12 5135436.90 184.60
-9755298.36 5135440.86 184.13
-9755299.57 5135440.19 184.08
-9755299.56 5135444.27 183.52
-9755306.62 5135439.77 184.29
-9755292.54 5135437.94 185.14
-9755293.40 5135436.99 185.36
-9755292.51 5135441.00 184.69
-9755292.48 5135441.56 184.53
-9755293.95 5135443.99 183.99
-9755292.60 5135437.37 185.82
-9755292.50 5135442.74 184.30
-9755294.15 5135440.24 184.72
-9755292.50 5135440.65 184.73
-9755293.65 5135438.89 184.95
-9755292.60 5135438.54 185.56
-9755292.49 5135442.40 184.34
-9755292.80 5135438.45 185.57
-9755294.64 5135436.82 185.75
-9755293.99 5135436.73 185.76
-9755293.72 5135439.36 185.25
-9755294.22 5135436.73 185.79
-9755293.34 5135439.47 184.75
-9755292.55 5135438.59 185.08
-9755295.45 5135438.58 184.77
-9755292.89 5135437.60 185.80
-9755293.16 5135440.66 184.65
-9755295.11 5135443.67 183.91
-9755293.26 5135439.71 185.25
-9755294.24 5135441.30 184.37
-9755293.11 5135441.01 184.53
-9755294.52 5135439.52 184.75
-9755295.42 5135440.39 184.54
-9755295.61 5135442.33 184.70
-9755294.57 5135437.27 185.79
-9755294.07 5135439.26 184.52
-9755294.06 5135440.57 185.00
-9755293.33 5135443.33 184.10
-9755294.60 5135436.52 185.18
-9755293.88 5135441.52 184.52
-9755294.56 5135444.29 183.89
-9755295.55 5135437.25 184.97
-9755293.78 5135440.48 184.58
-9755293.71 5135438.00 185.53
-9755295.29 5135442.16 184.26
-9755294.78 5135443.68 183.92
-9755292.79 5135443.67 184.09
-9755293.17 5135438.14 185.68
-9755294.26 5135441.52 184.79
-9755294.63 5135440.95 184.54
-9755293.65 5135441.86 184.34
-9755294.27 5135437.38 185.15
-9755295.40 5135443.93 183.91
-9755306.31 5135446.85 180.93
-9755298.06 5135445.21 183.53
-9755301.60 5135446.69 183.12
-9755295.77 5135446.92 184.04
-9755306.85 5135446.85 180.93
-9755303.98 5135444.34 183.32
-9755300.68 5135444.12 184.16
-9755308.66 5135445.41 180.91
-9755308.32 5135446.00 180.91
-9755303.05 5135445.52 183.17
-9755306.89 5135446.07 183.50
-9755299.19 5135444.87 183.51
-9755297.43 5135446.38 183.34
-9755307.16 5135444.99 182.98
-9755296.64 5135445.25 183.56
-9755304.98 5135446.96 182.91
-9755306.91 5135446.37 180.91
-9755296.38 5135445.43 183.54
-9755306.24 5135446.48 180.99
-9755299.22 5135444.67 184.05
-9755296.01 5135445.46 183.57
-9755307.76 5135444.96 182.97
-9755305.67 5135446.47 180.93
-9755305.42 5135444.69 183.17
-9755300.68 5135446.43 183.17
-9755302.79 5135446.38 182.99
-9755305.75 5135445.26 183.09
-9755301.34 5135445.53 183.20
-9755296.32 5135444.56 183.70
-9755296.57 5135446.96 183.36
-9755302.24 5135446.69 182.96
-9755296.62 5135446.29 184.08
-9755306.92 5135444.69 183.16
-9755301.64 5135446.38 183.66
-9755299.26 5135445.51 183.35
-9755297.16 5135446.96 183.35
-9755297.13 5135444.89 183.95
-9755304.52 5135445.85 183.06
-9755301.63 5135444.30 183.36
-9755301.00 5135446.04 183.18
-9755299.55 5135445.17 183.38
-9755295.63 5135445.26 184.31
-9755307.68 5135445.93 180.95
-9755300.71 5135445.22 183.35
-9755303.61 5135444.71 183.22
-9755306.70 5135446.03 182.97
-9755307.80 5135445.10 180.49
-9755306.62 5135446.36 183.49
-9755297.46 5135445.17 183.53
-9755307.14 5135445.47 180.46
-9755306.29 5135446.63 183.50
-9755296.83 5135446.30 183.47
-9755297.15 5135445.14 183.54
-9755306.29 5135446.25 180.48
-9755308.98 5135445.18 180.47
-9755305.35 5135446.24 180.45
-9755308.09 5135445.82 183.48
-9755302.14 5135446.68 183.53
-9755305.73 5135446.21 183.54
-9755308.12 5135444.98 182.97
-9755300.73 5135446.20 183.55
-9755300.13 5135445.22 183.35
-9755305.61 5135445.88 180.54
-9755304.80 5135446.57 180.47
-9755307.45 5135446.22 180.45
-9755306.59 5135446.28 180.46
-9755306.57 5135445.54 182.98
-9755305.94 5135446.66 180.94
-9755296.90 5135445.50 183.52
-9755307.73 5135445.56 182.99
-9755306.60 5135445.45 180.49
-9755303.93 5135446.43 182.97
-9755304.19 5135446.83 180.46
-9755305.67 5135446.25 180.45
-9755302.80 5135444.59 183.34
-9755301.85 5135444.60 183.35
-9755301.40 5135446.56 183.68
-9755297.91 5135446.34 183.76
-9755298.63 5135445.22 184.05
-9755308.31 5135445.44 180.47
-9755302.78 5135445.24 183.17
-9755307.46 5135445.35 180.46
-9755305.44 5135445.82 183.01
-9755294.77 5135444.59 183.88
-9755295.41 5135446.01 183.53
-9755295.43 5135445.86 184.13
-9755293.34 5135444.60 183.91
-9755292.41 5135446.02 183.75
-9755294.02 5135445.48 184.28
-9755294.30 5135446.31 184.10
-9755294.53 5135445.46 183.70
-9755293.40 5135444.54 184.45
-9755294.81 5135444.88 183.75
-9755294.29 5135444.60 183.90
-9755294.21 5135445.43 183.71
-9755294.90 5135445.32 184.33
-9755293.29 5135446.06 183.70
-9755294.28 5135445.19 183.73
-9755294.58 5135445.96 184.08
-9755292.52 5135444.82 183.90
-9755294.25 5135446.05 183.71
-9755292.46 5135444.77 184.47
-9755294.82 5135446.36 183.54
-9755295.41 5135436.50 185.15
-9755302.23 5135436.02 184.86
-9755296.98 5135433.87 185.57
-9755297.11 5135436.00 185.79
-9755299.63 5135434.80 185.15
-9755303.39 5135435.42 184.78
-9755306.39 5135434.22 184.92
-9755298.77 5135434.73 185.15
-9755297.57 5135436.37 184.97
-9755299.02 5135435.96 184.95
-9755303.74 5135436.61 184.55
-9755297.75 5135435.31 185.15
-9755307.53 5135436.36 184.33
-9755301.32 5135436.52 184.78
-9755308.19 5135435.21 185.02
-9755298.15 5135434.18 185.37
-9755306.97 5135435.98 184.85
-9755296.99 5135435.56 185.75
-9755295.78 5135434.13 185.58
-9755299.66 5135434.52 185.17
-9755304.80 5135435.74 185.27
-9755306.61 5135436.39 184.96
-9755303.23 5135435.07 185.39
-9755307.54 5135434.68 185.23
-9755308.68 5135434.84 185.16
-9755295.78 5135434.74 185.39
-9755298.17 5135435.62 185.50
-9755296.63 5135435.91 185.14
-9755301.39 5135435.68 184.96
-9755304.03 5135435.67 184.73
-9755303.76 5135434.77 184.94
-9755304.66 5135434.23 184.94
-9755306.31 5135436.29 185.06
-9755298.47 5135434.76 185.21
-9755308.43 5135436.13 184.34
-9755301.98 5135434.77 185.05
-9755307.44 5135435.63 185.05
-9755304.64 5135435.13 184.75
-9755303.53 5135434.63 185.60
-9755301.97 5135435.09 185.02
-9755299.56 5135435.62 184.95
-9755299.61 5135435.92 184.94
-9755308.73 5135434.49 185.32
-9755300.13 5135435.05 185.16
-9755304.35 5135434.79 185.28
-9755299.87 5135435.95 184.94
-9755306.42 5135436.05 184.54
-9755307.91 5135435.08 184.57
-9755299.89 5135434.73 185.15
-9755307.09 5135434.82 185.34
-9755298.72 5135433.91 185.37
-9755306.69 5135434.84 184.73
-9755299.34 5135433.86 185.38
-9755301.68 5135434.76 185.08
-9755300.79 5135436.39 184.78
-9755309.00 5135434.83 184.54
-9755305.74 5135434.77 184.74
-9755294.90 5135436.70 185.67
-9755293.15 5135436.51 185.37
-9755292.55 5135434.07 185.80
-9755293.39 5135435.60 185.56
-9755293.75 5135434.64 185.59
-9755294.58 5135434.60 186.15
-9755293.09 5135436.19 185.38
-9755293.13 5135434.77 185.62
-9755294.31 5135434.72 185.57
-9755295.34 5135435.85 185.80
-9755293.12 5135435.28 185.59
-9755293.04 5135434.64 185.41
-9755293.38 5135434.69 185.62
-9755293.72 5135435.28 185.59
-9755295.41 5135436.02 185.19
-9755294.59 5135434.68 185.57
-9755309.16 5135421.38 187.68
-9755309.29 5135429.68 186.11
-9755309.12 5135429.76 185.57
-9755307.00 5135427.38 186.03
-9755295.88 5135428.82 186.43
-9755304.71 5135430.35 185.59
-9755306.99 5135427.90 186.00
-9755304.54 5135422.35 187.18
-9755305.77 5135428.84 185.85
-9755302.28 5135425.50 187.22
-9755298.83 5135421.75 188.18
-9755306.67 5135428.55 185.93
-9755301.14 5135425.83 186.67
-9755296.45 5135426.40 186.88
-9755307.65 5135423.69 186.89
-9755302.35 5135428.92 186.03
-9755298.82 5135424.03 187.32
-9755299.92 5135425.41 187.36
-9755298.25 5135429.08 186.29
-9755295.87 5135421.56 188.01
-9755301.73 5135424.62 186.87
-9755300.65 5135420.35 188.29
-9755305.63 5135423.74 186.87
-9755303.18 5135428.82 186.00
-9755301.43 5135428.50 186.23
-9755304.80 5135426.15 186.90
-9755301.16 5135421.11 187.68
-9755305.00 5135420.92 188.01
-9755306.07 5135422.75 187.42
-9755304.75 5135421.94 187.33
-9755297.36 5135422.81 187.67
-9755304.07 5135428.24 186.04
-9755307.32 5135429.76 185.57
-9755301.69 5135430.23 185.81
-9755308.25 5135429.15 185.80
-9755309.12 5135422.94 186.89
-9755299.73 5135426.07 186.88
-9755303.24 5135420.48 187.62
-9755305.01 5135426.13 186.43
-9755299.06 5135424.55 187.58
-9755299.72 5135420.73 187.80
-9755308.66 5135421.97 187.70
-9755298.78 5135420.75 187.84
-9755307.02 5135427.51 186.38
-9755307.05 5135424.92 186.64
-9755305.54 5135428.26 185.97
-9755307.35 5135422.94 186.89
-9755305.28 5135427.94 185.99
-9755302.88 5135424.05 187.49
-9755305.53 5135424.95 186.64
-9755307.30 5135427.26 186.09
-9755297.04 5135420.70 188.11
-9755296.08 5135427.01 186.88
-9755304.20 5135424.65 186.71
-9755297.06 5135421.28 187.98
-9755305.90 5135424.05 187.29
-9755300.31 5135421.35 187.65
-9755308.04 5135427.11 186.63
-9755299.84 5135422.18 188.09
-9755300.35 5135422.46 187.41
-9755301.78 5135424.90 186.87
-9755297.90 5135425.78 187.02
-9755296.73 5135427.56 186.65
-9755307.99 5135425.29 186.44
-9755302.00 5135424.94 186.87
-9755304.04 5135427.93 186.20
-9755303.22 5135421.36 187.57
-9755304.63 5135428.98 186.42
-9755297.64 5135425.81 187.03
-9755299.67 5135427.88 186.49
-9755305.36 5135425.52 187.24
-9755308.74 5135429.49 185.59
-9755304.45 5135423.71 186.88
-9755302.96 5135420.54 188.07
-9755306.19 5135424.61 186.64
-9755295.81 5135424.28 187.33
-9755299.04 5135426.95 186.74
-9755308.24 5135421.65 187.13
-9755297.44 5135427.11 186.67
-9755297.31 5135429.98 186.22
-9755298.49 5135426.38 186.87
-9755301.47 5135422.57 187.33
-9755301.66 5135423.31 187.21
-9755300.69 5135426.01 187.33
-9755299.72 5135420.14 188.03
-9755305.62 5135420.35 188.18
-9755309.06 5135430.62 185.35
-9755302.94 5135423.38 187.09
-9755298.19 5135425.47 187.06
-9755299.37 5135426.38 187.23
-9755309.47 5135420.19 187.34
-9755298.19 5135423.64 187.44
-9755297.50 5135426.01 187.37
-9755306.16 5135426.42 186.40
-9755302.93 5135425.21 186.67
-9755298.21 5135422.46 187.58
-9755296.37 5135428.70 186.43
-9755308.57 5135420.78 187.32
-9755304.40 5135420.75 187.57
-9755299.67 5135425.60 187.14
-9755302.26 5135430.03 185.83
-9755302.35 5135429.12 186.40
-9755297.06 5135427.90 187.03
-9755308.82 5135426.75 186.20
-9755297.59 5135429.48 186.78
-9755304.10 5135425.24 186.65
-9755297.56 5135428.75 186.44
-9755303.77 5135429.05 186.00
-9755301.17 5135428.20 186.24
-9755306.48 5135426.71 186.81
-9755301.73 5135428.80 186.22
-9755301.78 5135420.44 187.78
-9755308.78 5135423.76 186.65
-9755302.34 5135427.13 187.00
-9755299.74 5135420.63 188.34
-9755306.68 5135426.47 186.23
-9755297.70 5135430.21 186.57
-9755303.81 5135430.67 186.19
-9755304.87 5135424.27 187.27
-9755304.12 5135420.77 187.57
-9755307.03 5135425.29 186.44
-9755304.39 5135425.55 187.14
-9755299.07 5135424.26 187.13
-9755308.16 5135429.74 185.58
-9755298.47 5135430.27 186.03
-9755305.85 5135426.80 186.66
-9755302.91 5135428.60 186.11
-9755300.57 5135423.08 187.33
-9755297.07 5135423.05 187.64
-9755297.91 5135421.31 187.83
-9755308.55 5135428.07 186.43
-9755307.33 5135425.55 186.43
-9755301.17 5135423.97 187.10
-9755296.15 5135422.17 187.83
-9755309.63 5135423.99 187.08
-9755306.48 5135423.44 186.87
-9755299.64 5135423.96 187.11
-9755299.06 5135420.07 188.55
-9755307.90 5135426.98 186.22
-9755303.81 5135424.66 187.25
-9755307.90 5135425.81 186.84
-9755297.11 5135423.13 187.59
-9755306.19 5135422.27 187.11
-9755305.40 5135423.19 187.00
-9755303.73 5135427.32 186.21
-9755296.43 5135422.96 187.72
-9755301.49 5135420.74 187.79
-9755308.26 5135427.33 186.01
-9755307.00 5135430.66 185.54
-9755303.25 5135421.66 187.37
-9755301.40 5135425.76 186.66
-9755306.14 5135429.78 186.07
-9755308.69 5135425.73 186.42
-9755300.68 5135420.18 187.82
-9755296.75 5135422.19 187.82
-9755296.74 5135423.08 187.66
-9755297.87 5135426.11 186.97
-9755307.38 5135423.93 187.23
-9755301.82 5135419.85 187.78
-9755296.12 5135424.04 187.36
-9755300.93 5135420.41 187.79
-9755298.80 5135419.79 188.02
-9755300.03 5135421.59 187.57
-9755301.70 5135427.86 186.43
-9755303.16 5135423.69 187.59
-9755302.36 5135422.20 187.32
-9755296.91 5135429.31 186.84
-9755303.13 5135429.44 186.00
-9755306.18 5135423.49 187.40
-9755296.17 5135423.15 187.58
-9755303.48 5135425.53 186.63
-9755300.34 5135420.39 187.82
-9755306.48 5135420.81 187.36
-9755304.43 5135424.61 186.70
-9755304.37 5135427.05 186.24
-9755295.79 5135428.35 187.16
-9755296.17 5135428.19 187.18
-9755298.92 5135423.20 188.02
-9755296.18 5135424.53 187.78
-9755304.06 5135425.89 186.49
-9755296.18 5135420.68 188.15
-9755304.39 5135419.84 187.79
-9755296.51 5135428.88 187.00
-9755307.58 5135425.81 186.88
-9755305.29 5135420.14 187.56
-9755298.50 5135424.23 187.29
-9755305.54 5135425.55 186.43
-9755307.41 5135422.60 187.10
-9755299.77 5135424.95 186.95
-9755308.26 5135425.94 186.32
-9755300.24 5135429.09 186.24
-9755304.48 5135424.53 187.28
-9755301.94 5135427.90 186.22
-9755304.14 5135421.61 187.33
-9755302.24 5135429.36 186.62
-9755307.62 5135426.46 186.21
-9755303.70 5135423.56 187.52
-9755308.22 5135423.46 186.89
-9755307.02 5135428.44 186.45
-9755302.90 5135423.97 187.02
-9755307.04 5135424.10 186.66
-9755303.58 5135423.79 187.49
-9755302.71 5135419.81 187.79
-9755304.99 5135426.83 186.68
-9755304.93 5135427.92 186.02
-9755307.73 5135424.71 186.65
-9755299.59 5135428.48 186.37
-9755309.04 5135430.40 185.36
-9755302.86 5135429.01 186.47
-9755301.20 5135424.57 186.93
-9755299.11 5135423.35 187.34
-9755299.21 5135422.93 187.38
-9755296.74 5135427.84 186.64
-9755301.96 5135427.02 186.44
-9755300.49 5135430.27 186.01
-9755300.31 5135420.69 187.81
-9755305.32 5135420.51 188.12
-9755302.86 5135427.89 186.21
-9755303.10 5135429.84 186.35
-9755305.18 5135425.03 187.25
-9755304.97 5135421.37 187.34
-9755297.93 5135427.89 186.64
-9755307.02 5135428.21 186.46
-9755304.20 5135425.74 187.10
-9755301.47 5135421.61 187.55
-9755308.21 5135421.88 187.50
-9755301.67 5135429.42 186.01
-9755298.08 5135421.00 187.86
-9755299.72 5135423.42 187.34
-9755299.03 5135430.22 186.09
-9755297.35 5135424.53 187.31
-9755297.95 5135420.42 188.04
-9755297.90 5135422.47 187.66
-9755302.03 5135419.79 188.23
-9755304.92 5135425.82 186.44
-9755300.03 5135422.84 187.34
-9755306.53 5135430.54 186.05
-9755302.05 5135423.07 187.49
-9755306.73 5135423.75 186.88
-9755299.95 5135430.60 185.99
-9755296.40 5135430.78 186.18
-9755307.97 5135423.17 186.87
-9755308.75 5135430.65 185.36
-9755301.66 5135430.58 185.79
-9755306.71 5135428.83 185.79
-9755307.80 5135430.61 185.95
-9755298.24 5135420.91 187.89
-9755303.01 5135428.16 186.68
-9755308.21 5135419.86 187.55
-9755305.60 5135425.83 186.42
-9755307.05 5135430.69 185.43
-9755292.92 5135420.64 188.25
-9755294.35 5135425.45 187.32
-9755293.20 5135425.42 187.34
-9755294.64 5135423.32 187.76
-9755294.96 5135424.55 187.89
-9755293.92 5135423.33 188.17
-9755294.10 5135427.49 186.87
-9755292.62 5135421.25 188.24
-9755295.53 5135425.77 187.09
-9755295.41 5135421.83 188.26
-9755295.54 5135426.51 187.08
-9755293.49 5135423.97 187.57
-9755295.54 5135424.62 187.33
-9755292.59 5135429.86 186.63
-9755292.90 5135424.50 187.56
-9755293.32 5135423.31 188.30
-9755294.97 5135422.17 187.82
-9755293.48 5135425.77 187.33
-9755293.14 5135430.48 186.44
-9755292.87 5135427.53 187.48
-9755295.20 5135427.71 186.86
-9755292.95 5135419.72 188.48
-9755294.83 5135422.17 187.88
-9755293.42 5135426.66 187.10
-9755293.45 5135428.76 186.66
-9755293.46 5135426.92 187.08
-9755293.82 5135423.05 187.80
-9755292.54 5135426.00 187.32
-9755295.52 5135430.51 186.24
-9755294.72 5135424.27 187.57
-9755292.44 5135426.49 187.29
-9755294.05 5135420.68 188.72
-9755294.63 5135428.72 186.62
-9755294.74 5135419.87 188.40
-9755292.84 5135422.88 187.91
-9755294.34 5135426.92 187.46
-9755294.99 5135420.39 188.78
-9755293.51 5135421.61 188.03
-9755293.54 5135421.53 188.63
-9755293.76 5135427.85 186.89
-9755294.40 5135424.84 187.34
-9755294.57 5135424.24 188.08
-9755294.95 5135426.58 187.06
-9755292.64 5135428.53 187.43
-9755292.93 5135425.44 187.34
-9755295.00 5135421.02 188.06
-9755293.22 5135426.35 187.11
-9755293.26 5135420.31 188.86
-9755295.63 5135420.07 188.30
-9755295.07 5135427.54 187.22
-9755293.49 5135419.47 188.49
-9755295.49 5135426.67 186.89
-9755294.51 5135430.45 186.41
-9755294.40 5135420.90 188.24
-9755294.05 5135423.35 187.78
-9755293.36 5135428.71 187.24
-9755293.74 5135429.66 186.46
-9755295.50 5135427.72 186.80
-9755295.79 5135427.29 187.49
-9755294.95 5135428.42 186.65
-9755294.38 5135430.47 186.36
-9755295.53 5135421.84 187.90
-9755294.37 5135425.72 187.29
-9755294.99 5135423.62 187.56
-9755295.30 5135428.75 187.10
-9755294.90 5135422.94 188.31
-9755294.96 5135430.15 186.24
-9755293.43 5135425.77 187.87
-9755294.49 5135428.09 187.25
-9755294.92 5135429.31 186.44
-9755294.41 5135430.27 186.82
-9755309.27 5135433.12 185.47
-9755308.76 5135434.22 184.74
-9755298.77 5135433.44 185.56
-9755302.83 5135430.62 185.79
-9755306.16 5135432.37 185.70
-9755298.42 5135430.53 186.01
-9755303.22 5135433.08 185.32
-9755299.66 5135433.88 185.37
-9755304.98 5135432.29 185.86
-9755302.54 5135432.03 185.60
-9755301.33 5135433.28 185.39
-9755295.80 5135431.10 186.06
-9755301.37 5135432.02 185.59
-9755304.95 5135431.56 185.38
-9755305.81 5135432.23 185.76
-9755307.34 5135432.06 185.65
-9755306.95 5135432.89 185.45
-9755303.14 5135432.69 185.36
-9755299.05 5135432.11 186.17
-9755298.88 5135432.13 186.26
-9755298.16 5135431.66 186.25
-9755304.59 5135433.58 185.15
-9755307.31 5135433.01 184.96
-9755296.99 5135433.52 185.58
-9755304.98 5135432.68 185.14
-9755306.71 5135432.39 185.12
-9755306.14 5135432.68 185.14
-9755298.15 5135432.65 185.61
-9755306.12 5135433.62 184.94
-9755298.75 5135432.99 185.57
-9755299.08 5135432.64 185.58
-9755302.80 5135433.39 185.74
-9755296.36 5135432.35 185.79
-9755300.53 5135433.30 185.44
-9755306.09 5135433.94 184.94
-9755307.12 5135433.95 185.36
-9755300.23 5135433.58 185.38
-9755300.81 5135432.98 185.49
-9755305.80 5135431.51 185.36
-9755301.87 5135430.67 186.41
-9755304.99 5135432.69 185.77
-9755298.81 5135433.10 186.03
-9755306.64 5135432.10 185.16
-9755298.67 5135432.42 185.63
-9755303.34 5135433.05 185.66
-9755298.73 5135431.41 185.79
-9755301.65 5135432.65 185.47
-9755305.74 5135433.67 185.58
-9755305.84 5135433.66 184.94
-9755307.01 5135431.21 185.35
-9755296.38 5135432.00 185.97
-9755304.10 5135433.92 185.08
-9755307.06 5135433.52 185.51
-9755303.72 5135433.69 185.55
-9755296.96 5135431.13 186.00
-9755309.09 5135431.35 185.18
-9755306.09 5135432.40 185.14
-9755309.09 5135433.73 184.77
-9755299.28 5135433.58 185.39
-9755296.97 5135431.45 185.99
-9755301.10 5135432.98 185.48
-9755303.87 5135432.83 185.66
-9755305.27 5135433.08 185.67
-9755299.92 5135431.10 185.91
-9755296.70 5135431.21 186.60
-9755295.83 5135432.02 186.00
-9755306.68 5135431.20 185.35
-9755296.77 5135432.97 186.22
-9755296.95 5135432.29 185.79
-9755308.81 5135433.62 184.93
-9755303.45 5135433.85 185.58
-9755306.78 5135432.99 185.12
-9755305.52 5135433.63 184.95
-9755296.33 5135433.25 185.59
-9755308.72 5135432.58 184.99
-9755300.22 5135431.19 185.85
-9755309.04 5135432.72 184.94
-9755298.96 5135433.60 186.03
-9755297.66 5135433.86 185.43
-9755298.29 5135433.31 186.08
-9755304.92 5135433.90 184.95
-9755308.86 5135432.61 185.54
-9755303.07 5135432.70 185.73
-9755302.14 5135432.17 185.89
-9755308.16 5135432.77 184.96
-9755300.01 5135433.32 185.92
-9755294.59 5135430.86 186.22
-9755295.55 5135432.06 186.00
-9755294.90 5135432.33 186.00
-9755294.20 5135432.46 186.61
-9755295.41 5135433.49 185.78
-9755293.18 5135433.79 185.79
-9755295.52 5135432.97 185.77
-9755294.00 5135432.61 186.01
-9755294.64 5135431.17 186.22
-9755295.21 5135432.04 186.00
-9755295.17 5135433.75 185.63
-9755293.72 5135431.92 186.59
-9755294.94 5135431.70 186.01
-9755293.41 5135432.63 186.00
-9755294.64 5135433.19 185.79
-9755295.52 5135431.20 186.58
-9755294.92 5135431.91 186.59
-9755294.31 5135432.35 186.00
-9755294.02 5135430.83 186.22
-9755292.68 5135431.05 186.86
-9755292.58 5135432.64 186.04
-9755292.82 5135431.42 186.23
-9755295.26 5135431.19 186.20
-9755293.74 5135431.09 186.21
-9755293.04 5135432.51 186.49
-9755293.50 5135431.71 186.65
-9755305.58 5135418.75 187.81
-9755303.02 5135419.52 187.78
-9755298.29 5135417.56 188.49
-9755297.24 5135419.22 188.86
-9755308.52 5135419.36 187.57
-9755298.23 5135418.82 188.82
-9755306.82 5135417.50 188.03
-9755305.84 5135418.89 188.27
-9755301.24 5135417.43 188.46
-9755308.91 5135417.52 188.01
-9755300.50 5135417.83 188.28
-9755309.15 5135419.29 187.56
-9755300.58 5135418.94 188.14
-9755304.70 5135417.70 188.22
-9755305.28 5135417.66 188.20
-9755301.53 5135418.67 188.23
-9755305.30 5135419.57 187.77
-9755298.26 5135418.96 188.26
-9755307.10 5135418.69 187.79
-9755300.91 5135418.31 188.24
-9755296.82 5135419.24 188.39
-9755298.87 5135417.42 188.51
-9755300.78 5135418.34 188.89
-9755305.06 5135417.47 188.24
-9755296.81 5135418.05 188.55
-9755300.29 5135418.28 188.24
-9755297.92 5135417.76 188.51
-9755305.38 5135418.79 187.85
-9755300.92 5135417.65 188.44
-9755297.00 5135419.19 188.34
-9755307.40 5135418.43 187.83
-9755306.50 5135417.80 188.02
-9755299.77 5135418.93 188.27
-9755308.74 5135418.41 188.17
-9755301.76 5135419.24 188.02
-9755302.47 5135419.53 187.95
-9755307.18 5135418.39 187.85
-9755298.78 5135419.73 188.55
-9755307.75 5135417.48 188.01
-9755297.14 5135418.03 188.50
-9755299.08 5135419.06 188.69
-9755298.85 5135418.91 188.26
-9755302.07 5135417.78 188.24
-9755300.71 5135418.08 188.70
-9755307.37 5135419.57 187.57
-9755300.82 5135419.70 188.58
-9755302.98 5135418.66 187.99
-9755305.04 5135418.87 188.46
-9755306.52 5135419.31 187.81
-9755303.22 5135418.64 188.00
-9755306.49 5135418.96 187.79
-9755296.78 5135417.36 188.72
-9755306.79 5135418.97 187.79
-9755301.23 5135418.04 188.81
-9755301.28 5135417.32 189.03
-9755301.25 5135417.67 188.29
-9755309.44 5135417.86 187.83
-9755307.75 5135418.40 187.81
-9755303.60 5135419.54 187.78
-9755293.23 5135418.23 188.71
-9755293.55 5135419.17 188.51
-9755295.33 5135418.00 188.74
-9755294.47 5135418.87 188.52
-9755294.47 5135419.19 188.49
-9755294.47 5135419.11 189.08
-9755292.96 5135418.53 188.71
-9755292.38 5135419.19 188.70
-9755293.25 5135419.41 189.09
-9755344.73 5135431.40 181.19
-9755337.79 5135431.71 184.76
-9755330.27 5135431.41 184.49
-9755333.14 5135432.01 184.74
-9755325.40 5135431.69 185.00
-9755333.52 5135431.46 184.50
-9755335.95 5135431.71 184.71
-9755329.41 5135431.64 184.51
-9755328.22 5135431.42 184.60
-9755330.33 5135431.87 181.06
-9755344.64 5135442.91 181.22
-9755344.67 5135441.94 183.60
-9755343.82 5135436.09 181.15
-9755344.64 5135437.89 181.16
-9755339.04 5135437.57 181.19
-9755343.83 5135432.87 181.12
-9755338.14 5135442.88 181.21
-9755334.07 5135432.16 181.08
-9755328.18 5135432.30 184.50
-9755328.20 5135432.58 184.91
-9755324.65 5135433.73 184.36
-9755327.03 5135434.25 181.09
-9755334.32 5135442.73 183.57
-9755328.12 5135432.91 184.65
-9755324.08 5135432.23 184.49
-9755328.98 5135432.16 181.12
-9755335.26 5135438.70 181.20
-9755328.73 5135432.45 181.10
-9755331.11 5135435.42 181.16
-9755326.92 5135443.67 181.16
-9755325.26 5135433.43 184.58
-9755323.69 5135443.06 181.18
-9755327.29 5135434.02 183.84
-9755323.54 5135434.24 181.20
-9755322.90 5135434.69 183.82
-9755327.81 5135441.63 181.15
-9755324.95 5135432.28 184.48
-9755331.09 5135438.43 181.19
-9755322.85 5135436.84 181.26
-9755327.85 5135443.57 183.57
-9755331.10 5135440.79 181.18
-9755327.28 5135433.70 181.07
-9755329.02 5135443.57 183.57
-9755327.97 5135433.18 184.20
-9755325.79 5135433.94 184.14
-9755325.54 5135433.75 184.26
-9755324.11 5135433.58 184.51
-9755328.57 5135432.19 181.09
-9755333.13 5135443.03 183.59
-9755335.24 5135442.89 181.21
-9755327.07 5135432.95 181.11
-9755324.91 5135434.05 184.08
-9755331.92 5135440.77 181.19
-9755331.11 5135432.31 184.71
-9755327.64 5135432.61 184.70
-9755325.15 5135443.66 181.17
-9755326.74 5135433.61 184.28
-9755343.87 5135430.31 184.75
-9755345.04 5135428.22 184.77
-9755338.55 5135426.41 185.36
-9755337.36 5135428.65 184.95
-9755339.72 5135427.03 185.13
-9755340.79 5135427.18 185.15
-9755337.65 5135428.84 184.78
-9755338.93 5135426.70 185.14
-9755340.96 5135427.61 184.93
-9755340.93 5135429.07 184.72
-9755339.75 5135430.55 181.04
-9755339.65 5135427.32 185.06
-9755339.70 5135426.71 185.13
-9755338.76 5135427.34 185.40
-9755339.51 5135429.73 184.57
-9755339.42 5135430.81 184.58
-9755342.32 5135430.50 181.14
-9755339.76 5135431.17 184.77
-9755342.65 5135430.00 184.54
-9755342.62 5135430.62 184.71
-9755344.72 5135429.77 184.55
-9755339.61 5135429.31 184.37
-9755342.97 5135426.40 185.15
-9755343.93 5135426.76 185.04
-9755339.18 5135429.60 185.04
-9755336.49 5135430.51 184.53
-9755343.88 5135426.43 185.14
-9755341.74 5135430.50 181.08
-9755339.78 5135426.38 185.45
-9755341.71 5135430.61 184.53
-9755335.58 5135429.10 184.79
-9755329.64 5135430.51 184.72
-9755334.70 5135426.40 185.38
-9755323.25 5135428.68 185.10
-9755329.41 5135429.30 184.93
-9755333.11 5135430.40 185.30
-9755327.92 5135429.26 185.04
-9755325.27 5135430.02 185.45
-9755331.50 5135428.16 185.14
-9755332.32 5135429.76 185.31
-9755324.36 5135430.28 185.31
-9755329.50 5135426.63 185.46
-9755326.21 5135429.55 184.92
-9755329.09 5135431.16 184.63
-9755330.88 5135427.22 185.36
-9755326.53 5135428.20 185.14
-9755335.92 5135426.37 185.37
-9755332.07 5135428.50 185.00
-9755335.31 5135428.46 184.95
-9755326.79 5135429.19 185.53
-9755325.30 5135428.67 185.13
-9755335.59 5135427.53 185.14
-9755334.49 5135428.47 184.95
-9755330.65 5135428.78 185.58
-9755326.47 5135429.63 184.91
-9755335.02 5135431.31 181.08
-9755335.58 5135430.26 184.55
-9755329.39 5135428.71 185.15
-9755333.59 5135430.53 185.00
-9755320.87 5135431.32 184.74
-9755322.84 5135434.11 184.25
-9755322.68 5135434.14 184.26
-9755322.58 5135433.77 184.59
-9755322.80 5135434.06 184.37
-9755320.82 5135434.49 184.20
-9755322.01 5135433.96 184.49
-9755321.37 5135434.63 184.13
-9755321.13 5135432.28 184.61
-9755320.51 5135434.00 184.59
-9755320.82 5135434.28 184.34
-9755321.66 5135434.63 184.02
-9755321.12 5135433.70 184.72
-9755322.81 5135440.72 181.28
-9755320.45 5135441.57 181.39
-9755321.15 5135434.34 184.31
-9755322.03 5135432.31 185.17
-9755321.97 5135434.31 184.25
-9755319.93 5135432.24 184.70
-9755319.05 5135434.41 184.46
-9755319.55 5135432.60 184.51
-9755319.62 5135432.24 184.70
-9755318.76 5135434.95 184.13
-9755319.69 5135434.32 184.58
-9755319.62 5135440.40 181.40
-9755318.81 5135433.41 184.50
-9755322.02 5135429.54 185.08
-9755321.18 5135426.63 186.02
-9755322.02 5135429.01 185.09
-9755320.57 5135429.20 185.10
-9755318.79 5135428.97 185.32
-9755320.01 5135429.57 185.12
-9755319.98 5135427.43 185.53
-9755319.40 5135430.12 185.09
-9755318.79 5135430.19 185.11
-9755337.47 5135418.59 187.27
-9755336.84 5135417.96 186.89
-9755341.83 5135418.23 186.86
-9755337.44 5135417.67 187.10
-9755340.10 5135417.70 187.34
-9755338.05 5135418.05 186.87
-9755340.09 5135417.68 186.88
-9755331.56 5135418.90 186.88
-9755328.08 5135417.36 187.32
-9755323.19 5135417.59 187.50
-9755333.91 5135418.89 186.88
-9755332.19 5135418.60 186.90
-9755323.18 5135417.40 187.89
-9755325.69 5135417.37 187.43
-9755333.06 5135418.53 186.90
-9755324.51 5135418.57 187.15
-9755331.00 5135418.53 187.12
-9755335.65 5135418.04 186.89
-9755328.59 5135417.37 187.32
-9755332.68 5135417.39 187.67
-9755327.77 5135417.34 187.32
-9755331.55 5135417.40 187.74
-9755327.42 5135417.32 187.34
-9755326.55 5135417.90 187.30
-9755331.24 5135418.61 186.91
-9755341.59 5135418.97 186.64
-9755341.26 5135418.97 186.64
-9755338.93 5135422.18 186.01
-9755341.79 5135425.51 185.36
-9755342.16 5135422.22 186.00
-9755340.69 5135426.35 185.13
-9755339.10 5135425.19 185.50
-9755336.80 5135425.99 185.37
-9755337.69 5135423.70 185.79
-9755345.07 5135422.22 185.94
-9755338.93 5135419.83 186.46
-9755339.86 5135421.96 186.40
-9755339.95 5135423.06 186.23
-9755339.20 5135420.82 186.28
-9755341.58 5135420.54 186.39
-9755341.02 5135420.76 186.22
-9755341.82 5135424.31 185.55
-9755337.96 5135423.04 186.01
-9755339.42 5135419.70 186.62
-9755342.98 5135426.26 185.77
-9755335.95 5135422.16 186.23
-9755337.69 5135419.19 186.65
-9755338.91 5135423.70 185.78
-9755337.26 5135423.21 186.25
-9755338.86 5135425.52 185.37
-9755344.18 5135421.65 186.07
-9755341.83 5135426.14 185.15
-9755338.90 5135420.69 186.44
-9755344.73 5135423.76 185.67
-9755340.96 5135423.96 185.61
-9755340.99 5135419.82 186.44
-9755336.84 5135424.90 185.58
-9755341.79 5135421.63 186.02
-9755344.25 5135420.11 186.38
-9755343.02 5135419.85 186.45
-9755338.89 5135423.21 185.78
-9755336.54 5135424.28 185.79
-9755342.42 5135422.23 186.00
-9755342.14 5135422.60 185.93
-9755338.40 5135425.19 186.07
-9755341.56 5135419.49 186.48
-9755340.08 5135421.96 186.01
-9755339.45 5135423.13 185.78
-9755341.89 5135424.88 185.38
-9755344.22 5135424.33 185.57
-9755331.84 5135419.77 186.68
-9755333.13 5135424.03 186.38
-9755325.40 5135423.94 186.03
-9755331.53 5135423.07 186.02
-9755324.80 5135420.62 187.30
-9755326.16 5135424.57 186.27
-9755331.32 5135419.76 186.71
-9755333.60 5135424.90 185.70
-9755328.28 5135425.45 185.79
-9755331.48 5135425.78 185.59
-9755331.82 5135426.36 186.03
-9755328.57 5135422.35 186.82
-9755332.71 5135425.17 185.62
-9755330.91 5135423.96 186.01
-9755325.85 5135424.76 186.34
-9755329.47 5135423.95 186.01
-9755325.92 5135419.45 187.00
-9755330.25 5135425.39 185.75
-9755325.28 5135422.03 186.99
-9755335.64 5135425.49 185.58
-9755332.81 5135420.48 187.08
-9755323.80 5135419.85 186.86
-9755325.35 5135419.33 187.41
-9755327.35 5135423.04 186.26
-9755333.64 5135424.19 186.36
-9755330.66 5135420.67 186.64
-9755323.59 5135421.86 187.04
-9755328.66 5135419.43 187.30
-9755333.59 5135422.21 186.23
-9755330.63 5135424.80 185.80
-9755333.56 5135425.71 185.58
-9755325.12 5135419.41 187.46
-9755334.46 5135424.27 185.79
-9755327.39 5135419.13 187.06
-9755324.10 5135419.70 187.00
-9755323.22 5135425.71 185.75
-9755333.64 5135424.53 185.81
-9755331.61 5135422.01 186.73
-9755323.77 5135422.15 186.42
-9755328.26 5135423.92 186.03
-9755328.60 5135420.67 186.64
-9755323.33 5135421.56 186.61
-9755330.44 5135423.24 185.92
-9755328.63 5135420.93 186.64
-9755323.89 5135419.39 187.07
-9755323.02 5135419.45 187.05
-9755334.46 5135426.00 185.43
-9755334.43 5135425.18 185.60
-9755331.86 5135420.97 186.44
-9755326.79 5135425.97 185.74
-9755333.90 5135424.86 185.70
-9755331.54 5135421.23 186.43
-9755329.83 5135423.71 186.56
-9755334.82 5135419.77 186.66
-9755326.47 5135425.94 185.74
-9755329.34 5135420.19 186.99
-9755326.56 5135423.31 186.22
-9755326.54 5135423.91 186.10
-9755323.21 5135419.89 187.49
-9755326.27 5135425.95 185.74
-9755329.49 5135423.05 186.21
-9755331.57 5135421.56 186.43
-9755329.15 5135419.73 186.88
-9755323.65 5135420.87 186.71
-9755322.45 5135418.19 187.28
-9755321.62 5135418.06 187.90
-9755320.97 5135417.87 187.41
-9755322.46 5135423.03 186.38
-9755322.74 5135421.49 186.61
-9755322.54 5135425.58 186.31
-9755321.16 5135423.62 186.18
-9755322.15 5135422.67 186.38
-9755321.17 5135423.89 186.16
-9755322.66 5135425.97 185.73
-9755320.36 5135420.01 187.03
-9755320.28 5135425.90 186.32
-9755320.67 5135421.44 186.61
-9755320.87 5135425.07 185.94
-9755320.70 5135422.43 186.53
-9755320.61 5135423.76 186.66
-9755320.36 5135418.79 187.28
-9755320.34 5135425.07 185.93
-9755319.43 5135420.56 186.82
-9755318.89 5135420.47 187.43
-9755318.82 5135425.02 185.96
-9755318.87 5135426.02 185.74
-9755319.91 5135425.66 185.96
-9755320.35 5135421.50 187.22
-9755319.66 5135425.63 185.96
-9755319.11 5135424.90 186.62
-9755319.80 5135422.63 186.83
-9755312.32 5135431.05 185.77
-9755317.24 5135431.38 185.34
-9755312.60 5135431.28 185.14
-9755318.49 5135431.29 184.91
-9755312.04 5135430.90 185.75
-9755318.41 5135431.64 184.81
-9755313.74 5135437.03 183.92
-9755315.81 5135433.14 184.67
-9755315.17 5135442.04 183.18
-9755314.91 5135438.86 184.16
-9755314.59 5135439.97 183.51
-9755312.59 5135435.41 184.32
-9755311.72 5135432.19 184.96
-9755313.98 5135441.73 183.78
-9755314.65 5135434.73 184.94
-9755318.65 5135443.04 181.28
-9755312.59 5135439.51 183.65
-9755309.88 5135442.05 183.33
-9755313.41 5135440.42 184.00
-9755315.45 5135443.57 182.98
-9755310.41 5135440.23 183.52
-9755317.51 5135441.46 183.18
-9755311.35 5135433.69 184.73
-9755315.19 5135443.61 181.30
-9755312.25 5135440.85 183.37
-9755310.75 5135441.14 183.48
-9755316.73 5135432.21 184.74
-9755311.08 5135440.76 183.53
-9755316.68 5135435.50 184.17
-9755312.50 5135441.12 183.35
-9755311.27 5135438.63 183.89
-9755312.00 5135437.54 183.90
-9755312.47 5135434.93 184.96
-9755309.85 5135439.05 183.79
-9755312.28 5135439.61 183.61
-9755315.47 5135437.86 183.72
-9755317.90 5135432.53 184.71
-9755311.28 5135443.50 182.98
-9755310.49 5135439.99 183.66
-9755314.65 5135439.06 183.66
-9755314.70 5135434.75 184.77
-9755311.43 5135433.38 184.72
-9755315.84 5135441.02 183.88
-9755318.29 5135438.99 183.84
-9755318.36 5135435.31 183.86
-9755312.29 5135440.79 183.40
-9755316.61 5135443.67 180.91
-9755315.21 5135438.72 183.69
-9755317.88 5135434.96 184.25
-9755313.06 5135442.92 183.15
-9755315.84 5135436.38 184.05
-9755309.32 5135439.66 183.72
-9755310.78 5135442.01 183.33
-9755312.19 5135437.74 184.50
-9755314.66 5135432.78 184.73
-9755313.39 5135440.26 183.52
-9755312.19 5135439.65 183.55
-9755316.68 5135437.00 183.90
-9755309.64 5135435.70 184.41
-9755315.75 5135438.79 183.56
-9755314.60 5135439.67 183.51
-9755309.68 5135433.35 184.91
-9755313.71 5135438.45 183.69
-9755312.06 5135443.24 183.76
-9755311.33 5135436.96 184.10
-9755311.09 5135442.89 183.76
-9755318.42 5135441.23 183.50
-9755313.36 5135441.16 183.34
-9755315.42 5135442.30 183.15
-9755318.21 5135442.41 183.41
-9755318.00 5135434.19 185.24
-9755314.60 5135440.54 183.34
-9755317.01 5135433.39 184.54
-9755314.59 5135438.15 183.70
-9755314.58 5135435.48 184.28
-9755316.63 5135439.71 183.48
-9755312.53 5135442.66 183.16
-9755310.26 5135433.34 184.78
-9755316.72 5135434.60 184.36
-9755315.51 5135440.86 183.34
-9755313.51 5135433.81 184.57
-9755318.34 5135440.59 183.59
-9755311.11 5135435.49 184.33
-9755316.98 5135439.99 183.44
-9755317.51 5135435.52 183.93
-9755313.43 5135435.45 184.33
-9755313.04 5135441.70 183.24
-9755312.01 5135440.70 183.85
-9755318.67 5135442.62 183.30
-9755317.54 5135438.80 183.61
-9755317.23 5135435.13 185.32
-9755318.37 5135440.97 181.32
-9755313.69 5135435.87 184.17
-9755313.75 5135434.28 184.54
-9755316.75 5135437.03 181.37
-9755312.54 5135436.39 184.10
-9755310.81 5135435.48 184.37
-9755315.85 5135427.18 185.77
-9755312.02 5135427.96 185.80
-9755318.24 5135428.00 185.53
-9755318.29 5135426.58 185.74
-9755316.47 5135427.98 185.54
-9755311.70 5135428.90 185.59
-9755312.10 5135426.82 186.49
-9755312.02 5135426.80 186.01
-9755312.31 5135430.54 185.28
-9755317.53 5135428.38 185.15
-9755317.35 5135429.62 185.15
-9755317.70 5135429.26 185.67
-9755313.87 5135430.34 185.83
-9755317.55 5135430.72 184.95
-9755317.07 5135430.47 185.12
-9755314.40 5135427.71 185.73
-9755313.83 5135426.45 186.00
-9755311.39 5135430.08 185.36
-9755317.82 5135429.87 185.11
-9755312.59 5135430.52 185.18
-9755312.91 5135427.41 185.79
-9755311.76 5135426.47 186.02
-9755318.25 5135417.37 187.53
-9755317.06 5135418.53 187.39
-9755315.07 5135417.89 187.53
-9755310.93 5135418.12 187.78
-9755310.68 5135418.51 187.60
-9755317.69 5135420.54 187.03
-9755317.13 5135421.75 186.70
-9755315.89 5135425.63 185.98
-9755309.73 5135425.58 186.25
-9755310.96 5135419.35 187.55
-9755309.70 5135423.49 186.67
-9755317.11 5135425.37 185.97
-9755317.08 5135421.57 187.29
-9755315.30 5135424.22 186.33
-9755313.86 5135419.35 187.39
-9755311.78 5135420.55 187.32
-9755310.00 5135419.92 187.41
-9755318.31 5135420.61 186.88
-9755309.75 5135420.19 187.33
-9755310.89 5135425.60 186.22
-9755312.96 5135419.93 187.33
-9755316.90 5135425.86 186.60
-9755317.16 5135420.56 187.50
-9755315.06 5135419.04 187.32
-9755309.45 5135419.26 187.58
-9755315.90 5135425.61 186.63
-9755317.98 5135420.45 187.03
-9755317.92 5135422.37 186.61
-9755315.02 5135425.30 186.16
-9755309.95 5135423.36 187.14
-9755310.49 5135423.48 187.25
-9755315.81 5135424.65 186.74
-9755312.05 5135425.91 186.21
-9755317.98 5135420.94 186.82
-9755317.12 5135424.41 186.18
-9755314.13 5135423.21 186.62
-9755315.66 5135419.35 187.30
-9755313.85 5135420.59 187.13
-9755310.26 5135424.28 186.61
-9755317.12 5135421.41 186.85
-9755316.83 5135419.66 187.10
-9755310.93 5135419.90 187.33
-9755316.21 5135422.32 186.61
-9755315.88 5135421.16 186.85
-9755318.57 5135421.53 187.29
-9755317.93 5135423.23 186.38
-9755311.42 5135425.91 186.21
-9755318.36 5135422.67 186.52
-9755315.09 5135419.94 187.09
-9755313.23 5135423.46 186.63
-9755305.14 5135439.63 183.89
-9755301.14 5135439.74 184.69
-9755303.08 5135441.99 183.72
-9755305.17 5135438.12 184.73
-9755298.09 5135440.77 184.24
-9755299.19 5135439.22 184.94
-9755306.31 5135441.66 183.51
-9755297.62 5135438.59 184.68
-9755303.35 5135442.85 183.54
-9755298.03 5135439.52 184.80
-9755301.05 5135438.93 184.31
-9755298.96 5135438.05 184.70
-9755295.73 5135437.20 185.52
-9755302.16 5135442.86 183.56
-9755297.80 5135442.13 184.04
-9755303.94 5135443.47 183.44
-9755301.05 5135438.51 184.51
-9755308.09 5135438.72 183.90
-9755297.34 5135437.66 184.79
-9755305.25 5135441.72 184.09
-9755306.91 5135442.85 183.33
-9755302.01 5135442.50 184.12
-9755296.91 5135440.38 184.34
-9755304.63 5135439.58 183.93
-9755299.61 5135442.83 183.72
-9755303.43 5135438.63 184.30
-9755296.05 5135437.12 184.95
-9755296.67 5135437.15 184.94
-9755298.71 5135439.51 184.34
-9755308.06 5135440.47 183.68
-9755300.99 5135441.10 184.50
-9755300.49 5135438.38 184.54
-9755305.45 5135441.73 183.54
-9755308.09 5135442.92 183.33
-9755296.94 5135438.01 184.74
-9755308.41 5135436.98 184.28
-9755308.98 5135440.80 183.51
-9755308.38 5135438.72 183.91
-9755302.22 5135439.21 184.26
-9755305.18 5135441.07 183.68
-9755298.08 5135439.85 184.33
-9755300.17 5135440.77 184.11
-9755302.23 5135440.78 183.91
-9755305.69 5135436.81 184.49
-9755293.87 5135439.14 184.89
-9755294.07 5135437.87 185.72
-9755294.82 5135438.64 184.90
-9755293.18 5135441.96 184.35
-9755292.78 5135437.37 185.16
-9755293.61 5135441.26 184.54
-9755293.96 5135442.49 184.32
-9755293.01 5135437.18 185.82
-9755294.05 5135436.51 185.82
-9755294.00 5135443.07 184.10
-9755293.65 5135443.66 184.10
-9755293.99 5135437.13 185.15
-9755295.45 5135437.07 185.14
-9755293.98 5135440.66 184.54
-9755300.20 5135436.49 184.84
-9755299.05 5135435.05 185.15
-9755303.09 5135436.60 184.68
-9755299.00 5135436.24 184.94
-9755307.23 5135434.87 184.72
-9755305.89 5135434.56 184.77
-9755301.04 5135435.68 184.98
-9755308.73 5135435.41 184.52
-9755306.63 5135435.45 184.61
-9755298.26 5135435.12 185.78
-9755307.20 5135434.24 184.75
-9755300.18 5135434.46 185.15
-9755295.74 5135435.01 185.36
-9755302.84 5135436.24 184.75
-9755301.06 5135434.78 185.14
-9755307.27 5135434.45 185.40
-9755296.94 5135434.77 185.34
-9755304.65 5135436.05 184.69
-9755300.47 5135434.23 185.72
-9755295.26 5135436.29 185.17
-9755292.71 5135436.33 185.64
-9755294.85 5135435.31 185.38
-9755293.41 5135435.86 185.38
-9755294.81 5135434.24 186.15
-9755294.60 5135435.91 185.37
-9755309.22 5135423.42 186.79
-9755300.53 5135428.49 186.23
-9755306.42 5135427.37 186.20
-9755302.62 5135428.75 186.04
-9755308.21 5135428.87 185.80
-9755307.64 5135423.73 186.77
-9755308.88 5135421.41 187.13
-9755306.42 5135427.36 186.65
-9755298.21 5135428.94 186.95
-9755305.11 5135420.83 188.03
-9755305.53 5135423.03 187.10
-9755298.77 5135428.45 186.45
-9755301.21 5135419.81 188.02
-9755300.58 5135423.94 187.74
-9755297.07 5135426.37 186.88
-9755296.44 5135428.49 186.49
-9755308.82 5135424.70 186.46
-9755307.38 5135423.49 186.88
-9755297.63 5135423.96 187.39
-9755301.41 5135427.31 186.42
-9755300.89 5135425.86 186.68
-9755307.94 5135429.73 185.59
-9755298.55 5135423.68 187.35
-9755306.42 5135428.88 185.79
-9755298.52 5135425.48 187.03
-9755301.45 5135428.83 186.23
-9755305.95 5135424.14 186.70
-9755301.81 5135421.02 187.56
-9755296.16 5135425.49 187.11
-9755296.12 5135428.45 186.64
-9755305.56 5135419.86 187.60
-9755300.63 5135419.88 188.02
-9755308.84 5135421.33 187.68
-9755308.82 5135420.78 187.31
-9755303.76 5135427.60 186.21
-9755299.72 5135426.49 186.68
-9755301.87 5135429.99 186.55
-9755306.57 5135423.93 187.19
-9755302.30 5135428.72 186.20
-9755303.14 5135423.84 186.91
-9755307.59 5135427.40 186.61
-9755297.50 5135429.23 186.39
-9755302.99 5135422.43 187.10
-9755301.35 5135430.30 185.85
-9755305.63 5135421.35 187.32
-9755301.09 5135429.72 186.02
-9755301.48 5135430.32 186.40
-9755297.35 5135427.27 186.65
-9755302.34 5135429.67 186.02
-9755298.49 5135423.99 187.33
-9755303.88 5135424.04 186.86
-9755298.57 5135420.38 188.01
-9755297.30 5135429.64 186.86
-9755307.38 5135421.93 187.11
-9755301.49 5135423.50 187.11
-9755307.06 5135425.59 186.43
-9755295.93 5135421.93 187.88
-9755302.92 5135423.12 187.09
-9755303.91 5135422.88 187.08
-9755305.24 5135424.34 186.68
-9755304.64 5135426.70 186.43
-9755308.89 5135420.18 187.33
-9755300.97 5135425.20 187.41
-9755305.55 5135425.24 186.64
-9755304.77 5135424.03 187.36
-9755303.93 5135421.35 187.99
-9755298.16 5135426.37 186.89
-9755297.36 5135420.69 188.06
-9755300.57 5135427.58 186.44
-9755299.08 5135422.17 187.57
-9755298.50 5135423.07 187.54
-9755304.96 5135428.79 185.99
-9755306.56 5135424.16 186.68
-9755299.28 5135424.61 187.55
-9755307.66 5135424.92 186.57
-9755305.54 5135426.72 186.81
-9755302.43 5135425.54 186.92
-9755306.79 5135422.89 186.93
-9755304.51 5135423.50 186.91
-9755301.71 5135429.67 186.02
-9755299.42 5135421.90 187.58
-9755307.93 5135424.75 186.62
-9755308.52 5135430.49 185.36
-9755294.41 5135423.91 187.56
-9755294.09 5135422.73 187.79
-9755295.59 5135421.89 187.85
-9755293.47 5135430.48 186.43
-9755292.72 5135429.87 186.61
-9755295.67 5135420.71 188.20
-9755294.96 5135425.57 187.11
-9755293.54 5135420.67 188.25
-9755293.81 5135425.15 187.33
-9755294.70 5135421.90 188.01
-9755293.23 5135424.27 187.57
-9755295.60 5135423.05 187.69
-9755292.82 5135429.57 187.22
-9755294.91 5135424.48 187.54
-9755293.47 5135424.83 187.53
-9755292.64 5135423.01 187.80
-9755293.00 5135427.63 186.88
-9755294.03 5135422.43 187.81
-9755294.31 5135428.18 186.68
-9755294.95 5135427.21 186.87
-9755295.28 5135420.39 188.26
-9755295.55 5135427.86 186.67
-9755294.00 5135429.58 186.44
-9755292.60 5135426.63 187.11
-9755294.38 5135419.79 188.46
-9755294.99 5135424.53 187.40
-9755292.98 5135427.24 187.49
-9755293.73 5135423.29 188.29
-9755298.13 5135430.57 186.01
-9755295.77 5135431.07 186.21
-9755306.37 5135432.13 185.65
-9755304.84 5135432.17 185.95
-9755298.98 5135434.17 185.36
-9755304.28 5135433.04 185.69
-9755308.75 5135433.36 184.94
-9755298.19 5135433.71 185.53
-9755299.05 5135430.86 186.00
-9755306.20 5135432.15 185.67
-9755303.12 5135434.19 185.05
-9755301.41 5135432.35 185.56
-9755302.25 5135433.01 185.38
-9755296.95 5135432.95 185.73
-9755300.75 5135431.76 185.71
-9755299.37 5135432.35 185.60
-9755300.48 5135433.82 185.34
-9755307.91 5135430.91 185.37
-9755302.29 5135431.49 185.60
-9755303.45 5135432.94 185.35
-9755303.10 5135432.03 185.99
-9755301.08 5135433.88 185.29
-9755302.24 5135432.40 185.38
-9755297.30 5135431.13 185.98
-9755305.92 5135433.08 185.58
-9755308.16 5135432.15 185.14
-9755297.46 5135431.73 186.36
-9755306.41 5135431.85 185.36
-9755307.58 5135432.17 185.13
-9755307.55 5135431.26 185.35
-9755296.05 5135434.71 185.37
-9755294.90 5135433.49 185.77
-9755293.13 5135431.11 186.26
-9755293.23 5135433.52 185.82
-9755294.90 5135430.60 186.22
-9755294.11 5135432.35 186.61
-9755293.41 5135433.43 185.82
-9755294.87 5135432.02 186.00
-9755294.65 5135430.55 186.23
-9755295.19 5135431.68 186.59
-9755293.73 5135431.99 186.13
-9755293.97 5135433.11 185.96
-9755306.76 5135418.39 187.99
-9755296.51 5135418.29 188.62
-9755299.17 5135417.75 188.47
-9755298.11 5135418.57 188.90
-9755305.61 5135418.93 187.79
-9755297.02 5135418.95 188.45
-9755306.46 5135419.52 187.78
-9755302.36 5135418.93 188.01
-9755308.25 5135418.06 187.94
-9755309.54 5135418.77 187.58
-9755302.37 5135417.77 188.24
-9755300.63 5135418.31 188.24
-9755308.21 5135419.34 187.57
-9755301.20 5135419.00 188.02
-9755301.34 5135418.62 188.66
-9755301.85 5135418.03 188.25
-9755301.09 5135418.36 188.88
-9755295.30 5135419.78 188.36
-9755295.60 5135417.41 188.84
-9755293.86 5135419.10 188.55
-9755293.17 5135419.18 188.71
-9755293.20 5135419.26 188.53
-9755292.42 5135418.22 188.80
-9755343.61 5135459.78 181.24
-9755338.56 5135463.86 181.27
-9755340.41 5135465.98 181.27
-9755341.81 5135467.16 181.27
-9755338.57 5135467.18 181.27
-9755341.86 5135469.24 181.29
-9755331.81 5135465.07 181.28
-9755331.53 5135465.05 181.28
-9755334.81 5135463.57 181.28
-9755332.40 5135466.81 181.28
-9755325.34 5135465.59 181.27
-9755323.29 5135463.49 181.27
-9755329.49 5135461.41 181.27
-9755328.59 5135465.92 181.27
-9755324.74 5135464.69 181.25
-9755324.46 5135463.53 181.25
-9755345.08 5135457.71 181.24
-9755332.79 5135456.76 181.24
-9755324.55 5135456.72 181.23
-9755318.88 5135463.49 181.25
-9755319.18 5135458.73 181.23
-9755341.39 5135445.29 181.23
-9755335.17 5135445.23 181.21
-9755341.36 5135450.32 181.25
-9755336.63 5135447.02 181.25
-9755338.94 5135453.53 181.24
-9755341.32 5135453.57 181.23
-9755341.87 5135455.63 181.24
-9755342.25 5135449.42 181.22
-9755342.18 5135455.91 181.24
-9755339.25 5135453.51 181.23
-9755338.10 5135452.63 181.24
-9755340.75 5135450.24 181.24
-9755342.20 5135452.66 181.23
-9755332.77 5135446.98 181.24
-9755324.50 5135449.90 181.23
-9755334.29 5135447.00 181.25
-9755332.77 5135450.24 181.23
-9755326.58 5135454.38 181.23
-9755331.92 5135447.86 181.25
-9755331.87 5135454.36 181.25
-9755327.75 5135453.20 181.23
-9755321.64 5135444.41 183.55
-9755320.77 5135444.42 183.57
-9755322.74 5135451.93 181.23
-9755321.63 5135449.56 181.23
-9755318.73 5135444.14 183.58
-9755309.70 5135468.77 181.25
-9755314.45 5135462.55 181.24
-9755316.23 5135461.96 181.23
-9755312.04 5135461.36 181.23
-9755309.67 5135466.99 181.24
-9755313.82 5135467.95 181.25
