-9755109.68 5135785.93 185.72
-9755111.74 5135786.01 185.68
-9755111.39 5135785.24 185.21
-9755108.57 5135785.37 185.18
-9755104.36 5135786.26 185.65
-9755110.29 5135785.97 185.20
-9755111.37 5135785.98 186.35
-9755109.35 5135785.36 186.03
-9755104.39 5135786.26 186.14
-9755109.66 5135786.04 184.99
-9755104.06 5135785.61 186.04
-9755105.26 5135786.27 185.49
-9755105.60 5135785.34 185.62
-9755107.65 5135785.81 187.39
-9755106.75 5135786.33 186.82
-9755103.88 5135785.38 185.30
-9755105.23 5135785.94 185.98
-9755110.07 5135785.73 184.84
-9755108.56 5135786.32 184.94
-9755106.25 5135785.32 186.40
-9755108.54 5135785.38 184.74
-9755107.32 5135785.33 187.01
-9755108.02 5135786.16 185.67
-9755109.42 5135786.03 185.91
-9755113.27 5135785.68 185.74
-9755107.91 5135785.35 185.55
-9755103.84 5135785.36 186.04
-9755107.01 5135785.64 185.57
-9755110.93 5135786.05 185.28
-9755104.42 5135786.07 184.52
-9755114.69 5135785.92 181.53
-9755108.82 5135785.28 185.83
-9755107.80 5135785.74 184.54
-9755109.44 5135785.36 185.67
-9755108.02 5135785.71 186.34
-9755105.62 5135785.72 185.77
-9755108.31 5135785.68 184.84
-9755103.49 5135785.31 186.20
-9755110.22 5135785.51 185.28
-9755105.51 5135785.68 185.85
-9755108.51 5135785.62 186.67
-9755110.60 5135785.99 186.57
-9755105.55 5135786.25 185.70
-9755111.73 5135785.69 185.66
-9755108.85 5135785.71 184.67
-9755104.60 5135785.84 181.26
-9755105.33 5135786.33 184.66
-9755105.43 5135786.01 185.37
-9755107.94 5135786.01 185.96
-9755104.35 5135785.59 181.28
-9755108.25 5135785.76 184.62
-9755105.86 5135785.69 185.80
-9755107.11 5135785.81 187.21
-9755109.44 5135785.75 185.29
-9755111.42 5135785.65 185.96
-9755106.45 5135786.24 184.75
-9755104.00 5135785.70 185.72
-9755110.10 5135785.33 186.50
-9755107.93 5135785.76 185.51
-9755105.22 5135785.60 185.99
-9755103.54 5135785.99 185.73
-9755107.29 5135785.74 184.96
-9755108.01 5135785.91 186.91
-9755108.77 5135786.01 184.43
-9755104.44 5135785.68 185.72
-9755109.66 5135785.37 184.29
-9755110.33 5135785.78 185.05
-9755112.05 5135786.07 185.57
-9755109.61 5135785.98 184.48
-9755104.45 5135785.65 184.51
-9755107.07 5135785.72 186.61
-9755105.90 5135786.26 184.79
-9755109.68 5135785.38 185.35
-9755108.00 5135786.17 187.01
-9755108.53 5135785.64 185.73
-9755109.36 5135785.45 184.32
-9755111.83 5135785.38 186.06
-9755112.95 5135785.77 185.30
-9755111.76 5135785.25 185.51
-9755106.35 5135785.65 186.58
-9755106.46 5135786.27 185.21
-9755106.45 5135786.22 186.54
-9755110.85 5135785.44 185.63
-9755112.08 5135785.41 186.52
-9755111.67 5135785.94 184.28
-9755106.80 5135785.40 184.51
-9755108.56 5135785.98 185.70
-9755110.94 5135785.63 185.69
-9755107.76 5135785.30 186.37
-9755107.04 5135785.59 186.20
-9755112.90 5135785.87 183.60
-9755108.81 5135785.45 184.73
-9755103.47 5135785.66 185.25
-9755106.81 5135786.11 184.24
-9755110.50 5135786.08 185.33
-9755111.41 5135785.38 186.15
-9755107.60 5135785.66 185.98
-9755110.22 5135786.30 181.55
-9755106.18 5135785.92 187.20
-9755103.86 5135785.64 186.63
-9755112.71 5135785.75 185.36
-9755104.82 5135786.00 183.97
-9755105.95 5135785.63 185.25
-9755110.56 5135786.00 185.76
-9755104.65 5135785.47 184.51
-9755103.30 5135786.22 185.30
-9755109.80 5135786.30 181.54
-9755104.62 5135785.77 183.91
-9755103.04 5135785.84 186.57
-9755112.11 5135785.64 185.04
-9755106.86 5135785.36 186.21
-9755106.16 5135785.42 185.57
-9755103.15 5135786.21 187.01
-9755107.95 5135785.16 185.35
-9755109.70 5135785.72 185.65
-9755106.78 5135785.72 184.75
-9755105.57 5135786.30 186.13
-9755106.71 5135785.61 187.21
-9755108.79 5135786.25 184.98
-9755112.10 5135785.82 184.30
-9755107.33 5135786.17 187.42
-9755109.63 5135785.53 185.17
-9755111.46 5135785.69 185.81
-9755106.09 5135785.97 185.28
-9755104.11 5135786.32 184.48
-9755110.94 5135785.35 185.16
-9755113.81 5135785.54 183.64
-9755111.89 5135785.34 186.50
-9755109.38 5135785.75 184.37
-9755111.84 5135786.32 185.07
-9755107.24 5135786.27 186.35
-9755104.88 5135785.48 183.89
-9755107.00 5135785.47 184.79
-9755110.30 5135785.63 186.04
-9755112.66 5135785.74 185.64
-9755112.63 5135785.98 185.68
-9755108.84 5135786.05 186.08
-9755112.60 5135785.13 185.30
-9755112.09 5135786.08 184.09
-9755111.50 5135785.68 184.79
-9755106.39 5135785.72 184.72
-9755107.92 5135785.83 181.36
-9755109.36 5135786.29 184.78
-9755108.85 5135785.80 183.89
-9755104.95 5135786.16 181.28
-9755114.06 5135785.74 184.08
-9755113.44 5135785.79 185.21
-9755104.72 5135785.67 184.55
-9755111.89 5135785.65 186.55
-9755105.05 5135785.98 186.40
-9755112.71 5135785.71 184.79
-9755112.95 5135785.76 185.74
-9755104.36 5135786.20 186.93
-9755109.80 5135785.54 185.93
-9755108.87 5135786.27 181.44
-9755113.79 5135785.95 181.56
-9755109.88 5135785.59 181.50
-9755110.91 5135786.25 186.37
-9755108.58 5135785.30 184.56
-9755111.97 5135785.73 184.43
-9755105.58 5135785.52 186.82
-9755112.95 5135785.57 184.83
-9755104.00 5135786.19 186.13
-9755112.56 5135785.20 184.00
-9755105.01 5135785.78 184.57
-9755107.66 5135785.42 185.56
-9755108.78 5135785.70 185.63
-9755108.83 5135785.63 186.68
-9755106.70 5135786.08 185.18
-9755110.53 5135786.05 184.38
-9755114.06 5135785.64 181.55
-9755106.80 5135786.18 186.61
-9755106.71 5135785.29 185.15
-9755105.35 5135785.64 186.84
-9755105.02 5135785.43 184.56
-9755110.36 5135785.18 184.86
-9755109.31 5135785.95 183.72
-9755110.57 5135786.34 181.57
-9755105.48 5135786.14 188.21
-9755110.13 5135786.01 184.93
-9755109.45 5135785.77 184.82
-9755108.87 5135786.30 185.57
-9755106.37 5135785.40 185.15
-9755106.16 5135785.87 181.29
-9755107.15 5135785.88 185.03
-9755104.26 5135785.48 184.98
-9755105.45 5135785.71 186.34
-9755109.37 5135786.07 185.42
-9755104.51 5135785.69 186.71
-9755107.92 5135785.61 185.93
-9755106.17 5135786.21 187.17
-9755110.89 5135785.36 186.54
-9755112.30 5135786.06 185.40
-9755113.52 5135785.45 184.97
-9755107.66 5135786.20 187.68
-9755110.32 5135786.17 184.31
-9755106.74 5135786.16 187.28
-9755105.27 5135785.67 185.45
-9755108.06 5135785.41 184.81
-9755106.70 5135785.45 185.53
-9755112.09 5135786.05 184.81
-9755107.31 5135785.29 185.80
-9755107.25 5135786.13 184.73
-9755103.49 5135786.23 186.10
-9755112.69 5135785.41 183.66
-9755111.87 5135785.40 184.46
-9755104.33 5135785.39 184.51
-9755110.53 5135785.48 185.59
-9755104.40 5135785.54 183.94
-9755110.28 5135785.71 185.74
-9755107.82 5135785.31 181.34
-9755110.63 5135785.79 184.77
-9755112.06 5135785.66 186.03
-9755108.16 5135785.96 186.55
-9755112.96 5135786.15 181.58
-9755111.59 5135786.12 184.79
-9755107.68 5135786.24 187.37
-9755109.32 5135785.69 183.75
-9755104.06 5135786.16 181.24
-9755106.81 5135785.62 186.25
-9755110.52 5135785.52 184.42
-9755108.51 5135785.87 184.30
-9755107.23 5135785.42 184.91
-9755112.70 5135785.64 181.56
-9755107.89 5135785.64 185.27
-9755107.33 5135785.72 185.80
-9755112.32 5135785.40 185.56
-9755113.39 5135785.79 184.07
-9755108.48 5135786.06 185.95
-9755108.44 5135785.66 186.11
-9755113.20 5135785.48 184.97
-9755107.05 5135785.83 181.30
-9755106.98 5135785.88 186.61
-9755108.87 5135786.04 185.42
-9755106.24 5135786.30 186.89
-9755111.81 5135785.65 186.03
-9755113.74 5135785.80 184.92
-9755104.08 5135785.43 184.51
-9755110.24 5135785.88 181.50
-9755107.70 5135785.98 185.11
-9755107.13 5135786.22 185.09
-9755111.93 5135786.29 183.73
-9755109.76 5135785.42 186.18
-9755106.49 5135785.68 185.04
-9755107.75 5135785.39 185.25
-9755111.13 5135786.00 185.92
-9755113.54 5135785.69 184.55
-9755106.42 5135786.19 181.28
-9755103.21 5135785.86 181.14
-9755103.82 5135786.01 185.02
-9755105.51 5135786.14 181.28
-9755104.39 5135785.70 186.01
-9755110.63 5135785.69 186.57
-9755103.03 5135785.33 185.92
-9755102.65 5135786.27 185.97
-9755102.35 5135785.67 186.61
-9755102.84 5135786.15 181.13
-9755102.65 5135785.69 186.01
-9755102.84 5135785.82 186.79
-9755102.88 5135785.89 181.12
-9755102.31 5135786.21 186.64
-9755102.27 5135786.22 186.70
-9755102.53 5135785.80 186.48
-9755102.64 5135785.31 186.57
-9755102.63 5135785.39 186.03
-9755102.02 5135785.85 186.62
-9755101.43 5135786.25 186.71
-9755098.18 5135785.81 181.23
-9755101.82 5135785.35 186.58
-9755099.88 5135786.16 181.19
-9755098.46 5135786.14 181.23
-9755102.36 5135785.37 185.95
-9755101.99 5135785.63 186.06
-9755101.42 5135786.08 186.17
-9755102.03 5135785.83 181.13
-9755096.40 5135785.86 181.28
-9755100.48 5135785.88 181.16
-9755102.06 5135786.28 186.49
-9755101.86 5135786.20 186.14
-9755101.43 5135786.15 181.15
-9755101.97 5135785.98 185.54
-9755101.98 5135785.40 185.87
-9755099.59 5135785.82 181.19
-9755097.84 5135785.87 181.24
-9755101.08 5135785.58 181.15
-9755101.74 5135785.43 185.82
-9755111.28 5135785.42 184.08
-9755102.03 5135785.28 181.13
-9755110.08 5135780.90 185.51
-9755114.18 5135779.84 184.96
-9755109.34 5135784.24 186.49
-9755104.14 5135785.38 183.92
-9755106.79 5135781.51 185.68
-9755110.60 5135783.31 186.09
-9755112.71 5135781.87 185.26
-9755111.42 5135781.26 186.09
-9755107.38 5135781.61 185.82
-9755109.42 5135782.18 184.30
-9755108.00 5135781.24 184.72
-9755112.95 5135783.61 186.28
-9755110.06 5135783.02 185.95
-9755111.21 5135779.25 185.00
-9755110.01 5135781.62 185.19
-9755107.30 5135781.89 185.65
-9755110.92 5135783.96 185.82
-9755114.72 5135778.66 184.90
-9755108.63 5135779.54 184.54
-9755106.44 5135782.10 185.79
-9755112.11 5135782.11 186.52
-9755112.87 5135782.00 184.48
-9755112.68 5135783.36 185.71
-9755112.94 5135781.97 184.18
-9755107.88 5135782.96 185.95
-9755107.78 5135783.19 184.41
-9755112.69 5135781.59 185.97
-9755109.21 5135780.65 185.70
-9755109.39 5135782.11 186.51
-9755112.05 5135780.94 186.34
-9755107.33 5135783.30 186.42
-9755110.37 5135782.66 185.80
-9755106.80 5135782.74 185.96
-9755110.92 5135781.84 185.96
-9755112.15 5135781.24 183.94
-9755113.24 5135782.80 186.39
-9755107.28 5135781.83 185.10
-9755109.06 5135779.51 184.98
-9755112.89 5135780.61 185.06
-9755112.35 5135779.73 185.95
-9755111.46 5135780.44 185.12
-9755106.84 5135781.27 184.01
-9755111.02 5135782.40 184.71
-9755108.01 5135780.71 185.35
-9755110.33 5135783.60 185.18
-9755109.35 5135785.42 181.46
-9755110.33 5135779.48 185.56
-9755111.27 5135782.04 186.64
-9755108.55 5135780.05 185.48
-9755108.79 5135784.17 186.10
-9755111.79 5135781.23 186.58
-9755112.58 5135782.17 185.64
-9755114.24 5135778.64 185.70
-9755113.03 5135782.03 185.76
-9755107.04 5135783.40 184.47
-9755110.05 5135779.50 186.09
-9755107.22 5135783.58 185.35
-9755113.14 5135781.85 183.45
-9755113.04 5135778.83 186.42
-9755110.54 5135784.50 185.22
-9755111.43 5135779.19 186.54
-9755112.61 5135783.32 185.08
-9755112.10 5135778.62 186.33
-9755112.68 5135782.16 186.53
-9755107.93 5135783.67 185.59
-9755110.05 5135779.18 185.18
-9755112.33 5135782.78 185.25
-9755107.07 5135783.00 185.32
-9755108.62 5135779.88 183.95
-9755112.98 5135781.55 186.44
-9755108.04 5135781.91 185.52
-9755110.07 5135783.34 185.25
-9755112.95 5135781.67 184.72
-9755107.65 5135780.36 184.89
-9755115.13 5135781.57 185.11
-9755114.71 5135781.81 181.51
-9755111.55 5135779.47 185.76
-9755107.63 5135783.93 185.16
-9755111.51 5135778.81 186.46
-9755109.20 5135781.85 185.98
-9755108.72 5135781.87 184.80
-9755112.61 5135783.65 185.12
-9755111.28 5135782.45 186.28
-9755111.06 5135784.95 181.54
-9755113.00 5135783.40 185.26
-9755107.80 5135783.98 183.93
-9755107.14 5135783.29 185.13
-9755115.10 5135780.72 185.04
-9755111.18 5135784.55 185.94
-9755109.39 5135780.06 185.13
-9755106.45 5135783.29 184.39
-9755109.40 5135780.30 185.60
-9755110.55 5135782.77 185.22
-9755108.14 5135780.04 185.59
-9755110.69 5135784.43 185.81
-9755111.79 5135782.89 184.75
-9755110.85 5135782.83 185.14
-9755111.34 5135780.01 185.09
-9755103.82 5135784.46 185.10
-9755113.09 5135781.54 183.45
-9755107.09 5135782.14 184.62
-9755113.51 5135783.62 186.03
-9755112.05 5135781.28 184.74
-9755103.78 5135779.64 181.18
-9755107.34 5135781.35 184.24
-9755106.39 5135785.56 181.31
-9755107.25 5135780.75 184.23
-9755113.74 5135781.62 185.32
-9755107.36 5135784.64 185.79
-9755111.43 5135781.55 184.61
-9755111.76 5135785.90 186.67
-9755107.66 5135782.14 184.56
-9755110.92 5135781.50 185.05
-9755109.25 5135783.66 185.40
-9755104.34 5135784.51 185.97
-9755109.41 5135781.60 186.47
-9755113.56 5135784.57 184.58
-9755107.33 5135781.25 185.57
-9755113.21 5135778.45 185.87
-9755107.44 5135782.83 184.70
-9755108.60 5135779.64 186.47
-9755109.12 5135779.17 184.02
-9755108.60 5135782.95 185.74
-9755107.65 5135778.58 184.65
-9755108.21 5135783.98 181.40
-9755109.73 5135782.73 185.63
-9755108.59 5135779.56 185.81
-9755112.12 5135780.68 185.61
-9755108.51 5135783.01 186.11
-9755107.67 5135778.40 185.04
-9755107.03 5135781.51 186.34
-9755108.20 5135779.56 183.44
-9755107.93 5135782.37 186.16
-9755107.96 5135781.20 186.00
-9755110.90 5135783.68 185.21
-9755108.79 5135784.66 181.40
-9755112.45 5135781.54 185.09
-9755114.19 5135780.41 185.42
-9755112.88 5135781.58 185.12
-9755108.56 5135779.60 183.99
-9755107.94 5135781.18 186.40
-9755113.87 5135782.22 185.25
-9755110.30 5135779.96 181.51
-9755112.33 5135779.64 184.86
-9755108.26 5135782.46 184.18
-9755110.89 5135779.19 185.99
-9755114.19 5135782.81 184.87
-9755110.61 5135781.45 186.91
-9755108.42 5135780.73 186.49
-9755109.77 5135779.83 185.15
-9755108.92 5135779.16 185.92
-9755111.22 5135782.77 186.80
-9755108.88 5135783.24 185.67
-9755113.53 5135781.91 185.52
-9755109.43 5135782.40 186.02
-9755109.46 5135780.66 186.67
-9755108.83 5135781.56 186.32
-9755108.00 5135781.14 185.15
-9755108.89 5135779.85 184.98
-9755107.28 5135782.48 184.44
-9755110.05 5135782.66 186.70
-9755112.20 5135780.47 184.85
-9755107.95 5135779.62 184.04
-9755110.37 5135784.54 186.10
-9755106.76 5135783.28 185.97
-9755106.78 5135783.11 184.29
-9755113.51 5135781.83 186.20
-9755112.68 5135779.43 185.96
-9755107.99 5135779.78 185.18
-9755115.08 5135778.86 185.94
-9755114.24 5135781.63 184.26
-9755111.14 5135781.53 186.07
-9755107.69 5135781.61 184.27
-9755113.89 5135782.85 186.15
-9755109.76 5135782.70 186.72
-9755107.65 5135778.60 185.35
-9755108.14 5135783.12 183.95
-9755107.76 5135783.08 184.74
-9755112.08 5135781.46 185.98
-9755106.03 5135783.88 184.44
-9755109.98 5135780.73 185.19
-9755109.99 5135779.16 186.00
-9755112.60 5135782.75 185.12
-9755107.63 5135782.46 184.55
-9755109.24 5135782.80 185.67
-9755107.31 5135781.22 184.98
-9755109.72 5135784.44 186.35
-9755113.85 5135779.52 186.01
-9755112.98 5135778.65 185.82
-9755108.41 5135778.66 184.93
-9755111.85 5135781.49 185.76
-9755112.08 5135784.52 186.06
-9755112.49 5135782.87 184.23
-9755112.04 5135779.17 185.29
-9755110.42 5135784.04 184.92
-9755114.71 5135783.14 184.97
-9755108.04 5135780.93 186.55
-9755112.98 5135781.88 186.53
-9755108.24 5135780.08 185.97
-9755113.81 5135781.67 184.15
-9755111.45 5135782.40 185.03
-9755110.35 5135779.10 185.67
-9755107.36 5135779.48 185.07
-9755113.83 5135783.39 185.52
-9755112.28 5135783.95 185.64
-9755111.00 5135783.01 185.96
-9755105.88 5135783.82 185.28
-9755113.18 5135783.05 184.20
-9755112.44 5135782.82 186.53
-9755108.85 5135784.48 186.08
-9755110.91 5135784.09 186.98
-9755108.54 5135779.49 185.10
-9755106.08 5135784.18 185.67
-9755107.75 5135784.06 185.67
-9755109.75 5135781.51 185.75
-9755109.80 5135779.48 186.14
-9755113.00 5135782.70 186.86
-9755110.55 5135783.64 186.05
-9755109.83 5135778.47 185.75
-9755106.76 5135783.96 185.70
-9755114.50 5135779.24 185.87
-9755108.54 5135781.60 185.33
-9755112.95 5135781.88 185.19
-9755113.11 5135783.75 184.96
-9755110.56 5135780.38 186.47
-9755107.25 5135780.61 183.96
-9755109.34 5135783.22 184.72
-9755111.76 5135781.80 184.98
-9755110.62 5135782.16 185.80
-9755112.97 5135780.08 186.12
-9755107.64 5135784.56 184.50
-9755106.75 5135782.51 185.11
-9755113.58 5135783.96 185.17
-9755110.22 5135781.18 186.48
-9755113.00 5135779.24 184.46
-9755108.59 5135780.41 185.19
-9755109.38 5135779.83 184.57
-9755114.52 5135782.29 184.58
-9755111.28 5135781.94 184.92
-9755108.80 5135781.50 186.86
-9755108.86 5135782.94 186.14
-9755113.62 5135783.35 184.69
-9755112.97 5135782.33 185.35
-9755111.78 5135781.11 185.79
-9755114.14 5135782.97 181.52
-9755110.62 5135780.86 185.95
-9755110.90 5135784.12 184.90
-9755112.14 5135780.09 186.02
-9755112.87 5135782.09 181.49
-9755111.18 5135778.57 186.07
-9755110.04 5135779.47 185.23
-9755113.92 5135784.07 184.66
-9755110.23 5135780.76 184.99
-9755107.38 5135779.66 181.33
-9755108.53 5135783.28 184.94
-9755108.19 5135780.66 185.92
-9755104.70 5135780.00 181.26
-9755112.64 5135778.84 186.39
-9755108.83 5135778.58 185.26
-9755109.20 5135779.12 186.59
-9755107.69 5135779.22 184.12
-9755107.70 5135780.06 185.65
-9755108.23 5135783.32 186.11
-9755113.96 5135782.18 184.53
-9755114.78 5135779.84 184.80
-9755105.83 5135783.26 185.68
-9755107.38 5135784.49 184.69
-9755112.98 5135781.59 185.55
-9755111.43 5135783.82 186.93
-9755108.56 5135783.00 186.88
-9755106.49 5135783.25 186.01
-9755107.03 5135779.85 184.85
-9755109.43 5135782.97 186.14
-9755104.41 5135784.59 184.97
-9755110.90 5135784.49 186.61
-9755110.09 5135781.53 184.43
-9755114.19 5135779.21 185.71
-9755110.01 5135781.86 185.17
-9755109.43 5135783.22 187.01
-9755110.65 5135782.12 186.26
-9755113.48 5135782.74 185.85
-9755108.53 5135779.17 184.82
-9755112.64 5135783.96 185.88
-9755104.64 5135783.23 181.27
-9755103.81 5135784.52 186.33
-9755111.22 5135783.36 184.32
-9755112.69 5135779.36 186.77
-9755112.88 5135784.60 184.39
-9755109.76 5135779.16 186.35
-9755113.87 5135781.93 184.99
-9755110.59 5135779.48 186.04
-9755108.95 5135780.28 185.63
-9755111.41 5135779.21 185.71
-9755111.91 5135778.31 185.64
-9755112.65 5135778.70 184.38
-9755111.80 5135782.44 185.17
-9755107.07 5135782.17 183.83
-9755113.53 5135780.46 184.55
-9755111.59 5135784.57 184.04
-9755107.74 5135781.63 185.28
-9755108.86 5135781.67 185.33
-9755107.72 5135780.38 183.61
-9755111.99 5135780.14 186.50
-9755107.05 5135782.91 181.32
-9755113.09 5135784.05 185.21
-9755108.54 5135781.15 186.40
-9755106.49 5135781.87 184.98
-9755107.27 5135783.63 185.65
-9755110.06 5135779.18 185.67
-9755110.51 5135781.88 184.34
-9755112.72 5135781.57 186.44
-9755114.26 5135779.58 184.92
-9755110.92 5135780.90 186.59
-9755113.43 5135782.51 185.26
-9755114.49 5135779.22 184.83
-9755112.67 5135780.14 184.71
-9755112.87 5135781.03 185.19
-9755111.67 5135779.86 185.09
-9755108.57 5135782.06 184.81
-9755112.65 5135780.63 185.22
-9755108.95 5135778.72 184.90
-9755107.03 5135784.24 184.59
-9755107.90 5135781.72 181.34
-9755111.73 5135782.94 186.79
-9755111.01 5135781.30 186.83
-9755106.39 5135783.87 185.45
-9755111.72 5135783.25 184.85
-9755111.30 5135781.75 186.98
-9755110.60 5135779.65 185.34
-9755114.76 5135778.36 185.50
-9755112.31 5135781.92 185.66
-9755112.68 5135782.23 183.99
-9755109.44 5135783.01 185.12
-9755111.75 5135782.75 186.34
-9755103.84 5135778.47 181.16
-9755113.56 5135779.60 181.55
-9755113.36 5135783.30 185.58
-9755108.31 5135778.27 184.25
-9755106.53 5135782.78 186.18
-9755114.39 5135783.34 184.79
-9755112.97 5135779.83 184.67
-9755108.29 5135778.34 185.26
-9755109.08 5135779.93 185.16
-9755107.34 5135783.25 181.33
-9755105.62 5135781.77 185.54
-9755112.92 5135783.70 185.71
-9755114.83 5135782.12 184.71
-9755110.90 5135781.29 185.71
-9755110.87 5135781.85 186.44
-9755110.88 5135781.84 185.59
-9755108.73 5135781.83 187.16
-9755106.82 5135781.53 184.56
-9755107.36 5135778.36 184.97
-9755110.00 5135784.44 186.60
-9755110.62 5135779.56 184.59
-9755112.08 5135780.13 185.58
-9755108.77 5135782.94 181.45
-9755108.83 5135782.90 186.72
-9755103.77 5135780.23 181.17
-9755111.19 5135780.09 186.46
-9755114.65 5135784.08 184.33
-9755111.35 5135778.46 185.35
-9755108.84 5135783.83 185.20
-9755111.48 5135780.76 185.15
-9755113.32 5135779.91 185.03
-9755112.98 5135783.23 186.63
-9755110.29 5135783.33 186.89
-9755107.90 5135781.55 185.30
-9755112.18 5135784.56 185.48
-9755108.63 5135782.00 183.62
-9755110.63 5135784.21 186.67
-9755107.59 5135781.33 185.30
-9755110.65 5135783.86 185.20
-9755109.19 5135780.69 186.63
-9755108.48 5135780.65 184.82
-9755109.96 5135781.22 185.06
-9755108.49 5135781.24 184.35
-9755110.27 5135783.62 186.44
-9755112.14 5135781.24 185.65
-9755111.90 5135778.72 184.92
-9755113.77 5135781.30 185.32
-9755111.24 5135781.54 185.80
-9755112.95 5135779.34 185.13
-9755107.94 5135781.10 186.91
-9755107.69 5135782.72 184.22
-9755111.26 5135781.23 186.95
-9755106.09 5135784.54 184.39
-9755107.14 5135783.69 184.55
-9755112.68 5135782.41 185.55
-9755114.18 5135781.32 184.93
-9755111.80 5135781.51 186.16
-9755110.94 5135779.69 184.98
-9755110.61 5135781.56 185.58
-9755109.80 5135782.42 186.02
-9755108.85 5135779.54 185.04
-9755107.66 5135782.95 186.62
-9755106.81 5135781.51 184.02
-9755107.91 5135780.30 181.37
-9755108.77 5135780.13 184.36
-9755107.97 5135784.59 184.77
-9755107.98 5135779.80 184.72
-9755112.15 5135783.32 185.88
-9755113.30 5135781.08 185.22
-9755109.80 5135780.22 186.41
-9755113.50 5135782.79 184.21
-9755110.85 5135778.46 185.11
-9755106.41 5135781.36 184.79
-9755107.63 5135783.62 184.73
-9755111.12 5135780.90 181.55
-9755110.62 5135781.57 186.29
-9755108.20 5135783.16 184.68
-9755108.24 5135781.46 187.21
-9755109.84 5135779.34 185.62
-9755108.45 5135784.63 181.40
-9755105.89 5135784.45 185.69
-9755108.84 5135780.29 186.60
-9755108.86 5135778.56 186.05
-9755109.93 5135783.27 185.70
-9755114.38 5135780.21 184.28
-9755113.77 5135781.95 183.68
-9755111.48 5135779.58 184.75
-9755108.53 5135783.32 186.11
-9755105.90 5135779.64 181.29
-9755109.99 5135782.36 185.11
-9755110.95 5135783.23 186.90
-9755111.87 5135780.37 185.70
-9755112.12 5135778.88 186.03
-9755109.19 5135780.70 184.72
-9755114.50 5135784.56 185.28
-9755105.53 5135781.44 181.28
-9755110.89 5135782.79 185.57
-9755111.20 5135784.48 186.57
-9755108.53 5135781.66 184.81
-9755109.84 5135780.73 185.16
-9755112.30 5135778.77 184.88
-9755112.28 5135781.65 186.53
-9755107.63 5135779.22 184.95
-9755106.21 5135782.39 185.29
-9755113.20 5135782.81 185.15
-9755110.93 5135783.10 186.10
-9755110.59 5135780.06 186.08
-9755108.92 5135782.76 185.56
-9755110.93 5135780.36 185.75
-9755107.15 5135778.61 184.49
-9755113.53 5135782.38 186.41
-9755113.46 5135781.71 183.82
-9755104.69 5135780.25 181.26
-9755112.13 5135780.08 184.91
-9755108.20 5135782.76 186.56
-9755113.86 5135780.94 183.79
-9755114.19 5135779.53 185.98
-9755110.92 5135783.82 186.99
-9755107.90 5135784.05 186.22
-9755110.03 5135782.04 186.25
-9755109.76 5135783.59 186.60
-9755110.90 5135780.65 186.04
-9755106.71 5135782.12 185.77
-9755113.59 5135783.73 185.09
-9755110.69 5135782.06 186.91
-9755109.67 5135781.57 186.32
-9755111.33 5135784.39 184.39
-9755107.96 5135779.83 183.98
-9755112.51 5135781.22 186.43
-9755104.14 5135784.26 185.07
-9755108.06 5135782.75 185.21
-9755105.18 5135784.67 181.28
-9755112.06 5135784.01 184.88
-9755111.49 5135780.67 186.72
-9755108.50 5135779.16 185.84
-9755108.31 5135784.63 185.42
-9755111.52 5135780.03 181.56
-9755108.03 5135781.54 186.16
-9755112.85 5135783.99 181.54
-9755109.16 5135780.82 181.42
-9755110.91 5135779.08 184.67
-9755110.02 5135780.09 186.14
-9755104.64 5135784.05 184.59
-9755110.01 5135782.03 186.75
-9755113.84 5135779.80 185.38
-9755113.85 5135782.74 186.33
-9755109.49 5135781.04 185.19
-9755111.80 5135780.38 186.45
-9755114.13 5135783.30 186.08
-9755110.87 5135784.19 185.06
-9755106.69 5135780.68 185.10
-9755109.22 5135783.64 186.15
-9755108.85 5135780.92 185.13
-9755108.51 5135782.13 186.41
-9755114.20 5135781.41 183.93
-9755111.79 5135784.88 186.19
-9755111.98 5135780.73 185.38
-9755108.98 5135780.31 184.43
-9755112.67 5135782.04 186.10
-9755112.97 5135778.85 186.99
-9755109.50 5135780.01 181.45
-9755111.80 5135779.69 186.46
-9755108.55 5135782.86 184.82
-9755110.84 5135782.35 186.29
-9755110.85 5135779.28 185.16
-9755115.06 5135782.76 185.25
-9755109.71 5135781.28 185.06
-9755110.34 5135783.95 185.20
-9755114.26 5135782.01 184.32
-9755107.12 5135780.50 183.92
-9755110.66 5135779.16 186.01
-9755109.75 5135782.99 186.36
-9755109.69 5135778.56 185.21
-9755111.82 5135781.58 186.65
-9755107.67 5135779.87 184.75
-9755110.05 5135780.88 186.77
-9755111.17 5135783.58 187.22
-9755112.10 5135782.32 185.59
-9755108.84 5135780.65 186.21
-9755112.05 5135783.98 186.08
-9755109.30 5135781.56 185.23
-9755107.33 5135780.60 181.33
-9755112.58 5135780.44 184.77
-9755106.80 5135782.33 184.48
-9755106.52 5135782.54 185.07
-9755109.73 5135778.56 186.16
-9755106.51 5135783.68 185.08
-9755110.95 5135778.55 186.09
-9755112.98 5135780.42 185.59
-9755107.71 5135781.91 185.69
-9755109.17 5135781.26 186.16
-9755113.84 5135782.53 184.15
-9755107.71 5135781.88 185.27
-9755114.73 5135779.58 184.81
-9755112.97 5135784.18 185.82
-9755110.41 5135781.17 185.75
-9755110.60 5135784.25 186.02
-9755109.99 5135781.65 185.88
-9755107.38 5135784.54 185.06
-9755111.20 5135780.35 186.53
-9755111.58 5135782.45 184.32
-9755110.93 5135780.07 185.40
-9755111.95 5135784.19 184.02
-9755109.47 5135783.33 186.57
-9755108.45 5135780.01 186.40
-9755110.86 5135784.17 186.63
-9755105.88 5135781.53 185.47
-9755107.40 5135780.08 184.90
-9755114.14 5135780.40 183.55
-9755113.48 5135783.35 185.16
-9755107.33 5135781.47 181.32
-9755110.93 5135781.58 185.61
-9755112.87 5135782.41 185.75
-9755108.53 5135783.84 186.92
-9755111.55 5135780.57 187.03
-9755110.39 5135781.68 184.34
-9755110.96 5135783.43 185.50
-9755109.41 5135782.37 186.61
-9755113.30 5135783.28 186.56
-9755109.45 5135779.56 184.89
-9755107.80 5135783.60 185.03
-9755109.37 5135779.15 185.53
-9755104.63 5135783.50 181.28
-9755114.67 5135780.60 181.51
-9755110.01 5135782.40 186.05
-9755112.99 5135782.75 186.33
-9755113.57 5135781.28 183.73
-9755114.69 5135784.00 185.15
-9755107.42 5135782.76 184.13
-9755109.44 5135781.61 185.00
-9755113.53 5135781.86 185.20
-9755108.31 5135780.87 186.76
-9755112.46 5135781.32 184.48
-9755109.46 5135778.62 184.68
-9755107.94 5135783.35 185.03
-9755106.81 5135780.34 185.12
-9755113.86 5135781.61 185.70
-9755112.99 5135779.48 186.13
-9755111.19 5135781.36 181.50
-9755108.35 5135780.05 184.90
-9755113.90 5135779.20 185.54
-9755110.98 5135778.86 186.60
-9755108.84 5135781.23 185.00
-9755107.14 5135782.45 185.08
-9755114.44 5135783.28 183.63
-9755108.85 5135781.23 186.57
-9755109.03 5135784.40 186.80
-9755108.75 5135782.80 185.43
-9755113.54 5135780.72 185.20
-9755110.76 5135778.57 185.11
-9755106.78 5135782.75 185.36
-9755108.89 5135782.40 186.03
-9755108.85 5135779.20 185.32
-9755110.27 5135781.73 186.53
-9755113.82 5135783.70 183.95
-9755109.35 5135784.59 185.13
-9755108.88 5135784.11 185.63
-9755113.75 5135778.96 185.29
-9755108.89 5135778.41 184.25
-9755110.58 5135780.71 184.93
-9755106.73 5135778.26 184.34
-9755108.87 5135781.10 185.64
-9755113.00 5135781.69 183.93
-9755111.45 5135783.30 186.89
-9755107.64 5135782.97 185.77
-9755113.04 5135780.25 184.99
-9755110.16 5135778.59 185.82
-9755103.66 5135784.53 186.32
-9755108.00 5135778.57 186.38
-9755114.40 5135781.23 185.52
-9755113.81 5135781.07 184.94
-9755114.14 5135779.13 185.87
-9755114.14 5135784.54 184.82
-9755107.90 5135782.19 184.74
-9755113.22 5135784.65 183.72
-9755107.15 5135783.25 183.86
-9755110.93 5135784.59 185.45
-9755107.89 5135782.02 181.34
-9755113.02 5135780.71 184.21
-9755113.07 5135783.11 184.11
-9755106.11 5135782.52 184.74
-9755109.44 5135783.31 185.76
-9755114.67 5135780.27 184.26
-9755108.74 5135782.80 184.42
-9755109.66 5135783.04 185.28
-9755112.98 5135780.72 185.64
-9755113.52 5135782.52 184.74
-9755112.61 5135782.67 185.70
-9755113.87 5135783.62 186.12
-9755110.39 5135778.39 185.44
-9755113.53 5135783.59 184.07
-9755109.15 5135783.30 186.14
-9755109.60 5135783.28 185.48
-9755112.75 5135778.60 186.89
-9755110.90 5135780.65 185.41
-9755106.79 5135782.95 186.32
-9755109.49 5135780.34 185.19
-9755107.96 5135780.45 184.56
-9755112.79 5135783.91 184.03
-9755108.32 5135783.59 184.25
-9755104.66 5135781.68 181.28
-9755113.30 5135782.76 185.80
-9755107.69 5135778.60 183.71
-9755107.34 5135783.67 184.10
-9755110.91 5135782.05 187.02
-9755107.95 5135779.13 185.21
-9755113.05 5135779.24 186.15
-9755112.62 5135781.10 183.85
-9755114.17 5135779.96 185.25
-9755104.77 5135784.45 184.70
-9755110.60 5135778.94 184.75
-9755113.15 5135779.53 185.29
-9755106.81 5135783.15 186.38
-9755107.20 5135780.11 185.57
-9755109.81 5135781.89 186.58
-9755113.00 5135778.56 186.04
-9755107.01 5135784.65 181.30
-9755108.00 5135782.34 184.73
-9755106.13 5135781.74 181.29
-9755112.31 5135782.79 186.66
-9755109.53 5135783.93 185.80
-9755109.80 5135782.37 185.70
-9755108.55 5135778.61 185.15
-9755113.89 5135782.08 185.68
-9755106.80 5135781.51 185.41
-9755107.92 5135782.17 185.33
-9755108.28 5135781.47 186.78
-9755108.91 5135782.07 186.58
-9755109.48 5135781.49 185.71
-9755113.24 5135782.07 186.68
-9755109.59 5135783.91 187.11
-9755110.56 5135782.69 186.03
-9755112.67 5135782.20 184.01
-9755113.24 5135781.84 184.27
-9755106.79 5135783.26 184.80
-9755109.25 5135778.80 181.45
-9755112.03 5135779.58 185.24
-9755107.12 5135782.93 185.87
-9755110.96 5135781.32 186.00
-9755112.98 5135782.79 184.72
-9755114.68 5135782.75 184.92
-9755108.91 5135779.59 183.99
-9755111.80 5135779.17 185.97
-9755107.68 5135779.90 184.08
-9755112.68 5135784.48 185.90
-9755107.94 5135778.97 183.74
-9755105.56 5135781.13 181.28
-9755107.28 5135781.64 184.74
-9755107.10 5135781.69 184.18
-9755107.27 5135781.86 185.97
-9755110.64 5135780.48 185.01
-9755102.92 5135780.79 181.11
-9755114.09 5135782.47 185.12
-9755111.83 5135779.66 185.64
-9755112.97 5135783.27 185.78
-9755109.90 5135782.01 186.11
-9755106.41 5135782.44 184.56
-9755108.85 5135779.14 186.39
-9755107.89 5135778.91 184.68
-9755109.37 5135779.14 184.48
-9755105.91 5135782.19 185.69
-9755110.23 5135778.72 181.53
-9755114.41 5135783.77 184.04
-9755107.64 5135784.37 186.53
-9755112.95 5135784.66 183.79
-9755108.16 5135783.98 185.38
-9755109.47 5135780.10 186.43
-9755104.44 5135779.66 181.23
-9755105.93 5135784.03 184.78
-9755108.88 5135778.96 184.45
-9755104.41 5135784.18 186.08
-9755114.32 5135780.84 183.81
-9755109.96 5135780.12 185.10
-9755108.51 5135781.31 185.75
-9755114.25 5135778.35 185.72
-9755107.98 5135780.38 185.46
-9755113.65 5135780.45 184.79
-9755106.57 5135781.20 184.37
-9755108.51 5135782.38 186.18
-9755109.52 5135781.31 186.80
-9755114.44 5135782.88 184.31
-9755112.67 5135784.51 184.89
-9755107.59 5135778.44 184.02
-9755114.67 5135782.18 185.20
-9755107.77 5135780.89 184.37
-9755110.18 5135782.32 184.43
-9755108.45 5135783.24 181.43
-9755108.78 5135781.25 186.20
-9755108.95 5135781.24 185.13
-9755107.97 5135784.42 186.51
-9755109.90 5135783.67 184.01
-9755114.58 5135783.25 183.88
-9755111.21 5135783.99 186.60
-9755109.41 5135784.08 181.47
-9755108.18 5135778.80 183.90
-9755110.01 5135778.31 185.23
-9755108.19 5135783.69 185.20
-9755111.23 5135778.28 185.95
-9755106.95 5135784.13 186.17
-9755110.27 5135781.43 187.22
-9755110.36 5135778.57 181.50
-9755107.27 5135784.53 184.44
-9755107.63 5135778.76 181.34
-9755113.84 5135780.80 183.71
-9755108.86 5135783.14 184.96
-9755114.63 5135784.21 181.51
-9755110.54 5135778.70 185.45
-9755107.68 5135784.19 186.53
-9755112.67 5135782.36 186.61
-9755107.87 5135781.23 185.63
-9755112.91 5135782.76 185.79
-9755112.14 5135779.06 186.58
-9755107.07 5135782.70 184.44
-9755109.17 5135778.92 185.57
-9755105.25 5135779.70 181.26
-9755107.41 5135781.26 185.32
-9755111.78 5135780.11 185.01
-9755112.98 5135782.74 184.20
-9755108.55 5135780.90 184.46
-9755107.05 5135779.96 181.32
-9755109.79 5135780.75 185.49
-9755111.15 5135780.20 185.42
-9755108.85 5135779.77 181.45
-9755114.46 5135782.86 183.76
-9755104.65 5135784.41 181.28
-9755113.90 5135780.18 185.22
-9755114.83 5135779.05 184.41
-9755110.02 5135781.54 185.75
-9755114.64 5135781.91 184.35
-9755107.07 5135783.08 184.70
-9755107.03 5135783.73 184.80
-9755110.05 5135784.64 184.37
-9755112.33 5135784.63 184.90
-9755108.52 5135778.28 184.83
-9755114.45 5135783.32 184.37
-9755111.78 5135784.56 184.66
-9755102.92 5135783.79 181.12
-9755107.75 5135779.99 184.48
-9755106.46 5135782.80 185.43
-9755110.84 5135781.68 184.31
-9755105.57 5135779.96 181.28
-9755112.63 5135784.17 185.54
-9755111.81 5135780.11 185.48
-9755108.25 5135781.64 184.89
-9755109.72 5135783.67 186.93
-9755112.13 5135781.20 184.48
-9755106.18 5135781.14 185.35
-9755109.15 5135779.82 185.68
-9755111.43 5135783.30 186.33
-9755108.87 5135780.35 185.38
-9755110.60 5135782.41 185.14
-9755107.44 5135780.33 184.84
-9755113.38 5135783.61 186.29
-9755107.25 5135779.43 184.08
-9755109.36 5135783.33 185.40
-9755109.25 5135779.54 185.29
-9755108.30 5135783.20 186.63
-9755111.43 5135784.25 184.14
-9755109.42 5135780.42 186.46
-9755106.13 5135780.86 181.30
-9755107.93 5135779.89 181.35
-9755107.65 5135782.45 185.35
-9755113.56 5135784.22 184.75
-9755113.88 5135782.38 185.01
-9755109.51 5135784.50 184.66
-9755111.18 5135781.42 184.28
-9755110.02 5135783.61 186.25
-9755108.49 5135782.06 181.41
-9755111.45 5135782.74 186.10
-9755108.93 5135784.00 184.26
-9755109.73 5135778.60 186.60
-9755113.54 5135779.28 184.97
-9755108.91 5135779.65 184.55
-9755107.02 5135781.69 181.31
-9755112.36 5135778.35 185.84
-9755108.55 5135779.79 185.88
-9755103.82 5135782.94 181.22
-9755113.25 5135783.37 184.12
-9755112.78 5135780.97 184.21
-9755111.11 5135779.73 185.42
-9755113.30 5135781.59 184.90
-9755113.94 5135784.52 184.82
-9755108.03 5135780.65 184.35
-9755109.50 5135780.36 184.90
-9755112.63 5135780.64 185.62
-9755114.71 5135783.67 184.99
-9755106.54 5135784.50 185.26
-9755109.69 5135781.25 186.07
-9755108.56 5135778.60 186.08
-9755114.13 5135778.97 186.62
-9755106.47 5135783.63 184.38
-9755107.90 5135781.99 184.55
-9755111.73 5135783.56 186.93
-9755113.57 5135780.20 185.08
-9755113.92 5135778.62 185.71
-9755107.71 5135780.36 185.74
-9755106.22 5135781.76 183.83
-9755113.26 5135782.51 185.76
-9755111.84 5135783.13 185.34
-9755109.74 5135780.70 186.76
-9755107.97 5135783.36 185.73
-9755109.34 5135784.29 184.20
-9755110.88 5135778.58 181.53
-9755108.84 5135778.34 184.71
-9755106.57 5135780.37 185.80
-9755108.57 5135782.47 185.79
-9755114.09 5135783.10 183.81
-9755110.86 5135784.61 184.66
-9755107.71 5135782.10 186.13
-9755113.90 5135782.50 185.87
-9755111.40 5135784.54 185.67
-9755113.60 5135781.23 181.53
-9755112.98 5135778.39 186.93
-9755112.20 5135781.09 185.11
-9755112.69 5135779.51 185.32
-9755111.11 5135780.11 184.97
-9755106.45 5135779.68 181.30
-9755111.75 5135781.60 184.54
-9755110.64 5135782.30 185.81
-9755110.90 5135781.21 181.56
-9755113.15 5135782.74 186.19
-9755106.76 5135783.97 184.70
-9755112.11 5135782.82 185.75
-9755107.37 5135780.34 185.57
-9755110.27 5135784.17 184.31
-9755106.69 5135783.90 184.11
-9755113.61 5135778.67 184.71
-9755110.96 5135783.41 185.20
-9755113.05 5135783.67 184.10
-9755109.54 5135783.64 181.48
-9755115.30 5135780.49 185.04
-9755107.63 5135781.53 186.20
-9755107.87 5135783.28 186.65
-9755114.70 5135782.12 181.53
-9755103.17 5135782.96 181.15
-9755107.89 5135782.77 184.24
-9755111.38 5135780.28 181.54
-9755114.08 5135781.61 185.70
-9755106.16 5135783.35 184.83
-9755104.12 5135778.77 181.16
-9755107.64 5135779.47 184.51
-9755112.63 5135779.46 184.86
-9755108.18 5135784.49 185.85
-9755109.63 5135784.27 185.02
-9755109.22 5135782.50 185.62
-9755109.46 5135783.86 184.16
-9755108.27 5135781.38 184.50
-9755103.52 5135781.68 181.16
-9755109.51 5135780.25 181.46
-9755111.82 5135782.44 185.68
-9755111.76 5135778.41 185.43
-9755106.43 5135783.99 185.06
-9755112.64 5135778.74 185.15
-9755111.24 5135783.08 184.93
-9755112.11 5135782.14 184.65
-9755112.43 5135783.96 184.82
-9755109.40 5135782.31 187.02
-9755114.21 5135778.89 184.61
-9755110.62 5135778.22 186.92
-9755107.98 5135779.53 184.99
-9755112.65 5135780.62 181.56
-9755113.83 5135783.89 183.98
-9755108.86 5135783.58 187.12
-9755109.35 5135781.01 184.42
-9755105.69 5135784.48 184.60
-9755107.37 5135784.69 183.94
-9755106.77 5135784.46 186.11
-9755114.12 5135781.98 183.70
-9755112.76 5135784.47 183.73
-9755110.89 5135780.05 186.45
-9755113.53 5135781.97 184.08
-9755109.24 5135782.03 187.35
-9755107.89 5135778.77 181.34
-9755111.48 5135783.24 187.41
-9755114.65 5135783.72 183.57
-9755107.44 5135779.94 183.89
-9755112.20 5135782.53 184.71
-9755107.73 5135781.25 184.75
-9755107.98 5135782.44 185.36
-9755107.00 5135784.00 185.02
-9755114.42 5135785.38 181.55
-9755110.26 5135781.47 183.86
-9755108.61 5135778.31 186.47
-9755109.02 5135782.26 184.75
-9755108.28 5135780.32 184.42
-9755113.15 5135778.49 185.79
-9755112.72 5135784.67 183.79
-9755113.80 5135783.35 185.14
-9755108.35 5135778.37 186.09
-9755112.97 5135781.29 185.46
-9755109.35 5135782.69 181.46
-9755108.28 5135781.48 185.67
-9755108.77 5135782.01 185.84
-9755112.63 5135779.20 185.87
-9755107.73 5135781.39 184.26
-9755107.36 5135782.94 186.49
-9755111.80 5135784.53 185.80
-9755107.07 5135784.25 185.35
-9755110.02 5135782.80 185.24
-9755111.17 5135778.89 185.04
-9755110.16 5135782.42 185.82
-9755114.17 5135778.66 185.28
-9755112.13 5135783.64 185.43
-9755113.53 5135781.58 181.54
-9755103.49 5135784.47 186.21
-9755106.83 5135782.89 184.29
-9755110.61 5135779.77 185.45
-9755112.70 5135782.84 184.12
-9755107.62 5135782.40 186.07
-9755112.62 5135778.95 185.73
-9755113.89 5135782.81 184.26
-9755106.82 5135782.47 184.62
-9755108.59 5135780.61 185.33
-9755109.48 5135779.21 184.72
-9755110.94 5135779.48 185.99
-9755113.00 5135783.56 185.33
-9755111.80 5135782.70 185.68
-9755108.77 5135784.19 184.66
-9755111.88 5135784.15 183.67
-9755110.11 5135779.99 186.43
-9755113.88 5135778.46 184.20
-9755112.30 5135782.47 185.25
-9755109.51 5135779.58 181.45
-9755111.83 5135782.71 185.25
-9755107.35 5135784.46 186.42
-9755103.22 5135782.05 181.14
-9755108.85 5135779.78 186.47
-9755109.44 5135781.33 185.68
-9755107.72 5135783.52 185.51
-9755110.63 5135781.38 181.55
-9755107.10 5135784.17 184.23
-9755108.50 5135783.63 185.55
-9755108.51 5135779.91 181.44
-9755113.87 5135783.31 186.15
-9755111.29 5135779.55 185.38
-9755109.49 5135783.23 181.50
-9755113.22 5135782.30 184.57
-9755112.95 5135779.85 185.37
-9755112.79 5135779.50 184.47
-9755108.81 5135781.39 186.77
-9755113.44 5135780.66 184.43
-9755108.82 5135782.13 185.35
-9755108.29 5135779.84 184.26
-9755107.33 5135782.48 184.92
-9755110.87 5135783.54 186.44
-9755110.00 5135778.43 185.77
-9755105.86 5135783.79 181.29
-9755112.22 5135781.13 181.55
-9755113.82 5135783.46 184.78
-9755106.46 5135782.28 181.31
-9755110.64 5135780.69 185.51
-9755111.88 5135781.36 184.49
-9755109.77 5135784.42 185.97
-9755114.02 5135783.27 184.08
-9755111.21 5135779.71 181.54
-9755107.76 5135778.29 185.89
-9755109.48 5135782.36 181.46
-9755111.53 5135780.72 184.77
-9755112.97 5135780.76 185.01
-9755112.60 5135781.57 185.56
-9755110.32 5135783.84 186.76
-9755106.42 5135784.10 181.31
-9755114.12 5135778.13 185.24
-9755108.59 5135778.87 186.37
-9755103.80 5135784.42 181.25
-9755107.60 5135782.73 184.69
-9755111.76 5135782.40 186.62
-9755107.12 5135783.56 186.42
-9755107.71 5135783.73 183.90
-9755113.49 5135779.15 186.90
-9755113.25 5135781.18 184.87
-9755111.01 5135780.59 184.68
-9755107.32 5135783.93 184.79
-9755112.70 5135778.29 185.79
-9755114.20 5135778.33 184.84
-9755111.18 5135783.07 185.22
-9755106.46 5135780.58 181.32
-9755110.29 5135781.27 184.95
-9755114.14 5135782.23 181.52
-9755112.67 5135780.33 186.21
-9755107.02 5135784.18 181.29
-9755112.38 5135778.62 185.15
-9755108.87 5135779.41 186.46
-9755114.96 5135781.19 181.50
-9755106.80 5135780.68 184.76
-9755113.86 5135781.31 185.48
-9755107.83 5135779.00 186.42
-9755112.66 5135779.13 186.78
-9755110.30 5135780.26 181.50
-9755106.12 5135782.02 181.30
-9755109.79 5135778.35 184.46
-9755115.21 5135779.63 184.07
-9755105.13 5135784.62 184.19
-9755112.15 5135782.73 184.94
-9755113.33 5135780.66 186.16
-9755110.59 5135778.74 187.01
-9755114.16 5135780.75 184.82
-9755111.78 5135780.87 186.92
-9755111.55 5135783.64 186.31
-9755110.51 5135784.39 181.53
-9755107.63 5135784.31 184.79
-9755108.25 5135779.55 185.12
-9755110.08 5135784.52 185.60
-9755109.08 5135778.63 184.35
-9755106.72 5135782.23 183.77
-9755109.07 5135783.71 183.90
-9755107.35 5135784.47 186.75
-9755108.60 5135780.28 186.53
-9755110.58 5135778.26 186.50
-9755113.85 5135780.65 185.49
-9755108.82 5135780.69 185.75
-9755107.95 5135782.07 186.87
-9755109.36 5135783.77 183.71
-9755108.75 5135784.26 184.17
-9755107.63 5135779.24 184.60
-9755110.68 5135784.20 185.82
-9755108.22 5135783.33 186.68
-9755108.50 5135779.37 181.43
-9755103.86 5135779.08 181.17
-9755112.98 5135784.52 186.08
-9755108.84 5135783.65 185.88
-9755104.15 5135781.41 181.24
-9755112.20 5135784.27 184.33
-9755109.50 5135779.44 186.15
-9755114.51 5135780.75 185.48
-9755113.76 5135780.68 185.20
-9755113.89 5135778.31 185.23
-9755109.99 5135778.32 186.24
-9755104.40 5135783.99 185.10
-9755109.78 5135782.11 185.17
-9755109.40 5135782.01 184.16
-9755103.47 5135784.11 181.19
-9755106.18 5135781.92 184.66
-9755109.71 5135780.34 186.10
-9755114.97 5135780.10 185.24
-9755111.48 5135782.95 184.00
-9755109.09 5135781.51 186.10
-9755111.65 5135780.56 184.77
-9755112.71 5135780.10 185.43
-9755110.60 5135782.92 186.51
-9755110.56 5135784.21 186.49
-9755108.53 5135782.39 184.40
-9755107.86 5135783.79 186.19
-9755113.25 5135781.50 183.77
-9755113.07 5135779.50 184.66
-9755106.53 5135784.50 184.62
-9755114.71 5135781.32 184.45
-9755114.14 5135778.79 186.99
-9755109.36 5135781.22 187.39
-9755108.53 5135780.33 186.24
-9755106.82 5135780.43 184.19
-9755110.34 5135783.33 185.48
-9755103.49 5135784.29 185.67
-9755110.00 5135779.84 184.72
-9755110.23 5135781.33 181.51
-9755113.81 5135782.82 184.74
-9755107.64 5135783.31 186.25
-9755104.37 5135783.85 181.27
-9755112.36 5135784.19 184.00
-9755112.16 5135778.60 185.79
-9755112.13 5135781.68 184.17
-9755109.76 5135783.26 186.90
-9755106.73 5135782.01 184.48
-9755109.13 5135781.15 184.93
-9755107.96 5135780.74 184.96
-9755106.81 5135781.24 185.70
-9755112.69 5135781.67 184.11
-9755111.46 5135783.66 184.32
-9755109.41 5135782.58 184.58
-9755114.75 5135783.69 185.44
-9755109.72 5135780.33 185.09
-9755109.51 5135783.18 187.46
-9755113.92 5135782.74 181.54
-9755105.29 5135783.95 184.58
-9755111.80 5135780.80 184.23
-9755111.71 5135779.16 185.20
-9755114.09 5135778.63 184.24
-9755114.68 5135778.49 181.56
-9755111.46 5135782.69 185.80
-9755110.46 5135783.43 184.01
-9755113.85 5135782.46 185.23
-9755107.76 5135780.60 186.21
-9755107.89 5135783.20 181.35
-9755110.04 5135782.43 186.70
-9755112.59 5135780.27 185.09
-9755109.75 5135778.37 185.10
-9755113.41 5135783.71 184.69
-9755107.86 5135781.55 184.45
-9755110.93 5135778.49 186.93
-9755113.25 5135782.19 181.49
-9755109.38 5135780.44 184.36
-9755107.70 5135780.46 184.36
-9755109.97 5135784.62 185.13
-9755110.94 5135783.66 185.64
-9755112.61 5135778.63 185.54
-9755107.53 5135783.91 181.32
-9755113.49 5135781.56 186.27
-9755113.86 5135778.34 186.24
-9755113.54 5135782.40 184.15
-9755109.75 5135782.10 186.75
-9755106.53 5135780.41 184.07
-9755114.69 5135779.64 181.50
-9755113.01 5135778.65 185.33
-9755114.41 5135784.08 184.45
-9755109.17 5135780.96 184.34
-9755114.76 5135781.34 185.00
-9755109.74 5135782.83 184.66
-9755112.08 5135783.01 185.86
-9755106.41 5135781.83 183.84
-9755107.91 5135780.08 184.48
-9755107.65 5135784.44 186.18
-9755111.47 5135779.19 185.97
-9755107.34 5135780.75 184.83
-9755107.06 5135781.13 181.32
-9755110.25 5135784.42 186.68
-9755113.06 5135780.08 181.53
-9755109.51 5135782.27 187.42
-9755113.83 5135784.65 184.56
-9755113.94 5135783.11 184.45
-9755113.99 5135782.23 183.77
-9755112.91 5135784.63 183.49
-9755110.94 5135778.31 185.96
-9755108.53 5135780.97 185.49
-9755106.16 5135782.69 184.74
-9755108.24 5135783.84 186.88
-9755112.41 5135781.08 185.11
-9755108.82 5135780.31 184.98
-9755106.80 5135778.52 184.38
-9755111.43 5135781.35 184.58
-9755107.73 5135781.73 184.61
-9755112.36 5135784.55 184.58
-9755110.52 5135778.77 184.63
-9755108.46 5135778.25 185.72
-9755108.24 5135778.29 183.49
-9755110.03 5135782.79 185.59
-9755106.49 5135781.54 185.44
-9755110.10 5135781.18 187.01
-9755107.86 5135781.19 181.35
-9755113.78 5135782.17 186.37
-9755107.65 5135778.25 184.70
-9755107.04 5135782.65 181.31
-9755107.68 5135783.60 186.60
-9755110.41 5135779.89 185.00
-9755106.97 5135781.78 183.74
-9755109.96 5135780.28 186.13
-9755109.32 5135781.71 184.14
-9755107.52 5135783.04 184.13
-9755109.41 5135782.41 185.26
-9755108.36 5135778.86 184.27
-9755110.57 5135781.29 185.13
-9755104.67 5135779.09 181.21
-9755111.23 5135778.66 184.77
-9755107.69 5135781.23 185.64
-9755113.38 5135778.38 185.57
-9755110.96 5135780.35 186.44
-9755106.52 5135783.35 185.36
-9755107.88 5135782.82 184.70
-9755113.62 5135780.05 186.18
-9755114.67 5135780.31 181.51
-9755106.84 5135780.26 184.25
-9755112.72 5135778.30 186.55
-9755114.86 5135778.75 184.51
-9755108.58 5135782.22 185.41
-9755114.14 5135781.07 183.79
-9755110.12 5135778.72 186.98
-9755106.84 5135784.45 185.29
-9755114.73 5135783.73 184.04
-9755108.95 5135783.52 187.05
-9755107.66 5135780.89 185.36
-9755110.90 5135782.36 186.96
-9755113.98 5135778.77 186.99
-9755107.43 5135778.48 185.03
-9755110.91 5135783.33 186.45
-9755114.10 5135781.57 185.21
-9755111.53 5135782.19 185.76
-9755104.08 5135782.33 181.25
-9755107.98 5135779.38 185.79
-9755108.46 5135784.43 186.50
-9755114.05 5135783.23 184.54
-9755110.84 5135779.84 181.53
-9755108.82 5135784.81 186.11
-9755108.83 5135784.83 185.06
-9755107.11 5135784.87 185.19
-9755114.66 5135784.99 181.55
-9755107.68 5135785.00 187.15
-9755109.61 5135784.93 184.93
-9755107.98 5135784.80 184.85
-9755112.93 5135785.17 184.41
-9755110.56 5135784.83 185.80
-9755103.92 5135784.91 184.88
-9755110.01 5135784.85 184.88
-9755113.01 5135785.29 184.14
-9755112.70 5135785.02 184.44
-9755110.53 5135785.28 186.81
-9755106.79 5135784.96 185.73
-9755109.10 5135784.90 185.52
-9755104.83 5135784.75 185.36
-9755104.68 5135784.76 184.85
-9755110.43 5135785.13 186.44
-9755109.07 5135785.46 181.45
-9755113.22 5135784.91 185.65
-9755107.27 5135785.06 185.70
-9755107.05 5135784.82 186.21
-9755107.13 5135785.03 187.08
-9755114.12 5135785.50 183.72
-9755110.88 5135784.75 186.43
-9755104.42 5135784.83 184.36
-9755110.56 5135784.75 186.71
-9755109.99 5135784.82 185.12
-9755106.11 5135784.75 184.37
-9755113.00 5135784.82 185.65
-9755103.84 5135784.73 186.12
-9755113.50 5135784.96 184.12
-9755111.79 5135784.77 184.92
-9755112.63 5135784.98 183.49
-9755102.77 5135784.95 186.07
-9755112.88 5135784.88 184.40
-9755105.26 5135784.95 181.28
-9755108.48 5135784.93 184.72
-9755103.54 5135784.78 186.35
-9755104.69 5135785.20 184.94
-9755105.88 5135784.83 185.72
-9755110.85 5135785.40 184.60
-9755103.42 5135785.30 181.18
-9755107.59 5135784.78 186.43
-9755104.68 5135784.99 181.29
-9755114.63 5135784.77 184.74
-9755113.57 5135785.04 184.75
-9755103.23 5135785.44 184.94
-9755112.06 5135785.13 186.14
-9755107.68 5135784.91 185.65
-9755112.10 5135785.24 184.20
-9755112.12 5135784.83 185.29
-9755107.31 5135785.31 181.32
-9755108.04 5135784.81 185.67
-9755108.04 5135785.03 186.56
-9755106.44 5135785.36 185.58
-9755105.57 5135785.34 184.60
-9755109.38 5135784.80 186.57
-9755109.96 5135784.76 185.58
-9755107.75 5135784.85 184.94
-9755114.60 5135785.37 184.74
-9755111.25 5135785.17 184.71
-9755112.87 5135785.23 181.54
-9755107.41 5135785.39 186.17
-9755107.66 5135785.18 184.36
-9755108.77 5135784.86 185.46
-9755109.41 5135784.90 185.17
-9755103.79 5135784.99 181.26
-9755106.74 5135784.88 184.73
-9755110.06 5135784.90 186.73
-9755110.29 5135784.92 181.48
-9755111.50 5135784.85 185.29
-9755114.42 5135784.86 185.43
-9755112.30 5135785.04 183.96
-9755114.08 5135784.78 184.85
-9755108.56 5135785.02 185.42
-9755111.17 5135784.75 181.52
-9755108.71 5135785.01 181.43
-9755111.52 5135784.83 185.51
-9755107.84 5135785.06 181.34
-9755110.92 5135784.81 185.93
-9755106.99 5135785.02 181.32
-9755112.88 5135785.23 183.75
-9755107.08 5135784.88 184.72
-9755110.84 5135784.87 186.83
-9755106.16 5135784.98 181.30
-9755113.58 5135784.89 183.68
-9755113.30 5135784.83 184.25
-9755104.36 5135784.86 185.92
-9755109.45 5135784.97 184.83
-9755109.80 5135785.07 185.17
-9755105.57 5135784.73 181.30
-9755102.70 5135784.74 186.69
-9755105.11 5135784.99 184.18
-9755103.44 5135784.91 185.27
-9755113.76 5135784.93 184.97
-9755106.43 5135784.76 184.56
