-9755526.08 5135709.86 181.26
-9755527.00 5135713.39 181.27
-9755525.53 5135712.50 181.25
-9755523.76 5135710.41 181.24
-9755521.42 5135701.28 181.19
-9755527.67 5135703.08 181.24
-9755527.01 5135704.23 181.26
-9755523.75 5135712.23 181.24
-9755520.56 5135705.97 181.28
-9755527.30 5135708.40 181.25
-9755520.55 5135706.87 181.28
-9755526.06 5135710.44 181.26
-9755526.17 5135700.70 181.15
-9755523.52 5135702.11 181.20
-9755522.87 5135704.52 181.25
-9755521.34 5135708.05 181.21
-9755527.89 5135713.68 181.26
-9755520.79 5135712.82 181.22
-9755521.74 5135710.71 181.21
-9755524.68 5135702.72 181.21
-9755519.18 5135704.13 181.76
-9755520.56 5135703.87 181.26
-9755525.26 5135712.46 181.24
-9755522.58 5135705.44 181.26
-9755527.36 5135701.54 181.20
-9755524.37 5135705.43 181.26
-9755521.74 5135703.03 181.25
-9755525.47 5135711.03 181.26
-9755523.18 5135708.37 181.23
-9755522.33 5135704.20 181.25
-9755522.05 5135702.45 181.23
-9755522.06 5135702.13 181.22
-9755521.46 5135701.54 181.19
-9755522.91 5135707.76 181.22
-9755520.21 5135707.14 181.29
-9755522.85 5135708.65 181.23
-9755525.58 5135701.85 181.19
-9755519.62 5135708.95 182.26
-9755519.61 5135708.25 182.25
-9755519.94 5135707.37 182.99
-9755519.59 5135713.42 181.42
-9755522.94 5135703.89 181.24
-9755521.34 5135710.99 181.22
-9755519.65 5135704.12 182.13
-9755527.27 5135705.41 181.28
-9755523.50 5135713.13 181.23
-9755524.68 5135700.69 181.16
-9755519.62 5135712.50 181.41
-9755522.56 5135712.79 181.23
-9755520.55 5135700.07 181.16
-9755519.02 5135710.40 182.03
-9755511.11 5135712.96 183.45
-9755514.07 5135705.93 189.47
-9755511.72 5135704.41 188.17
-9755516.45 5135700.17 183.56
-9755512.22 5135710.92 183.01
-9755509.16 5135702.07 183.42
-9755509.98 5135701.85 186.03
-9755513.41 5135711.40 184.72
-9755516.77 5135702.15 186.42
-9755513.76 5135710.87 184.16
-9755510.17 5135711.55 181.00
-9755512.42 5135712.47 184.89
-9755509.09 5135702.66 186.02
-9755516.71 5135700.30 183.46
-9755511.73 5135700.46 185.89
-9755513.40 5135702.41 187.61
-9755514.67 5135706.16 188.60
-9755514.31 5135711.44 184.60
-9755511.16 5135702.48 186.64
-9755509.65 5135701.88 183.46
-9755508.48 5135704.95 180.97
-9755515.01 5135699.88 184.55
-9755512.47 5135700.64 184.19
-9755518.81 5135704.94 186.42
-9755514.66 5135708.61 186.70
-9755511.73 5135710.80 184.02
-9755511.40 5135704.73 186.73
-9755512.65 5135709.34 185.06
-9755509.68 5135701.71 183.87
-9755509.68 5135705.19 185.95
-9755512.07 5135708.40 185.29
-9755518.96 5135708.65 182.61
-9755515.00 5135703.82 189.08
-9755513.38 5135712.30 185.36
-9755512.02 5135704.13 187.40
-9755512.94 5135705.32 188.64
-9755518.21 5135710.03 183.29
-9755512.58 5135700.54 184.44
-9755511.19 5135706.82 186.36
-9755515.46 5135710.65 183.02
-9755512.29 5135710.99 181.04
-9755513.46 5135705.92 188.57
-9755514.63 5135702.45 188.02
-9755510.62 5135701.28 185.98
-9755512.50 5135703.34 188.64
-9755511.74 5135712.85 185.19
-9755510.14 5135713.16 184.25
-9755513.29 5135702.06 188.22
-9755514.03 5135699.99 185.59
-9755512.58 5135708.82 185.52
-9755511.17 5135702.52 186.76
-9755511.56 5135712.69 184.38
-9755512.54 5135710.71 181.03
-9755513.62 5135702.88 188.54
-9755514.14 5135706.37 188.04
-9755511.99 5135708.71 185.19
-9755512.37 5135703.82 187.60
-9755515.22 5135713.20 184.73
-9755513.20 5135708.87 187.12
-9755514.08 5135705.52 189.68
-9755511.15 5135700.82 181.09
-9755508.48 5135704.12 180.99
-9755506.94 5135711.25 180.79
-9755515.25 5135710.62 181.30
-9755513.86 5135708.80 186.53
-9755515.05 5135704.06 188.88
-9755514.99 5135711.96 184.72
-9755510.87 5135712.50 184.98
-9755507.79 5135710.68 180.95
-9755512.86 5135710.53 183.70
-9755509.96 5135699.97 181.05
-9755516.35 5135702.18 185.93
-9755510.14 5135708.26 184.19
-9755515.83 5135711.12 184.81
-9755512.77 5135708.78 185.62
-9755514.15 5135712.03 185.01
-9755511.96 5135711.54 181.04
-9755510.49 5135701.34 184.72
-9755511.16 5135703.27 187.37
-9755516.17 5135700.71 184.38
-9755511.17 5135702.47 186.00
-9755510.44 5135708.24 185.47
-9755516.53 5135709.13 184.31
-9755511.41 5135710.63 182.92
-9755515.85 5135708.05 186.45
-9755518.17 5135710.31 183.29
-9755510.78 5135700.76 185.11
-9755510.45 5135701.34 183.64
-9755514.46 5135707.99 186.52
-9755517.56 5135702.47 185.74
-9755511.93 5135712.18 184.91
-9755513.29 5135703.18 188.98
-9755507.89 5135702.34 180.98
-9755512.19 5135712.17 183.78
-9755511.30 5135710.94 183.21
-9755516.71 5135710.72 183.80
-9755510.76 5135708.47 184.33
-9755512.96 5135701.28 186.90
-9755511.94 5135712.26 184.44
-9755510.46 5135710.62 181.01
-9755513.18 5135710.76 184.41
-9755510.86 5135712.88 183.69
-9755518.12 5135709.96 182.81
-9755512.99 5135701.52 186.89
-9755511.66 5135705.92 186.28
-9755511.34 5135711.47 183.05
-9755511.96 5135711.67 185.04
-9755517.35 5135705.03 187.64
-9755511.72 5135700.00 181.08
-9755515.01 5135706.65 188.17
-9755509.04 5135704.54 185.25
-9755516.15 5135702.47 187.11
-9755513.80 5135702.71 187.61
-9755512.11 5135700.92 186.07
-9755512.08 5135712.54 185.30
-9755509.94 5135705.37 186.12
-9755515.51 5135706.49 188.64
-9755507.02 5135702.39 180.86
-9755508.11 5135711.25 180.96
-9755518.51 5135704.65 183.43
-9755516.08 5135700.73 187.01
-9755516.61 5135710.37 181.37
-9755510.52 5135702.99 186.73
-9755516.80 5135700.44 184.44
-9755511.91 5135712.02 184.31
-9755509.69 5135707.35 185.59
-9755513.25 5135701.23 187.00
-9755512.34 5135701.77 186.75
-9755511.96 5135713.07 185.23
-9755515.04 5135709.68 184.12
-9755512.81 5135708.64 185.14
-9755511.48 5135704.17 187.13
-9755512.93 5135703.44 188.43
-9755506.03 5135710.64 180.81
-9755514.90 5135712.53 184.38
-9755517.87 5135706.30 186.82
-9755513.37 5135704.55 188.99
-9755509.68 5135702.24 183.88
-9755514.66 5135710.48 184.56
-9755510.26 5135701.70 181.06
-9755516.74 5135712.34 184.27
-9755509.90 5135708.34 184.21
-9755509.14 5135707.04 184.98
-9755514.04 5135710.66 181.22
-9755509.35 5135707.41 180.98
-9755510.04 5135701.27 185.83
-9755512.38 5135705.01 188.20
-9755510.58 5135700.97 184.48
-9755518.77 5135712.61 182.72
-9755512.36 5135704.14 188.05
-9755513.28 5135701.50 187.84
-9755517.01 5135711.47 184.84
-9755507.98 5135709.92 191.17
-9755518.71 5135704.77 186.30
-9755510.63 5135703.38 186.05
-9755509.57 5135707.14 184.49
-9755516.53 5135703.87 187.80
-9755511.36 5135710.08 181.03
-9755508.54 5135703.69 185.19
-9755514.49 5135705.99 188.46
-9755510.49 5135703.97 186.24
-9755513.26 5135702.96 188.92
-9755514.11 5135700.84 186.82
-9755509.71 5135703.61 186.12
-9755513.85 5135712.46 185.62
-9755514.04 5135709.89 184.62
-9755511.93 5135702.03 185.92
-9755510.95 5135703.28 186.84
-9755509.94 5135706.48 181.02
-9755510.82 5135707.23 185.50
-9755512.60 5135702.30 187.17
-9755514.52 5135704.74 189.74
-9755509.98 5135712.81 184.75
-9755510.51 5135700.91 183.64
-9755511.54 5135700.47 184.88
-9755511.38 5135712.69 183.27
-9755515.88 5135712.94 184.78
-9755515.08 5135712.09 183.67
-9755509.84 5135707.64 184.12
-9755510.74 5135703.29 186.57
-9755511.65 5135710.84 183.00
-9755508.87 5135703.65 184.69
-9755509.09 5135704.42 181.00
-9755512.88 5135706.24 186.70
-9755514.68 5135711.71 185.09
-9755511.34 5135702.96 185.90
-9755516.20 5135705.37 188.85
-9755515.58 5135710.35 181.32
-9755515.03 5135706.74 188.73
-9755515.75 5135709.95 183.14
-9755511.58 5135712.50 185.43
-9755511.96 5135712.37 183.57
-9755509.65 5135702.41 181.03
-9755513.78 5135711.49 184.03
-9755513.39 5135711.03 184.59
-9755514.99 5135712.37 184.04
-9755510.64 5135700.74 185.80
-9755516.67 5135712.39 181.43
-9755509.81 5135705.48 184.84
-9755515.50 5135702.85 187.57
-9755511.60 5135704.69 187.03
-9755516.47 5135704.36 189.22
-9755514.68 5135710.82 183.91
-9755513.21 5135704.33 189.16
-9755508.50 5135703.73 184.45
-9755518.64 5135711.02 182.72
-9755509.29 5135709.16 180.99
-9755510.90 5135712.47 183.30
-9755509.31 5135702.45 184.48
-9755514.60 5135710.79 184.55
-9755507.01 5135700.60 180.88
-9755515.29 5135704.06 188.84
-9755514.39 5135706.27 188.25
-9755507.22 5135708.57 180.84
-9755510.32 5135701.01 186.04
-9755510.88 5135701.28 186.25
-9755512.26 5135710.04 181.06
-9755514.31 5135709.90 184.51
-9755516.16 5135710.50 184.37
-9755509.39 5135706.46 183.65
-9755509.90 5135706.30 186.16
-9755506.43 5135701.44 180.87
-9755510.89 5135706.89 185.33
-9755512.20 5135712.91 184.40
-9755511.44 5135713.18 183.78
-9755512.02 5135705.41 186.62
-9755511.98 5135709.65 184.32
-9755516.72 5135704.16 189.09
-9755511.16 5135705.05 186.26
-9755511.14 5135700.96 185.03
-9755511.40 5135712.84 185.30
-9755511.75 5135705.91 187.61
-9755516.17 5135701.36 184.78
-9755513.35 5135701.21 186.64
-9755511.50 5135700.42 186.33
-9755510.93 5135713.21 183.42
-9755514.04 5135712.83 185.29
-9755513.77 5135704.69 188.56
-9755516.23 5135712.92 184.54
-9755513.10 5135712.87 184.45
-9755512.36 5135700.50 184.97
-9755513.19 5135705.77 188.85
-9755516.95 5135710.58 184.79
-9755512.92 5135712.30 184.07
-9755511.67 5135710.64 181.03
-9755509.52 5135702.94 181.01
-9755515.30 5135709.96 183.11
-9755508.45 5135704.76 185.20
-9755512.51 5135706.90 186.78
-9755512.17 5135711.93 181.05
-9755509.00 5135705.61 181.00
-9755510.58 5135705.08 186.19
-9755515.59 5135700.21 184.62
-9755512.44 5135712.27 184.24
-9755510.52 5135705.37 186.04
-9755509.81 5135712.70 180.99
-9755512.09 5135702.09 187.38
-9755517.07 5135705.62 187.78
-9755509.97 5135701.26 184.16
-9755508.46 5135703.89 180.99
-9755515.60 5135704.99 189.52
-9755515.13 5135704.85 188.62
-9755512.97 5135712.08 183.15
-9755508.72 5135703.82 185.29
-9755513.77 5135710.46 184.75
-9755508.79 5135704.52 185.20
-9755510.88 5135706.53 185.86
-9755517.58 5135712.56 184.39
-9755512.33 5135702.40 186.90
-9755516.39 5135710.42 182.86
-9755507.32 5135710.44 191.19
-9755513.22 5135701.84 187.32
-9755518.79 5135704.08 186.32
-9755511.49 5135700.73 184.36
-9755509.43 5135702.12 186.31
-9755511.99 5135704.84 187.09
-9755512.05 5135703.85 187.50
-9755508.41 5135708.30 180.95
-9755511.01 5135708.85 181.04
-9755511.99 5135706.53 186.76
-9755510.21 5135707.13 181.04
-9755517.50 5135713.62 183.52
-9755514.59 5135712.63 184.43
-9755515.26 5135710.27 183.37
-9755514.53 5135712.35 183.25
-9755515.67 5135703.77 189.02
-9755516.66 5135705.76 188.08
-9755510.50 5135706.46 185.31
-9755507.26 5135706.78 180.88
-9755513.96 5135713.00 183.76
-9755517.38 5135702.23 185.12
-9755517.00 5135709.96 183.85
-9755517.96 5135710.22 182.76
-9755512.97 5135700.66 186.72
-9755512.38 5135704.23 187.65
-9755517.35 5135700.83 185.34
-9755509.07 5135703.58 181.00
-9755509.61 5135705.31 181.00
-9755515.05 5135700.61 186.23
-9755510.45 5135707.40 185.36
-9755510.11 5135703.16 186.59
-9755513.00 5135703.76 188.53
-9755510.46 5135706.84 181.05
-9755509.69 5135702.56 184.04
-9755512.13 5135711.96 182.80
-9755509.23 5135703.27 185.28
-9755512.00 5135709.08 184.26
-9755510.09 5135705.22 186.79
-9755509.90 5135712.02 184.31
-9755508.21 5135701.47 181.00
-9755516.14 5135710.98 184.40
-9755516.71 5135710.78 184.98
-9755509.93 5135705.08 186.59
-9755508.07 5135710.10 180.97
-9755512.24 5135706.13 187.55
-9755515.78 5135711.19 183.66
-9755515.87 5135700.94 186.57
-9755516.12 5135702.95 188.53
-9755512.88 5135710.88 183.25
-9755513.52 5135703.82 189.02
-9755512.22 5135711.54 183.19
-9755512.59 5135711.32 185.17
-9755511.88 5135703.26 186.76
-9755517.33 5135701.36 185.20
-9755512.55 5135711.91 185.29
-9755513.28 5135705.68 187.28
-9755515.67 5135700.63 186.47
-9755512.02 5135711.93 185.25
-9755515.83 5135712.81 185.04
-9755512.52 5135704.71 187.82
-9755511.07 5135709.81 184.57
-9755510.28 5135704.18 186.27
-9755509.39 5135703.20 185.44
-9755513.65 5135711.44 183.57
-9755511.40 5135713.26 184.79
-9755516.15 5135704.17 188.27
-9755515.88 5135707.51 184.58
-9755513.45 5135708.24 186.94
-9755512.03 5135702.64 186.82
-9755513.67 5135712.08 185.31
-9755516.66 5135710.04 183.75
-9755516.09 5135711.09 184.95
-9755508.55 5135703.42 184.17
-9755509.63 5135706.89 183.66
-9755512.91 5135708.19 185.22
-9755511.43 5135705.05 187.21
-9755513.52 5135709.68 184.49
-9755517.05 5135704.76 187.62
-9755515.03 5135700.39 186.61
-9755508.20 5135710.56 189.88
-9755510.12 5135706.54 185.09
-9755514.68 5135710.40 183.85
-9755513.50 5135708.59 185.97
-9755517.13 5135711.14 184.39
-9755513.75 5135709.60 184.64
-9755509.70 5135707.76 185.46
-9755513.26 5135702.94 188.17
-9755512.90 5135706.04 186.61
-9755516.15 5135702.91 187.95
-9755509.89 5135707.46 184.80
-9755510.55 5135707.48 185.53
-9755509.36 5135701.52 181.02
-9755511.12 5135703.23 187.03
-9755512.59 5135709.58 183.29
-9755514.70 5135700.24 184.54
-9755513.63 5135712.06 185.68
-9755514.10 5135707.10 188.24
-9755510.33 5135707.20 184.81
-9755514.35 5135712.01 185.06
-9755514.12 5135700.89 187.79
-9755517.38 5135712.65 183.43
-9755512.36 5135712.12 184.19
-9755510.50 5135705.82 185.16
-9755511.40 5135711.02 181.04
-9755511.75 5135702.96 187.55
-9755511.85 5135712.84 181.05
-9755516.70 5135706.31 187.54
-9755517.84 5135710.48 181.48
-9755509.59 5135703.85 181.01
-9755511.80 5135705.21 187.64
-9755511.14 5135705.72 186.33
-9755514.17 5135708.01 186.60
-9755516.98 5135710.02 184.26
-9755507.81 5135713.02 180.93
-9755507.58 5135704.16 180.94
-9755511.35 5135711.56 181.05
-9755513.19 5135700.74 186.40
-9755518.15 5135708.24 181.47
-9755513.19 5135710.23 184.19
-9755510.17 5135713.00 181.00
-9755514.04 5135709.65 184.46
-9755517.65 5135704.71 187.59
-9755513.44 5135705.01 188.86
-9755517.83 5135707.93 182.96
-9755517.86 5135704.07 187.41
-9755516.97 5135710.34 181.37
-9755513.75 5135713.67 184.60
-9755507.28 5135700.85 180.87
-9755513.14 5135705.50 188.74
-9755506.74 5135701.72 180.86
-9755513.90 5135711.25 183.57
-9755510.33 5135702.40 181.04
-9755517.87 5135710.30 183.29
-9755512.34 5135701.12 185.93
-9755511.94 5135712.84 183.42
-9755512.59 5135711.77 184.20
-9755511.53 5135705.28 187.44
-9755511.88 5135707.34 185.21
-9755516.18 5135702.54 188.66
-9755512.98 5135703.25 188.24
-9755514.72 5135702.99 188.64
-9755517.12 5135704.13 188.17
-9755517.12 5135703.92 187.97
-9755512.07 5135708.61 184.68
-9755517.15 5135701.81 185.18
-9755512.89 5135701.00 186.30
-9755514.59 5135712.94 184.00
-9755516.15 5135703.53 189.02
-9755515.02 5135702.49 187.08
-9755514.64 5135704.62 189.40
-9755513.16 5135707.25 186.25
-9755506.32 5135712.17 180.82
-9755504.61 5135701.41 180.88
-9755505.22 5135700.91 180.88
-9755504.31 5135703.86 180.87
-9755505.46 5135707.07 180.87
-9755505.52 5135705.65 180.87
-9755504.55 5135710.68 180.84
-9755504.57 5135708.86 180.84
-9755504.63 5135703.83 180.87
-9755505.17 5135703.25 180.87
-9755505.22 5135703.84 180.86
-9755504.01 5135702.65 180.88
-9755518.93 5135725.28 184.15
-9755518.40 5135725.29 185.11
-9755524.32 5135713.95 181.25
-9755525.16 5135717.21 181.25
-9755519.57 5135716.46 184.83
-9755520.24 5135715.65 184.49
-9755519.24 5135716.78 184.27
-9755521.98 5135713.67 181.23
-9755519.59 5135715.21 184.89
-9755527.23 5135718.75 181.25
-9755527.02 5135714.87 181.25
-9755526.11 5135714.06 181.24
-9755521.05 5135721.40 181.28
-9755519.45 5135715.35 183.85
-9755520.14 5135725.24 181.48
-9755523.06 5135723.74 181.26
-9755522.53 5135716.04 181.23
-9755523.13 5135718.75 181.26
-9755527.24 5135723.17 181.26
-9755519.25 5135720.35 184.02
-9755526.32 5135721.74 181.25
-9755519.09 5135714.71 183.40
-9755520.20 5135718.55 184.44
-9755519.66 5135717.65 184.29
-9755523.96 5135717.81 181.24
-9755520.55 5135715.30 184.15
-9755522.81 5135720.49 181.27
-9755524.01 5135720.73 181.26
-9755519.84 5135717.02 185.09
-9755521.25 5135724.02 181.26
-9755525.51 5135717.58 181.24
-9755519.56 5135715.94 185.48
-9755519.73 5135714.16 184.88
-9755519.53 5135719.11 183.66
-9755519.24 5135715.38 183.97
-9755519.53 5135718.72 181.46
-9755519.86 5135716.52 185.75
-9755527.91 5135714.32 181.27
-9755519.60 5135713.98 183.15
-9755526.98 5135722.04 181.25
-9755519.05 5135714.94 185.17
-9755519.70 5135716.23 184.32
-9755521.32 5135723.15 181.27
-9755527.00 5135714.55 181.26
-9755526.04 5135725.25 181.25
-9755522.81 5135724.31 181.29
-9755519.10 5135723.28 185.37
-9755527.17 5135725.24 181.26
-9755520.03 5135716.41 183.71
-9755519.37 5135714.70 185.08
-9755519.57 5135717.34 183.88
-9755519.81 5135715.52 185.29
-9755527.54 5135720.50 181.25
-9755521.64 5135715.46 181.23
-9755519.93 5135715.79 184.68
-9755524.60 5135719.59 181.25
-9755521.64 5135720.16 181.27
-9755526.08 5135714.87 181.23
-9755521.34 5135717.79 181.27
-9755519.81 5135714.20 183.39
-9755518.94 5135717.00 183.88
-9755525.12 5135725.28 181.27
-9755525.24 5135718.74 181.23
-9755523.70 5135724.37 181.28
-9755523.66 5135720.55 181.26
-9755522.22 5135716.69 181.25
-9755519.33 5135715.50 185.26
-9755522.24 5135714.31 181.24
-9755523.66 5135723.71 181.27
-9755524.03 5135717.25 181.25
-9755516.92 5135725.25 186.16
-9755518.17 5135716.08 185.59
-9755518.17 5135723.58 183.89
-9755510.51 5135713.60 181.01
-9755515.45 5135724.59 186.47
-9755518.37 5135713.79 184.37
-9755515.16 5135723.59 184.79
-9755519.00 5135721.94 181.46
-9755514.89 5135720.56 185.26
-9755512.10 5135715.30 183.51
-9755511.55 5135714.80 183.54
-9755512.48 5135723.99 185.47
-9755515.40 5135722.40 186.13
-9755511.62 5135722.70 184.37
-9755511.66 5135723.84 185.20
-9755513.41 5135718.50 184.41
-9755516.97 5135720.59 184.20
-9755514.62 5135724.88 186.18
-9755518.20 5135722.39 185.14
-9755517.87 5135720.39 184.38
-9755518.74 5135722.64 184.83
-9755509.93 5135714.36 184.36
-9755512.76 5135723.82 185.49
-9755516.45 5135713.77 181.37
-9755516.38 5135719.37 185.18
-9755512.54 5135722.73 184.98
-9755516.37 5135719.91 185.24
-9755514.61 5135723.80 185.25
-9755517.48 5135725.03 184.18
-9755516.96 5135725.25 185.48
-9755514.92 5135715.24 184.80
-9755518.10 5135725.24 185.74
-9755517.53 5135723.20 183.39
-9755512.50 5135723.78 184.52
-9755516.37 5135715.18 185.34
-9755517.89 5135717.26 184.96
-9755512.06 5135725.01 184.06
-9755513.73 5135720.58 184.62
-9755513.47 5135713.77 184.40
-9755513.41 5135721.02 184.29
-9755512.92 5135715.46 185.33
-9755514.66 5135713.67 184.78
-9755513.03 5135724.93 185.06
-9755517.62 5135717.33 185.18
-9755513.35 5135725.20 186.18
-9755517.20 5135714.41 183.88
-9755516.39 5135723.21 184.31
-9755518.79 5135715.31 184.59
-9755516.49 5135722.04 184.44
-9755512.40 5135723.36 184.22
-9755516.72 5135725.22 185.29
-9755512.52 5135721.15 184.04
-9755509.24 5135723.71 180.98
-9755517.24 5135719.39 184.45
-9755515.15 5135715.73 184.08
-9755517.76 5135723.83 185.30
-9755512.94 5135714.39 184.34
-9755515.75 5135722.29 185.72
-9755514.00 5135723.47 185.04
-9755515.50 5135722.04 184.72
-9755513.04 5135720.68 183.94
-9755513.68 5135720.86 184.74
-9755516.24 5135718.48 183.43
-9755513.67 5135723.62 185.50
-9755513.67 5135723.15 185.88
-9755518.67 5135724.45 184.80
-9755512.22 5135722.29 185.32
-9755518.30 5135715.99 184.86
-9755510.74 5135717.51 181.01
-9755518.14 5135716.46 185.57
-9755517.11 5135724.94 184.41
-9755517.51 5135724.46 185.53
-9755510.96 5135723.84 184.46
-9755511.35 5135724.66 184.97
-9755515.70 5135723.10 185.39
-9755512.50 5135720.36 183.07
-9755512.46 5135724.35 184.85
-9755511.61 5135723.80 183.93
-9755512.14 5135722.62 184.67
-9755512.87 5135715.31 184.29
-9755513.42 5135722.92 184.49
-9755518.36 5135717.13 184.77
-9755507.11 5135720.41 191.41
-9755507.20 5135718.97 180.85
-9755509.30 5135720.26 190.43
-9755514.57 5135717.33 184.80
-9755508.07 5135723.67 180.97
-9755518.33 5135721.30 184.41
-9755513.44 5135718.97 185.25
-9755513.45 5135719.91 185.22
-9755514.87 5135719.06 184.79
-9755511.58 5135722.10 184.17
-9755518.07 5135723.52 185.00
-9755517.03 5135717.72 183.59
-9755513.72 5135718.77 184.21
-9755512.01 5135722.33 185.77
-9755512.46 5135723.22 184.81
-9755512.91 5135713.97 185.13
-9755515.43 5135717.92 185.30
-9755518.07 5135714.78 184.68
-9755513.33 5135722.62 184.50
-9755515.52 5135722.42 184.02
-9755512.23 5135721.55 181.06
-9755508.97 5135718.95 180.98
-9755515.47 5135715.19 184.38
-9755517.19 5135717.45 184.29
-9755516.67 5135715.79 185.19
-9755515.48 5135717.30 184.79
-9755511.57 5135713.74 184.42
-9755515.46 5135721.15 184.90
-9755515.80 5135714.98 184.80
-9755515.56 5135715.37 184.01
-9755518.08 5135719.13 184.90
-9755514.57 5135723.54 185.23
-9755518.41 5135723.81 184.68
-9755517.82 5135725.24 181.48
-9755517.85 5135716.46 184.38
-9755516.93 5135721.94 184.71
-9755511.34 5135716.57 181.04
-9755512.26 5135724.22 184.39
-9755513.39 5135720.59 185.53
-9755513.70 5135717.09 184.64
-9755518.14 5135718.23 181.39
-9755513.92 5135717.14 183.80
-9755515.48 5135722.02 185.62
-9755515.43 5135724.23 184.05
-9755513.95 5135724.91 186.30
-9755511.53 5135713.04 181.05
-9755513.39 5135717.14 181.18
-9755512.22 5135722.08 185.27
-9755514.54 5135717.86 185.21
-9755511.83 5135723.13 184.37
-9755515.58 5135715.05 184.01
-9755516.12 5135717.26 185.66
-9755518.39 5135722.87 181.45
-9755511.73 5135721.42 184.57
-9755516.31 5135724.82 183.16
-9755511.69 5135715.22 181.03
-9755508.95 5135721.59 180.98
-9755510.53 5135723.23 184.28
-9755514.04 5135714.32 183.76
-9755517.21 5135718.77 184.84
-9755515.84 5135724.81 184.30
-9755515.48 5135723.26 185.98
-9755513.65 5135719.73 184.48
-9755516.77 5135719.50 184.82
-9755513.45 5135719.37 184.39
-9755515.71 5135719.93 184.53
-9755519.12 5135716.24 184.47
-9755514.88 5135721.08 185.26
-9755512.22 5135720.16 181.05
-9755518.73 5135716.66 185.32
-9755507.66 5135720.48 191.29
-9755516.65 5135722.61 184.82
-9755508.95 5135723.56 191.01
-9755518.51 5135718.51 184.01
-9755508.72 5135713.90 180.97
-9755514.28 5135720.32 184.82
-9755513.33 5135723.47 184.76
-9755517.13 5135717.38 183.71
-9755510.85 5135723.15 184.50
-9755517.53 5135715.25 184.44
-9755507.20 5135723.99 180.87
-9755514.18 5135723.20 185.08
-9755513.71 5135715.82 184.24
-9755518.51 5135718.86 184.20
-9755516.59 5135722.42 185.25
-9755518.16 5135720.65 184.78
-9755513.62 5135716.46 183.52
-9755513.02 5135722.66 184.27
-9755511.92 5135715.51 184.80
-9755515.84 5135724.04 184.84
-9755516.68 5135718.33 183.44
-9755510.97 5135724.45 183.74
-9755514.10 5135713.68 185.61
-9755512.98 5135724.66 186.06
-9755512.80 5135721.10 184.04
-9755518.70 5135723.10 184.43
-9755517.45 5135721.23 184.27
-9755514.30 5135722.88 185.14
-9755515.54 5135719.35 185.65
-9755517.26 5135718.20 185.29
-9755514.88 5135722.36 184.93
-9755512.43 5135720.35 184.06
-9755517.04 5135722.33 183.68
-9755515.79 5135718.77 185.55
-9755516.35 5135723.23 185.48
-9755512.16 5135723.24 184.26
-9755511.68 5135722.62 184.74
-9755515.27 5135714.18 184.36
-9755514.88 5135717.20 181.26
-9755518.45 5135722.78 184.29
-9755515.09 5135724.88 186.34
-9755513.98 5135723.43 184.84
-9755513.66 5135724.66 185.65
-9755514.86 5135715.47 184.09
-9755514.51 5135723.47 184.78
-9755513.39 5135721.43 185.25
-9755517.17 5135718.15 183.82
-9755517.01 5135722.12 184.19
-9755508.01 5135722.77 180.97
-9755515.81 5135715.19 184.80
-9755516.38 5135719.08 185.68
-9755516.34 5135714.72 184.55
-9755518.82 5135722.69 184.33
-9755514.86 5135721.08 184.79
-9755508.05 5135719.59 180.97
-9755511.02 5135724.38 184.46
-9755515.44 5135722.84 185.11
-9755512.16 5135713.74 181.06
-9755510.14 5135718.94 181.00
-9755515.52 5135713.76 184.18
-9755516.28 5135721.08 181.35
-9755514.05 5135720.36 185.48
-9755514.26 5135723.90 184.90
-9755516.63 5135721.46 184.21
-9755513.38 5135715.77 184.26
-9755512.64 5135715.33 184.88
-9755513.01 5135723.55 184.40
-9755509.79 5135713.30 180.99
-9755511.40 5135722.32 184.13
-9755518.70 5135723.85 184.32
-9755513.70 5135720.25 185.25
-9755517.45 5135718.74 183.99
-9755516.62 5135722.40 184.02
-9755517.82 5135724.11 185.90
-9755515.54 5135717.91 184.88
-9755516.98 5135715.29 184.90
-9755517.10 5135716.96 183.93
-9755512.50 5135718.72 181.07
-9755511.59 5135721.59 181.01
-9755513.72 5135722.32 185.48
-9755518.43 5135724.70 185.52
-9755518.19 5135717.61 184.29
-9755512.23 5135723.77 185.48
-9755510.82 5135713.77 184.41
-9755506.71 5135714.82 180.81
-9755508.39 5135713.59 180.97
-9755513.19 5135719.14 184.38
-9755516.99 5135718.87 185.22
-9755511.85 5135721.94 181.01
-9755510.79 5135713.69 184.75
-9755514.32 5135714.60 184.46
-9755515.57 5135717.29 185.14
-9755514.35 5135716.72 185.52
-9755515.20 5135724.48 183.33
-9755511.82 5135722.02 185.07
-9755518.16 5135725.18 183.45
-9755515.82 5135719.16 184.70
-9755510.80 5135724.77 184.19
-9755512.03 5135722.09 184.17
-9755512.25 5135715.79 184.53
-9755516.97 5135716.04 185.61
-9755518.36 5135714.84 181.45
-9755514.57 5135724.40 185.60
-9755517.87 5135718.49 184.04
-9755517.79 5135723.26 184.96
-9755512.49 5135722.93 184.52
-9755514.32 5135714.95 185.19
-9755513.08 5135724.32 185.55
-9755512.82 5135720.60 184.65
-9755517.55 5135714.94 184.29
-9755511.99 5135715.64 183.97
-9755516.31 5135717.73 181.35
-9755513.07 5135720.43 181.15
-9755509.78 5135724.61 180.98
-9755516.22 5135718.05 183.78
-9755514.91 5135718.89 184.22
-9755511.62 5135715.23 183.91
-9755516.31 5135723.24 186.14
-9755516.28 5135724.88 185.26
-9755511.03 5135716.30 181.02
-9755515.08 5135723.97 184.30
-9755506.62 5135716.57 180.85
-9755517.16 5135724.54 183.50
-9755513.44 5135720.32 185.27
-9755511.94 5135724.75 184.60
-9755517.86 5135714.94 185.40
-9755510.08 5135723.62 180.98
-9755517.47 5135723.84 184.98
-9755513.07 5135721.76 183.91
-9755516.33 5135718.84 183.73
-9755513.36 5135717.82 181.19
-9755514.17 5135720.53 181.24
-9755515.94 5135724.31 183.36
-9755512.97 5135722.11 184.36
-9755514.91 5135717.01 184.86
-9755514.60 5135718.14 185.58
-9755512.51 5135724.36 183.29
-9755506.35 5135720.69 180.86
-9755507.78 5135718.93 180.94
-9755512.94 5135721.85 181.14
-9755515.52 5135717.94 183.90
-9755512.48 5135720.56 183.08
-9755514.59 5135720.72 181.27
-9755511.26 5135724.00 181.02
-9755516.13 5135723.00 183.69
-9755516.91 5135715.87 185.25
-9755512.93 5135713.53 183.45
-9755518.93 5135716.72 184.62
-9755512.88 5135713.75 185.11
-9755518.11 5135721.61 185.13
-9755516.91 5135715.02 184.87
-9755511.64 5135723.82 184.43
-9755516.58 5135723.00 186.00
-9755515.25 5135723.18 184.56
-9755516.27 5135722.79 186.36
-9755517.61 5135723.24 184.86
-9755514.69 5135716.36 184.09
-9755517.57 5135716.45 185.14
-9755515.84 5135723.53 185.76
-9755517.02 5135722.77 181.44
-9755513.07 5135714.09 183.92
-9755508.77 5135720.22 191.33
-9755508.11 5135717.46 180.97
-9755514.82 5135724.35 183.98
-9755517.88 5135724.19 184.96
-9755506.32 5135724.24 180.86
-9755512.84 5135714.72 183.95
-9755517.47 5135722.76 181.43
-9755507.56 5135714.53 180.91
-9755514.05 5135721.41 185.28
-9755512.82 5135723.46 185.68
-9755508.67 5135718.67 180.97
-9755508.34 5135720.40 180.97
-9755514.59 5135719.26 181.28
-9755511.99 5135723.30 184.15
-9755513.37 5135720.56 184.11
-9755507.75 5135724.58 180.95
-9755513.71 5135718.46 184.90
-9755515.55 5135716.96 181.33
-9755513.74 5135716.41 185.26
-9755515.12 5135721.41 185.34
-9755512.22 5135722.52 185.50
-9755512.81 5135716.27 181.13
-9755515.83 5135716.07 185.60
-9755512.01 5135716.32 181.04
-9755513.06 5135724.64 183.04
-9755514.80 5135718.28 181.26
-9755515.24 5135714.36 184.96
-9755508.36 5135723.99 180.98
-9755515.42 5135720.50 184.31
-9755510.85 5135714.03 185.15
-9755516.82 5135722.36 183.55
-9755512.41 5135722.89 185.40
-9755513.45 5135721.48 184.76
-9755515.19 5135723.10 181.37
-9755512.79 5135723.83 184.51
-9755515.44 5135714.01 183.68
-9755508.07 5135718.07 180.97
-9755517.82 5135720.55 184.63
-9755518.75 5135715.59 184.36
-9755515.73 5135721.42 184.70
-9755511.26 5135722.67 184.17
-9755515.80 5135715.50 185.54
-9755514.06 5135715.24 185.53
-9755513.35 5135722.78 185.50
-9755518.92 5135715.24 184.91
-9755514.71 5135716.08 184.04
-9755518.18 5135715.24 185.36
-9755514.51 5135721.29 181.30
-9755511.43 5135714.06 184.98
-9755513.94 5135719.38 184.94
-9755513.60 5135715.56 184.15
-9755513.70 5135722.33 181.16
-9755513.43 5135722.32 185.01
-9755516.59 5135722.97 184.34
-9755517.24 5135715.19 181.43
-9755516.98 5135713.72 181.44
-9755516.10 5135723.49 186.46
-9755515.52 5135720.54 183.65
-9755506.90 5135718.07 180.85
-9755513.71 5135713.65 185.35
-9755516.61 5135717.36 184.16
-9755516.68 5135715.19 184.07
-9755514.61 5135722.33 184.90
-9755515.19 5135716.59 183.48
-9755507.50 5135713.64 180.91
-9755517.85 5135717.69 184.37
-9755509.54 5135716.94 180.99
-9755509.18 5135721.87 180.99
-9755515.48 5135724.36 185.58
-9755513.67 5135722.60 181.16
-9755515.49 5135725.37 183.31
-9755513.73 5135720.37 181.25
-9755518.22 5135715.95 184.38
-9755513.05 5135724.46 183.26
-9755513.83 5135719.50 184.04
-9755514.38 5135714.41 184.07
-9755511.01 5135722.75 181.00
-9755512.52 5135715.11 185.34
-9755513.78 5135715.18 185.50
-9755508.80 5135723.15 191.08
-9755511.62 5135716.90 181.03
-9755518.13 5135715.25 184.65
-9755517.23 5135714.86 183.89
-9755512.58 5135722.89 181.09
-9755507.28 5135718.47 191.37
-9755516.40 5135720.22 184.70
-9755508.90 5135724.86 180.98
-9755517.23 5135721.56 183.76
-9755513.48 5135717.10 184.62
-9755513.76 5135723.46 185.20
-9755516.77 5135718.22 184.26
-9755516.74 5135713.90 183.28
-9755513.47 5135716.96 184.36
-9755512.20 5135719.31 181.05
-9755514.58 5135720.17 181.27
-9755510.74 5135715.40 181.01
-9755509.85 5135722.79 181.00
-9755512.19 5135720.82 182.89
-9755514.30 5135720.96 184.03
-9755514.16 5135721.52 185.47
-9755514.34 5135713.50 185.01
-9755513.34 5135720.45 181.21
-9755513.39 5135719.36 185.33
-9755510.38 5135720.41 181.00
-9755517.84 5135717.03 185.78
-9755515.41 5135721.96 181.31
-9755515.03 5135723.55 185.52
-9755511.33 5135721.37 181.01
-9755513.32 5135723.81 181.19
-9755511.64 5135723.58 183.58
-9755514.01 5135723.00 183.32
-9755517.58 5135719.92 184.99
-9755507.45 5135720.45 180.88
-9755506.24 5135720.42 180.84
-9755513.74 5135721.08 183.62
-9755513.37 5135718.36 181.19
-9755512.25 5135713.49 184.18
-9755516.71 5135724.60 181.41
-9755507.04 5135719.60 190.29
-9755512.20 5135714.41 181.00
-9755516.39 5135724.93 185.56
-9755512.42 5135722.02 184.36
-9755512.50 5135717.48 181.07
-9755513.75 5135718.19 184.80
-9755513.84 5135717.29 184.15
-9755513.67 5135716.12 184.72
-9755518.50 5135714.73 184.22
-9755510.15 5135715.72 181.00
-9755513.67 5135719.47 184.49
-9755516.90 5135713.89 183.14
-9755514.59 5135722.14 183.38
-9755517.86 5135718.81 185.33
-9755513.84 5135714.91 184.32
-9755512.89 5135714.60 185.45
-9755517.77 5135721.09 183.94
-9755516.08 5135715.31 184.08
-9755513.33 5135714.73 184.04
-9755517.47 5135723.56 184.05
-9755510.44 5135719.84 181.01
-9755511.26 5135723.89 183.58
-9755518.68 5135716.73 185.48
-9755511.63 5135714.81 181.02
-9755518.40 5135723.83 185.42
-9755515.05 5135722.64 184.11
-9755517.81 5135723.25 184.08
-9755516.59 5135718.39 183.68
-9755515.17 5135716.42 185.01
-9755512.51 5135721.80 181.11
-9755517.47 5135719.59 181.41
-9755505.37 5135723.63 180.85
-9755504.84 5135713.92 180.82
-9755504.23 5135715.97 180.87
-9755504.81 5135720.69 180.86
-9755505.37 5135719.86 180.85
-9755506.33 5135716.57 180.84
-9755504.53 5135723.69 180.84
-9755505.47 5135717.21 180.86
-9755504.54 5135717.09 180.85
-9755504.85 5135721.87 180.85
-9755505.75 5135713.90 180.80
-9755505.07 5135724.81 180.85
-9755505.13 5135715.09 180.84
-9755505.41 5135718.93 180.86
-9755505.39 5135722.19 180.87
-9755504.04 5135702.03 180.87
-9755503.74 5135701.77 180.88
-9755503.94 5135724.85 180.86
-9755503.37 5135719.55 180.87
-9755503.63 5135724.54 180.86
-9755503.41 5135714.77 180.86
-9755522.62 5135697.43 181.06
-9755521.48 5135697.69 181.09
-9755523.53 5135697.40 181.06
-9755524.43 5135698.29 181.08
-9755520.89 5135699.76 181.14
-9755520.58 5135697.72 181.10
-9755526.15 5135699.17 181.11
-9755522.94 5135698.00 181.09
-9755524.70 5135697.45 181.06
-9755524.99 5135698.34 181.08
-9755526.77 5135697.41 181.05
-9755521.43 5135696.22 181.04
-9755527.34 5135696.81 181.04
-9755523.52 5135698.31 181.09
-9755517.40 5135699.28 184.63
-9755511.71 5135699.76 181.11
-9755516.47 5135697.42 184.89
-9755511.97 5135698.85 183.78
-9755512.42 5135697.15 184.14
-9755514.16 5135698.91 184.82
-9755510.96 5135699.29 184.49
-9755515.84 5135696.66 184.88
-9755516.18 5135698.87 185.39
-9755515.81 5135696.38 184.02
-9755514.51 5135698.02 184.86
-9755513.75 5135699.02 185.22
-9755518.28 5135697.55 184.10
-9755518.31 5135699.26 184.74
-9755512.98 5135696.60 183.78
-9755517.94 5135698.09 184.58
-9755516.39 5135697.57 185.35
-9755514.81 5135698.62 183.45
-9755514.44 5135696.67 184.90
-9755513.01 5135698.09 184.03
-9755518.25 5135699.00 184.53
-9755512.19 5135697.96 183.51
-9755513.25 5135698.10 184.70
-9755513.41 5135698.00 183.46
-9755517.44 5135699.28 183.76
-9755514.95 5135698.39 184.83
-9755513.65 5135699.12 184.78
-9755513.87 5135695.72 184.42
-9755512.38 5135698.78 183.90
-9755512.61 5135699.21 183.95
-9755513.99 5135697.63 181.08
-9755512.59 5135698.11 183.71
-9755514.43 5135696.65 184.32
-9755518.26 5135696.04 184.07
-9755515.48 5135698.93 181.17
-9755513.25 5135695.96 184.56
-9755517.07 5135698.35 184.63
-9755512.92 5135697.28 181.05
-9755516.16 5135698.43 185.39
-9755518.23 5135697.61 183.73
-9755514.97 5135697.17 184.55
-9755512.97 5135698.33 184.70
-9755513.22 5135698.71 184.10
-9755512.57 5135696.78 181.00
-9755514.74 5135698.40 185.05
-9755513.26 5135698.98 184.58
-9755510.85 5135697.93 181.06
-9755513.16 5135696.11 183.79
-9755517.10 5135697.15 185.22
-9755511.55 5135696.36 183.86
-9755514.15 5135696.03 184.71
-9755514.42 5135697.69 185.15
-9755506.43 5135696.74 180.92
-9755516.01 5135696.57 183.97
-9755516.67 5135696.93 184.15
-9755514.07 5135695.92 180.98
-9755512.34 5135698.51 181.10
-9755514.16 5135697.24 185.16
-9755513.03 5135695.98 184.58
-9755512.62 5135699.19 181.09
-9755514.67 5135696.02 184.71
-9755513.98 5135696.22 183.75
-9755513.24 5135695.86 180.95
-9755515.00 5135698.06 184.77
-9755517.22 5135697.96 181.20
-9755515.00 5135697.17 185.12
-9755513.04 5135698.75 184.09
-9755506.75 5135696.39 180.91
-9755511.12 5135699.07 181.08
-9755513.46 5135698.31 184.75
-9755514.40 5135695.85 180.97
-9755513.54 5135697.13 184.02
-9755517.96 5135695.73 183.96
-9755508.56 5135696.73 181.00
-9755511.77 5135697.17 183.99
-9755512.93 5135696.33 183.81
-9755516.48 5135697.23 184.11
-9755515.63 5135699.21 185.07
-9755516.26 5135696.03 180.91
-9755513.03 5135699.15 184.01
-9755511.70 5135696.81 181.01
-9755519.11 5135697.63 183.91
-9755513.77 5135697.18 181.05
-9755512.92 5135697.23 184.62
-9755512.11 5135695.82 183.89
-9755512.86 5135698.36 183.74
-9755504.09 5135698.47 180.92
-9755506.17 5135698.18 180.91
-9755505.83 5135697.90 180.92
-9755505.52 5135697.90 180.92
-9755504.33 5135697.59 180.93
-9755505.01 5135698.18 180.91
-9755554.59 5135682.48 181.00
-9755554.89 5135685.46 180.92
-9755546.66 5135682.76 181.01
-9755550.42 5135681.50 181.01
-9755555.71 5135686.34 180.89
-9755551.03 5135686.32 180.90
-9755554.31 5135681.60 180.99
-9755549.25 5135681.60 181.01
-9755553.66 5135682.79 181.01
-9755550.12 5135685.42 180.95
-9755551.03 5135683.38 180.99
-9755553.09 5135685.76 180.91
-9755550.41 5135684.22 181.00
-9755548.70 5135684.81 180.98
-9755549.58 5135685.16 180.96
-9755553.65 5135682.48 181.00
-9755552.45 5135686.02 180.92
-9755552.80 5135683.07 181.00
-9755547.81 5135683.04 181.01
-9755549.83 5135682.74 181.01
-9755549.60 5135682.45 181.00
-9755549.24 5135685.69 180.95
-9755551.55 5135681.54 181.01
-9755547.47 5135682.12 181.02
-9755555.15 5135686.33 180.90
-9755546.06 5135681.88 181.02
-9755535.39 5135684.18 181.00
-9755539.52 5135681.84 181.01
-9755533.28 5135683.55 181.01
-9755533.63 5135682.40 181.00
-9755536.61 5135682.41 181.01
-9755534.83 5135680.93 181.01
-9755532.99 5135682.66 181.01
-9755541.88 5135684.81 180.98
-9755536.29 5135681.83 181.03
-9755541.88 5135685.74 180.94
-9755537.16 5135681.53 181.01
-9755543.37 5135682.43 181.02
-9755539.57 5135683.25 181.01
-9755540.13 5135681.47 181.02
-9755545.13 5135686.32 180.92
-9755537.71 5135684.76 181.00
-9755545.99 5135683.92 181.00
-9755545.18 5135681.24 181.01
-9755545.77 5135683.33 181.01
-9755536.27 5135686.25 180.91
-9755541.93 5135686.30 180.93
-9755534.26 5135682.32 181.01
-9755540.46 5135682.39 181.01
-9755537.52 5135685.08 180.98
-9755543.95 5135683.26 181.01
-9755538.96 5135684.18 181.00
-9755531.27 5135681.13 181.02
-9755551.26 5135694.01 180.91
-9755546.10 5135693.34 184.39
-9755547.13 5135693.49 186.45
-9755552.45 5135688.98 180.80
-9755549.44 5135694.03 180.93
-9755548.65 5135693.92 184.43
-9755547.47 5135695.21 180.98
-9755546.85 5135694.42 184.61
-9755549.22 5135688.40 180.83
-9755547.23 5135694.35 186.50
-9755548.34 5135694.34 186.29
-9755546.21 5135693.21 183.98
-9755548.38 5135695.13 184.19
-9755555.70 5135694.32 180.90
-9755553.92 5135686.91 180.87
-9755554.52 5135686.69 180.87
-9755547.06 5135693.51 183.63
-9755551.90 5135691.08 180.87
-9755548.44 5135694.64 186.22
-9755548.46 5135694.62 185.43
-9755555.72 5135694.11 185.30
-9755546.24 5135694.93 186.21
-9755548.54 5135693.75 184.16
-9755550.09 5135695.19 185.46
-9755554.59 5135690.53 180.85
-9755546.24 5135693.44 184.68
-9755546.74 5135692.40 184.27
-9755551.86 5135692.86 180.89
-9755547.24 5135692.66 184.22
-9755547.62 5135695.53 184.55
-9755553.64 5135688.97 180.79
-9755547.71 5135693.04 184.25
-9755552.12 5135693.49 180.91
-9755552.45 5135693.74 180.91
-9755547.12 5135695.09 184.49
-9755546.88 5135687.79 180.86
-9755547.15 5135694.86 185.44
-9755547.42 5135694.29 180.94
-9755554.51 5135691.37 180.84
-9755547.67 5135695.41 185.90
-9755547.75 5135689.84 180.84
-9755546.00 5135693.86 184.24
-9755550.74 5135687.23 180.87
-9755552.51 5135687.21 180.86
-9755549.89 5135694.84 185.23
-9755552.82 5135688.11 180.83
-9755550.36 5135688.66 180.80
-9755546.81 5135695.73 181.10
-9755555.74 5135689.58 180.81
-9755546.32 5135692.62 184.27
-9755553.65 5135695.23 180.98
-9755547.52 5135693.82 185.93
-9755549.53 5135689.59 180.81
-9755546.05 5135693.51 184.74
-9755555.69 5135695.21 180.98
-9755547.76 5135694.24 186.00
-9755547.13 5135693.44 180.91
-9755535.02 5135695.71 181.06
-9755533.60 5135686.82 180.87
-9755546.00 5135690.15 180.84
-9755539.44 5135695.15 183.39
-9755541.50 5135694.28 180.95
-9755540.36 5135693.95 180.94
-9755543.32 5135694.26 180.94
-9755532.43 5135686.78 180.86
-9755536.54 5135689.22 180.77
-9755541.23 5135690.73 180.87
-9755538.56 5135694.25 180.94
-9755534.77 5135694.25 180.95
-9755537.87 5135695.48 185.16
-9755539.22 5135695.21 185.17
-9755542.12 5135693.39 180.93
-9755538.06 5135688.64 180.81
-9755534.80 5135687.46 180.84
-9755538.61 5135689.55 180.75
-9755533.59 5135690.66 180.89
-9755533.60 5135689.50 180.73
-9755545.96 5135687.17 180.87
-9755543.63 5135692.21 180.89
-9755535.96 5135692.77 180.91
-9755545.36 5135691.02 180.87
-9755533.91 5135687.72 180.83
-9755539.27 5135694.00 185.53
-9755533.02 5135687.98 180.80
-9755538.00 5135694.78 185.07
-9755537.49 5135689.85 180.80
-9755540.42 5135694.18 184.55
-9755541.00 5135690.74 180.87
-9755543.00 5135692.50 180.89
-9755535.04 5135689.84 180.81
-9755534.49 5135690.41 180.87
-9755544.20 5135691.58 180.88
-9755535.08 5135688.08 180.82
-9755539.27 5135695.22 184.22
-9755533.00 5135687.71 180.83
-9755543.61 5135695.18 180.98
-9755542.14 5135687.77 180.85
-9755539.57 5135695.29 183.79
-9755545.67 5135694.90 180.95
-9755539.58 5135691.48 183.65
-9755537.66 5135695.65 184.39
-9755539.74 5135695.70 181.07
-9755543.29 5135693.41 180.91
-9755538.01 5135693.06 180.92
-9755542.42 5135694.26 180.94
-9755538.01 5135690.95 180.86
-9755540.72 5135694.67 185.43
-9755538.92 5135687.76 180.84
-9755541.86 5135687.82 180.85
-9755537.75 5135694.96 185.48
-9755540.12 5135691.00 180.87
-9755543.61 5135688.65 180.82
-9755538.35 5135694.40 184.92
-9755537.11 5135691.91 180.90
-9755531.20 5135693.31 180.93
-9755532.76 5135689.48 180.73
-9755532.77 5135693.02 180.94
-9755531.81 5135692.40 180.92
-9755530.09 5135683.32 181.01
-9755529.48 5135682.34 181.02
-9755528.59 5135684.41 181.00
-9755528.91 5135685.35 180.97
-9755530.05 5135685.60 180.95
-9755531.02 5135684.46 181.00
-9755528.29 5135683.51 181.03
-9755528.56 5135686.48 180.91
-9755528.64 5135687.38 180.86
-9755530.38 5135689.16 180.76
-9755529.70 5135690.36 180.92
-9755529.68 5135694.48 180.98
-9755528.27 5135693.90 180.94
-9755530.03 5135695.06 180.98
-9755528.62 5135690.32 180.92
-9755529.46 5135689.51 180.76
-9755529.46 5135688.22 180.84
-9755529.55 5135689.14 180.77
-9755528.60 5135687.02 180.88
-9755526.30 5135681.42 181.01
-9755525.64 5135685.63 180.95
-9755521.24 5135684.67 181.00
-9755519.80 5135685.51 180.98
-9755525.38 5135682.27 181.00
-9755526.53 5135685.59 180.97
-9755525.34 5135686.19 180.94
-9755525.05 5135684.08 181.02
-9755525.05 5135681.14 181.01
-9755521.53 5135682.62 181.02
-9755521.89 5135684.40 181.00
-9755520.39 5135684.35 181.02
-9755521.30 5135682.33 181.03
-9755523.90 5135684.10 181.02
-9755526.55 5135682.89 181.02
-9755524.51 5135684.42 181.00
-9755522.14 5135684.63 181.00
-9755523.00 5135682.90 181.01
-9755519.83 5135681.11 181.02
-9755525.41 5135682.93 181.02
-9755519.80 5135686.74 180.92
-9755528.02 5135682.94 181.01
-9755527.18 5135683.87 181.01
-9755520.63 5135684.35 181.01
-9755517.98 5135684.08 181.03
-9755516.58 5135684.93 181.01
-9755517.71 5135683.22 181.04
-9755511.25 5135681.06 181.05
-9755508.55 5135685.18 181.05
-9755508.85 5135682.52 181.06
-9755511.80 5135683.42 181.06
-9755517.97 5135686.39 180.94
-9755513.27 5135684.92 181.02
-9755519.44 5135681.72 181.02
-9755509.76 5135683.70 181.07
-9755510.99 5135681.64 181.06
-9755518.89 5135684.05 181.04
-9755507.46 5135683.12 181.07
-9755507.14 5135681.00 181.08
-9755510.04 5135681.02 181.05
-9755517.21 5135682.56 181.03
-9755507.92 5135685.46 181.03
-9755508.59 5135682.49 181.07
-9755507.09 5135684.27 181.09
-9755507.17 5135682.24 181.08
-9755509.72 5135685.18 181.05
-9755518.31 5135686.48 180.93
-9755514.51 5135685.83 180.99
-9755511.54 5135684.91 181.05
-9755517.40 5135683.77 181.03
-9755506.44 5135684.58 181.08
-9755507.42 5135682.46 181.08
-9755516.53 5135681.39 181.05
-9755518.33 5135685.23 180.99
-9755518.92 5135685.51 180.99
-9755516.50 5135684.04 181.03
-9755514.71 5135684.31 181.05
-9755516.51 5135685.50 181.01
-9755509.13 5135683.99 181.06
-9755506.21 5135681.59 181.07
-9755528.29 5135690.95 180.93
-9755526.49 5135687.65 180.87
-9755523.57 5135695.63 181.01
-9755524.42 5135693.00 180.94
-9755523.59 5135690.59 180.90
-9755526.85 5135687.69 180.87
-9755527.38 5135693.89 180.94
-9755524.47 5135691.53 180.93
-9755522.39 5135692.67 180.92
-9755523.00 5135691.75 180.91
-9755522.97 5135692.73 180.93
-9755520.95 5135686.72 180.91
-9755522.06 5135690.62 180.90
-9755522.12 5135692.64 180.92
-9755525.05 5135688.53 180.83
-9755522.43 5135686.77 180.92
-9755525.58 5135689.42 180.78
-9755520.91 5135690.01 180.81
-9755520.32 5135687.61 180.87
-9755521.24 5135687.60 180.88
-9755525.95 5135693.30 180.94
-9755524.43 5135687.95 180.86
-9755526.21 5135692.09 180.94
-9755522.94 5135694.43 180.97
-9755527.68 5135690.67 180.92
-9755527.74 5135687.43 180.87
-9755514.13 5135695.61 180.96
-9755519.12 5135695.64 181.00
-9755517.07 5135696.07 185.04
-9755510.04 5135689.03 180.92
-9755514.18 5135687.62 180.93
-9755519.70 5135693.86 180.97
-9755512.90 5135694.97 180.94
-9755506.72 5135693.19 180.94
-9755513.27 5135693.83 180.94
-9755511.74 5135694.97 180.94
-9755516.19 5135693.81 180.97
-9755508.22 5135694.96 180.91
-9755513.25 5135693.51 180.93
-9755516.22 5135689.07 180.83
-9755515.38 5135692.37 187.76
-9755512.67 5135694.98 180.95
-9755518.52 5135693.21 180.94
-9755513.84 5135694.10 180.94
-9755517.10 5135694.57 183.78
-9755514.15 5135690.53 180.86
-9755515.25 5135691.79 180.96
-9755517.64 5135691.36 181.75
-9755515.78 5135692.43 184.42
-9755515.94 5135689.39 180.81
-9755508.85 5135692.32 180.89
-9755515.92 5135691.99 181.84
-9755517.41 5135695.48 183.82
-9755512.04 5135687.59 180.94
-9755506.76 5135691.96 180.92
-9755509.96 5135690.85 180.89
-9755507.91 5135694.94 180.91
-9755518.04 5135691.08 181.81
-9755517.73 5135687.63 180.89
-9755506.18 5135687.26 181.02
-9755507.36 5135687.27 181.00
-9755510.89 5135692.34 180.92
-9755515.56 5135692.75 184.38
-9755515.50 5135694.56 183.54
-9755517.38 5135694.14 180.96
-9755517.41 5135689.70 180.82
-9755508.23 5135686.95 181.01
-9755516.61 5135691.79 182.62
-9755506.75 5135688.99 180.98
-9755518.85 5135691.20 180.91
-9755515.07 5135691.89 184.35
-9755515.12 5135694.56 184.16
-9755510.38 5135688.44 180.94
-9755518.86 5135690.29 180.87
-9755507.00 5135694.97 180.91
-9755507.03 5135688.46 180.98
-9755517.34 5135690.84 180.91
-9755510.64 5135687.18 180.98
-9755509.68 5135691.16 180.89
-9755508.18 5135694.31 180.89
-9755515.35 5135695.16 184.19
-9755516.21 5135691.56 181.85
-9755509.69 5135694.42 180.91
-9755508.49 5135687.23 181.00
-9755516.13 5135691.81 184.58
-9755515.31 5135694.91 183.62
-9755508.57 5135693.19 180.89
-9755516.25 5135694.87 183.68
-9755515.35 5135692.03 185.30
-9755506.48 5135694.09 180.92
-9755509.44 5135688.43 180.96
-9755512.63 5135694.70 180.95
-9755512.05 5135692.64 180.92
-9755505.02 5135689.55 180.97
-9755505.59 5135694.34 180.92
-9755505.61 5135687.83 181.01
-9755506.21 5135692.33 180.93
-9755504.65 5135694.05 180.95
-9755504.08 5135695.53 180.94
-9755504.92 5135691.36 180.93
-9755504.09 5135692.59 180.92
-9755503.82 5135685.19 181.07
-9755503.28 5135681.92 181.08
-9755503.84 5135686.04 181.05
-9755503.54 5135691.38 180.95
-9755503.52 5135694.08 180.94
-9755503.79 5135694.64 180.93
-9755555.10 5135699.81 185.58
-9755554.45 5135700.30 186.13
-9755555.71 5135700.30 185.93
-9755555.05 5135699.93 186.39
-9755554.93 5135699.80 186.25
-9755555.43 5135700.05 186.18
-9755555.13 5135700.47 187.82
-9755554.40 5135700.22 184.93
-9755537.34 5135699.92 186.24
-9755544.76 5135700.00 185.81
-9755545.44 5135700.06 183.82
-9755542.83 5135700.21 187.96
-9755537.68 5135699.97 186.25
-9755537.01 5135700.21 185.23
-9755539.53 5135699.82 188.48
-9755543.12 5135699.86 187.61
-9755540.71 5135700.11 188.84
-9755540.49 5135699.82 188.29
-9755537.11 5135699.88 185.46
-9755542.48 5135700.05 189.46
-9755538.02 5135700.25 185.98
-9755549.08 5135703.06 187.50
-9755553.51 5135702.68 184.97
-9755553.02 5135700.34 185.20
-9755554.22 5135702.09 186.20
-9755549.25 5135701.97 186.30
-9755547.34 5135706.40 181.47
-9755554.78 5135705.43 185.77
-9755553.73 5135702.69 185.82
-9755550.54 5135704.44 185.65
-9755555.69 5135704.85 185.90
-9755555.93 5135700.70 189.17
-9755554.47 5135705.97 185.48
-9755546.00 5135703.46 185.52
-9755551.02 5135700.96 186.78
-9755546.23 5135702.02 186.45
-9755555.11 5135702.25 188.26
-9755550.57 5135701.64 187.68
-9755551.02 5135701.59 187.06
-9755553.34 5135701.86 186.65
-9755552.15 5135702.98 186.57
-9755552.94 5135701.19 185.36
-9755553.87 5135701.45 186.08
-9755549.74 5135701.48 186.56
-9755550.04 5135701.14 186.25
-9755555.94 5135701.73 188.42
-9755547.73 5135702.80 185.10
-9755550.03 5135700.51 185.79
-9755554.14 5135703.93 185.89
-9755554.49 5135706.85 186.15
-9755553.07 5135700.79 184.41
-9755552.76 5135703.57 186.19
-9755552.60 5135702.41 181.37
-9755553.89 5135701.76 184.96
-9755548.02 5135704.15 186.15
-9755551.78 5135702.66 187.04
-9755545.88 5135703.90 184.26
-9755551.82 5135701.19 185.66
-9755549.77 5135704.90 185.28
-9755548.51 5135705.08 185.94
-9755555.74 5135701.43 187.87
-9755549.21 5135700.34 185.77
-9755555.91 5135706.52 185.57
-9755551.85 5135701.69 186.42
-9755550.47 5135701.60 186.57
-9755555.61 5135701.37 187.11
-9755552.07 5135705.56 181.45
-9755553.49 5135702.71 185.47
-9755550.09 5135701.95 188.00
-9755554.45 5135703.15 186.54
-9755549.27 5135702.80 185.87
-9755555.46 5135703.74 186.63
-9755548.57 5135703.54 188.17
-9755550.29 5135702.25 188.00
-9755550.38 5135705.56 185.67
-9755552.39 5135704.11 185.60
-9755550.58 5135700.95 185.93
-9755554.28 5135700.32 185.23
-9755546.30 5135701.51 185.11
-9755550.94 5135701.47 185.61
-9755546.35 5135701.61 186.53
-9755553.60 5135704.86 185.19
-9755551.27 5135703.11 188.00
-9755550.45 5135701.28 186.24
-9755549.80 5135702.03 187.03
-9755554.83 5135702.29 188.16
-9755553.53 5135701.17 186.40
-9755553.00 5135700.68 186.00
-9755552.97 5135701.60 185.68
-9755553.63 5135703.27 186.27
-9755550.89 5135703.18 187.89
-9755549.14 5135705.41 185.46
-9755552.62 5135701.09 181.33
-9755555.17 5135701.88 188.71
-9755550.19 5135702.64 187.33
-9755553.87 5135703.17 186.53
-9755550.99 5135701.99 187.28
-9755548.22 5135704.19 185.96
-9755551.87 5135703.20 186.52
-9755552.16 5135703.27 185.39
