-9755493.32 5135370.34 180.97
-9755493.31 5135375.69 180.97
-9755487.70 5135375.70 180.94
-9755495.10 5135368.31 181.01
-9755489.18 5135370.06 180.93
-9755493.02 5135375.30 180.96
-9755495.09 5135371.27 181.00
-9755494.54 5135375.40 180.98
-9755483.55 5135371.47 180.92
-9755494.81 5135368.50 181.00
-9755491.60 5135371.26 180.96
-9755493.95 5135373.30 180.99
-9755482.39 5135372.65 180.92
-9755493.70 5135377.37 180.96
-9755484.01 5135377.71 180.94
-9755490.71 5135376.52 180.93
-9755483.93 5135370.27 180.91
-9755487.53 5135372.69 180.94
-9755488.82 5135378.61 180.95
-9755492.75 5135375.14 180.94
-9755491.60 5135378.09 180.97
-9755489.41 5135375.89 180.94
-9755494.82 5135377.49 180.99
-9755488.98 5135368.06 180.96
-9755489.80 5135371.83 180.95
-9755484.24 5135372.98 180.92
-9755482.19 5135368.55 180.93
-9755480.35 5135375.32 180.92
-9755480.07 5135378.02 180.93
-9755481.16 5135374.44 180.92
-9755482.45 5135371.19 180.91
-9755481.19 5135378.03 180.95
-9755481.23 5135372.65 180.91
-9755480.33 5135369.68 180.92
-9755481.27 5135377.67 180.95
-9755481.46 5135373.81 180.92
-9755481.86 5135373.60 180.92
-9755481.22 5135376.74 180.94
-9755481.79 5135377.96 180.94
-9755480.35 5135371.15 180.91
-9755481.85 5135378.25 180.96
-9755480.07 5135377.04 180.95
-9755480.03 5135372.97 180.91
-9755476.20 5135378.83 181.01
-9755472.13 5135371.72 180.94
-9755478.55 5135374.78 180.94
-9755478.32 5135377.64 180.96
-9755476.24 5135374.14 180.96
-9755480.09 5135371.10 180.91
-9755476.81 5135374.62 180.91
-9755474.20 5135371.11 180.93
-9755473.48 5135377.04 180.99
-9755480.07 5135368.80 180.93
-9755479.84 5135370.50 180.92
-9755472.14 5135377.88 181.02
-9755472.16 5135374.36 180.98
-9755474.18 5135373.47 180.97
-9755475.39 5135373.49 180.94
-9755474.76 5135370.22 180.91
-9755474.71 5135373.52 180.96
-9755471.76 5135375.55 180.97
-9755472.41 5135369.40 180.91
-9755474.78 5135372.00 180.94
-9755471.71 5135377.09 181.00
-9755477.75 5135371.16 180.92
-9755480.08 5135378.24 180.95
-9755476.20 5135374.72 180.94
-9755472.20 5135375.21 180.99
-9755478.58 5135373.49 180.96
-9755471.87 5135374.08 180.99
-9755475.37 5135370.56 180.92
-9755472.92 5135377.62 181.00
-9755475.38 5135374.10 180.94
-9755473.57 5135373.15 180.98
-9755472.75 5135374.10 180.97
-9755478.54 5135375.86 180.94
-9755472.97 5135370.56 180.92
-9755476.22 5135378.00 180.98
-9755475.97 5135374.74 180.94
-9755476.15 5135369.06 180.90
-9755473.38 5135371.41 180.91
-9755473.02 5135375.92 180.97
-9755472.78 5135369.03 180.91
-9755474.16 5135376.39 180.98
-9755472.39 5135373.70 180.97
-9755478.33 5135372.93 180.92
-9755474.74 5135376.79 180.98
-9755474.43 5135378.29 181.00
-9755477.06 5135375.90 180.96
-9755477.67 5135368.49 180.93
-9755479.43 5135372.94 180.94
-9755474.15 5135370.21 180.87
-9755478.03 5135370.25 180.92
-9755477.12 5135377.13 180.97
-9755475.03 5135373.80 180.95
-9755474.72 5135371.11 180.92
-9755478.60 5135374.09 180.93
-9755479.74 5135368.76 180.93
-9755475.86 5135376.83 180.99
-9755470.32 5135379.46 181.06
-9755469.70 5135379.02 181.06
-9755468.77 5135378.83 181.04
-9755458.84 5135378.76 181.23
-9755466.18 5135379.61 181.09
-9755467.01 5135379.05 181.08
-9755460.28 5135379.60 181.23
-9755457.01 5135379.03 181.26
-9755457.33 5135378.72 181.25
-9755463.53 5135379.62 181.19
-9755464.37 5135379.35 181.18
-9755458.81 5135379.89 181.25
-9755465.59 5135379.11 181.09
-9755464.42 5135379.64 181.19
-9755454.36 5135378.71 181.29
-9755471.74 5135384.15 181.09
-9755471.31 5135383.30 185.76
-9755469.58 5135384.90 184.91
-9755470.47 5135384.94 184.25
-9755471.66 5135384.61 181.09
-9755469.45 5135386.24 184.72
-9755470.15 5135385.89 184.56
-9755469.69 5135384.29 183.74
-9755471.24 5135385.59 184.59
-9755470.63 5135386.04 183.58
-9755469.95 5135390.91 181.29
-9755468.80 5135381.14 181.08
-9755470.99 5135383.59 184.87
-9755471.25 5135384.79 186.19
-9755470.55 5135385.36 184.41
-9755469.28 5135386.67 183.64
-9755470.88 5135387.48 183.91
-9755469.19 5135383.53 183.72
-9755471.12 5135386.00 184.47
-9755470.34 5135384.30 184.06
-9755469.98 5135385.01 185.54
-9755469.66 5135392.11 181.31
-9755470.33 5135385.55 181.20
-9755469.64 5135384.40 181.21
-9755468.81 5135385.39 184.90
-9755470.89 5135384.06 184.04
-9755470.42 5135384.86 184.09
-9755470.92 5135383.09 185.76
-9755469.99 5135385.46 185.62
-9755470.17 5135384.59 185.08
-9755470.86 5135383.38 184.84
-9755469.65 5135385.98 186.13
-9755469.38 5135386.19 181.24
-9755471.14 5135386.65 184.57
-9755469.64 5135386.52 181.25
-9755469.95 5135384.72 184.36
-9755470.87 5135387.71 181.24
-9755470.93 5135384.95 184.13
-9755470.32 5135386.19 181.22
-9755469.38 5135385.31 183.79
-9755469.35 5135392.37 181.32
-9755469.67 5135386.11 185.50
-9755469.64 5135386.00 184.01
-9755468.65 5135386.49 184.18
-9755469.98 5135383.70 184.36
-9755469.82 5135385.69 185.20
-9755469.61 5135392.64 181.33
-9755468.87 5135384.52 183.80
-9755470.95 5135383.85 185.28
-9755469.67 5135387.08 181.25
-9755469.40 5135386.34 184.40
-9755469.56 5135386.08 184.36
-9755470.57 5135384.15 181.13
-9755470.08 5135384.35 184.04
-9755469.34 5135385.72 183.95
-9755470.06 5135384.53 184.00
-9755470.25 5135393.27 181.33
-9755470.56 5135383.33 181.08
-9755468.83 5135383.52 181.19
-9755468.78 5135384.60 183.60
-9755468.76 5135383.62 184.51
-9755470.75 5135385.37 181.17
-9755470.53 5135392.67 181.32
-9755468.82 5135386.92 183.80
-9755470.90 5135384.04 184.87
-9755468.77 5135387.01 181.25
-9755470.36 5135383.50 183.59
-9755470.56 5135382.04 181.06
-9755470.01 5135384.92 184.76
-9755469.15 5135383.79 181.20
-9755470.37 5135385.17 185.80
-9755470.34 5135385.78 183.49
-9755470.25 5135383.28 181.08
-9755469.18 5135387.17 184.86
-9755470.52 5135387.09 181.23
-9755469.06 5135384.63 184.12
-9755469.38 5135390.62 181.30
-9755470.65 5135388.30 184.71
-9755470.13 5135388.04 183.74
-9755470.82 5135392.70 181.31
-9755470.80 5135385.09 184.72
-9755457.01 5135379.91 181.27
-9755469.06 5135392.64 181.33
-9755460.50 5135387.62 181.31
-9755458.74 5135390.79 188.99
-9755460.05 5135387.06 188.43
-9755457.90 5135389.57 188.51
-9755459.71 5135387.32 188.43
-9755460.22 5135387.58 187.81
-9755461.43 5135392.63 187.20
-9755462.92 5135392.48 189.57
-9755464.47 5135388.32 185.25
-9755462.11 5135391.20 189.24
-9755459.40 5135389.01 188.39
-9755461.50 5135386.73 186.41
-9755468.53 5135386.93 183.69
-9755466.93 5135391.83 181.32
-9755461.43 5135389.06 187.25
-9755466.38 5135392.36 181.33
-9755460.22 5135388.51 181.34
-9755458.59 5135391.41 188.90
-9755462.01 5135390.83 190.14
-9755467.28 5135391.80 181.31
-9755461.39 5135392.82 189.32
-9755455.52 5135386.97 181.37
-9755465.18 5135390.38 187.72
-9755461.55 5135391.05 190.56
-9755460.29 5135389.85 187.59
-9755468.13 5135391.18 181.31
-9755455.51 5135388.75 181.39
-9755456.15 5135392.80 183.71
-9755459.83 5135392.83 189.74
-9755463.02 5135392.55 190.59
-9755463.51 5135382.85 181.23
-9755457.64 5135387.49 189.37
-9755459.78 5135390.81 189.00
-9755459.12 5135390.00 184.79
-9755463.95 5135389.26 186.39
-9755463.78 5135383.20 181.24
-9755462.97 5135390.29 189.89
-9755462.01 5135391.14 189.89
-9755458.88 5135387.87 188.58
-9755460.22 5135387.91 181.33
-9755463.23 5135387.03 186.86
-9755458.84 5135388.24 188.52
-9755456.09 5135392.53 183.91
-9755460.63 5135390.74 189.31
-9755468.55 5135384.61 183.47
-9755460.06 5135391.13 189.24
-9755464.13 5135387.75 184.99
-9755462.30 5135389.08 189.37
-9755461.41 5135387.36 181.30
-9755465.66 5135391.92 184.76
-9755462.07 5135387.20 188.71
-9755458.94 5135390.04 186.97
-9755461.12 5135388.99 188.48
-9755458.11 5135389.19 184.57
-9755459.66 5135380.74 181.25
-9755462.33 5135380.20 181.22
-9755461.11 5135384.06 181.27
-9755460.21 5135392.35 181.47
-9755461.98 5135391.47 181.54
-9755461.22 5135391.67 189.60
-9755464.74 5135391.57 183.80
-9755465.79 5135392.56 187.54
-9755459.35 5135389.63 184.82
-9755460.29 5135390.01 189.18
-9755456.39 5135387.84 181.37
-9755456.38 5135387.61 181.36
-9755463.81 5135392.07 187.81
-9755461.54 5135387.50 185.11
-9755459.08 5135389.25 184.65
-9755458.52 5135388.24 188.45
-9755462.41 5135388.39 189.39
-9755457.87 5135385.53 181.34
-9755460.59 5135391.05 189.38
-9755460.19 5135390.79 187.76
-9755462.29 5135388.48 188.22
-9755463.78 5135389.88 189.37
-9755458.60 5135388.69 184.69
-9755464.04 5135392.80 185.66
-9755467.30 5135385.28 181.24
-9755458.15 5135391.73 181.38
-9755463.74 5135390.27 186.68
-9755463.24 5135388.30 186.78
-9755456.86 5135390.61 183.36
-9755458.93 5135387.98 184.66
-9755464.98 5135392.79 185.51
-9755464.62 5135389.96 186.41
-9755455.87 5135391.75 181.39
-9755464.46 5135387.92 187.13
-9755463.78 5135390.79 189.19
-9755462.31 5135393.41 189.78
-9755460.89 5135390.29 188.78
-9755461.15 5135391.10 189.23
-9755468.29 5135384.53 185.22
-9755460.21 5135387.58 181.32
-9755461.06 5135390.94 181.45
-9755457.92 5135381.06 181.27
-9755462.69 5135387.71 186.85
-9755462.09 5135389.14 186.51
-9755460.35 5135391.97 188.58
-9755455.50 5135391.70 183.76
-9755462.27 5135386.59 185.73
-9755468.39 5135384.46 184.85
-9755456.69 5135390.41 183.15
-9755460.53 5135388.53 181.34
-9755458.72 5135391.72 181.39
-9755459.68 5135388.18 188.67
-9755461.64 5135389.83 186.54
-9755459.70 5135387.90 188.35
-9755465.84 5135382.90 181.22
-9755461.34 5135392.92 181.50
-9755457.88 5135389.34 181.37
-9755457.89 5135384.64 181.31
-9755463.55 5135390.79 189.13
-9755468.35 5135384.84 184.10
-9755459.62 5135389.39 184.41
-9755461.62 5135391.73 188.55
-9755459.64 5135389.04 188.45
-9755458.22 5135391.35 188.49
-9755464.35 5135389.44 186.53
-9755464.35 5135387.63 181.29
-9755465.13 5135387.87 184.72
-9755458.25 5135387.53 188.92
-9755461.10 5135386.72 181.31
-9755458.50 5135388.43 181.36
-9755460.55 5135388.23 187.78
-9755458.45 5135392.89 188.92
-9755463.59 5135389.44 186.74
-9755458.23 5135385.26 181.32
-9755459.82 5135387.03 188.60
-9755460.47 5135392.33 188.60
-9755461.11 5135390.16 189.48
-9755465.25 5135387.07 181.28
-9755462.58 5135386.52 186.63
-9755460.17 5135389.69 187.59
-9755462.71 5135390.81 189.10
-9755464.70 5135389.50 187.72
-9755462.95 5135389.37 188.14
-9755461.41 5135386.74 181.30
-9755459.61 5135389.38 181.35
-9755463.53 5135389.11 186.06
-9755462.57 5135389.29 186.85
-9755462.86 5135391.11 189.12
-9755460.86 5135392.48 188.11
-9755456.13 5135393.14 182.70
-9755463.31 5135391.72 189.08
-9755465.00 5135384.35 181.24
-9755467.78 5135385.24 183.79
-9755464.06 5135390.78 188.18
-9755461.70 5135387.37 186.53
-9755460.26 5135380.51 181.23
-9755458.29 5135392.00 188.57
-9755462.89 5135386.13 185.61
-9755456.32 5135392.85 184.29
-9755462.00 5135390.90 181.46
-9755467.92 5135384.68 181.24
-9755456.96 5135389.04 181.37
-9755465.22 5135392.07 181.33
-9755458.48 5135381.70 181.27
-9755466.18 5135386.12 181.25
-9755456.95 5135392.30 181.39
-9755460.65 5135391.77 187.98
-9755468.24 5135385.29 183.47
-9755458.68 5135392.42 188.89
-9755463.71 5135388.26 186.65
-9755461.19 5135392.33 188.51
-9755466.16 5135380.87 181.19
-9755468.02 5135383.91 184.43
-9755467.94 5135384.85 184.38
-9755455.59 5135392.86 183.69
-9755462.33 5135387.92 188.24
-9755462.85 5135389.09 181.30
-9755462.92 5135389.91 189.27
-9755468.20 5135385.35 181.24
-9755464.68 5135390.82 188.87
-9755462.90 5135388.37 189.39
-9755461.17 5135390.22 190.30
-9755455.48 5135392.30 181.41
-9755456.79 5135390.49 188.88
-9755461.57 5135387.42 186.33
-9755468.53 5135385.01 181.23
-9755464.39 5135383.20 181.23
-9755456.61 5135393.29 184.35
-9755465.17 5135388.94 185.36
-9755467.58 5135390.03 181.29
-9755463.73 5135392.63 181.38
-9755465.52 5135384.68 181.24
-9755462.93 5135391.95 189.39
-9755463.70 5135387.87 185.44
-9755461.94 5135391.32 188.24
-9755461.84 5135388.37 187.11
-9755459.96 5135390.79 187.77
-9755457.57 5135393.41 184.58
-9755464.44 5135385.86 187.36
-9755462.86 5135386.13 181.29
-9755461.10 5135392.89 181.50
-9755462.28 5135391.54 186.89
-9755461.17 5135386.19 186.34
-9755457.92 5135382.85 181.29
-9755460.96 5135392.43 189.29
-9755456.95 5135393.37 182.66
-9755461.13 5135387.31 187.02
-9755466.08 5135387.92 181.27
-9755467.01 5135386.41 181.26
-9755462.10 5135392.85 188.96
-9755456.98 5135389.79 184.10
-9755461.80 5135391.14 189.22
-9755459.79 5135389.83 185.02
-9755462.05 5135384.36 181.26
-9755461.16 5135383.17 181.26
-9755462.61 5135391.05 189.45
-9755465.01 5135387.48 186.39
-9755459.88 5135392.60 181.45
-9755461.46 5135388.68 189.28
-9755459.99 5135388.66 184.42
-9755461.12 5135385.53 181.28
-9755459.96 5135389.73 187.55
-9755463.72 5135389.05 181.30
-9755462.68 5135390.78 189.40
-9755465.26 5135383.22 181.23
-9755464.30 5135391.67 187.74
-9755467.34 5135384.38 181.24
-9755462.31 5135388.30 186.83
-9755462.04 5135383.76 181.26
-9755461.68 5135390.18 189.12
-9755465.22 5135392.86 183.78
-9755465.07 5135390.34 187.42
-9755463.22 5135391.88 190.42
-9755460.93 5135391.98 189.36
-9755464.97 5135388.62 185.15
-9755464.47 5135387.64 186.49
-9755461.46 5135384.06 181.26
-9755461.12 5135388.16 187.11
-9755461.36 5135392.41 181.56
-9755462.24 5135392.33 189.52
-9755463.55 5135387.95 187.01
-9755459.62 5135386.37 181.31
-9755456.40 5135392.63 181.40
-9755463.45 5135386.01 185.75
-9755464.38 5135382.93 181.23
-9755461.39 5135390.93 181.47
-9755465.56 5135388.53 181.27
-9755458.50 5135390.45 188.70
-9755460.30 5135393.77 188.50
-9755462.81 5135390.81 181.39
-9755461.43 5135385.28 181.28
-9755463.45 5135388.45 181.31
-9755463.47 5135386.46 181.28
-9755462.57 5135387.20 185.95
-9755466.15 5135391.08 184.69
-9755458.77 5135390.20 181.39
-9755463.92 5135387.02 186.65
-9755462.62 5135392.24 190.38
-9755459.40 5135392.00 188.58
-9755468.26 5135384.93 183.62
-9755465.59 5135391.77 187.03
-9755455.55 5135382.48 181.32
-9755459.69 5135388.61 184.84
-9755464.08 5135393.24 187.67
-9755461.43 5135388.17 186.89
-9755459.62 5135390.85 181.35
-9755458.83 5135386.20 187.48
-9755463.54 5135391.75 187.78
-9755462.68 5135391.95 189.42
-9755468.59 5135385.70 185.75
-9755459.91 5135388.47 181.34
-9755467.36 5135381.14 181.12
-9755466.71 5135386.78 181.26
-9755460.28 5135388.65 188.35
-9755461.96 5135388.51 181.31
-9755464.69 5135382.58 181.22
-9755460.27 5135389.31 188.47
-9755463.49 5135381.73 181.22
-9755465.60 5135382.90 181.23
-9755457.89 5135391.34 188.90
-9755461.27 5135387.67 187.11
-9755462.65 5135388.51 189.60
-9755456.66 5135390.69 189.03
-9755456.42 5135391.10 189.21
-9755468.50 5135386.69 184.39
-9755463.78 5135384.08 181.24
-9755455.52 5135393.24 186.12
-9755464.33 5135392.56 185.54
-9755463.52 5135387.35 181.29
-9755459.14 5135390.20 187.19
-9755465.85 5135389.41 181.29
-9755461.33 5135389.08 181.33
-9755457.82 5135388.85 181.36
-9755458.12 5135389.33 181.37
-9755462.94 5135380.84 181.23
-9755464.36 5135386.18 181.28
-9755464.38 5135387.63 186.95
-9755459.93 5135392.83 188.38
-9755462.01 5135385.79 185.29
-9755465.53 5135393.00 181.34
-9755461.53 5135387.17 186.48
-9755458.23 5135387.19 189.10
-9755460.10 5135386.09 188.92
-9755458.19 5135393.50 188.89
-9755456.91 5135393.32 184.29
-9755460.70 5135391.55 190.44
-9755467.97 5135385.69 184.85
-9755460.16 5135389.43 181.37
-9755460.69 5135389.03 188.48
-9755458.13 5135391.81 189.39
-9755460.89 5135391.71 189.35
-9755463.52 5135380.50 181.21
-9755462.63 5135392.47 190.37
-9755457.91 5135379.91 181.25
-9755465.95 5135390.92 186.97
-9755455.51 5135387.87 181.38
-9755462.29 5135387.78 189.02
-9755461.43 5135392.42 187.17
-9755459.45 5135387.02 187.65
-9755464.30 5135388.81 186.61
-9755466.38 5135389.40 181.28
-9755458.81 5135383.73 181.29
-9755456.09 5135393.65 182.76
-9755462.66 5135392.49 188.63
-9755458.79 5135382.57 181.28
-9755460.23 5135389.92 181.36
-9755455.79 5135389.38 181.40
-9755461.46 5135389.11 188.07
-9755466.43 5135385.88 181.25
-9755467.00 5135387.64 181.26
-9755463.99 5135393.24 186.60
-9755462.00 5135385.07 186.43
-9755462.10 5135391.62 189.35
-9755460.85 5135391.18 187.90
-9755461.11 5135388.51 181.32
-9755456.36 5135391.93 184.63
-9755463.48 5135380.82 181.22
-9755465.76 5135393.25 183.70
-9755461.13 5135388.10 181.30
-9755463.27 5135388.62 186.75
-9755456.65 5135393.41 182.76
-9755461.75 5135380.22 181.22
-9755457.85 5135387.55 181.36
-9755461.71 5135381.13 181.23
-9755460.28 5135389.09 187.86
-9755456.99 5135390.25 181.38
-9755461.98 5135387.02 186.46
-9755468.50 5135386.48 181.25
-9755466.37 5135390.28 181.30
-9755462.56 5135388.49 181.30
-9755462.83 5135386.48 185.56
-9755461.20 5135390.92 188.82
-9755458.46 5135390.93 187.19
-9755460.87 5135388.26 187.74
-9755461.33 5135391.09 187.84
-9755466.33 5135392.95 184.38
-9755461.59 5135391.78 181.56
-9755460.53 5135393.24 181.49
-9755466.12 5135384.99 181.24
-9755462.04 5135390.61 189.20
-9755456.34 5135391.42 181.38
-9755458.74 5135388.81 181.37
-9755464.69 5135390.62 187.69
-9755457.30 5135382.87 181.30
-9755463.80 5135391.79 181.38
-9755457.84 5135389.95 181.37
-9755462.85 5135388.20 181.28
-9755458.65 5135387.87 188.63
-9755464.70 5135389.18 185.30
-9755464.39 5135390.64 188.18
-9755462.91 5135392.83 190.31
-9755459.31 5135391.09 181.35
-9755456.11 5135385.15 181.34
-9755462.26 5135389.40 181.32
-9755461.07 5135393.22 181.47
-9755462.42 5135390.76 188.72
-9755467.96 5135385.45 183.46
-9755459.42 5135384.59 181.30
-9755465.15 5135389.92 187.67
-9755462.30 5135390.83 188.27
-9755465.86 5135392.79 185.05
-9755456.08 5135393.22 181.39
-9755461.10 5135387.65 181.31
-9755464.11 5135389.44 186.52
-9755459.62 5135387.59 181.33
-9755466.16 5135384.07 181.24
-9755463.30 5135391.27 187.72
-9755459.38 5135392.32 188.03
-9755457.81 5135391.63 188.53
-9755465.58 5135383.78 181.24
-9755457.30 5135392.31 183.60
-9755462.40 5135388.03 190.03
-9755463.71 5135388.21 187.65
-9755462.05 5135389.50 190.39
-9755462.02 5135385.27 181.28
-9755463.82 5135381.71 181.21
-9755458.58 5135390.28 187.13
-9755460.05 5135393.27 188.38
-9755462.99 5135389.11 188.17
-9755457.37 5135390.93 184.68
-9755459.32 5135389.52 184.45
-9755463.68 5135390.23 188.25
-9755460.25 5135392.84 189.48
-9755458.74 5135389.94 188.65
-9755462.59 5135382.88 181.25
-9755459.28 5135389.08 181.35
-9755462.28 5135385.81 181.30
-9755460.84 5135391.16 181.45
-9755464.64 5135392.02 189.53
-9755462.42 5135387.54 188.80
-9755458.78 5135383.44 181.29
-9755459.56 5135391.21 187.95
-9755464.65 5135391.34 189.86
-9755468.42 5135390.32 181.30
-9755468.42 5135384.99 184.48
-9755463.30 5135387.12 185.59
-9755463.43 5135391.74 181.41
-9755461.47 5135389.06 189.24
-9755461.16 5135382.26 181.24
-9755464.65 5135384.36 181.24
-9755458.81 5135390.54 187.71
-9755459.31 5135389.73 181.37
-9755459.95 5135390.95 186.48
-9755462.02 5135387.62 181.30
-9755457.24 5135389.38 181.37
-9755463.48 5135387.47 185.48
-9755463.47 5135381.41 181.22
-9755461.27 5135391.94 188.48
-9755464.51 5135390.76 187.45
-9755463.45 5135388.65 187.34
-9755457.23 5135389.80 183.92
-9755458.71 5135393.20 181.44
-9755463.76 5135390.71 186.68
-9755466.81 5135393.32 184.58
-9755460.19 5135391.15 187.84
-9755458.18 5135386.74 181.35
-9755461.59 5135390.58 186.62
-9755457.59 5135391.05 183.56
-9755464.33 5135392.67 181.36
-9755464.47 5135392.05 185.57
-9755466.31 5135393.48 183.54
-9755467.28 5135388.55 181.27
-9755455.79 5135393.29 182.46
-9755464.46 5135391.47 187.48
-9755462.45 5135391.91 185.46
-9755461.38 5135390.32 181.40
-9755462.03 5135390.46 189.79
-9755462.65 5135387.91 186.29
-9755458.78 5135390.70 185.92
-9755458.17 5135390.23 181.38
-9755455.55 5135380.46 181.30
-9755465.34 5135390.78 189.03
-9755457.22 5135390.88 181.37
-9755462.62 5135386.32 185.56
-9755463.53 5135390.37 189.28
-9755461.14 5135390.28 181.38
-9755465.39 5135391.45 189.02
-9755461.97 5135392.62 189.06
-9755463.47 5135390.24 181.32
-9755464.69 5135381.68 181.22
-9755455.34 5135393.25 186.12
-9755454.90 5135389.32 181.39
-9755454.03 5135391.72 181.41
-9755454.35 5135384.33 181.34
-9755454.68 5135391.42 181.41
-9755453.99 5135392.62 181.43
-9755454.33 5135386.11 181.37
-9755453.74 5135390.50 181.40
-9755455.23 5135393.25 186.32
-9755454.65 5135382.24 181.32
-9755454.61 5135388.75 181.39
-9755455.21 5135387.60 181.38
-9755455.23 5135389.38 181.38
-9755455.23 5135389.08 181.38
-9755454.05 5135386.11 181.37
-9755455.27 5135380.46 181.29
-9755454.65 5135382.82 181.33
-9755454.33 5135390.84 181.40
-9755454.64 5135392.32 181.41
-9755455.00 5135391.64 184.18
-9755453.99 5135387.57 181.37
-9755454.95 5135386.11 181.36
-9755454.92 5135393.26 181.41
-9755453.97 5135392.86 185.03
-9755454.05 5135392.11 184.88
-9755454.66 5135380.51 181.29
-9755454.94 5135385.20 181.34
-9755454.63 5135393.33 184.93
-9755454.29 5135389.95 181.39
-9755468.73 5135395.05 181.36
-9755470.50 5135394.20 181.34
-9755471.14 5135394.77 181.33
-9755470.46 5135397.13 181.37
-9755468.70 5135394.51 181.37
-9755470.20 5135394.45 181.34
-9755465.78 5135393.51 181.34
-9755459.91 5135394.05 188.41
-9755459.66 5135396.25 186.68
-9755456.90 5135393.60 186.58
-9755458.17 5135393.43 189.56
-9755459.63 5135394.11 188.86
-9755461.06 5135394.41 189.29
-9755457.24 5135397.21 189.47
-9755464.07 5135393.63 184.40
-9755464.29 5135394.04 184.54
-9755463.21 5135395.31 187.59
-9755460.50 5135394.34 188.58
-9755460.47 5135395.60 181.51
-9755459.38 5135395.91 186.90
-9755462.05 5135393.44 189.91
-9755455.60 5135393.96 189.36
-9755456.55 5135395.28 186.78
-9755456.50 5135397.24 189.98
-9755457.80 5135394.38 182.74
-9755456.94 5135396.84 185.45
-9755455.83 5135394.39 188.59
-9755465.98 5135396.55 183.71
-9755456.51 5135394.73 188.62
-9755456.50 5135395.85 186.60
-9755457.50 5135394.40 182.67
-9755455.76 5135394.31 182.90
-9755456.34 5135393.22 181.40
-9755461.01 5135393.54 187.94
-9755460.49 5135393.92 181.49
-9755455.73 5135394.12 186.37
-9755456.35 5135393.63 182.82
-9755467.86 5135394.10 181.36
-9755457.36 5135394.07 182.68
-9755461.15 5135394.20 185.93
-9755456.37 5135394.85 183.05
-9755456.45 5135396.38 189.39
-9755463.52 5135396.99 188.11
-9755460.94 5135393.80 189.06
-9755458.21 5135397.48 190.32
-9755460.14 5135397.27 187.26
-9755462.68 5135396.53 187.15
-9755464.62 5135395.91 181.43
-9755456.29 5135394.17 182.36
-9755455.54 5135395.26 188.28
-9755464.70 5135394.34 184.11
-9755455.49 5135394.15 183.02
-9755457.82 5135393.58 181.45
-9755465.19 5135395.18 184.14
-9755466.98 5135394.49 181.36
-9755455.59 5135394.11 182.12
-9755457.64 5135395.23 188.41
-9755456.41 5135394.04 189.14
-9755460.52 5135394.38 181.49
-9755456.95 5135397.24 188.25
-9755457.01 5135396.54 187.36
-9755461.34 5135394.31 188.70
-9755459.91 5135397.45 185.53
-9755464.13 5135396.50 188.15
-9755457.33 5135396.73 188.29
-9755463.56 5135394.24 185.32
-9755458.50 5135397.01 188.35
-9755459.85 5135396.33 183.90
-9755457.82 5135397.29 190.17
-9755458.51 5135397.34 188.43
-9755462.95 5135395.19 184.92
-9755457.82 5135396.78 188.39
-9755455.75 5135395.84 186.72
-9755459.86 5135395.15 183.64
-9755458.14 5135396.99 189.58
-9755455.88 5135395.83 186.78
-9755466.11 5135396.99 183.79
-9755456.92 5135396.77 188.20
-9755458.46 5135396.99 187.42
-9755458.68 5135397.47 187.00
-9755456.75 5135396.57 189.40
-9755464.35 5135394.71 188.11
-9755456.38 5135396.60 189.86
-9755463.14 5135396.18 187.81
-9755457.63 5135393.67 188.56
-9755460.90 5135393.46 189.91
-9755459.60 5135394.41 181.48
-9755466.68 5135394.01 184.22
-9755459.91 5135395.68 186.25
-9755457.68 5135395.94 188.20
-9755455.52 5135395.29 187.00
-9755457.26 5135394.40 186.72
-9755463.59 5135394.92 188.40
-9755465.52 5135394.75 181.38
-9755457.22 5135395.59 181.64
-9755461.48 5135394.58 185.77
-9755460.54 5135393.72 183.80
-9755460.23 5135395.00 181.50
-9755458.22 5135394.21 184.17
-9755457.88 5135397.14 186.58
-9755464.32 5135396.06 184.44
-9755458.47 5135396.76 186.95
-9755456.48 5135395.23 182.12
-9755459.01 5135394.96 188.06
-9755455.82 5135394.19 182.30
-9755456.67 5135394.34 183.01
-9755459.01 5135394.89 186.37
-9755462.24 5135394.95 188.95
-9755457.01 5135397.15 185.38
-9755459.68 5135395.38 184.22
-9755456.05 5135396.97 183.10
-9755456.11 5135394.17 186.63
-9755458.78 5135393.77 188.81
-9755465.26 5135394.15 181.38
-9755457.27 5135396.61 185.96
-9755459.93 5135395.51 183.99
-9755459.84 5135396.92 185.81
-9755460.52 5135394.26 188.93
-9755459.56 5135395.65 181.54
-9755460.19 5135396.49 186.53
-9755461.01 5135395.29 185.80
-9755457.57 5135396.59 190.22
-9755457.57 5135395.15 182.93
-9755457.24 5135393.85 184.59
-9755456.95 5135395.22 183.06
-9755461.45 5135393.40 190.31
-9755458.21 5135394.04 189.53
-9755460.49 5135393.66 187.78
-9755463.22 5135394.41 187.70
-9755459.68 5135395.45 186.27
-9755461.13 5135394.03 189.33
-9755456.02 5135394.86 183.04
-9755455.79 5135396.05 183.17
-9755461.86 5135393.62 186.13
-9755463.59 5135395.53 189.03
-9755459.41 5135394.19 188.84
-9755458.44 5135394.85 186.59
-9755457.25 5135394.17 186.72
-9755459.95 5135394.12 181.48
-9755460.09 5135396.02 183.69
-9755463.77 5135396.08 186.06
-9755460.78 5135394.54 187.50
-9755464.94 5135396.78 181.45
-9755464.59 5135395.00 188.14
-9755456.74 5135397.49 185.48
-9755466.86 5135396.93 183.79
-9755455.77 5135396.44 183.16
-9755458.70 5135395.55 181.54
-9755457.54 5135394.83 188.92
-9755457.83 5135397.02 189.64
-9755457.62 5135394.88 186.82
-9755464.34 5135395.95 181.44
-9755458.18 5135396.09 189.83
-9755455.34 5135396.02 186.73
-9755456.34 5135394.23 184.47
-9755466.70 5135395.91 181.38
-9755458.42 5135394.48 186.07
-9755466.09 5135397.06 181.42
-9755456.14 5135394.30 182.96
-9755459.32 5135394.42 181.49
-9755462.01 5135393.80 181.45
-9755459.04 5135393.98 188.87
-9755457.64 5135394.46 187.31
-9755455.54 5135393.90 181.43
-9755468.14 5135396.54 181.37
-9755457.26 5135394.90 182.97
-9755463.48 5135393.52 181.41
-9755457.57 5135396.18 190.18
-9755463.79 5135394.16 187.65
-9755466.92 5135395.69 181.37
-9755457.88 5135397.42 189.70
-9755457.28 5135397.07 189.05
-9755457.29 5135395.38 187.38
-9755461.72 5135395.24 188.91
-9755456.96 5135394.67 186.61
-9755463.72 5135396.04 184.60
-9755458.16 5135396.50 181.52
-9755456.35 5135396.49 187.49
-9755455.82 5135394.95 188.73
-9755460.47 5135396.52 181.54
-9755462.33 5135394.69 188.72
-9755459.73 5135396.62 185.30
-9755458.27 5135395.11 186.61
-9755460.17 5135395.88 181.55
-9755458.17 5135394.71 187.16
-9755456.11 5135396.41 188.62
-9755463.74 5135397.38 187.12
-9755468.15 5135394.45 181.36
-9755457.26 5135395.53 189.35
-9755462.52 5135394.22 185.49
-9755456.08 5135395.60 181.63
-9755456.34 5135393.99 182.91
-9755461.07 5135395.93 181.53
-9755458.81 5135397.36 187.64
-9755464.01 5135395.08 187.60
-9755457.43 5135394.37 188.32
-9755456.59 5135394.19 182.25
-9755461.36 5135395.90 181.51
-9755462.87 5135394.92 184.93
-9755458.54 5135393.80 189.51
-9755456.49 5135393.81 181.44
-9755455.55 5135397.26 189.64
-9755456.15 5135397.08 187.23
-9755459.30 5135395.26 181.51
-9755455.30 5135397.37 187.70
-9755467.58 5135393.23 181.34
-9755458.26 5135395.80 189.83
-9755462.86 5135395.31 187.74
-9755456.62 5135394.92 181.84
-9755456.94 5135395.40 188.96
-9755458.68 5135396.02 190.02
-9755459.69 5135395.97 183.86
-9755458.76 5135395.31 186.50
-9755458.18 5135394.55 187.14
-9755457.78 5135395.43 187.37
-9755460.67 5135394.06 187.78
-9755457.92 5135394.01 182.78
-9755462.53 5135393.52 181.44
-9755457.30 5135397.43 184.51
-9755464.33 5135396.69 183.89
-9755466.35 5135397.20 183.80
-9755459.90 5135393.89 189.32
-9755462.54 5135395.31 181.47
-9755456.37 5135394.62 182.05
-9755456.06 5135396.04 183.11
-9755465.18 5135397.37 181.87
-9755467.57 5135394.46 181.36
-9755455.50 5135394.02 185.67
-9755459.85 5135395.85 187.15
-9755460.38 5135395.75 185.03
-9755459.30 5135396.76 186.62
-9755458.20 5135396.98 189.15
-9755455.84 5135397.42 181.65
-9755455.20 5135396.67 183.19
-9755454.53 5135397.19 183.26
-9755454.37 5135397.37 188.56
-9755453.36 5135397.24 183.23
-9755452.85 5135397.20 189.70
-9755455.16 5135395.18 183.16
-9755453.97 5135395.79 188.60
-9755454.85 5135394.41 185.02
-9755455.45 5135397.31 183.23
-9755454.45 5135396.91 189.89
-9755455.11 5135394.05 185.66
-9755453.77 5135394.05 182.31
-9755454.03 5135396.69 183.23
-9755454.32 5135394.63 182.76
-9755453.69 5135394.61 182.43
-9755454.64 5135396.40 188.55
-9755454.01 5135397.00 183.23
-9755453.48 5135395.22 183.08
-9755455.20 5135393.68 182.84
-9755454.56 5135394.33 185.25
-9755455.16 5135393.49 181.39
-9755453.98 5135396.02 183.23
-9755455.22 5135394.91 183.07
-9755455.43 5135394.46 181.65
-9755454.36 5135396.67 183.25
-9755454.96 5135397.01 189.08
-9755454.41 5135396.21 189.37
-9755454.09 5135396.68 189.49
-9755455.19 5135394.45 186.74
-9755455.01 5135395.75 189.96
-9755453.75 5135394.98 183.06
-9755454.85 5135394.00 184.81
-9755453.94 5135395.28 188.54
-9755453.67 5135393.94 185.39
-9755455.19 5135397.33 188.57
-9755453.35 5135393.62 184.41
-9755455.50 5135395.48 181.55
-9755455.21 5135396.09 183.18
-9755455.20 5135394.16 186.36
-9755454.58 5135394.19 181.43
-9755454.40 5135395.68 182.60
-9755455.37 5135396.28 188.03
-9755454.05 5135396.04 189.75
-9755453.74 5135396.36 183.23
-9755455.38 5135395.23 181.55
-9755454.46 5135394.01 182.39
-9755455.00 5135394.97 183.12
-9755454.84 5135395.55 187.32
-9755453.82 5135395.17 182.36
-9755455.04 5135395.16 181.89
-9755453.31 5135396.06 188.32
-9755453.42 5135396.08 183.23
-9755453.99 5135397.23 183.22
-9755455.08 5135394.53 185.05
-9755454.03 5135394.26 182.52
-9755453.42 5135395.20 188.49
-9755454.88 5135393.86 185.23
-9755454.35 5135395.21 183.19
-9755454.74 5135393.55 184.87
-9755454.90 5135395.01 187.37
-9755454.83 5135394.20 182.97
-9755455.24 5135395.55 183.17
-9755454.30 5135395.78 183.26
-9755453.69 5135393.52 181.44
-9755453.04 5135394.59 184.32
-9755454.25 5135394.98 181.54
-9755453.99 5135394.20 182.76
-9755453.68 5135394.64 188.99
-9755454.04 5135394.28 184.64
-9755453.65 5135395.21 185.79
-9755453.17 5135395.77 189.06
-9755454.15 5135396.58 187.74
-9755454.43 5135396.75 181.66
-9755454.02 5135394.36 181.45
-9755454.38 5135395.21 188.99
-9755453.96 5135394.04 182.31
-9755454.65 5135395.93 187.74
-9755454.56 5135394.59 184.61
-9755454.11 5135395.34 185.78
-9755455.13 5135394.97 182.64
-9755454.06 5135394.94 183.08
-9755454.01 5135393.52 181.44
-9755453.35 5135395.29 182.58
-9755454.53 5135394.39 181.48
-9755455.17 5135394.68 181.87
-9755455.18 5135396.53 187.65
-9755454.00 5135397.24 182.06
-9755452.81 5135397.52 190.05
-9755454.09 5135393.55 182.51
-9755454.62 5135395.48 187.32
-9755454.46 5135396.19 181.57
-9755453.72 5135396.96 183.23
-9755454.90 5135394.39 186.38
-9755454.64 5135397.08 188.21
-9755453.23 5135394.92 182.45
-9755453.95 5135394.00 184.64
-9755454.65 5135394.50 184.69
-9755453.78 5135378.68 181.29
-9755450.59 5135379.28 181.34
-9755453.77 5135386.09 181.38
-9755450.88 5135380.48 181.34
-9755453.17 5135384.60 181.36
-9755453.73 5135391.99 181.41
-9755451.42 5135385.78 181.38
-9755451.92 5135393.16 181.43
-9755452.26 5135387.85 181.39
-9755451.13 5135380.74 181.34
-9755452.01 5135388.77 181.41
-9755452.29 5135390.79 181.41
-9755452.78 5135391.86 184.39
-9755451.09 5135388.71 181.41
-9755452.00 5135381.04 181.34
-9755452.26 5135379.86 181.33
-9755451.97 5135392.26 181.42
-9755452.52 5135392.58 181.43
-9755452.23 5135391.12 181.42
-9755453.67 5135393.27 181.43
-9755452.31 5135383.74 181.36
-9755451.09 5135381.31 181.35
-9755453.14 5135392.57 184.39
-9755451.72 5135387.54 181.40
-9755452.01 5135382.47 181.36
-9755451.05 5135387.54 181.39
-9755453.16 5135387.52 181.38
-9755451.67 5135386.08 181.38
-9755452.56 5135391.72 181.42
-9755452.29 5135387.30 181.38
-9755451.44 5135383.73 181.37
-9755453.64 5135396.55 181.65
-9755453.11 5135394.99 188.39
-9755453.12 5135396.04 187.01
-9755452.81 5135394.16 184.12
-9755452.67 5135394.86 182.77
-9755453.22 5135395.07 185.21
-9755453.72 5135395.88 181.60
-9755453.63 5135394.79 184.42
-9755452.23 5135394.90 184.04
-9755451.06 5135395.86 182.81
-9755450.76 5135395.57 181.48
-9755451.01 5135396.05 183.07
-9755452.20 5135395.24 182.16
-9755450.85 5135396.09 182.47
-9755453.13 5135394.45 185.18
-9755450.80 5135396.01 184.16
-9755451.91 5135395.30 185.45
-9755450.77 5135396.64 183.08
-9755453.15 5135394.40 182.56
-9755451.94 5135395.37 182.72
-9755452.90 5135394.67 185.21
-9755452.90 5135396.92 189.69
-9755452.19 5135395.16 182.80
-9755452.72 5135395.98 182.58
-9755452.86 5135395.61 182.55
-9755451.27 5135396.04 181.46
-9755453.37 5135395.97 181.61
-9755452.20 5135395.75 183.15
-9755451.47 5135397.26 188.59
-9755451.66 5135394.49 184.04
-9755451.92 5135395.05 185.60
-9755453.09 5135394.68 181.45
-9755452.37 5135395.34 184.21
-9755450.81 5135397.49 182.53
-9755451.94 5135396.64 183.27
-9755452.84 5135394.55 188.39
-9755453.20 5135396.64 189.68
-9755451.64 5135394.07 181.44
-9755451.01 5135395.81 181.48
-9755451.91 5135395.55 181.47
-9755452.23 5135394.83 184.46
-9755450.74 5135396.88 183.15
-9755451.61 5135395.18 182.80
-9755452.52 5135396.09 183.19
-9755452.84 5135397.28 183.28
-9755450.73 5135394.06 181.46
-9755452.22 5135395.77 186.74
-9755452.59 5135395.72 183.16
-9755452.94 5135395.37 186.28
-9755450.73 5135394.93 181.47
-9755451.62 5135395.73 182.18
-9755451.56 5135396.07 187.38
-9755450.87 5135396.61 188.55
-9755453.14 5135394.66 182.42
-9755471.46 5135373.51 180.97
-9755471.55 5135369.42 180.91
-9755470.41 5135368.74 180.94
-9755471.54 5135371.10 180.94
-9755469.99 5135376.73 181.03
-9755471.20 5135378.19 181.05
-9755469.44 5135371.10 180.96
-9755471.42 5135374.66 180.98
-9755471.23 5135374.03 180.98
-9755470.84 5135376.42 181.01
-9755469.46 5135371.65 180.96
-9755469.08 5135372.27 180.96
-9755470.66 5135373.79 180.98
-9755469.47 5135377.53 181.03
-9755468.89 5135370.25 180.95
-9755469.75 5135375.19 181.02
-9755469.46 5135374.67 181.00
-9755469.45 5135369.05 180.94
-9755469.15 5135374.31 180.99
-9755468.80 5135375.00 181.03
-9755457.68 5135372.95 183.60
-9755457.37 5135374.28 185.23
-9755457.43 5135374.31 183.92
-9755464.12 5135371.89 181.00
-9755458.55 5135373.79 184.29
-9755460.30 5135376.65 181.19
-9755464.44 5135368.07 180.98
-9755464.07 5135373.66 181.01
-9755462.40 5135371.31 180.99
-9755467.06 5135377.60 181.05
-9755456.96 5135374.82 183.47
-9755457.10 5135374.59 181.16
-9755458.59 5135368.05 181.05
-9755455.59 5135374.58 181.23
-9755458.01 5135372.95 183.58
-9755456.43 5135373.46 183.70
-9755457.51 5135374.68 184.13
-9755457.06 5135375.17 181.22
-9755463.50 5135377.24 181.09
-9755457.43 5135375.23 183.51
-9755458.88 5135373.61 183.62
-9755457.06 5135378.12 181.25
-9755458.82 5135368.04 181.05
-9755458.26 5135373.78 184.48
-9755458.72 5135374.11 183.44
-9755458.05 5135373.07 184.22
-9755467.04 5135374.01 181.00
-9755467.94 5135371.39 180.97
-9755458.23 5135373.41 183.40
-9755462.09 5135370.27 181.03
-9755467.08 5135370.99 180.98
-9755467.78 5135369.90 180.96
-9755463.82 5135369.00 180.99
-9755457.88 5135379.03 181.25
-9755462.91 5135375.83 181.06
-9755456.20 5135374.57 181.23
-9755457.32 5135373.95 183.26
-9755456.18 5135373.41 181.22
-9755465.97 5135372.63 181.01
-9755457.47 5135373.73 184.28
-9755457.44 5135373.00 184.53
-9755467.72 5135368.13 180.92
-9755466.55 5135369.67 180.95
-9755458.29 5135374.71 184.85
-9755461.54 5135371.31 181.02
-9755465.90 5135376.17 181.02
-9755462.13 5135372.29 181.01
-9755456.22 5135369.47 181.08
-9755465.92 5135374.61 181.02
-9755459.40 5135371.00 181.03
-9755468.09 5135369.33 180.95
-9755460.29 5135373.71 181.03
-9755462.68 5135374.56 181.03
-9755465.25 5135375.29 181.02
-9755457.65 5135376.92 181.22
-9755458.86 5135372.47 181.06
-9755459.40 5135377.59 181.21
-9755467.07 5135375.53 181.02
-9755458.24 5135374.34 184.56
-9755460.33 5135369.87 181.04
-9755461.80 5135377.53 181.18
-9755467.70 5135377.33 181.02
-9755459.39 5135376.05 181.19
-9755464.87 5135371.96 181.01
-9755456.74 5135376.96 181.23
-9755455.55 5135377.48 181.26
-9755457.69 5135372.21 181.12
-9755465.39 5135369.35 180.96
-9755458.89 5135373.75 183.60
-9755458.31 5135368.63 181.03
-9755457.64 5135373.87 183.29
-9755459.45 5135371.34 181.04
-9755458.25 5135372.67 184.21
-9755460.90 5135369.59 181.05
-9755460.28 5135369.01 181.01
-9755457.69 5135373.03 184.54
-9755462.14 5135370.73 181.01
-9755457.99 5135369.30 181.05
-9755457.66 5135374.16 183.29
-9755465.31 5135371.74 181.00
-9755468.59 5135376.98 181.04
-9755457.35 5135376.96 181.22
-9755465.04 5135371.06 181.00
-9755457.97 5135373.39 181.17
-9755456.45 5135377.51 181.25
-9755460.29 5135375.79 181.16
-9755462.34 5135377.86 181.18
-9755458.67 5135373.55 183.93
-9755457.17 5135374.14 184.54
-9755458.62 5135375.15 184.96
-9755466.20 5135377.28 181.04
-9755458.78 5135376.70 181.19
-9755457.36 5135374.12 183.40
-9755463.24 5135377.87 181.16
-9755457.81 5135373.92 184.47
-9755465.96 5135371.05 180.96
-9755457.09 5135373.96 181.17
-9755457.54 5135373.61 183.79
-9755460.28 5135373.07 181.06
-9755455.68 5135368.67 181.06
-9755462.16 5135373.45 181.03
-9755467.12 5135370.77 180.97
-9755458.51 5135370.40 181.03
-9755456.19 5135375.71 181.23
-9755456.55 5135373.60 184.04
-9755464.98 5135370.17 180.97
-9755459.42 5135373.08 181.06
-9755458.58 5135374.54 181.19
-9755463.52 5135374.69 181.04
-9755458.24 5135375.42 181.19
-9755465.08 5135368.68 180.99
-9755455.86 5135376.02 181.23
-9755464.74 5135376.98 181.01
-9755467.65 5135369.04 180.97
-9755461.18 5135372.60 181.02
-9755458.61 5135371.95 181.07
-9755457.11 5135374.29 182.90
-9755457.05 5135373.42 181.19
-9755464.17 5135368.72 180.97
-9755458.87 5135368.73 181.04
-9755457.56 5135374.34 183.92
-9755455.58 5135378.14 181.27
-9755463.56 5135373.71 181.03
-9755455.60 5135371.88 181.21
-9755456.76 5135373.03 184.47
-9755456.47 5135371.88 181.18
-9755465.17 5135377.86 181.05
-9755462.99 5135371.36 181.01
-9755467.09 5135369.64 180.95
-9755456.55 5135367.96 181.04
-9755461.44 5135376.69 181.18
-9755460.90 5135368.68 181.04
-9755456.48 5135373.65 181.22
-9755457.21 5135368.01 181.05
-9755453.84 5135376.90 181.28
-9755453.82 5135376.32 181.26
-9755454.68 5135377.83 181.28
-9755454.39 5135377.79 181.28
-9755454.09 5135378.05 181.29
-9755454.14 5135376.02 181.26
-9755454.71 5135373.06 181.23
-9755453.86 5135370.12 181.20
-9755454.71 5135377.49 181.27
-9755454.75 5135369.23 181.09
-9755453.83 5135371.03 181.22
-9755454.70 5135374.25 181.24
-9755455.05 5135373.68 181.23
-9755453.92 5135368.37 181.07
-9755455.31 5135370.99 181.20
-9755454.13 5135371.92 181.23
-9755454.40 5135376.60 181.27
-9755453.81 5135377.17 181.28
-9755453.80 5135373.33 181.25
-9755452.36 5135377.17 181.29
-9755453.54 5135369.51 181.19
-9755452.36 5135374.56 181.26
-9755450.57 5135371.25 181.24
-9755452.32 5135373.37 181.25
-9755453.79 5135378.09 181.29
-9755452.38 5135373.11 181.25
-9755450.60 5135371.86 181.24
-9755452.65 5135374.55 181.26
-9755453.25 5135371.30 181.23
-9755451.21 5135369.16 181.20
-9755450.59 5135368.58 181.21
-9755452.35 5135372.12 181.23
-9755450.59 5135373.94 181.26
-9755450.80 5135377.78 181.31
-9755451.74 5135374.55 181.26
-9755452.37 5135368.62 181.19
-9755452.36 5135372.48 181.24
-9755450.84 5135375.08 181.28
-9755451.47 5135370.98 181.23
-9755451.82 5135368.02 181.17
-9755452.04 5135373.36 181.25
-9755451.44 5135378.10 181.30
-9755453.20 5135377.19 181.29
-9755452.34 5135370.12 181.21
-9755450.89 5135372.75 181.25
-9755503.09 5135365.95 181.09
-9755502.54 5135366.51 181.09
-9755503.10 5135365.08 181.09
-9755501.96 5135365.35 181.07
-9755502.50 5135365.06 181.09
-9755502.51 5135368.03 181.07
-9755503.06 5135367.16 181.09
-9755502.52 5135367.44 181.08
-9755500.75 5135365.04 181.04
-9755496.31 5135364.74 181.02
-9755498.47 5135365.92 181.04
-9755499.93 5135365.06 181.06
-9755499.84 5135366.86 181.06
-9755496.36 5135365.33 181.03
-9755499.64 5135365.68 181.04
-9755500.17 5135365.28 181.06
-9755497.55 5135365.95 181.04
-9755496.20 5135367.03 181.02
-9755499.28 5135364.83 181.07
-9755499.02 5135364.74 181.06
-9755494.82 5135367.07 180.99
-9755484.20 5135365.24 180.97
-9755488.95 5135365.29 180.97
-9755486.91 5135365.58 180.97
-9755487.46 5135364.66 180.97
-9755485.75 5135364.62 180.98
-9755486.88 5135365.35 180.97
-9755486.29 5135365.29 180.98
-9755491.94 5135365.60 181.00
-9755494.00 5135364.73 180.99
-9755491.63 5135364.65 180.99
-9755491.33 5135365.39 180.97
-9755483.39 5135364.73 180.97
-9755488.32 5135365.60 180.98
-9755482.18 5135364.66 180.95
-9755488.09 5135366.15 180.97
-9755483.39 5135365.51 180.95
-9755485.65 5135366.19 180.97
-9755492.49 5135366.50 181.00
-9755484.75 5135366.14 180.96
-9755483.39 5135366.09 180.95
-9755493.77 5135365.31 181.00
-9755493.89 5135366.88 181.00
-9755494.90 5135365.04 181.02
-9755480.08 5135365.50 180.95
-9755501.01 5135368.06 181.06
-9755498.39 5135367.15 181.04
-9755500.76 5135368.05 181.07
-9755498.37 5135367.74 181.06
-9755496.04 5135367.92 180.97
-9755499.80 5135368.58 181.05
-9755498.02 5135367.73 181.04
-9755489.29 5135367.99 180.96
-9755487.51 5135367.93 180.95
-9755485.57 5135367.90 180.97
-9755483.68 5135367.09 180.94
-9755490.42 5135367.13 180.98
-9755489.52 5135367.14 180.98
-9755493.05 5135367.12 180.99
-9755486.65 5135367.07 180.97
-9755485.08 5135367.68 180.94
-9755491.83 5135366.75 180.97
-9755493.34 5135367.70 180.97
-9755492.21 5135367.12 180.98
-9755482.77 5135367.33 180.95
-9755485.97 5135368.48 180.93
-9755485.17 5135367.10 180.96
-9755480.08 5135368.24 180.94
-9755480.08 5135366.11 180.93
-9755480.05 5135365.28 180.96
-9755477.77 5135364.86 180.93
-9755479.21 5135365.58 180.93
-9755479.91 5135367.00 180.94
-9755473.35 5135365.48 180.92
-9755474.21 5135366.10 180.90
-9755475.46 5135364.63 180.94
-9755478.28 5135364.60 180.95
-9755479.56 5135366.34 180.95
-9755476.84 5135365.78 180.93
-9755473.91 5135366.37 180.91
-9755478.34 5135366.39 180.93
-9755473.08 5135365.50 180.91
-9755478.90 5135364.60 180.94
-9755477.77 5135366.69 180.92
-9755477.43 5135364.61 180.91
-9755479.50 5135365.54 180.93
-9755474.58 5135366.33 180.92
-9755479.23 5135366.43 180.95
-9755475.03 5135367.02 180.92
-9755475.66 5135367.86 180.91
-9755472.15 5135367.66 180.90
-9755472.47 5135367.85 180.89
-9755475.40 5135367.87 180.92
-9755476.63 5135367.83 180.90
-9755473.36 5135367.05 180.89
-9755468.89 5135365.47 180.93
-9755470.60 5135364.62 180.93
-9755457.14 5135366.29 181.04
-9755457.08 5135364.77 181.04
-9755455.91 5135366.24 181.04
-9755461.91 5135364.95 180.99
-9755459.45 5135366.25 181.04
-9755461.53 5135366.36 181.00
-9755466.49 5135367.85 180.96
-9755465.63 5135365.44 180.94
-9755462.15 5135365.43 181.00
-9755459.21 5135365.39 181.04
-9755467.02 5135365.20 180.93
-9755466.53 5135365.46 180.93
-9755461.88 5135365.50 181.00
-9755456.85 5135365.37 181.07
-9755463.35 5135366.27 181.00
-9755456.53 5135365.32 181.03
-9755454.72 5135365.62 181.07
-9755457.11 5135366.86 181.06
-9755462.43 5135367.71 181.00
-9755463.63 5135366.92 180.99
-9755458.07 5135367.71 181.06
-9755461.22 5135366.87 181.03
-9755466.03 5135367.78 180.97
-9755457.94 5135366.80 181.05
-9755462.72 5135367.78 180.98
-9755460.39 5135367.41 181.03
-9755464.81 5135366.93 180.97
-9755460.41 5135366.90 181.03
-9755468.31 5135366.93 180.91
-9755455.40 5135367.49 181.06
-9755455.05 5135367.17 181.06
-9755455.13 5135366.83 181.06
-9755453.57 5135365.39 181.05
-9755452.08 5135365.34 181.07
-9755452.14 5135364.77 181.08
-9755452.41 5135365.43 181.07
-9755453.27 5135367.70 181.07
-9755451.77 5135367.13 181.10
-9755453.30 5135367.14 181.06
-9755501.53 5135388.52 181.08
-9755503.11 5135369.51 181.08
-9755498.30 5135379.85 181.06
-9755487.68 5135379.78 180.94
-9755490.91 5135379.73 180.98
-9755488.05 5135379.26 180.94
-9755498.29 5135387.25 181.08
-9755496.23 5135389.29 181.03
-9755482.65 5135387.83 181.02
-9755488.74 5135387.74 181.01
-9755488.80 5135386.88 181.01
-9755490.04 5135385.43 181.01
-9755481.75 5135387.75 181.05
-9755477.73 5135380.58 181.00
-9755500.42 5135376.30 181.07
-9755499.21 5135372.46 181.05
-9755496.51 5135374.46 181.01
-9755498.36 5135374.57 181.05
-9755497.45 5135373.33 181.03
-9755497.45 5135374.83 181.03
-9755498.62 5135372.08 181.06
-9755498.26 5135376.62 181.05
-9755490.35 5135374.46 180.95
-9755483.89 5135374.38 180.91
-9755493.39 5135376.04 180.96
-9755489.23 5135373.22 180.95
-9755483.32 5135377.38 180.91
-9755494.57 5135370.57 181.01
-9755492.16 5135374.41 180.96
-9755493.64 5135375.72 180.96
-9755483.54 5135377.73 180.95
-9755494.50 5135371.87 180.98
-9755480.93 5135372.71 180.92
-9755481.05 5135369.98 180.92
-9755480.98 5135374.08 180.92
-9755479.24 5135369.96 180.92
-9755477.71 5135375.93 180.94
-9755478.59 5135377.33 180.97
-9755479.72 5135376.23 180.94
-9755480.03 5135377.36 180.96
-9755501.62 5135365.34 181.06
-9755499.80 5135367.01 181.04
-9755497.49 5135366.28 181.03
-9755484.23 5135364.62 181.44
-9755483.66 5135365.00 180.97
-9755483.40 5135364.94 180.97
-9755481.03 5135364.65 180.97
-9755497.48 5135368.00 181.02
-9755493.33 5135367.41 180.99
-9755479.78 5135367.92 180.93
-9755474.39 5135389.70 182.29
-9755471.78 5135385.10 184.59
-9755472.34 5135387.23 184.27
-9755471.51 5135385.97 186.33
-9755471.51 5135384.15 186.21
-9755472.44 5135386.03 184.07
-9755473.17 5135385.78 184.36
-9755475.29 5135390.05 181.20
-9755474.44 5135384.10 181.07
-9755472.91 5135386.56 184.71
-9755472.45 5135385.51 184.82
-9755473.10 5135385.51 184.23
-9755473.60 5135382.93 181.05
-9755475.54 5135387.62 181.08
-9755472.69 5135384.22 185.19
-9755472.04 5135386.06 183.95
-9755472.57 5135386.02 184.08
-9755471.49 5135386.95 184.59
-9755471.93 5135385.80 184.18
-9755472.01 5135386.97 183.90
-9755472.13 5135385.54 184.67
-9755471.84 5135384.94 184.59
-9755474.51 5135370.00 180.91
-9755472.11 5135368.69 180.92
-9755476.52 5135375.30 180.94
-9755473.03 5135369.98 180.91
-9755476.81 5135377.37 180.97
-9755458.77 5135378.99 181.24
-9755471.46 5135385.40 185.75
-9755471.15 5135385.66 185.82
-9755469.58 5135383.98 183.51
-9755470.32 5135386.78 183.44
-9755471.42 5135385.22 184.01
-9755470.09 5135385.20 184.76
-9755470.00 5135384.30 184.87
-9755470.62 5135384.33 184.13
-9755470.29 5135383.63 184.78
-9755469.41 5135386.78 184.47
-9755470.36 5135384.95 184.23
-9755471.19 5135385.61 185.96
-9755470.63 5135384.22 184.79
-9755469.05 5135384.16 184.59
-9755470.39 5135385.57 184.55
-9755470.23 5135383.98 185.45
-9755471.14 5135385.04 186.64
-9755469.96 5135385.15 185.76
-9755468.76 5135385.13 184.82
-9755470.22 5135384.67 184.66
-9755471.10 5135383.91 185.60
-9755471.15 5135385.66 184.21
-9755470.91 5135386.27 185.49
-9755469.10 5135383.61 184.61
-9755470.55 5135386.88 185.38
-9755469.11 5135385.10 181.23
-9755470.24 5135383.87 184.76
-9755471.17 5135385.93 185.36
-9755470.97 5135385.35 186.27
-9755470.93 5135383.61 186.00
-9755469.52 5135385.68 184.04
-9755470.30 5135385.39 186.19
-9755470.93 5135385.65 185.43
-9755469.40 5135387.66 181.26
-9755469.33 5135386.24 184.15
-9755469.15 5135384.32 184.32
-9755470.92 5135384.21 185.95
-9755470.57 5135386.02 183.83
-9755470.34 5135384.51 185.67
-9755470.60 5135383.47 184.86
-9755468.81 5135387.67 181.26
-9755469.97 5135382.89 184.45
-9755469.45 5135384.30 183.72
-9755461.25 5135386.50 186.49
-9755464.09 5135387.63 187.07
-9755462.39 5135387.95 186.81
-9755458.81 5135387.20 187.43
-9755464.44 5135389.32 189.60
-9755458.48 5135388.43 188.45
-9755468.52 5135384.72 183.69
-9755461.38 5135388.49 187.89
-9755462.03 5135386.77 186.68
-9755468.53 5135384.44 185.04
-9755459.48 5135389.09 188.35
-9755462.58 5135388.51 187.96
-9755463.53 5135390.56 190.00
-9755455.54 5135384.33 181.34
-9755464.11 5135387.61 186.87
-9755463.30 5135386.21 185.78
-9755463.52 5135390.50 186.69
-9755462.92 5135388.27 187.02
-9755463.22 5135387.68 187.01
-9755464.66 5135390.54 189.36
-9755461.32 5135387.63 186.33
-9755462.43 5135389.57 188.30
-9755462.08 5135389.21 189.43
-9755464.40 5135389.72 186.50
-9755457.02 5135389.23 184.60
-9755459.80 5135390.11 185.03
-9755464.14 5135389.29 185.30
-9755468.35 5135384.68 183.69
-9755461.49 5135386.50 186.47
-9755467.60 5135384.80 184.55
-9755467.01 5135384.72 181.24
-9755461.34 5135390.54 189.66
-9755464.41 5135386.94 187.02
-9755468.50 5135386.05 184.82
-9755464.08 5135388.51 187.57
-9755464.41 5135387.60 187.11
-9755465.35 5135388.70 185.44
-9755461.56 5135390.95 188.73
-9755464.09 5135389.24 186.48
-9755461.99 5135388.85 186.60
-9755466.17 5135382.95 181.23
-9755463.77 5135382.29 181.23
-9755461.20 5135390.91 190.17
-9755457.16 5135390.51 183.54
-9755462.55 5135390.89 181.41
-9755460.01 5135387.25 187.58
-9755458.72 5135388.19 181.35
-9755460.41 5135390.48 188.71
-9755456.67 5135387.57 181.36
