-9755202.36 5135551.69 198.70
-9755203.62 5135551.43 199.39
-9755206.71 5135551.95 193.66
-9755205.26 5135549.51 194.01
-9755207.15 5135550.11 198.63
-9755201.45 5135551.68 198.68
-9755211.37 5135552.45 188.99
-9755202.80 5135549.24 189.37
-9755208.17 5135549.85 188.96
-9755200.29 5135548.42 189.74
-9755203.55 5135550.19 198.35
-9755206.42 5135550.24 197.69
-9755206.93 5135550.73 189.92
-9755204.98 5135549.43 197.69
-9755208.16 5135551.30 189.00
-9755207.14 5135551.48 198.29
-9755227.05 5135536.12 187.07
-9755226.81 5135535.24 187.11
-9755223.24 5135539.03 187.79
-9755222.39 5135536.01 188.01
-9755226.49 5135533.13 187.12
-9755225.90 5135537.27 187.31
-9755221.83 5135535.08 188.03
-9755224.98 5135532.50 187.41
-9755223.04 5135532.78 187.79
-9755226.52 5135534.90 187.11
-9755226.21 5135533.42 187.12
-9755222.05 5135535.07 188.03
-9755223.54 5135536.64 187.79
-9755221.79 5135532.79 188.03
-9755222.98 5135531.01 187.78
-9755222.66 5135534.84 188.02
-9755221.72 5135538.66 188.23
-9755223.88 5135529.51 187.57
-9755223.27 5135529.50 187.78
-9755223.53 5135533.68 187.78
-9755221.79 5135536.90 188.16
-9755221.87 5135533.68 188.37
-9755223.27 5135531.65 187.79
-9755224.14 5135534.58 187.56
-9755224.15 5135531.05 187.56
-9755222.07 5135535.74 188.02
-9755225.65 5135530.77 187.32
-9755222.37 5135533.08 188.01
-9755223.02 5135530.72 187.78
-9755225.01 5135533.40 187.38
-9755223.88 5135533.93 187.76
-9755225.10 5135535.29 187.41
-9755223.26 5135536.02 187.79
-9755224.20 5135534.53 187.97
-9755225.91 5135530.74 187.39
-9755223.83 5135535.16 187.75
-9755224.49 5135538.76 187.54
-9755223.29 5135530.41 187.78
-9755225.38 5135533.44 187.32
-9755221.24 5135536.91 188.28
-9755224.46 5135538.33 187.96
-9755224.15 5135534.83 187.95
-9755222.67 5135537.54 188.01
-9755221.22 5135531.86 188.24
-9755225.05 5135539.04 187.54
-9755222.13 5135533.37 188.02
-9755223.00 5135536.35 187.92
-9755224.14 5135530.67 187.56
-9755224.06 5135538.66 187.78
-9755225.07 5135530.77 187.33
-9755222.05 5135539.00 188.26
-9755223.53 5135532.75 187.80
-9755222.01 5135533.70 188.40
-9755225.91 5135534.66 187.33
-9755226.54 5135538.19 187.09
-9755222.91 5135536.92 187.92
-9755221.76 5135529.57 188.42
-9755224.72 5135537.20 187.57
-9755223.57 5135532.00 188.05
-9755226.26 5135530.79 187.10
-9755224.11 5135533.70 187.58
-9755224.99 5135531.56 187.36
-9755224.98 5135531.34 187.35
-9755226.53 5135532.84 187.11
-9755223.29 5135539.02 188.19
-9755225.14 5135532.78 187.33
-9755226.51 5135534.52 187.45
-9755222.73 5135529.48 188.14
-9755225.09 5135529.56 187.33
-9755221.29 5135530.09 188.24
-9755224.14 5135537.84 187.67
-9755223.88 5135531.65 187.59
-9755224.08 5135535.50 187.68
-9755225.95 5135536.06 187.30
-9755223.00 5135531.68 188.21
-9755224.09 5135536.95 187.69
-9755224.74 5135536.39 187.55
-9755222.37 5135533.97 188.02
-9755225.05 5135531.93 187.34
-9755224.10 5135531.63 187.57
-9755226.53 5135537.29 187.18
-9755222.96 5135536.59 187.90
-9755221.83 5135533.67 188.07
-9755224.12 5135533.43 187.93
-9755225.57 5135538.08 187.33
-9755226.36 5135538.11 187.26
-9755222.69 5135536.90 187.99
-9755221.76 5135531.63 188.12
-9755224.20 5135533.12 187.58
-9755223.24 5135539.23 187.79
-9755225.05 5135530.11 187.35
-9755226.21 5135537.55 187.27
-9755223.25 5135536.96 187.86
-9755221.86 5135533.23 188.37
-9755222.92 5135538.40 188.03
-9755221.18 5135532.79 188.24
-9755225.34 5135538.50 187.44
-9755224.17 5135538.69 187.94
-9755222.77 5135531.25 188.14
-9755224.13 5135530.40 187.56
-9755223.01 5135531.61 187.80
-9755222.82 5135538.49 188.53
-9755222.10 5135535.44 188.03
-9755223.02 5135536.00 187.87
-9755226.52 5135534.02 187.11
-9755227.03 5135546.79 187.30
-9755226.74 5135547.67 187.31
-9755226.77 5135540.92 187.14
-9755226.94 5135540.76 187.47
-9755226.50 5135540.22 187.31
-9755225.68 5135548.73 187.59
-9755223.28 5135546.77 187.98
-9755221.83 5135548.45 188.47
-9755222.95 5135539.87 187.98
-9755222.04 5135540.12 188.21
-9755223.25 5135541.96 187.99
-9755225.90 5135542.25 187.33
-9755223.46 5135544.01 187.97
-9755221.41 5135543.61 188.71
-9755226.23 5135540.84 187.28
-9755223.52 5135541.00 187.77
-9755226.48 5135546.97 187.69
-9755221.67 5135545.46 189.05
-9755222.24 5135541.14 188.21
-9755223.52 5135540.76 187.83
-9755225.81 5135546.74 187.52
-9755225.90 5135540.78 187.73
-9755226.14 5135541.73 187.31
-9755222.84 5135545.22 188.30
-9755223.82 5135542.25 187.78
-9755225.84 5135547.61 187.52
-9755224.47 5135547.62 187.78
-9755224.07 5135543.11 187.76
-9755225.55 5135541.13 187.53
-9755221.73 5135543.62 188.23
-9755225.87 5135539.37 187.30
-9755224.13 5135541.97 187.75
-9755225.57 5135544.41 187.53
-9755226.45 5135543.17 187.29
-9755221.18 5135541.60 188.44
-9755225.94 5135543.20 187.67
-9755224.95 5135541.74 187.52
-9755222.26 5135544.94 188.63
-9755223.82 5135542.91 187.78
-9755223.19 5135544.34 187.97
-9755224.38 5135540.16 187.95
-9755225.27 5135543.19 187.53
-9755223.50 5135543.44 187.95
-9755223.44 5135547.33 187.97
-9755223.24 5135546.12 187.99
-9755226.11 5135548.46 187.53
-9755221.36 5135542.17 188.44
-9755226.46 5135546.47 187.46
-9755226.05 5135545.26 187.52
-9755221.80 5135541.60 188.20
-9755224.91 5135547.35 187.75
-9755224.68 5135541.45 187.56
-9755222.99 5135543.43 187.97
-9755223.79 5135541.34 187.77
-9755225.79 5135541.95 187.33
-9755223.79 5135548.52 187.99
-9755221.08 5135542.72 188.42
-9755226.40 5135545.84 187.33
-9755221.43 5135545.03 189.43
-9755225.32 5135539.28 187.43
-9755225.31 5135543.54 187.51
-9755225.56 5135540.49 187.60
-9755222.96 5135542.54 187.98
-9755221.38 5135540.72 188.65
-9755222.68 5135541.01 187.97
-9755222.52 5135543.70 188.67
-9755226.26 5135543.46 187.54
-9755223.28 5135545.56 187.96
-9755224.42 5135546.06 187.77
-9755225.56 5135548.26 187.60
-9755226.41 5135543.50 187.28
-9755222.21 5135547.76 188.36
-9755222.46 5135540.79 187.98
-9755222.01 5135546.57 188.28
-9755222.34 5135542.26 188.21
-9755226.42 5135547.61 187.51
-9755221.95 5135546.00 188.27
-9755226.43 5135539.94 187.30
-9755221.61 5135543.70 188.36
-9755223.77 5135544.94 187.99
-9755226.41 5135545.59 187.31
-9755222.28 5135545.61 188.64
-9755221.78 5135547.77 188.42
-9755223.76 5135546.43 187.97
-9755225.23 5135547.59 187.73
-9755222.62 5135545.45 188.19
-9755225.57 5135547.72 187.54
-9755224.10 5135547.30 187.96
-9755221.50 5135544.90 189.07
-9755221.86 5135544.02 188.19
-9755226.44 5135544.38 187.31
-9755223.83 5135546.95 187.98
-9755222.06 5135545.18 188.63
-9755222.92 5135544.00 187.97
-9755224.70 5135545.48 187.75
-9755224.17 5135545.19 187.76
-9755224.64 5135548.55 188.06
-9755221.47 5135544.25 189.07
-9755225.87 5135544.68 187.53
-9755221.01 5135541.03 188.42
-9755221.55 5135541.03 189.08
-9755224.98 5135542.63 187.54
-9755222.86 5135548.43 188.21
-9755226.51 5135547.86 187.63
-9755222.26 5135543.52 188.56
-9755224.10 5135542.56 187.76
-9755224.97 5135546.74 187.75
-9755221.73 5135547.22 189.06
-9755221.45 5135544.60 188.46
-9755221.41 5135541.88 188.64
-9755222.37 5135542.64 188.80
-9755225.48 5135545.24 187.95
-9755223.88 5135540.23 187.75
-9755222.33 5135540.52 188.39
-9755223.77 5135545.18 187.96
-9755224.37 5135546.42 187.77
-9755225.06 5135542.28 187.52
-9755225.31 5135544.97 187.53
-9755223.45 5135546.41 187.98
-9755223.14 5135547.24 188.32
-9755221.82 5135548.00 188.47
-9755221.77 5135540.72 188.20
-9755222.65 5135544.24 188.18
-9755224.94 5135548.48 187.75
-9755217.43 5135532.39 189.03
-9755214.42 5135535.89 189.03
-9755219.72 5135531.89 188.49
-9755221.18 5135538.65 188.23
-9755215.58 5135536.24 189.03
-9755218.24 5135534.52 189.55
-9755218.62 5135533.33 188.71
-9755214.14 5135536.37 190.26
-9755218.24 5135533.58 189.02
-9755217.12 5135532.70 189.04
-9755218.01 5135530.22 190.13
-9755215.93 5135531.34 192.23
-9755219.70 5135537.74 188.61
-9755215.94 5135534.35 192.23
-9755220.58 5135536.02 188.47
-9755221.26 5135529.51 188.25
-9755219.73 5135532.38 188.87
-9755216.76 5135534.47 189.02
-9755217.68 5135535.90 190.21
-9755218.00 5135532.43 189.02
-9755215.96 5135532.23 192.23
-9755215.10 5135538.22 191.43
-9755219.19 5135530.64 188.69
-9755214.81 5135536.10 190.21
-9755219.12 5135534.46 188.70
-9755216.58 5135530.84 190.14
-9755220.02 5135538.09 188.58
-9755220.54 5135533.30 188.44
-9755213.84 5135534.28 192.30
-9755216.50 5135538.56 189.08
-9755214.76 5135532.54 192.26
-9755217.67 5135530.84 190.12
-9755217.11 5135530.31 189.02
-9755218.52 5135538.35 188.90
-9755215.01 5135538.32 189.04
-9755218.56 5135531.83 188.70
-9755219.76 5135529.47 188.47
-9755218.87 5135536.31 188.71
-9755216.44 5135538.33 189.07
-9755215.55 5135539.14 190.12
-9755219.75 5135533.00 188.48
-9755218.86 5135533.30 188.71
-9755217.07 5135531.15 189.03
-9755217.99 5135529.47 189.00
-9755219.75 5135535.12 188.47
-9755218.86 5135531.24 188.70
-9755218.04 5135530.29 188.99
-9755218.24 5135534.50 188.74
-9755219.14 5135537.47 188.73
-9755218.60 5135532.67 188.71
-9755214.74 5135538.32 189.03
-9755213.57 5135533.69 192.32
-9755213.92 5135530.46 192.31
-9755219.73 5135536.56 188.60
-9755215.87 5135537.38 189.03
-9755218.57 5135531.68 190.13
-9755217.75 5135532.37 190.12
-9755214.05 5135538.89 189.04
-9755217.37 5135535.68 189.03
-9755214.13 5135538.03 189.02
-9755220.03 5135538.09 189.13
-9755215.90 5135535.64 189.03
-9755214.99 5135536.69 189.66
-9755221.24 5135535.74 188.24
-9755214.11 5135536.14 190.28
-9755220.69 5135534.52 188.32
-9755219.16 5135538.29 188.73
-9755215.88 5135538.92 189.05
-9755216.00 5135532.83 192.23
-9755216.54 5135533.21 190.13
-9755220.86 5135538.07 188.37
-9755218.79 5135531.61 189.13
-9755218.01 5135534.16 190.12
-9755213.90 5135533.11 192.31
-9755219.70 5135533.35 188.49
-9755215.96 5135529.89 192.23
-9755218.25 5135535.01 190.12
-9755215.63 5135532.51 192.23
-9755216.33 5135529.96 190.12
-9755216.74 5135534.76 189.03
-9755220.88 5135535.43 188.24
-9755214.48 5135530.41 192.29
-9755217.06 5135534.17 189.02
-9755214.16 5135530.72 192.31
-9755220.60 5135537.19 188.43
-9755220.43 5135539.04 189.79
-9755216.48 5135536.23 189.03
-9755218.85 5135537.75 188.80
-9755215.61 5135536.51 189.03
-9755216.79 5135533.30 189.03
-9755217.96 5135535.82 190.13
-9755217.97 5135532.36 190.11
-9755216.53 5135531.48 189.05
-9755219.22 5135535.11 189.37
-9755219.99 5135533.25 188.89
-9755218.86 5135530.35 188.70
-9755216.47 5135529.72 189.47
-9755220.88 5135531.28 188.25
-9755217.40 5135530.99 189.02
-9755217.64 5135536.83 189.03
-9755219.69 5135533.59 188.89
-9755214.67 5135536.56 189.02
-9755216.47 5135531.46 190.14
-9755214.99 5135532.82 192.26
-9755219.18 5135539.52 189.02
-9755216.45 5135530.01 189.03
-9755215.68 5135530.44 192.24
-9755218.85 5135535.64 188.71
-9755214.48 5135534.30 192.28
-9755220.85 5135538.71 188.31
-9755218.59 5135530.04 188.71
-9755219.42 5135529.48 188.50
-9755218.33 5135533.58 190.12
-9755216.54 5135535.67 189.04
-9755216.48 5135534.39 190.16
-9755218.53 5135530.93 188.71
-9755220.90 5135535.47 188.65
-9755218.55 5135535.91 190.12
-9755219.47 5135530.06 188.49
-9755220.08 5135535.42 188.46
-9755213.33 5135532.79 192.34
-9755220.64 5135538.31 189.04
-9755214.15 5135533.98 192.30
-9755215.59 5135539.49 189.06
-9755216.47 5135535.30 189.05
-9755217.12 5135529.45 189.01
-9755215.01 5135534.60 192.26
-9755217.65 5135537.72 189.03
-9755219.18 5135530.36 188.68
-9755215.67 5135533.69 192.24
-9755216.54 5135531.13 190.11
-9755217.66 5135537.43 189.03
-9755220.02 5135533.36 188.48
-9755219.18 5135533.60 188.70
-9755216.82 5135534.20 189.03
-9755218.23 5135531.21 188.74
-9755216.57 5135538.89 189.04
-9755217.12 5135529.97 189.01
-9755215.03 5135538.93 189.04
-9755219.72 5135534.18 188.46
-9755220.91 5135532.16 188.23
-9755215.60 5135534.03 192.25
-9755217.98 5135536.54 189.03
-9755216.86 5135529.44 189.02
-9755217.09 5135531.82 189.02
-9755219.42 5135529.51 188.84
-9755214.77 5135529.60 192.28
-9755216.78 5135537.99 189.04
-9755215.57 5135538.61 189.04
-9755218.25 5135534.88 188.72
-9755213.86 5135530.09 192.32
-9755215.05 5135533.68 192.25
-9755218.03 5135530.59 188.99
-9755217.93 5135539.48 189.03
-9755215.55 5135535.37 189.03
-9755220.66 5135531.00 188.27
-9755212.94 5135536.84 189.00
-9755213.29 5135530.70 192.34
-9755212.63 5135538.57 189.01
-9755213.00 5135531.03 192.34
-9755213.02 5135530.14 192.33
-9755212.68 5135537.12 189.00
-9755216.41 5135548.66 189.03
-9755220.83 5135544.26 189.02
-9755220.87 5135540.17 189.10
-9755215.86 5135539.48 189.06
-9755214.98 5135542.76 189.02
-9755219.97 5135544.25 189.03
-9755215.31 5135543.31 189.01
-9755219.98 5135545.13 189.03
-9755215.09 5135539.24 193.01
-9755220.86 5135541.63 188.45
-9755220.81 5135542.19 189.72
-9755215.27 5135540.08 189.03
-9755218.80 5135544.86 189.03
-9755214.69 5135546.58 189.00
-9755219.67 5135540.09 189.03
-9755213.46 5135545.41 188.99
-9755213.77 5135544.23 189.00
-9755217.32 5135544.85 189.03
-9755219.97 5135546.59 189.05
-9755217.02 5135540.97 189.04
-9755220.84 5135546.07 189.03
-9755217.96 5135542.42 189.03
-9755219.93 5135541.25 189.03
-9755218.70 5135540.67 189.16
-9755219.67 5135542.50 189.02
-9755220.91 5135539.85 188.43
-9755217.88 5135544.25 189.03
-9755215.24 5135547.19 189.00
-9755215.84 5135545.95 189.02
-9755219.10 5135545.42 189.02
-9755214.05 5135547.17 189.00
-9755215.60 5135540.96 189.03
-9755219.07 5135542.41 189.03
-9755218.19 5135546.91 189.04
-9755215.83 5135546.94 189.02
-9755220.81 5135541.66 189.76
-9755216.79 5135540.72 189.03
-9755214.66 5135544.23 189.02
-9755219.04 5135547.17 189.04
-9755219.68 5135541.59 189.03
-9755219.06 5135545.73 189.03
-9755217.93 5135541.58 189.03
-9755215.86 5135542.48 189.03
-9755217.30 5135546.29 189.03
-9755220.87 5135542.30 188.45
-9755219.69 5135541.03 189.04
-9755220.83 5135545.17 189.03
-9755213.51 5135540.35 189.01
-9755217.57 5135544.27 189.03
-9755216.75 5135544.53 189.04
-9755219.99 5135540.68 189.03
-9755216.70 5135547.52 189.03
-9755216.43 5135542.22 189.04
-9755215.27 5135540.96 189.03
-9755215.86 5135541.83 189.04
-9755216.41 5135543.66 189.03
-9755220.86 5135540.63 188.40
-9755216.75 5135546.33 189.03
-9755220.00 5135543.68 189.03
-9755220.90 5135543.41 189.02
-9755220.87 5135547.20 189.03
-9755217.66 5135540.07 189.03
-9755218.76 5135545.99 189.04
-9755213.49 5135547.17 188.99
-9755217.32 5135543.65 189.03
-9755217.63 5135542.15 189.04
-9755216.44 5135544.78 189.03
-9755220.85 5135541.57 189.07
-9755218.18 5135546.01 189.03
-9755215.84 5135548.06 189.03
-9755217.62 5135541.27 189.03
-9755217.60 5135539.81 189.02
-9755218.11 5135547.16 189.04
-9755213.46 5135548.33 189.01
-9755219.73 5135541.87 189.02
-9755216.44 5135541.56 189.04
-9755216.67 5135548.10 189.03
-9755220.85 5135540.19 188.43
-9755216.42 5135545.13 189.03
-9755213.49 5135543.63 188.99
-9755214.35 5135543.92 189.01
-9755219.34 5135548.16 189.01
-9755213.50 5135545.08 188.99
-9755213.47 5135543.31 188.99
-9755217.56 5135547.28 190.70
-9755215.57 5135541.84 189.03
-9755218.47 5135547.76 189.06
-9755214.97 5135539.78 189.03
-9755214.66 5135545.12 189.01
-9755218.26 5135539.57 189.02
-9755214.36 5135546.02 189.01
-9755220.88 5135541.89 189.07
-9755216.44 5135546.01 189.04
-9755216.42 5135542.79 189.03
-9755209.91 5135548.38 188.96
-9755213.17 5135540.09 189.02
-9755213.22 5135541.87 189.00
-9755212.34 5135548.64 188.98
-9755213.17 5135546.56 188.98
-9755213.21 5135540.99 189.00
-9755211.98 5135548.39 188.98
-9755212.86 5135543.37 188.98
-9755213.16 5135547.23 188.99
-9755213.18 5135543.88 188.98
-9755212.61 5135543.91 188.97
-9755200.22 5135548.43 189.14
-9755212.65 5135537.42 189.00
-9755212.71 5135530.96 192.34
-9755210.32 5135531.14 188.96
-9755209.12 5135534.14 188.95
-9755208.54 5135533.53 188.94
-9755208.23 5135532.94 188.93
-9755209.43 5135533.54 188.94
-9755203.31 5135530.30 188.99
-9755203.20 5135530.84 188.97
-9755202.93 5135532.55 188.98
-9755205.88 5135532.96 188.96
-9755206.17 5135536.19 188.99
-9755209.08 5135536.22 188.96
-9755207.66 5135530.85 188.96
-9755201.69 5135537.89 189.01
-9755205.58 5135537.35 188.99
-9755201.72 5135538.55 189.02
-9755207.63 5135538.55 188.99
-9755201.51 5135532.86 188.97
-9755204.13 5135534.98 189.00
-9755208.23 5135535.29 188.96
-9755210.88 5135535.64 188.98
-9755201.40 5135535.86 189.02
-9755204.09 5135539.15 189.01
-9755206.74 5135537.38 188.98
-9755205.27 5135532.33 188.95
-9755200.59 5135532.03 188.99
-9755203.25 5135536.79 188.99
-9755207.37 5135532.34 188.94
-9755210.59 5135535.03 188.96
-9755209.13 5135534.76 188.96
-9755206.80 5135531.50 188.94
-9755201.81 5135532.90 188.97
-9755203.24 5135531.21 188.98
-9755201.53 5135531.13 189.00
-9755205.30 5135532.01 188.96
-9755204.71 5135535.28 188.99
-9755211.82 5135530.11 192.41
-9755203.86 5135531.12 188.99
-9755207.06 5135538.24 188.98
-9755210.26 5135532.38 188.95
-9755201.50 5135530.24 189.01
-9755202.04 5135536.76 188.99
-9755204.97 5135535.87 189.00
-9755203.74 5135536.78 189.00
-9755202.02 5135538.26 189.02
-9755201.16 5135529.63 189.01
-9755209.43 5135530.02 188.96
-9755210.24 5135536.84 188.97
-9755205.31 5135529.94 188.98
-9755203.85 5135530.86 188.99
-9755205.31 5135531.13 188.96
-9755203.56 5135534.07 188.97
-9755211.83 5135530.96 192.37
-9755200.25 5135536.44 189.01
-9755202.87 5135536.12 189.02
-9755206.49 5135536.49 188.98
-9755206.20 5135530.85 188.96
-9755207.39 5135529.98 188.98
-9755203.50 5135532.29 188.96
-9755204.36 5135536.72 189.00
-9755205.01 5135532.61 188.96
-9755201.43 5135531.71 188.99
-9755202.33 5135537.64 189.01
-9755208.54 5135535.60 188.96
-9755202.01 5135534.39 188.99
-9755211.44 5135535.92 188.98
-9755200.58 5135532.55 189.00
-9755203.19 5135536.20 189.00
-9755209.70 5135529.98 188.96
-9755208.56 5135530.00 188.97
-9755201.23 5135532.58 188.98
-9755201.76 5135536.46 189.00
-9755207.98 5135534.41 188.95
-9755210.90 5135529.99 188.96
-9755203.22 5135535.03 188.98
-9755206.47 5135531.44 188.96
-9755204.96 5135536.14 189.00
-9755202.02 5135535.22 188.99
-9755205.29 5135529.69 188.98
-9755206.43 5135534.72 188.97
-9755205.54 5135538.30 189.00
-9755210.32 5135530.02 188.98
-9755200.27 5135537.09 189.03
-9755211.77 5135535.64 188.98
-9755200.24 5135538.54 189.03
-9755209.09 5135535.30 188.96
-9755202.59 5135538.23 189.02
-9755200.30 5135530.80 189.00
-9755200.00 5135535.82 189.01
-9755203.21 5135534.37 188.97
-9755210.25 5135538.90 189.01
-9755202.03 5135532.37 188.98
-9755204.94 5135538.27 189.00
-9755200.23 5135532.32 189.01
-9755204.65 5135538.57 189.00
-9755211.46 5135537.10 188.98
-9755211.77 5135536.52 188.99
-9755202.92 5135535.00 188.98
-9755202.93 5135534.15 188.98
-9755208.26 5135531.78 188.94
-9755203.44 5135537.34 189.00
-9755209.12 5135533.85 188.94
-9755201.10 5135537.60 189.01
-9755206.52 5135529.97 188.96
-9755210.62 5135538.26 188.99
-9755200.24 5135537.89 189.02
-9755207.07 5135532.64 188.95
-9755201.14 5135536.37 189.02
-9755203.78 5135539.13 189.00
-9755207.66 5135535.64 188.96
-9755207.39 5135535.30 188.97
-9755202.69 5135529.38 189.00
-9755202.68 5135535.61 189.00
-9755205.63 5135533.54 188.97
-9755210.61 5135530.58 188.97
-9755205.30 5135536.46 188.99
-9755201.45 5135534.92 189.01
-9755201.18 5135533.81 189.01
-9755202.33 5135538.52 189.02
-9755200.30 5135538.25 189.03
-9755200.87 5135531.39 188.99
-9755201.46 5135534.11 189.00
-9755200.58 5135530.26 189.00
-9755203.53 5135533.19 188.98
-9755205.57 5135539.18 189.02
-9755202.02 5135533.54 188.99
-9755201.79 5135530.53 189.00
-9755200.89 5135534.11 189.01
-9755205.30 5135535.59 188.99
-9755212.05 5135535.94 188.99
-9755200.26 5135535.26 189.01
-9755202.64 5135533.24 188.99
-9755210.60 5135536.79 188.99
-9755206.49 5135532.33 188.95
-9755211.82 5135533.35 192.37
-9755200.58 5135535.85 189.01
-9755203.18 5135538.54 189.01
-9755202.37 5135537.29 189.01
-9755212.41 5135530.75 192.36
-9755204.07 5135538.54 189.02
-9755200.28 5135529.90 189.02
-9755200.03 5135536.43 189.01
-9755205.93 5135532.29 188.96
-9755203.81 5135537.67 189.00
-9755207.70 5135529.39 188.99
-9755206.47 5135534.45 188.97
-9755202.65 5135537.07 189.00
-9755209.43 5135536.50 188.96
-9755202.41 5135532.91 188.99
-9755208.01 5135530.90 188.95
-9755205.62 5135529.35 188.98
-9755201.74 5135529.94 188.99
-9755203.49 5135538.23 189.00
-9755200.31 5135533.81 189.02
-9755208.57 5135537.70 188.97
-9755208.50 5135532.94 188.93
-9755209.69 5135534.12 188.97
-9755204.12 5135537.97 189.00
-9755200.31 5135532.84 189.02
-9755200.28 5135537.33 189.03
-9755201.13 5135535.27 189.00
-9755205.24 5135537.40 188.99
-9755200.58 5135532.87 189.01
-9755207.35 5135533.22 188.95
-9755207.35 5135534.68 188.97
-9755204.42 5135535.58 188.99
-9755207.65 5135534.10 188.96
-9755203.22 5135535.25 188.99
-9755201.13 5135538.26 189.01
-9755204.41 5135530.24 188.97
-9755201.49 5135533.48 189.00
-9755201.13 5135534.44 189.00
-9755200.60 5135529.35 189.01
-9755202.01 5135535.88 189.01
-9755212.41 5135531.65 192.35
-9755207.35 5135537.02 188.97
-9755205.89 5135532.07 188.95
-9755204.07 5135536.20 188.99
-9755202.37 5135533.21 188.99
-9755201.77 5135534.99 189.00
-9755209.36 5135539.45 188.99
-9755211.20 5135538.59 189.00
-9755200.33 5135531.45 189.01
-9755202.28 5135533.75 188.99
-9755205.89 5135531.12 188.97
-9755203.84 5135529.91 188.97
-9755211.18 5135537.68 188.99
-9755207.64 5135532.64 188.94
-9755203.27 5135529.91 188.99
-9755210.60 5135537.75 188.99
-9755210.33 5135534.15 188.96
-9755208.55 5135533.25 188.93
-9755202.59 5135532.02 188.97
-9755203.27 5135529.36 188.99
-9755200.50 5135536.14 189.01
-9755200.88 5135537.61 189.02
-9755204.71 5135535.00 189.00
-9755203.24 5135532.90 188.96
-9755201.14 5135536.15 189.02
-9755204.99 5135533.24 188.97
-9755207.63 5135539.43 188.99
-9755203.70 5135546.56 188.94
-9755204.08 5135545.97 188.97
-9755209.94 5135547.18 188.96
-9755207.59 5135541.23 188.98
-9755206.48 5135541.53 188.98
-9755202.88 5135539.38 189.01
-9755204.12 5135545.64 188.96
-9755203.74 5135545.12 188.95
-9755209.04 5135540.38 188.99
-9755200.73 5135548.97 192.56
-9755203.15 5135541.80 188.99
-9755200.29 5135548.19 189.03
-9755207.01 5135545.04 188.92
-9755208.17 5135546.53 188.92
-9755209.39 5135540.33 189.00
-9755203.16 5135546.84 188.95
-9755201.63 5135545.93 188.98
-9755207.58 5135544.48 188.92
-9755211.47 5135543.31 188.96
-9755205.83 5135541.21 188.98
-9755204.95 5135541.49 188.98
-9755204.05 5135543.00 188.96
-9755204.10 5135544.12 188.95
-9755208.49 5135546.53 188.92
-9755201.67 5135544.71 188.98
-9755200.18 5135546.79 189.00
-9755211.43 5135543.66 188.94
-9755200.23 5135539.98 189.02
-9755207.89 5135546.86 188.93
-9755210.56 5135542.70 188.97
-9755202.26 5135543.31 188.99
-9755201.65 5135548.26 189.00
-9755209.08 5135544.50 188.92
-9755202.60 5135542.62 188.98
-9755201.14 5135544.41 188.98
-9755202.92 5135540.92 189.00
-9755209.07 5135547.12 188.93
-9755203.52 5135545.61 188.94
-9755200.86 5135539.49 189.03
-9755201.05 5135547.15 188.98
-9755210.53 5135540.93 188.97
-9755204.61 5135548.37 188.96
-9755200.58 5135540.02 189.02
-9755212.00 5135545.96 188.98
-9755211.67 5135544.51 188.96
-9755201.69 5135539.44 189.02
-9755200.18 5135544.13 188.99
-9755202.91 5135540.06 189.00
-9755202.32 5135539.99 188.99
-9755204.35 5135545.65 188.94
-9755210.57 5135540.58 188.98
-9755210.54 5135547.72 188.96
-9755201.98 5135548.01 188.97
-9755206.11 5135540.63 189.00
-9755204.30 5135545.99 188.96
-9755204.08 5135544.77 188.94
-9755210.28 5135540.05 189.00
-9755202.00 5135546.82 188.97
-9755207.29 5135543.93 188.94
-9755201.94 5135546.48 188.97
-9755209.34 5135546.58 188.93
-9755201.40 5135547.39 188.98
-9755203.48 5135548.01 188.96
-9755200.81 5135547.95 189.00
-9755202.53 5135546.32 188.96
-9755207.29 5135548.04 188.94
-9755206.09 5135543.33 188.95
-9755201.66 5135546.82 188.96
-9755210.26 5135542.39 188.96
-9755207.85 5135545.97 188.92
-9755200.23 5135545.90 188.99
-9755200.82 5135544.43 189.00
-9755203.44 5135547.12 188.96
-9755200.80 5135546.51 188.98
-9755206.99 5135543.58 188.94
-9755209.94 5135548.06 188.95
-9755204.86 5135547.41 188.95
-9755200.19 5135542.69 189.00
-9755201.97 5135544.45 188.98
-9755208.52 5135541.50 188.97
-9755201.91 5135544.15 188.97
-9755208.15 5135543.30 188.94
-9755210.59 5135543.59 188.94
-9755205.21 5135546.84 188.95
-9755200.77 5135546.86 188.98
-9755204.11 5135540.32 188.99
-9755199.94 5135546.84 189.86
-9755206.70 5135544.76 188.92
-9755200.22 5135543.57 189.00
-9755207.87 5135543.30 188.93
-9755207.59 5135539.73 188.99
-9755209.05 5135544.79 188.91
-9755201.71 5135542.67 188.99
-9755203.15 5135540.92 189.00
-9755199.99 5135539.35 189.02
-9755201.08 5135548.04 188.98
-9755200.54 5135542.68 188.99
-9755203.19 5135544.16 188.95
-9755206.06 5135547.12 188.93
-9755212.03 5135548.06 188.99
-9755205.19 5135545.94 188.95
-9755200.55 5135543.52 188.99
-9755204.36 5135546.88 188.96
-9755204.30 5135543.90 188.94
-9755204.29 5135547.67 188.95
-9755202.53 5135547.98 188.97
-9755211.10 5135547.44 188.98
-9755201.10 5135544.76 188.98
-9755202.28 5135545.63 188.96
-9755204.07 5135541.80 188.98
-9755200.77 5135540.30 189.02
-9755207.27 5135546.56 188.94
-9755203.19 5135546.51 188.94
-9755203.13 5135542.36 188.99
-9755209.95 5135542.40 188.96
-9755206.12 5135542.71 188.96
-9755212.33 5135543.61 188.96
-9755201.69 5135541.13 189.01
-9755203.81 5135540.02 189.00
-9755200.85 5135545.30 188.96
-9755201.68 5135543.25 188.99
-9755209.37 5135542.44 188.96
-9755204.34 5135547.09 188.96
-9755209.05 5135547.47 188.93
-9755205.82 5135544.79 188.94
-9755201.96 5135547.14 188.97
-9755200.83 5135542.95 188.99
-9755202.56 5135548.59 188.99
-9755200.00 5135546.22 189.03
-9755202.55 5135547.44 188.95
-9755202.23 5135546.80 188.97
-9755212.33 5135542.72 188.98
-9755200.17 5135541.14 189.03
-9755204.36 5135547.98 188.95
-9755208.99 5135545.70 188.92
-9755211.69 5135543.64 188.95
-9755201.11 5135545.41 188.97
-9755200.20 5135546.79 190.02
-9755211.12 5135544.80 188.95
-9755203.14 5135548.05 188.97
-9755212.54 5135547.73 188.98
-9755202.32 5135540.91 189.01
-9755202.35 5135541.75 188.99
-9755209.65 5135545.66 188.92
-9755209.07 5135542.68 188.95
-9755210.23 5135545.09 188.93
-9755201.41 5135542.36 188.99
-9755203.17 5135543.28 188.99
-9755212.05 5135541.84 188.99
-9755202.29 5135541.47 189.00
-9755211.99 5135544.84 188.96
-9755202.85 5135544.19 188.97
-9755204.37 5135546.52 188.95
-9755205.22 5135545.36 188.94
-9755202.02 5135542.66 188.99
-9755205.79 5135547.78 188.95
-9755201.93 5135548.34 188.99
-9755204.33 5135540.31 188.99
-9755201.08 5135547.64 188.97
-9755203.74 5135548.42 190.93
-9755209.06 5135546.26 188.93
-9755201.71 5135541.48 189.01
-9755202.57 5135540.36 189.03
-9755199.94 5135547.25 190.68
-9755204.97 5135545.92 188.95
-9755199.93 5135542.60 189.01
-9755206.10 5135546.55 188.94
-9755199.99 5135547.51 192.44
-9755202.97 5135546.52 188.96
-9755205.22 5135540.02 189.00
-9755202.81 5135547.42 188.96
-9755200.16 5135546.44 190.11
-9755200.37 5135548.23 189.53
-9755202.31 5135544.44 188.98
-9755205.22 5135542.37 188.97
-9755212.34 5135544.25 188.97
-9755200.23 5135540.64 189.02
-9755207.29 5135545.34 188.93
-9755202.01 5135540.32 189.01
-9755199.98 5135546.80 189.40
-9755202.07 5135539.98 189.00
-9755201.45 5135544.12 188.98
-9755203.80 5135542.35 188.97
-9755204.95 5135542.14 188.97
-9755207.30 5135547.45 188.95
-9755206.38 5135548.30 188.94
-9755203.21 5135544.40 188.96
-9755201.09 5135543.31 188.97
-9755205.57 5135540.32 189.00
-9755200.17 5135545.32 188.99
-9755210.55 5135541.56 188.96
-9755205.25 5135541.80 188.99
-9755203.17 5135539.47 189.02
-9755210.22 5135546.29 188.94
-9755201.12 5135540.58 189.01
-9755210.55 5135541.83 188.97
-9755199.95 5135546.80 189.02
-9755205.25 5135547.70 188.96
-9755207.34 5135543.60 188.93
-9755200.52 5135539.41 189.02
-9755202.84 5135545.38 188.97
-9755202.59 5135543.86 188.97
-9755199.98 5135539.76 189.04
-9755204.03 5135545.90 190.21
-9755203.18 5135542.68 188.97
-9755201.10 5135546.85 188.98
-9755204.36 5135542.07 188.97
-9755209.08 5135545.94 188.93
-9755227.12 5135528.70 186.87
-9755226.81 5135527.89 187.09
-9755221.83 5135528.32 188.02
-9755226.37 5135528.45 187.69
-9755221.83 5135528.63 188.01
-9755224.79 5135528.33 187.42
-9755224.50 5135528.39 187.54
-9755226.20 5135529.24 187.10
-9755223.27 5135528.63 187.78
-9755222.79 5135528.95 188.19
-9755221.22 5135528.62 188.23
-9755221.22 5135528.32 188.24
-9755223.87 5135528.41 187.55
-9755223.02 5135527.98 187.77
-9755221.61 5135528.57 188.41
-9755225.37 5135528.37 187.32
-9755223.33 5135528.35 187.78
-9755217.75 5135528.01 189.03
-9755213.33 5135529.30 192.34
-9755217.39 5135527.97 189.02
-9755215.64 5135529.27 192.25
-9755217.76 5135528.24 189.03
-9755218.06 5135528.24 188.99
-9755215.95 5135529.25 192.22
-9755216.85 5135528.87 189.01
-9755216.29 5135529.02 189.24
-9755213.63 5135528.72 192.32
-9755219.10 5135527.92 188.69
-9755217.71 5135528.50 190.12
-9755218.04 5135528.49 190.11
-9755214.18 5135529.25 192.30
-9755214.75 5135528.70 192.28
-9755218.12 5135528.58 188.71
-9755215.06 5135529.27 192.27
-9755216.23 5135528.43 190.15
-9755214.48 5135527.78 192.30
-9755216.55 5135528.90 189.01
-9755218.57 5135529.06 189.39
-9755217.31 5135528.27 189.01
-9755215.40 5135528.68 192.25
-9755220.08 5135528.87 188.47
-9755218.03 5135527.88 190.11
-9755216.53 5135528.24 189.03
-9755213.94 5135528.67 192.32
-9755216.24 5135529.27 189.02
-9755213.28 5135528.93 192.33
-9755203.54 5135529.32 189.00
-9755208.27 5135528.81 188.99
-9755206.48 5135528.47 188.99
-9755205.05 5135529.08 188.98
-9755212.74 5135528.38 192.34
-9755202.70 5135528.15 189.00
-9755205.94 5135528.80 188.98
-9755205.37 5135528.48 188.99
-9755202.72 5135528.80 189.00
-9755201.78 5135528.76 189.02
-9755204.17 5135528.18 188.99
-9755206.50 5135529.08 188.98
-9755200.34 5135528.44 189.01
-9755202.36 5135528.76 188.99
-9755209.17 5135528.19 188.98
-9755202.37 5135527.84 189.01
-9755210.33 5135527.89 188.99
-9755203.25 5135528.19 188.99
-9755200.29 5135527.84 189.02
-9755206.49 5135527.90 189.00
-9755209.71 5135528.81 188.97
-9755198.98 5135552.50 192.67
-9755198.41 5135552.58 192.37
-9755198.65 5135554.89 192.37
-9755197.93 5135554.32 193.39
-9755196.99 5135553.37 192.37
-9755199.31 5135553.92 192.72
-9755197.28 5135553.38 192.71
-9755198.98 5135554.62 192.39
-9755198.99 5135554.10 192.37
-9755198.42 5135553.42 192.71
-9755198.34 5135553.23 192.40
-9755193.68 5135554.19 192.75
-9755194.35 5135553.33 194.35
-9755198.81 5135554.61 192.38
-9755193.72 5135553.69 192.69
-9755198.38 5135554.63 192.41
-9755196.47 5135553.92 192.75
-9755199.31 5135553.40 192.68
-9755199.86 5135549.74 192.59
-9755199.67 5135549.22 192.59
-9755199.57 5135549.88 192.71
-9755199.59 5135551.68 198.27
-9755195.47 5135551.65 192.36
-9755198.74 5135552.27 192.37
-9755199.41 5135552.34 198.31
-9755199.91 5135549.02 192.40
-9755198.88 5135551.48 192.91
-9755194.62 5135552.22 192.34
-9755198.74 5135551.70 192.41
-9755193.68 5135549.18 193.63
-9755194.01 5135551.64 192.34
-9755199.34 5135551.06 198.32
-9755198.76 5135550.70 192.67
-9755192.50 5135552.54 192.35
-9755192.85 5135552.55 192.34
-9755191.98 5135552.51 192.36
-9755191.93 5135554.94 192.36
-9755192.49 5135554.21 193.73
-9755191.97 5135553.52 193.68
-9755192.42 5135553.91 192.67
-9755192.20 5135554.24 193.72
-9755192.79 5135553.94 192.38
-9755191.96 5135554.66 196.22
-9755191.95 5135553.91 192.69
-9755192.23 5135554.69 193.73
-9755192.56 5135554.36 196.21
-9755192.82 5135554.06 193.72
-9755190.44 5135552.43 193.30
-9755191.32 5135552.54 192.36
-9755190.74 5135553.98 193.31
-9755190.89 5135554.55 192.72
-9755190.51 5135553.39 192.38
-9755190.78 5135553.89 191.60
-9755190.19 5135552.74 191.98
-9755190.79 5135553.95 192.40
-9755188.38 5135554.37 186.50
-9755191.01 5135554.17 192.38
-9755191.33 5135554.30 192.73
-9755187.16 5135553.98 186.28
-9755190.50 5135553.97 193.31
-9755191.35 5135553.43 192.38
-9755189.33 5135554.16 196.28
-9755188.66 5135554.66 196.20
-9755191.34 5135554.85 192.52
-9755190.80 5135554.28 192.74
-9755187.13 5135554.28 186.28
-9755190.52 5135553.02 193.30
-9755192.86 5135552.24 192.34
-9755191.96 5135551.62 192.34
-9755191.94 5135550.43 192.34
-9755192.54 5135549.53 192.32
-9755192.89 5135549.27 192.32
-9755189.67 5135549.06 191.82
-9755187.21 5135548.38 186.32
-9755190.20 5135550.11 192.36
-9755190.50 5135550.74 192.36
-9755189.86 5135550.44 192.38
-9755189.94 5135548.89 192.37
-9755191.37 5135551.59 192.36
-9755189.96 5135551.05 192.40
-9755189.92 5135549.80 193.31
-9755191.37 5135550.72 192.34
-9755191.09 5135548.98 192.31
-9755191.65 5135551.00 192.34
-9755187.16 5135552.18 186.26
-9755189.87 5135551.64 192.39
-9755190.43 5135548.98 192.32
-9755189.90 5135549.20 192.44
-9755190.11 5135552.00 191.79
-9755189.55 5135549.26 191.70
-9755191.04 5135551.01 192.34
-9755189.63 5135549.17 193.33
-9755191.61 5135551.91 192.36
-9755190.50 5135552.17 192.37
-9755190.44 5135550.17 192.35
-9755189.90 5135550.69 193.31
-9755190.46 5135551.62 192.37
-9755191.10 5135550.17 192.34
-9755190.81 5135548.39 192.31
-9755190.04 5135551.15 192.64
-9755190.46 5135549.86 192.34
-9755191.34 5135552.22 192.37
-9755190.77 5135551.27 192.35
-9755189.95 5135549.56 192.35
-9755190.10 5135550.71 192.73
-9755190.76 5135552.25 192.37
-9755190.80 5135551.94 192.37
-9755189.99 5135549.88 192.97
-9755199.99 5135532.54 189.01
-9755200.01 5135531.94 189.01
-9755199.99 5135537.66 189.03
-9755199.94 5135538.21 189.05
-9755200.02 5135529.03 189.01
-9755199.94 5135536.78 189.02
-9755199.98 5135530.83 189.00
-9755200.02 5135531.09 189.01
-9755199.96 5135536.13 189.00
-9755199.98 5135533.58 192.53
-9755199.98 5135530.21 189.00
-9755199.68 5135537.34 189.03
-9755199.67 5135539.12 189.03
-9755200.05 5135529.69 189.02
-9755199.94 5135538.88 189.01
-9755199.97 5135533.78 189.02
-9755199.43 5135531.06 189.02
-9755199.13 5135537.31 189.79
-9755199.61 5135538.22 190.31
-9755199.41 5135537.63 189.06
-9755198.63 5135530.39 190.13
-9755199.68 5135535.24 189.01
-9755199.73 5135531.68 189.01
-9755199.18 5135537.73 190.18
-9755198.79 5135532.53 189.03
-9755198.56 5135530.25 189.73
-9755199.06 5135532.33 189.03
-9755199.15 5135537.70 189.74
-9755199.43 5135530.55 189.01
-9755198.73 5135530.37 191.38
-9755198.52 5135534.64 189.01
-9755199.67 5135539.40 189.03
-9755199.08 5135529.37 189.46
-9755199.12 5135539.11 189.32
-9755198.48 5135532.86 189.05
-9755198.82 5135536.12 189.02
-9755199.00 5135530.63 189.89
-9755199.28 5135539.18 191.37
-9755199.06 5135534.06 189.02
-9755198.21 5135532.65 189.02
-9755199.16 5135539.04 189.04
-9755199.05 5135538.90 190.54
-9755198.55 5135529.69 189.11
-9755198.48 5135535.87 189.02
-9755193.56 5135536.23 192.36
-9755199.32 5135539.11 189.18
-9755199.14 5135537.68 189.14
-9755199.90 5135533.42 192.52
-9755199.41 5135529.65 189.01
-9755199.47 5135536.14 189.01
-9755199.07 5135538.51 190.17
-9755199.08 5135530.55 189.02
-9755198.48 5135535.25 189.03
-9755199.07 5135536.18 189.02
-9755199.09 5135535.18 189.03
-9755199.12 5135535.82 189.03
-9755199.12 5135529.36 189.02
-9755199.43 5135532.01 189.02
-9755199.15 5135534.38 189.00
-9755199.46 5135537.90 190.32
-9755199.43 5135538.66 190.13
-9755198.22 5135533.83 189.03
-9755199.42 5135534.09 189.02
-9755198.20 5135535.24 189.03
-9755198.02 5135535.23 189.03
-9755198.54 5135533.17 189.04
-9755199.33 5135537.04 189.03
-9755199.13 5135531.99 189.02
-9755199.95 5135542.04 189.00
-9755199.64 5135542.68 189.01
-9755199.69 5135542.35 189.01
-9755199.79 5135547.44 189.20
-9755199.70 5135547.59 192.42
-9755199.96 5135544.14 189.00
-9755199.44 5135539.23 192.06
-9755199.91 5135544.45 189.00
-9755199.94 5135545.34 188.99
-9755199.85 5135542.04 189.95
-9755199.46 5135540.38 192.53
-9755199.89 5135540.26 189.03
-9755199.68 5135541.51 189.03
-9755199.76 5135539.44 189.79
-9755199.55 5135545.83 189.05
-9755199.63 5135544.14 189.00
-9755199.44 5135540.57 189.09
-9755199.46 5135541.36 192.74
-9755198.70 5135542.64 189.02
-9755199.34 5135541.51 189.64
-9755199.51 5135546.51 188.98
-9755199.38 5135539.51 191.86
-9755199.41 5135540.47 189.17
-9755199.88 5135539.33 195.98
-9755199.31 5135545.60 188.99
-9755199.26 5135539.42 189.36
-9755199.39 5135541.16 189.02
-9755198.51 5135543.28 189.06
-9755198.61 5135541.53 189.22
-9755199.06 5135543.55 188.99
-9755199.72 5135539.28 190.56
-9755199.15 5135541.11 189.47
-9755199.38 5135546.95 192.54
-9755199.08 5135541.31 190.93
-9755199.52 5135547.46 189.07
-9755199.59 5135543.25 189.01
-9755194.36 5135547.21 192.31
-9755199.64 5135544.92 192.56
-9755199.08 5135541.61 190.22
-9755199.34 5135547.57 192.51
-9755198.85 5135543.56 189.02
-9755193.45 5135545.73 192.36
-9755199.39 5135541.50 190.70
-9755199.42 5135541.22 190.93
-9755192.12 5135531.48 192.34
-9755192.35 5135538.57 192.36
-9755192.71 5135530.93 192.35
-9755192.05 5135536.26 192.35
-9755192.67 5135536.51 192.35
-9755192.65 5135532.11 192.34
-9755192.89 5135538.60 192.37
-9755192.66 5135534.45 192.35
-9755192.95 5135538.03 192.37
-9755192.85 5135544.82 192.35
-9755193.42 5135544.80 192.35
-9755192.60 5135541.88 192.36
-9755192.90 5135540.69 192.38
-9755192.92 5135541.58 192.37
-9755192.57 5135544.53 192.35
-9755192.55 5135540.98 192.37
-9755191.99 5135546.00 192.34
-9755192.59 5135543.97 192.34
-9755192.28 5135540.93 192.37
-9755192.88 5135545.72 192.36
-9755193.22 5135541.90 192.37
-9755193.17 5135542.46 192.37
-9755192.59 5135545.16 192.36
-9755193.44 5135546.90 192.34
-9755192.04 5135539.79 192.37
-9755192.87 5135547.15 192.34
-9755191.22 5135533.27 192.33
-9755188.26 5135532.07 192.38
-9755188.20 5135538.25 192.70
-9755190.30 5135536.52 192.34
-9755189.98 5135530.11 192.59
-9755187.85 5135531.08 192.32
-9755190.36 5135529.94 194.01
-9755188.53 5135532.30 193.29
-9755190.27 5135535.63 192.34
-9755187.11 5135536.22 192.55
-9755191.17 5135534.50 192.33
-9755188.77 5135537.99 192.40
-9755190.25 5135538.29 192.39
-9755188.28 5135536.20 192.36
-9755190.31 5135534.18 192.32
-9755188.23 5135531.18 192.38
-9755188.51 5135532.33 192.34
-9755191.76 5135533.55 192.33
-9755191.19 5135532.39 192.32
-9755186.97 5135537.29 189.00
-9755187.18 5135535.62 192.53
-9755191.76 5135537.99 192.36
-9755188.32 5135539.22 192.46
-9755190.32 5135531.08 194.03
-9755190.31 5135533.01 192.32
-9755188.27 5135533.23 193.31
-9755189.67 5135535.90 192.34
-9755189.69 5135534.46 192.33
-9755188.24 5135530.85 193.30
-9755190.84 5135537.39 192.36
-9755188.84 5135533.56 192.33
-9755190.06 5135529.38 192.41
-9755188.53 5135538.83 193.30
-9755187.87 5135535.34 193.26
-9755187.77 5135529.79 188.21
-9755191.76 5135529.44 192.31
-9755188.48 5135533.60 192.34
-9755189.40 5135534.74 192.34
-9755191.44 5135537.74 192.36
-9755189.35 5135537.13 192.37
-9755188.90 5135534.18 193.30
-9755187.93 5135536.43 192.48
-9755191.13 5135535.64 192.34
-9755189.47 5135529.76 194.87
-9755189.44 5135532.10 192.33
-9755190.63 5135529.41 192.54
-9755188.76 5135537.38 192.38
-9755190.86 5135530.30 192.50
-9755189.70 5135536.79 192.36
-9755187.98 5135529.78 192.15
-9755191.17 5135532.08 192.32
-9755190.92 5135529.68 192.50
-9755191.19 5135530.89 192.33
-9755191.16 5135531.50 192.33
-9755188.47 5135534.96 193.30
-9755188.24 5135532.96 192.34
-9755190.22 5135538.57 192.40
-9755190.85 5135529.97 192.51
-9755188.23 5135534.42 193.30
-9755191.80 5135532.09 192.34
-9755188.50 5135537.95 193.32
-9755191.13 5135539.18 192.37
-9755191.16 5135536.53 192.34
-9755189.13 5135530.87 192.36
-9755188.78 5135538.27 192.40
-9755189.50 5135529.33 194.87
-9755190.33 5135531.22 192.32
-9755188.52 5135535.56 193.32
-9755188.76 5135536.81 192.37
-9755190.89 5135536.84 192.34
-9755188.86 5135535.25 193.29
-9755188.80 5135538.56 192.40
-9755188.75 5135535.07 192.36
-9755188.49 5135534.13 192.35
-9755191.14 5135531.20 192.32
-9755187.94 5135531.16 193.30
-9755191.44 5135538.30 192.37
-9755190.28 5135533.52 192.30
-9755188.82 5135532.40 192.34
-9755187.30 5135537.61 189.06
-9755191.01 5135529.78 192.33
-9755187.99 5135529.93 193.31
-9755190.29 5135529.64 192.18
-9755189.95 5135536.54 192.36
-9755189.67 5135537.44 192.37
-9755189.94 5135546.28 192.37
-9755189.94 5135544.18 192.39
-9755189.24 5135542.42 193.29
-9755188.78 5135540.09 192.43
-9755189.32 5135545.70 192.39
-9755191.09 5135547.77 192.32
-9755190.83 5135542.47 192.39
-9755188.87 5135545.11 192.46
-9755190.20 5135547.93 193.31
-9755189.35 5135539.46 192.40
-9755190.52 5135540.95 192.41
-9755189.94 5135547.48 192.35
-9755189.08 5135545.05 192.42
-9755190.49 5135545.98 192.36
-9755189.66 5135548.62 193.31
-9755191.06 5135548.06 192.30
-9755191.39 5135546.91 192.34
-9755191.69 5135543.63 192.36
-9755190.28 5135540.34 192.40
-9755188.76 5135540.92 193.31
-9755188.72 5135543.59 193.30
-9755189.38 5135547.86 192.69
-9755191.40 5135542.79 192.36
-9755188.77 5135543.93 192.59
-9755189.29 5135546.31 192.38
-9755190.55 5135541.87 192.39
-9755190.13 5135547.83 193.31
-9755188.96 5135545.90 193.30
-9755191.94 5135547.79 192.31
-9755191.40 5135543.32 192.35
-9755189.06 5135543.57 193.30
-9755189.35 5135547.63 193.30
-9755189.94 5135547.23 192.35
-9755189.58 5135547.47 192.35
-9755189.31 5135544.83 192.41
-9755189.65 5135546.53 193.29
-9755189.62 5135542.73 192.40
-9755190.79 5135544.81 192.36
-9755189.33 5135543.60 192.40
-9755189.04 5135545.05 193.30
-9755189.30 5135544.52 192.78
-9755190.26 5135542.16 192.41
-9755190.82 5135541.55 192.39
-9755191.37 5135545.70 192.36
-9755189.38 5135548.06 193.31
-9755190.80 5135545.11 192.36
-9755189.08 5135540.09 192.41
-9755189.37 5135539.73 192.41
-9755188.84 5135544.50 192.53
-9755189.63 5135546.91 192.37
-9755190.24 5135545.10 192.38
-9755189.94 5135542.45 192.40
-9755188.74 5135540.64 192.44
-9755189.91 5135548.02 192.33
-9755190.56 5135544.20 192.37
-9755189.34 5135547.79 192.39
-9755191.40 5135546.59 192.34
-9755190.20 5135546.89 192.35
-9755190.25 5135539.45 192.40
-9755190.82 5135545.70 192.36
-9755188.58 5135543.85 192.47
-9755191.09 5135543.94 192.36
-9755188.75 5135539.43 192.43
-9755190.83 5135539.48 192.38
-9755188.79 5135540.96 192.44
-9755188.81 5135543.08 192.43
-9755188.75 5135542.78 192.48
-9755188.77 5135541.53 192.46
-9755200.02 5135527.85 189.02
-9755199.76 5135528.44 189.03
-9755198.12 5135529.29 189.06
-9755198.59 5135528.69 189.05
-9755199.09 5135527.87 189.03
-9755197.97 5135527.81 189.00
-9755198.26 5135528.39 189.04
-9755199.16 5135528.78 189.04
-9755199.43 5135528.77 189.03
-9755198.55 5135527.86 189.03
-9755198.52 5135529.28 190.94
-9755192.46 5135529.04 192.79
-9755192.63 5135529.12 192.32
-9755192.04 5135528.80 192.30
-9755190.58 5135529.06 192.74
-9755188.61 5135529.30 193.26
-9755188.86 5135527.93 192.34
-9755187.96 5135529.04 193.31
-9755190.12 5135527.74 194.87
-9755187.95 5135528.42 193.32
-9755188.28 5135527.37 192.36
-9755189.19 5135528.21 192.33
-9755190.83 5135528.85 192.71
-9755189.43 5135528.20 192.34
-9755188.86 5135529.10 192.32
-9755188.52 5135528.25 192.34
-9755189.44 5135528.74 194.89
-9755190.63 5135528.80 192.51
-9755191.16 5135528.85 192.30
-9755233.64 5135524.35 185.60
-9755234.20 5135524.64 185.56
-9755232.46 5135524.65 185.78
-9755238.07 5135523.81 184.74
-9755236.28 5135524.69 185.12
-9755233.03 5135525.87 185.75
-9755234.78 5135525.56 185.35
-9755238.35 5135525.31 184.72
-9755235.64 5135523.81 185.32
-9755232.39 5135524.60 185.97
-9755239.15 5135523.76 184.87
-9755233.33 5135525.22 185.74
-9755236.04 5135523.81 185.14
-9755235.73 5135524.65 185.17
-9755236.58 5135525.89 185.12
-9755238.65 5135524.45 184.73
-9755234.21 5135525.85 185.54
-9755233.02 5135525.58 185.77
-9755234.49 5135524.11 185.52
-9755239.52 5135524.47 184.52
-9755236.88 5135523.80 184.95
-9755239.49 5135525.04 184.51
-9755232.44 5135525.25 186.03
-9755234.56 5135524.31 185.42
-9755237.47 5135525.02 184.93
-9755235.75 5135524.07 185.17
-9755232.76 5135523.72 185.78
-9755236.28 5135524.10 185.14
-9755239.03 5135525.60 184.86
-9755238.02 5135524.74 184.75
-9755232.40 5135524.82 185.96
-9755231.99 5135524.92 186.50
-9755237.09 5135524.16 185.30
-9755238.03 5135524.96 184.74
-9755234.73 5135525.89 185.34
-9755232.76 5135523.67 186.23
-9755232.76 5135526.13 185.76
-9755238.62 5135527.72 184.74
-9755237.96 5135527.14 184.73
-9755231.87 5135527.53 186.53
-9755237.75 5135527.64 185.11
-9755236.66 5135527.12 184.96
-9755232.39 5135527.61 185.96
-9755236.30 5135527.37 185.13
-9755232.43 5135527.39 185.81
-9755237.80 5135526.22 184.75
-9755238.31 5135527.68 184.73
-9755232.42 5135526.38 185.79
-9755238.61 5135527.42 184.74
-9755237.58 5135526.82 185.08
-9755238.62 5135526.85 184.70
-9755234.58 5135527.43 185.38
-9755236.78 5135526.86 185.28
-9755235.64 5135527.40 185.16
-9755238.92 5135527.46 184.53
-9755233.33 5135522.83 185.76
-9755235.38 5135523.54 185.35
-9755237.46 5135523.56 184.93
-9755239.02 5135523.81 184.53
-9755233.61 5135523.46 185.59
-9755235.01 5135523.52 185.74
-9755238.08 5135523.55 184.75
-9755238.90 5135523.05 184.72
-9755237.13 5135523.20 184.94
-9755235.89 5135522.87 185.50
-9755233.93 5135522.86 185.59
-9755231.55 5135525.53 186.00
-9755230.38 5135524.96 186.21
-9755231.25 5135524.93 186.21
-9755227.47 5135523.68 186.87
-9755230.07 5135523.70 186.43
-9755231.73 5135524.19 186.39
-9755228.00 5135524.89 186.84
-9755229.45 5135525.18 186.43
-9755228.03 5135525.81 186.67
-9755230.33 5135524.64 186.21
-9755229.52 5135525.55 186.43
-9755227.15 5135524.27 186.87
-9755231.51 5135524.64 186.00
-9755228.89 5135524.87 186.63
-9755228.34 5135524.25 186.65
-9755231.57 5135526.65 185.97
-9755231.42 5135527.64 186.40
-9755231.58 5135526.40 185.98
-9755229.50 5135527.56 186.41
-9755227.93 5135526.39 186.86
-9755231.21 5135526.92 186.30
-9755227.12 5135527.54 186.86
-9755230.30 5135526.95 186.60
-9755230.05 5135527.08 186.40
-9755231.22 5135527.57 186.12
-9755228.97 5135526.68 186.60
-9755227.45 5135526.92 186.86
-9755227.38 5135526.27 187.33
-9755229.20 5135526.37 186.45
-9755231.20 5135527.65 186.27
-9755229.51 5135526.95 186.43
-9755230.66 5135526.72 186.19
-9755230.30 5135526.68 186.19
-9755228.29 5135526.62 186.63
-9755228.65 5135526.67 186.65
-9755228.31 5135527.85 186.65
-9755231.51 5135527.29 185.99
-9755227.13 5135526.31 187.30
-9755229.16 5135522.84 186.55
-9755231.59 5135523.16 186.00
-9755229.50 5135523.41 186.44
-9755230.43 5135522.83 186.25
-9755228.32 5135523.09 186.64
-9755229.49 5135522.80 186.44
-9755227.10 5135525.46 186.88
-9755226.99 5135524.59 186.90
-9755224.48 5135525.10 187.54
-9755225.07 5135525.66 187.32
-9755223.72 5135525.33 187.92
-9755222.72 5135524.56 188.03
-9755221.81 5135524.25 188.02
-9755225.86 5135524.14 187.35
-9755225.04 5135524.55 187.31
-9755224.18 5135523.89 187.54
-9755225.08 5135525.11 187.32
-9755222.89 5135525.34 188.17
-9755226.03 5135525.46 187.08
-9755223.05 5135524.21 187.78
-9755225.87 5135525.96 187.36
-9755221.83 5135526.00 188.00
-9755225.03 5135523.85 187.71
-9755223.68 5135525.39 187.59
-9755223.92 5135524.20 187.56
-9755223.30 5135525.08 187.76
-9755221.85 5135525.07 188.01
-9755226.00 5135525.12 187.50
-9755224.80 5135525.06 187.39
-9755226.24 5135525.44 187.07
-9755226.88 5135526.88 186.88
-9755227.14 5135527.20 186.85
-9755227.11 5135526.32 186.86
-9755222.14 5135527.73 188.00
-9755225.97 5135526.30 187.45
-9755221.82 5135526.77 188.02
-9755223.88 5135526.28 187.55
-9755224.77 5135526.93 187.31
-9755222.45 5135526.27 188.04
-9755223.69 5135527.23 187.57
-9755221.85 5135527.43 188.01
-9755224.21 5135527.48 187.54
-9755225.07 5135527.51 187.31
-9755225.89 5135527.00 187.49
-9755222.76 5135527.72 187.78
-9755226.28 5135526.33 187.07
-9755225.05 5135526.85 187.31
-9755216.85 5135524.38 189.03
-9755218.57 5135525.28 188.69
-9755216.26 5135523.45 189.03
-9755215.13 5135523.62 192.24
-9755216.52 5135525.00 189.03
-9755216.82 5135523.50 189.03
-9755217.39 5135525.56 190.12
-9755216.02 5135523.79 190.16
-9755216.56 5135524.10 190.13
-9755217.76 5135525.92 189.02
-9755221.52 5135525.94 188.17
-9755217.74 5135525.25 189.01
-9755220.41 5135525.34 188.53
-9755216.28 5135525.26 189.02
-9755216.23 5135523.75 189.06
-9755219.20 5135525.01 188.69
-9755215.95 5135525.49 190.16
-9755220.06 5135525.66 188.45
-9755219.82 5135524.15 188.46
-9755220.35 5135525.88 188.42
-9755216.80 5135525.47 190.11
-9755216.02 5135524.23 192.23
-9755215.69 5135524.58 192.24
-9755213.91 5135524.23 192.29
-9755220.97 5135524.16 188.24
-9755220.98 5135525.33 188.24
-9755220.41 5135524.20 188.42
-9755221.13 5135524.54 188.83
-9755217.16 5135525.02 189.01
-9755214.49 5135524.53 192.28
-9755220.66 5135524.52 188.24
