-9755276.62 5135427.61 188.46
-9755274.92 5135422.60 189.02
-9755274.95 5135419.59 189.00
-9755272.91 5135420.51 188.98
-9755274.98 5135421.70 189.01
-9755271.09 5135429.68 188.68
-9755278.22 5135421.24 191.45
-9755276.15 5135420.50 189.00
-9755271.68 5135423.44 189.02
-9755279.35 5135428.60 187.99
-9755277.61 5135422.88 189.03
-9755277.26 5135425.78 189.05
-9755271.36 5135425.83 189.03
-9755276.71 5135425.52 189.01
-9755276.67 5135421.97 189.02
-9755273.77 5135422.86 189.01
-9755274.31 5135426.98 189.02
-9755279.68 5135419.10 189.05
-9755277.86 5135425.47 189.20
-9755272.81 5135429.07 188.70
-9755273.72 5135427.01 189.01
-9755279.09 5135421.14 189.05
-9755273.75 5135424.96 189.04
-9755271.43 5135429.37 189.08
-9755279.31 5135420.58 189.67
-9755274.88 5135425.56 189.01
-9755273.21 5135419.89 188.98
-9755278.49 5135422.61 189.03
-9755279.40 5135420.25 189.04
-9755279.38 5135427.04 188.27
-9755278.22 5135419.03 189.03
-9755278.45 5135424.99 188.70
-9755279.33 5135429.65 188.35
-9755276.98 5135422.35 189.04
-9755277.61 5135427.40 188.46
-9755272.85 5135427.92 189.00
-9755275.68 5135428.92 188.85
-9755274.61 5135426.25 189.77
-9755279.68 5135421.99 189.03
-9755280.25 5135422.92 189.02
-9755274.09 5135421.98 189.00
-9755279.90 5135428.90 188.01
-9755278.97 5135428.88 188.34
-9755274.77 5135429.98 188.70
-9755275.24 5135425.82 189.02
-9755277.31 5135426.21 188.69
-9755271.09 5135422.89 188.99
-9755276.12 5135419.62 189.01
-9755277.30 5135430.69 188.30
-9755279.40 5135425.89 188.96
-9755278.39 5135430.40 188.33
-9755279.07 5135421.06 190.13
-9755271.06 5135427.58 189.02
-9755276.06 5135426.09 189.01
-9755278.18 5135423.19 189.02
-9755274.01 5135429.72 188.46
-9755277.29 5135429.15 188.24
-9755276.76 5135421.73 189.02
-9755274.07 5135421.67 188.99
-9755277.37 5135423.22 189.03
-9755271.02 5135430.14 189.20
-9755274.90 5135426.13 189.01
-9755276.44 5135422.54 190.12
-9755275.71 5135429.57 188.89
-9755276.96 5135423.81 189.02
-9755275.20 5135424.35 189.03
-9755277.03 5135419.92 189.02
-9755271.96 5135430.55 188.46
-9755277.83 5135429.48 188.02
-9755274.88 5135430.58 188.24
-9755273.70 5135426.43 189.03
-9755275.21 5135427.37 188.70
-9755272.54 5135424.95 189.04
-9755271.98 5135426.69 189.02
-9755272.28 5135421.64 188.98
-9755273.21 5135419.57 188.98
-9755274.04 5135423.47 189.03
-9755279.35 5135424.93 188.76
-9755273.18 5135424.03 189.03
-9755278.06 5135427.88 188.78
-9755276.13 5135421.36 190.31
-9755278.46 5135425.21 188.69
-9755271.08 5135419.64 188.95
-9755275.78 5135430.60 188.02
-9755272.50 5135433.03 188.00
-9755274.47 5135431.16 188.24
-9755275.85 5135433.95 187.89
-9755279.27 5135433.60 187.09
-9755271.87 5135432.37 188.23
-9755271.67 5135431.47 188.42
-9755279.31 5135431.55 187.54
-9755273.68 5135432.37 188.00
-9755279.88 5135433.03 187.16
-9755276.60 5135432.41 187.55
-9755274.02 5135433.29 187.75
-9755277.22 5135432.76 187.54
-9755274.91 5135431.79 188.01
-9755277.79 5135432.43 187.53
-9755277.77 5135433.35 187.32
-9755271.09 5135431.48 188.45
-9755278.48 5135430.93 187.79
-9755274.57 5135433.55 187.79
-9755276.62 5135432.71 187.54
-9755277.03 5135432.36 188.24
-9755275.21 5135431.50 188.01
-9755271.59 5135432.32 188.23
-9755271.06 5135432.40 188.24
-9755279.38 5135431.29 188.05
-9755273.98 5135432.12 188.00
-9755277.82 5135431.28 187.77
-9755275.73 5135431.23 188.01
-9755274.88 5135432.02 188.33
-9755270.99 5135432.00 188.94
-9755276.64 5135433.30 187.55
-9755273.14 5135432.11 188.02
-9755278.18 5135432.81 187.33
-9755279.89 5135432.48 187.32
-9755274.28 5135431.35 188.60
-9755274.85 5135433.31 187.79
-9755275.59 5135433.12 187.56
-9755277.25 5135433.61 187.32
-9755272.47 5135432.47 187.98
-9755275.49 5135432.73 187.77
-9755277.80 5135432.20 188.09
-9755278.44 5135431.59 187.55
-9755278.38 5135431.86 187.55
-9755278.11 5135432.72 187.53
-9755274.89 5135432.71 187.77
-9755277.58 5135432.73 187.99
-9755279.01 5135432.75 187.32
-9755271.12 5135420.52 188.96
-9755270.77 5135423.15 189.00
-9755270.72 5135429.69 188.69
-9755269.59 5135430.31 189.01
-9755269.81 5135429.23 189.74
-9755269.56 5135425.50 189.03
-9755269.93 5135429.64 189.03
-9755269.62 5135422.28 189.00
-9755270.84 5135421.65 188.99
-9755269.01 5135429.08 189.03
-9755270.78 5135425.82 189.03
-9755270.25 5135421.10 188.98
-9755269.96 5135421.93 188.99
-9755270.95 5135428.78 189.78
-9755269.63 5135419.62 188.96
-9755270.21 5135422.58 189.01
-9755270.21 5135427.02 189.04
-9755268.78 5135420.46 188.97
-9755269.93 5135421.63 188.98
-9755269.93 5135423.71 189.02
-9755269.04 5135427.02 189.06
-9755268.70 5135426.66 189.04
-9755270.74 5135430.21 188.67
-9755269.03 5135424.36 189.03
-9755270.81 5135424.07 189.03
-9755270.44 5135430.25 188.68
-9755268.73 5135427.91 189.05
-9755268.38 5135429.96 189.02
-9755260.20 5135427.54 188.97
-9755257.83 5135423.70 188.97
-9755255.74 5135424.79 189.00
-9755262.83 5135426.39 188.96
-9755268.76 5135422.83 189.01
-9755259.55 5135422.18 188.97
-9755257.31 5135422.15 188.98
-9755258.95 5135428.71 188.99
-9755259.94 5135423.67 188.94
-9755259.62 5135420.70 189.00
-9755256.36 5135423.32 188.99
-9755264.25 5135429.51 190.26
-9755261.07 5135429.61 188.99
-9755262.56 5135429.64 189.02
-9755259.92 5135426.35 188.95
-9755263.44 5135426.92 188.98
-9755259.33 5135422.24 188.98
-9755267.57 5135421.31 189.00
-9755264.31 5135430.35 190.11
-9755266.71 5135422.24 189.02
-9755264.77 5135430.43 190.11
-9755255.45 5135430.46 189.02
-9755260.50 5135420.42 189.00
-9755259.59 5135426.05 188.95
-9755264.96 5135419.88 189.03
-9755267.87 5135425.81 189.05
-9755257.54 5135421.57 189.00
-9755261.11 5135421.35 189.01
-9755256.68 5135425.44 188.99
-9755264.02 5135424.58 188.99
-9755256.08 5135422.15 188.99
-9755262.55 5135424.87 188.96
-9755259.59 5135423.06 188.96
-9755257.84 5135420.69 189.01
-9755264.29 5135428.18 189.00
-9755268.12 5135423.75 189.03
-9755265.78 5135430.22 189.03
-9755258.79 5135419.52 189.00
-9755266.14 5135421.04 189.02
-9755264.08 5135420.43 189.02
-9755255.82 5135420.70 189.00
-9755261.94 5135426.69 188.96
-9755260.52 5135420.75 189.00
-9755268.15 5135427.30 189.04
-9755259.62 5135420.47 189.00
-9755258.40 5135430.23 189.00
-9755255.47 5135423.71 188.98
-9755264.95 5135422.79 189.02
-9755265.20 5135420.49 189.03
-9755265.77 5135423.14 189.01
-9755264.88 5135429.61 189.03
-9755261.06 5135426.96 188.96
-9755259.31 5135424.87 188.94
-9755266.04 5135429.35 189.03
-9755265.84 5135419.56 189.01
-9755258.43 5135425.43 188.96
-9755261.66 5135429.66 188.99
-9755267.88 5135420.77 188.98
-9755262.53 5135428.98 189.00
-9755261.71 5135419.55 189.02
-9755258.41 5135424.25 188.97
-9755255.48 5135420.70 189.01
-9755264.29 5135425.77 188.99
-9755265.77 5135426.99 189.00
-9755265.87 5135420.45 189.01
-9755268.20 5135424.91 189.04
-9755258.35 5135428.68 188.99
-9755265.80 5135424.03 189.02
-9755265.16 5135427.86 189.00
-9755261.11 5135421.64 188.99
-9755257.55 5135422.51 188.97
-9755264.01 5135424.86 188.99
-9755261.36 5135427.85 188.98
-9755262.60 5135419.61 189.02
-9755255.78 5135428.69 189.03
-9755266.16 5135419.26 188.98
-9755263.69 5135429.97 189.03
-9755263.73 5135423.68 188.99
-9755268.19 5135422.84 189.01
-9755261.99 5135421.07 189.00
-9755258.73 5135426.89 188.97
-9755266.95 5135422.53 189.02
-9755259.91 5135419.21 189.01
-9755261.97 5135423.38 188.97
-9755266.11 5135426.67 189.01
-9755267.87 5135420.47 188.98
-9755257.21 5135429.91 189.02
-9755258.19 5135421.31 188.99
-9755264.62 5135428.75 189.03
-9755264.06 5135423.11 188.98
-9755263.39 5135429.35 189.02
-9755261.05 5135426.62 188.96
-9755266.97 5135425.51 189.02
-9755258.40 5135429.89 188.99
-9755261.98 5135427.55 188.98
-9755256.40 5135421.25 189.00
-9755263.37 5135428.69 189.01
-9755256.34 5135424.23 188.98
-9755256.61 5135429.88 189.02
-9755263.69 5135428.13 188.99
-9755256.36 5135429.00 189.03
-9755263.13 5135424.85 188.98
-9755257.82 5135426.61 188.96
-9755267.90 5135423.76 189.03
-9755258.76 5135422.20 188.98
-9755264.61 5135426.06 188.98
-9755267.23 5135429.04 189.03
-9755258.09 5135427.81 188.99
-9755259.62 5135424.27 188.95
-9755255.18 5135427.19 189.02
-9755265.54 5135420.76 189.01
-9755266.09 5135420.44 189.01
-9755260.77 5135427.87 188.97
-9755256.09 5135419.24 189.01
-9755257.49 5135429.61 189.02
-9755267.83 5135427.01 189.04
-9755265.85 5135420.14 189.01
-9755257.56 5135425.41 188.98
-9755266.64 5135428.73 189.03
-9755256.98 5135427.53 189.00
-9755265.80 5135421.36 189.02
-9755261.97 5135420.41 189.00
-9755255.83 5135423.70 188.99
-9755256.35 5135426.35 189.00
-9755266.98 5135420.52 188.99
-9755263.73 5135429.01 189.01
-9755255.47 5135420.38 189.01
-9755264.57 5135427.52 188.99
-9755264.59 5135427.86 189.01
-9755263.46 5135421.91 189.00
-9755257.87 5135421.57 189.00
-9755257.24 5135428.97 189.00
-9755257.01 5135419.50 189.01
-9755257.29 5135421.26 189.00
-9755266.67 5135429.59 189.03
-9755261.67 5135425.48 188.95
-9755262.81 5135430.24 189.02
-9755259.30 5135426.64 188.96
-9755261.99 5135424.87 188.95
-9755264.86 5135423.70 189.00
-9755260.49 5135423.68 188.95
-9755263.72 5135428.68 189.00
-9755267.29 5135425.47 189.03
-9755261.62 5135428.72 188.99
-9755255.55 5135419.51 189.01
-9755265.73 5135428.80 189.03
-9755264.54 5135428.99 190.30
-9755255.49 5135421.27 189.00
-9755267.83 5135428.19 189.02
-9755266.73 5135422.54 189.01
-9755259.28 5135429.61 188.99
-9755266.66 5135426.71 189.02
-9755255.16 5135423.97 189.00
-9755257.23 5135422.50 188.99
-9755264.92 5135421.63 189.03
-9755263.49 5135422.80 189.00
-9755263.16 5135419.55 189.02
-9755264.58 5135429.93 190.11
-9755266.97 5135428.17 189.03
-9755259.36 5135419.49 189.01
-9755266.95 5135425.79 189.03
-9755268.49 5135424.32 189.02
-9755268.50 5135419.55 188.96
-9755267.58 5135430.22 189.03
-9755255.48 5135429.27 189.03
-9755259.90 5135425.80 188.93
-9755263.14 5135425.47 188.99
-9755257.53 5135424.52 188.98
-9755262.58 5135422.52 188.99
-9755257.21 5135430.17 189.02
-9755260.24 5135422.79 188.96
-9755261.99 5135424.26 188.96
-9755266.96 5135429.96 189.03
-9755266.97 5135422.84 189.00
-9755267.29 5135428.13 189.03
-9755256.71 5135423.67 188.99
-9755256.72 5135420.99 189.00
-9755267.82 5135430.87 189.03
-9755269.17 5135430.52 189.37
-9755270.36 5135430.85 189.10
-9755269.55 5135433.56 188.25
-9755270.78 5135432.42 188.27
-9755269.56 5135432.33 188.47
-9755268.71 5135430.58 189.03
-9755270.35 5135433.56 188.73
-9755268.98 5135432.35 188.48
-9755268.67 5135432.02 189.27
-9755269.87 5135430.59 188.71
-9755270.74 5135431.80 188.46
-9755268.60 5135432.55 189.03
-9755260.15 5135433.73 189.03
-9755268.24 5135432.72 188.51
-9755262.23 5135430.53 189.02
-9755266.67 5135432.05 189.03
-9755268.46 5135433.74 188.86
-9755266.33 5135431.36 189.03
-9755265.99 5135432.87 188.60
-9755267.50 5135432.89 188.71
-9755261.92 5135430.80 190.28
-9755259.25 5135433.16 189.05
-9755256.58 5135433.73 189.03
-9755265.70 5135432.28 189.04
-9755262.21 5135432.29 189.04
-9755266.60 5135432.55 188.72
-9755262.57 5135432.30 189.03
-9755268.36 5135433.54 188.48
-9755258.33 5135432.28 189.04
-9755266.61 5135433.21 188.71
-9755267.19 5135431.43 189.82
-9755260.42 5135431.93 189.02
-9755267.57 5135432.86 189.28
-9755259.27 5135431.38 189.02
-9755265.73 5135431.13 189.04
-9755264.01 5135432.87 189.05
-9755256.31 5135432.24 189.03
-9755264.26 5135431.42 189.03
-9755261.07 5135431.95 189.02
-9755259.56 5135432.87 189.04
-9755262.18 5135431.39 189.02
-9755263.98 5135431.99 189.04
-9755268.33 5135431.47 189.03
-9755267.53 5135431.69 189.03
-9755266.95 5135432.32 188.71
-9755262.53 5135431.34 189.04
-9755267.81 5135433.54 188.48
-9755256.02 5135432.24 189.01
-9755265.17 5135431.69 189.03
-9755261.95 5135431.63 190.11
-9755262.53 5135431.10 189.04
-9755263.62 5135432.60 189.03
-9755265.14 5135431.14 189.03
-9755257.54 5135432.77 189.03
-9755256.64 5135432.83 189.03
-9755262.83 5135433.18 189.04
-9755260.15 5135431.07 189.02
-9755261.33 5135433.15 189.03
-9755255.44 5135430.73 189.02
-9755259.02 5135431.09 189.00
-9755257.18 5135431.69 189.04
-9755263.10 5135432.04 189.04
-9755256.05 5135431.33 189.03
-9755264.56 5135431.74 189.03
-9755258.66 5135431.10 189.02
-9755256.30 5135431.96 189.03
-9755266.64 5135431.39 189.03
-9755260.45 5135431.09 189.01
-9755266.67 5135432.91 188.70
-9755256.58 5135431.32 189.03
-9755260.44 5135432.82 189.03
-9755255.45 5135433.12 189.01
-9755266.31 5135431.15 189.03
-9755265.77 5135433.20 188.87
-9755262.25 5135431.19 189.02
-9755255.09 5135442.27 189.17
-9755252.15 5135437.52 189.02
-9755255.08 5135438.79 189.05
-9755254.21 5135438.73 189.04
-9755253.93 5135443.62 192.39
-9755254.78 5135441.44 189.05
-9755254.84 5135442.13 191.63
-9755252.70 5135441.10 189.06
-9755253.01 5135443.59 192.80
-9755254.24 5135438.13 189.04
-9755252.75 5135440.20 189.06
-9755253.28 5135443.58 192.74
-9755254.30 5135441.53 192.95
-9755252.64 5135443.24 196.63
-9755254.16 5135441.30 189.95
-9755254.29 5135441.50 191.47
-9755254.29 5135443.67 192.27
-9755253.94 5135444.14 194.90
-9755252.12 5135443.65 197.16
-9755252.73 5135437.87 189.03
-9755254.40 5135441.60 189.97
-9755252.52 5135442.93 194.81
-9755254.59 5135441.81 192.41
-9755252.98 5135441.11 189.03
-9755253.28 5135441.08 189.03
-9755252.13 5135439.34 189.04
-9755252.18 5135438.18 189.03
-9755254.53 5135442.99 192.40
-9755253.98 5135442.66 192.64
-9755252.88 5135443.80 192.86
-9755253.54 5135443.79 194.55
-9755253.68 5135441.14 189.81
-9755252.13 5135439.89 189.04
-9755252.48 5135440.63 192.99
-9755252.98 5135443.41 195.85
-9755253.91 5135439.35 189.05
-9755253.02 5135442.09 192.98
-9755254.52 5135438.48 189.04
-9755253.66 5135441.73 189.01
-9755251.88 5135442.99 193.31
-9755253.30 5135443.64 196.46
-9755253.33 5135442.96 192.80
-9755253.05 5135441.79 192.97
-9755253.38 5135443.48 193.95
-9755252.65 5135441.77 189.09
-9755252.40 5135441.35 189.06
-9755253.62 5135443.80 195.87
-9755252.17 5135440.77 189.06
-9755253.94 5135440.23 189.05
-9755252.81 5135442.11 192.98
-9755254.58 5135442.06 189.16
-9755254.29 5135441.57 192.70
-9755254.80 5135444.66 193.81
-9755254.70 5135444.73 192.43
-9755254.62 5135444.71 196.25
-9755254.08 5135444.32 196.61
-9755254.57 5135446.15 197.02
-9755253.38 5135445.28 196.41
-9755253.35 5135446.10 196.40
-9755253.12 5135444.21 197.19
-9755254.28 5135444.39 193.41
-9755252.87 5135445.96 196.37
-9755254.26 5135444.36 194.94
-9755252.21 5135446.38 196.93
-9755254.91 5135444.76 196.08
-9755254.23 5135443.91 192.24
-9755254.39 5135444.47 192.28
-9755254.03 5135444.60 197.16
-9755252.20 5135444.37 196.42
-9755252.29 5135445.49 196.40
-9755252.16 5135436.70 189.00
-9755251.86 5135436.95 189.00
-9755253.96 5135435.48 189.01
-9755253.95 5135435.21 189.01
-9755253.03 5135434.87 189.00
-9755254.80 5135436.09 189.02
-9755252.16 5135434.26 188.99
-9755254.58 5135434.06 189.01
-9755253.36 5135435.50 189.01
-9755252.77 5135433.72 188.99
-9755251.85 5135444.26 196.43
-9755251.81 5135440.19 189.04
-9755251.31 5135442.73 193.18
-9755251.26 5135441.51 193.15
-9755251.25 5135443.22 193.32
-9755252.17 5135441.14 189.04
-9755251.86 5135440.48 189.05
-9755251.16 5135442.76 193.28
-9755251.28 5135440.50 189.06
-9755251.32 5135438.08 189.02
-9755251.31 5135444.88 196.40
-9755250.96 5135445.11 196.83
-9755251.32 5135445.11 196.47
-9755251.21 5135445.15 196.68
-9755251.06 5135444.56 197.17
-9755251.54 5135443.94 197.17
-9755251.25 5135440.16 189.05
-9755250.44 5135442.09 193.32
-9755243.89 5135443.43 188.99
-9755250.99 5135439.30 189.03
-9755241.79 5135441.94 188.96
-9755244.46 5135437.82 188.99
-9755243.90 5135437.21 188.98
-9755245.67 5135438.43 189.00
-9755250.69 5135440.62 193.33
-9755251.29 5135441.05 189.06
-9755250.13 5135437.24 189.02
-9755243.62 5135437.22 188.98
-9755249.76 5135440.18 189.04
-9755245.63 5135443.75 189.00
-9755244.79 5135438.41 188.99
-9755243.59 5135442.27 188.97
-9755245.93 5135441.97 188.99
-9755248.17 5135442.35 194.42
-9755248.30 5135438.69 189.03
-9755243.29 5135439.01 188.97
-9755250.15 5135440.82 189.05
-9755245.63 5135436.62 189.02
-9755246.25 5135438.98 189.01
-9755246.39 5135443.90 193.29
-9755247.16 5135438.42 189.03
-9755248.60 5135441.36 189.02
-9755243.89 5135440.49 188.98
-9755241.52 5135439.56 188.95
-9755246.81 5135439.02 189.01
-9755244.50 5135437.18 189.00
-9755246.51 5135441.34 189.01
-9755241.81 5135439.57 188.95
-9755242.97 5135439.88 188.96
-9755245.65 5135440.43 189.00
-9755249.48 5135438.41 189.03
-9755247.72 5135444.07 194.61
-9755241.53 5135441.07 188.94
-9755245.92 5135439.30 189.01
-9755249.46 5135437.24 189.01
-9755246.84 5135437.22 189.01
-9755247.11 5135440.48 189.02
-9755249.25 5135440.52 189.04
-9755247.45 5135438.10 189.02
-9755250.68 5135441.21 193.33
-9755244.68 5135443.42 188.99
-9755250.67 5135439.60 189.04
-9755242.71 5135439.27 188.96
-9755241.48 5135440.46 188.94
-9755245.96 5135442.85 189.00
-9755246.52 5135441.95 189.00
-9755242.39 5135440.13 188.96
-9755249.53 5135441.48 193.32
-9755244.45 5135442.27 188.97
-9755246.83 5135443.89 193.30
-9755245.68 5135441.09 189.00
-9755250.19 5135440.37 193.33
-9755245.93 5135443.47 189.00
-9755242.72 5135436.36 189.00
-9755250.12 5135443.53 193.31
-9755247.44 5135437.18 189.01
-9755248.64 5135442.32 194.58
-9755251.00 5135442.35 193.31
-9755250.65 5135436.95 189.01
-9755244.52 5135436.92 189.01
-9755242.36 5135441.92 188.96
-9755247.74 5135436.91 189.01
-9755248.03 5135439.61 189.04
-9755243.62 5135440.12 188.97
-9755250.09 5135436.36 189.00
-9755242.13 5135439.27 188.96
-9755245.05 5135439.28 189.00
-9755243.63 5135436.93 188.99
-9755242.41 5135438.11 188.97
-9755247.77 5135442.31 194.38
-9755244.45 5135444.04 189.01
-9755243.58 5135439.02 188.97
-9755244.79 5135441.38 188.98
-9755245.96 5135440.18 188.99
-9755245.94 5135442.27 189.00
-9755247.43 5135436.92 189.01
-9755243.57 5135443.72 188.99
-9755250.03 5135440.52 189.05
-9755242.93 5135442.53 188.97
-9755248.87 5135442.65 193.31
-9755245.39 5135436.89 189.01
-9755244.52 5135439.59 188.98
-9755248.61 5135436.91 189.01
-9755243.91 5135438.68 188.99
-9755241.81 5135436.89 188.98
-9755242.39 5135441.07 188.95
-9755242.99 5135440.79 188.96
-9755245.08 5135440.16 188.99
-9755247.18 5135443.19 193.31
-9755248.05 5135437.82 189.02
-9755249.20 5135436.37 188.99
-9755250.92 5135440.47 189.05
-9755244.77 5135440.49 188.99
-9755246.89 5135437.84 189.03
-9755243.90 5135438.98 188.98
-9755250.69 5135441.00 189.05
-9755241.55 5135437.77 188.98
-9755249.24 5135440.64 193.31
-9755250.14 5135440.59 193.32
-9755249.77 5135437.23 189.03
-9755250.39 5135440.87 193.32
-9755248.92 5135441.76 193.32
-9755248.02 5135436.94 189.02
-9755241.49 5135443.13 188.97
-9755241.81 5135440.16 188.95
-9755249.48 5135443.54 193.32
-9755241.22 5135441.10 188.94
-9755241.20 5135437.77 188.97
-9755241.22 5135443.11 188.96
-9755239.72 5135440.52 188.95
-9755239.74 5135439.89 188.94
-9755240.64 5135437.17 188.98
-9755239.73 5135438.07 188.97
-9755241.23 5135436.91 188.98
-9755241.23 5135442.26 188.95
-9755240.61 5135443.40 188.97
-9755241.26 5135440.70 188.94
-9755240.67 5135442.23 188.95
-9755240.35 5135440.08 188.95
-9755240.38 5135438.96 188.96
-9755239.74 5135441.89 188.94
-9755239.75 5135443.41 188.98
-9755240.63 5135439.84 188.95
-9755240.36 5135436.92 188.98
-9755239.76 5135443.74 188.98
-9755240.66 5135438.05 188.97
-9755240.30 5135438.06 188.96
-9755240.32 5135441.65 188.93
-9755240.67 5135436.30 188.99
-9755240.07 5135442.77 188.97
-9755239.80 5135436.32 188.99
-9755247.97 5135446.48 194.66
-9755244.14 5135444.30 188.99
-9755244.55 5135446.39 193.94
-9755247.13 5135445.62 193.30
-9755243.85 5135445.25 189.01
-9755242.69 5135443.99 188.98
-9755243.25 5135446.13 189.00
-9755244.76 5135446.15 193.93
-9755241.80 5135444.27 188.98
-9755241.83 5135445.49 188.99
-9755248.01 5135445.59 193.31
-9755248.63 5135444.70 193.32
-9755246.25 5135445.87 193.34
-9755242.38 5135444.36 188.98
-9755243.56 5135445.83 189.01
-9755251.18 5135445.94 194.33
-9755246.44 5135444.66 193.91
-9755242.38 5135444.62 189.00
-9755247.73 5135444.98 193.32
-9755242.67 5135444.60 188.99
-9755245.08 5135444.64 189.01
-9755242.70 5135445.49 188.99
-9755249.79 5135444.44 193.31
-9755240.64 5135444.29 188.97
-9755239.72 5135444.52 188.99
-9755239.72 5135445.45 188.99
-9755240.63 5135446.07 189.00
-9755240.60 5135445.18 188.99
-9755251.84 5135436.07 189.00
-9755251.89 5135434.28 188.99
-9755244.49 5135436.03 189.00
-9755248.65 5135434.86 188.97
-9755248.62 5135435.14 188.98
-9755250.98 5135436.04 188.99
-9755247.72 5135434.51 188.98
-9755244.54 5135434.87 189.02
-9755241.23 5135435.98 188.99
-9755242.41 5135435.71 188.99
-9755248.04 5135436.07 189.00
-9755244.80 5135434.25 189.02
-9755247.13 5135435.46 189.00
-9755246.57 5135435.42 188.99
-9755242.15 5135433.91 189.02
-9755242.74 5135434.55 189.01
-9755247.15 5135435.16 189.00
-9755246.87 5135435.44 189.00
-9755246.26 5135435.44 188.99
-9755245.41 5135433.94 188.99
-9755248.05 5135435.78 188.99
-9755246.86 5135433.68 188.98
-9755244.82 5135435.14 189.02
-9755242.71 5135433.93 189.02
-9755248.06 5135434.29 188.97
-9755247.75 5135435.17 188.99
-9755243.66 5135435.15 189.01
-9755241.52 5135435.99 188.99
-9755245.32 5135435.98 189.02
-9755245.93 5135434.85 189.00
-9755241.24 5135435.13 189.00
-9755240.40 5135434.29 189.01
-9755240.66 5135435.16 189.00
-9755239.81 5135433.63 189.02
-9755254.61 5135424.54 189.01
-9755254.57 5135420.09 189.01
-9755255.16 5135428.71 189.03
-9755255.21 5135419.51 189.01
-9755252.55 5135419.20 189.03
-9755255.14 5135423.64 188.99
-9755253.14 5135426.32 189.03
-9755255.21 5135428.41 189.03
-9755255.14 5135427.82 189.01
-9755254.53 5135427.79 189.03
-9755252.51 5135427.79 189.01
-9755252.82 5135424.20 189.02
-9755252.54 5135428.68 189.00
-9755253.66 5135425.71 189.02
-9755252.25 5135426.25 189.03
-9755254.29 5135424.79 188.99
-9755254.59 5135424.21 189.01
-9755255.15 5135426.64 189.00
-9755253.09 5135428.63 189.01
-9755254.62 5135427.54 189.02
-9755253.10 5135425.73 189.02
-9755253.08 5135428.08 189.02
-9755253.99 5135428.68 189.03
-9755253.45 5135419.82 189.02
-9755253.38 5135429.53 189.00
-9755254.01 5135424.78 189.00
-9755253.10 5135423.94 189.02
-9755253.10 5135430.18 189.01
-9755252.77 5135429.00 189.00
-9755254.01 5135423.04 189.01
-9755254.23 5135426.32 189.02
-9755253.11 5135429.52 189.01
-9755252.26 5135422.19 189.03
-9755254.56 5135428.67 189.04
-9755253.46 5135423.38 189.01
-9755252.32 5135419.78 189.02
-9755253.72 5135424.25 189.02
-9755253.12 5135424.83 189.02
-9755252.55 5135419.76 189.03
-9755252.49 5135429.58 188.99
-9755251.97 5135422.45 189.03
-9755252.52 5135430.46 188.99
-9755254.54 5135429.85 189.03
-9755253.76 5135419.22 189.02
-9755252.28 5135421.56 189.02
-9755253.69 5135427.49 189.03
-9755252.26 5135423.91 189.02
-9755251.93 5135427.48 189.01
-9755253.11 5135422.49 189.02
-9755253.70 5135426.60 189.04
-9755253.40 5135424.85 189.02
-9755251.96 5135423.34 189.03
-9755253.41 5135426.36 189.03
-9755253.66 5135433.46 188.99
-9755254.56 5135430.74 189.02
-9755252.50 5135432.22 188.97
-9755254.59 5135431.62 189.02
-9755253.05 5135432.83 188.99
-9755253.07 5135431.08 189.00
-9755253.64 5135432.79 189.00
-9755253.36 5135433.72 189.00
-9755253.38 5135431.92 189.00
-9755252.78 5135431.06 188.99
-9755251.91 5135420.68 189.03
-9755251.44 5135420.05 189.03
-9755252.00 5135419.43 189.03
-9755251.34 5135426.31 189.02
-9755251.89 5135427.78 189.01
-9755251.38 5135421.29 189.03
-9755251.96 5135425.13 189.03
-9755251.62 5135429.59 188.98
-9755251.29 5135429.85 188.97
-9755251.35 5135421.58 189.03
-9755251.31 5135425.73 189.02
-9755251.90 5135430.72 188.98
-9755251.32 5135433.41 188.98
-9755251.32 5135432.52 188.95
-9755251.37 5135426.87 189.01
-9755246.35 5135424.25 189.03
-9755246.58 5135422.19 192.65
-9755250.44 5135424.55 189.01
-9755244.91 5135424.80 189.00
-9755245.43 5135430.11 188.99
-9755248.63 5135428.93 188.97
-9755249.85 5135422.38 189.04
-9755245.70 5135429.52 188.99
-9755244.54 5135429.81 189.00
-9755243.18 5135421.36 192.36
-9755246.95 5135421.97 192.66
-9755243.04 5135428.90 189.01
-9755242.84 5135426.69 192.48
-9755245.49 5135423.42 192.37
-9755246.93 5135425.12 189.01
-9755246.03 5135427.73 189.00
-9755251.03 5135421.57 189.03
-9755241.37 5135419.85 192.35
-9755241.62 5135428.00 189.00
-9755250.43 5135420.97 189.03
-9755242.88 5135429.04 191.75
-9755242.85 5135424.37 192.48
-9755250.50 5135422.34 191.72
-9755248.69 5135427.48 188.98
-9755246.10 5135422.48 192.70
-9755241.32 5135427.24 192.40
-9755242.80 5135429.47 189.02
-9755249.02 5135420.54 192.64
-9755247.21 5135426.88 188.99
-9755245.17 5135425.67 189.01
-9755243.99 5135423.73 192.40
-9755249.83 5135428.08 188.98
-9755244.02 5135424.62 192.41
-9755244.86 5135427.77 189.00
-9755243.92 5135429.85 188.99
-9755244.86 5135426.25 189.02
-9755247.19 5135425.99 189.01
-9755242.47 5135420.95 194.99
-9755248.42 5135422.77 189.03
-9755242.16 5135428.60 189.01
-9755243.18 5135421.94 192.34
-9755243.15 5135422.86 192.38
-9755244.27 5135423.74 192.40
-9755248.99 5135427.78 188.98
-9755242.81 5135426.78 189.01
-9755249.30 5135423.07 189.02
-9755249.00 5135421.53 189.04
-9755244.90 5135427.48 189.02
-9755243.45 5135421.35 192.36
-9755251.00 5135428.05 188.99
-9755242.88 5135422.50 192.38
-9755241.98 5135420.73 192.35
-9755248.96 5135430.43 188.97
-9755247.48 5135426.53 188.99
-9755246.31 5135429.49 188.98
-9755246.35 5135424.80 189.02
-9755247.22 5135427.44 188.99
-9755247.22 5135430.44 188.97
-9755242.01 5135420.55 196.55
-9755251.11 5135420.09 189.03
-9755249.66 5135419.85 192.62
-9755249.83 5135426.35 189.01
-9755244.56 5135427.84 191.71
-9755245.11 5135428.88 188.99
-9755243.36 5135428.01 189.03
-9755249.29 5135422.16 189.05
-9755242.13 5135425.52 192.43
-9755245.16 5135430.41 189.01
-9755250.11 5135429.83 188.96
-9755251.05 5135426.30 189.01
-9755242.45 5135429.47 189.02
-9755241.44 5135420.84 195.77
-9755251.05 5135422.73 189.03
-9755246.04 5135424.83 189.02
-9755246.97 5135426.00 189.01
-9755242.23 5135425.77 192.41
-9755251.05 5135427.75 188.99
-9755242.00 5135420.87 195.76
-9755248.42 5135427.79 188.98
-9755245.54 5135427.08 191.73
-9755249.21 5135429.55 188.96
-9755243.19 5135428.78 191.75
-9755247.77 5135423.63 189.02
-9755243.38 5135428.90 189.00
-9755242.02 5135420.45 192.36
-9755245.16 5135423.68 192.40
-9755245.86 5135419.59 192.37
-9755246.07 5135427.46 189.00
-9755244.84 5135428.66 189.00
-9755249.57 5135426.86 189.00
-9755247.51 5135425.72 189.01
-9755248.08 5135426.27 189.00
-9755242.19 5135430.19 191.74
-9755246.67 5135420.45 192.40
-9755249.60 5135427.75 188.99
-9755241.47 5135421.36 195.79
-9755246.72 5135424.52 191.55
-9755243.11 5135422.49 192.38
-9755246.95 5135423.22 191.65
-9755246.90 5135428.99 188.98
-9755241.31 5135429.81 189.02
-9755242.46 5135422.24 192.42
-9755248.09 5135427.79 188.99
-9755250.17 5135426.57 189.01
-9755242.93 5135424.05 192.45
-9755250.48 5135423.90 189.03
-9755242.88 5135419.61 192.35
-9755242.57 5135419.90 192.78
-9755244.51 5135429.50 188.99
-9755250.72 5135427.80 189.00
-9755244.30 5135424.62 192.41
-9755242.88 5135419.24 192.34
-9755244.84 5135427.11 189.02
-9755250.19 5135430.14 188.97
-9755242.83 5135426.28 189.01
-9755244.24 5135426.24 189.01
-9755243.40 5135424.58 192.41
-9755243.14 5135429.35 191.70
-9755243.05 5135427.45 189.01
-9755244.59 5135425.47 192.51
-9755245.73 5135426.28 189.01
-9755250.12 5135426.93 188.99
-9755247.20 5135424.49 189.02
-9755243.69 5135425.75 192.45
-9755251.07 5135423.62 189.03
-9755242.82 5135428.91 189.02
-9755248.47 5135420.77 192.64
-9755241.42 5135421.22 192.49
-9755250.20 5135427.46 188.98
-9755244.85 5135426.55 189.02
-9755244.28 5135424.09 192.40
-9755247.80 5135424.52 189.01
-9755242.40 5135429.63 191.71
-9755247.50 5135428.96 188.97
-9755247.73 5135422.28 192.60
-9755245.13 5135429.53 189.00
-9755251.01 5135421.69 191.68
-9755249.48 5135420.87 198.14
-9755248.49 5135421.66 192.62
-9755250.51 5135419.52 192.65
-9755241.91 5135426.66 192.41
-9755246.02 5135424.51 189.02
-9755246.62 5135426.56 188.99
-9755241.64 5135429.53 189.02
-9755245.53 5135426.57 189.01
-9755243.95 5135429.51 189.00
-9755242.28 5135419.59 192.34
-9755248.80 5135420.78 192.63
-9755244.64 5135421.59 192.38
-9755242.16 5135430.39 189.02
-9755249.86 5135428.96 188.97
-9755243.76 5135425.20 192.40
-9755245.50 5135424.49 192.49
-9755242.23 5135425.27 192.50
-9755245.49 5135425.63 189.00
-9755241.96 5135426.09 192.41
-9755249.84 5135428.62 188.98
-9755245.71 5135425.39 189.01
-9755243.96 5135428.93 189.00
-9755243.72 5135424.27 195.53
-9755247.82 5135425.40 189.01
-9755241.31 5135427.02 192.40
-9755243.10 5135427.14 189.01
-9755251.03 5135430.43 188.97
-9755249.36 5135420.98 189.03
-9755251.09 5135422.44 189.03
-9755249.02 5135422.42 189.03
-9755242.22 5135427.41 189.03
-9755242.17 5135426.95 192.43
-9755251.08 5135419.91 192.60
-9755247.24 5135424.19 189.03
-9755246.54 5135429.82 188.98
-9755242.80 5135427.67 189.03
-9755250.49 5135422.75 189.03
-9755249.24 5135430.43 188.97
-9755242.30 5135420.58 195.75
-9755246.02 5135429.49 188.98
-9755241.46 5135420.45 192.36
-9755247.18 5135428.99 188.97
-9755244.05 5135420.76 192.38
-9755241.98 5135419.29 192.34
-9755250.29 5135422.69 191.71
-9755243.42 5135424.90 192.40
-9755242.24 5135421.61 192.37
-9755248.66 5135426.59 188.99
-9755243.09 5135428.32 189.03
-9755245.67 5135420.93 198.26
-9755242.34 5135421.22 195.74
-9755246.58 5135423.74 191.59
-9755250.45 5135420.08 189.03
-9755248.45 5135419.88 192.70
-9755246.98 5135423.32 189.02
-9755247.80 5135424.18 189.03
-9755241.93 5135421.09 192.35
-9755241.58 5135430.41 189.01
-9755247.02 5135425.59 191.62
-9755241.41 5135420.40 195.76
-9755240.33 5135428.28 193.29
-9755240.81 5135419.05 196.49
-9755240.73 5135428.92 189.03
-9755239.66 5135419.32 196.50
-9755239.84 5135428.28 193.32
-9755241.26 5135428.65 189.01
-9755240.18 5135420.41 192.36
-9755240.97 5135429.80 189.03
-9755240.73 5135427.86 192.39
-9755240.20 5135429.08 192.48
-9755240.51 5135427.20 192.43
-9755240.08 5135427.31 192.52
-9755239.87 5135428.79 192.39
-9755241.06 5135422.55 192.60
-9755240.69 5135430.02 189.00
-9755239.84 5135429.76 189.03
-9755240.37 5135429.50 189.02
-9755240.68 5135429.03 192.48
-9755241.10 5135419.56 192.35
-9755240.18 5135419.97 196.49
-9755246.30 5135431.02 188.98
-9755243.08 5135431.00 189.01
-9755242.20 5135432.42 189.02
-9755250.98 5135430.74 188.97
-9755241.90 5135430.63 189.01
-9755241.89 5135430.97 189.02
-9755243.04 5135432.80 189.01
-9755250.72 5135433.69 188.96
-9755245.71 5135431.29 188.99
-9755246.88 5135432.14 188.98
-9755248.07 5135430.47 188.96
-9755248.37 5135433.11 188.96
-9755243.96 5135433.62 189.02
-9755242.44 5135433.07 189.00
-9755243.93 5135432.74 189.00
-9755246.57 5135432.77 188.98
-9755243.36 5135433.68 189.00
-9755248.05 5135433.13 188.97
-9755241.88 5135431.54 189.01
-9755249.50 5135431.64 188.95
-9755244.80 5135433.10 189.00
-9755242.78 5135432.77 189.02
-9755250.15 5135431.05 188.95
-9755249.22 5135432.17 188.96
-9755242.46 5135432.79 189.01
-9755248.06 5135431.62 188.97
-9755247.75 5135432.50 188.97
-9755250.14 5135430.71 188.96
-9755246.89 5135431.66 188.97
-9755241.56 5135432.42 189.02
-9755251.02 5135432.77 188.96
-9755242.81 5135431.58 189.02
-9755247.21 5135432.78 188.96
-9755247.17 5135430.75 188.96
-9755250.43 5135431.93 188.96
-9755244.83 5135431.56 189.00
-9755248.10 5135430.73 188.96
-9755249.54 5135431.07 188.96
-9755248.58 5135431.03 188.96
-9755247.18 5135431.89 188.98
-9755246.58 5135433.69 188.98
-9755241.89 5135430.41 189.03
-9755240.39 5135433.62 189.01
-9755239.87 5135431.22 190.29
-9755241.24 5135432.46 189.03
-9755240.39 5135430.72 189.03
-9755240.37 5135431.83 189.02
-9755239.75 5135431.87 189.02
-9755240.41 5135430.94 189.03
-9755241.00 5135430.69 189.01
-9755240.15 5135431.23 190.30
-9755240.72 5135431.82 189.03
-9755291.49 5135418.74 189.02
-9755291.21 5135419.15 188.71
-9755292.36 5135417.35 189.05
-9755291.74 5135418.89 188.71
-9755292.09 5135418.59 189.06
-9755291.82 5135417.38 189.02
-9755291.50 5135419.04 189.05
-9755291.70 5135419.67 188.66
-9755290.03 5135417.62 189.03
-9755290.59 5135418.24 189.04
-9755292.35 5135418.30 189.36
-9755287.97 5135419.71 189.03
-9755287.62 5135419.09 189.03
-9755285.60 5135418.77 189.04
-9755283.80 5135419.08 189.05
-9755288.51 5135418.81 189.04
-9755284.09 5135417.61 189.03
-9755285.26 5135419.09 189.04
-9755288.83 5135418.78 189.04
-9755283.54 5135418.21 189.02
-9755283.51 5135417.33 189.02
-9755286.46 5135417.60 189.05
-9755283.85 5135418.18 189.03
-9755285.01 5135417.90 189.03
-9755285.26 5135418.77 189.05
-9755286.78 5135418.22 189.04
-9755289.71 5135418.51 189.03
-9755282.63 5135417.60 189.02
-9755288.52 5135419.13 189.03
-9755287.93 5135418.83 189.03
-9755285.89 5135417.62 189.04
-9755289.14 5135417.91 189.03
-9755280.27 5135419.61 189.02
-9755281.69 5135419.08 189.04
-9755282.33 5135418.51 189.02
-9755281.17 5135419.69 189.04
-9755282.06 5135419.65 189.04
-9755275.84 5135419.32 189.01
-9755279.11 5135418.49 189.03
-9755272.33 5135417.50 188.94
-9755274.38 5135417.89 188.98
-9755279.40 5135417.57 189.03
-9755273.22 5135417.54 188.96
-9755274.14 5135417.51 188.97
-9755273.78 5135418.11 188.98
-9755279.68 5135418.73 189.03
-9755277.39 5135417.55 189.03
-9755272.61 5135418.44 188.96
-9755275.28 5135417.83 189.00
-9755279.10 5135418.75 189.03
-9755275.27 5135418.48 188.99
-9755271.14 5135418.74 188.92
-9755276.46 5135417.51 189.03
-9755277.63 5135418.76 189.03
-9755273.17 5135418.69 188.97
-9755278.19 5135418.15 189.02
-9755278.52 5135417.84 189.03
-9755279.41 5135417.88 189.02
-9755274.05 5135418.42 188.98
-9755269.34 5135418.40 188.95
-9755269.60 5135419.01 188.95
-9755269.04 5135419.01 188.95
-9755270.25 5135418.43 188.94
-9755268.76 5135417.48 188.95
-9755267.27 5135418.98 188.99
-9755265.26 5135419.23 189.00
-9755267.28 5135419.56 188.98
-9755258.50 5135417.42 189.02
-9755263.20 5135418.07 189.03
-9755255.52 5135417.45 189.02
-9755262.91 5135418.67 189.04
-9755257.86 5135418.01 189.02
-9755264.67 5135418.08 189.00
-9755255.54 5135418.89 189.02
-9755256.41 5135418.35 189.02
-9755265.24 5135418.65 188.99
-9755255.50 5135417.79 189.03
-9755255.47 5135417.41 192.82
-9755257.55 5135418.94 189.00
-9755267.35 5135418.37 188.97
-9755263.47 5135418.66 189.04
-9755264.93 5135418.95 189.01
-9755257.84 5135417.46 189.03
-9755260.19 5135417.74 189.02
-9755257.86 5135418.35 189.01
-9755268.46 5135418.45 188.96
-9755259.08 5135417.46 189.02
-9755260.55 5135418.07 189.02
-9755258.41 5135418.06 189.03
-9755259.64 5135418.02 189.01
-9755263.20 5135417.48 189.03
-9755256.09 5135418.89 189.01
-9755258.45 5135418.38 189.01
-9755267.91 5135418.42 188.97
-9755262.54 5135418.07 189.02
-9755265.56 5135418.08 188.99
-9755262.01 5135418.67 189.01
-9755266.43 5135417.54 188.98
-9755256.08 5135418.33 189.01
-9755264.97 5135417.49 188.99
-9755259.66 5135418.34 189.01
-9755265.81 5135418.68 189.00
-9755260.51 5135417.42 189.02
-9755268.50 5135419.02 188.97
-9755266.13 5135418.37 188.99
-9755257.30 5135417.44 189.01
-9755255.65 5135418.23 191.86
-9755267.03 5135418.69 188.99
-9755267.31 5135417.49 188.96
-9755255.20 5135419.01 192.16
-9755267.88 5135417.53 188.96
-9755266.99 5135418.07 188.97
-9755267.01 5135418.37 188.98
-9755255.20 5135418.38 189.03
-9755252.30 5135418.88 189.04
-9755253.77 5135418.90 189.03
-9755252.52 5135418.88 189.03
-9755254.31 5135417.63 192.71
-9755252.89 5135417.85 192.42
-9755252.56 5135418.12 192.43
-9755254.54 5135419.05 192.20
-9755252.59 5135417.97 189.05
-9755253.15 5135417.96 189.04
-9755253.86 5135417.53 192.66
-9755254.64 5135418.26 189.01
-9755253.76 5135418.31 189.03
-9755250.85 5135419.04 192.69
-9755247.01 5135417.79 192.36
-9755242.89 5135417.57 196.48
-9755247.60 5135418.16 192.37
-9755251.15 5135418.37 192.68
-9755250.77 5135418.83 192.70
-9755251.11 5135418.72 192.69
-9755250.45 5135418.35 192.36
-9755243.49 5135418.38 192.35
-9755244.36 5135418.38 192.36
-9755248.74 5135418.98 192.35
-9755242.01 5135417.62 196.51
-9755242.92 5135418.67 192.34
-9755244.04 5135417.49 192.35
-9755241.91 5135418.76 196.46
-9755241.36 5135418.76 192.34
-9755242.87 5135417.48 194.45
-9755241.72 5135418.71 192.35
-9755243.73 5135418.64 192.34
-9755243.14 5135417.48 192.35
-9755247.31 5135418.72 192.71
-9755242.25 5135417.76 192.32
-9755241.40 5135418.79 196.49
-9755251.69 5135418.74 192.42
-9755240.25 5135418.75 196.51
-9755292.19 5135442.48 184.33
-9755291.57 5135442.14 184.52
-9755291.64 5135439.20 184.95
-9755290.69 5135443.32 184.39
-9755291.00 5135440.39 184.93
-9755292.24 5135441.21 184.63
-9755291.49 5135442.01 184.94
-9755285.68 5135441.59 185.61
-9755282.67 5135442.89 185.37
-9755282.48 5135439.37 186.34
-9755286.54 5135442.07 184.94
-9755286.69 5135442.65 185.37
-9755289.87 5135438.53 185.22
-9755285.37 5135441.21 185.22
-9755289.52 5135437.94 185.35
-9755288.37 5135440.30 185.13
-9755287.41 5135443.03 184.73
-9755288.95 5135439.15 185.17
-9755285.78 5135439.36 185.56
-9755284.56 5135443.58 184.95
-9755283.67 5135437.87 186.00
-9755288.66 5135438.78 185.35
-9755289.87 5135442.05 184.72
-9755288.09 5135442.12 184.87
-9755282.44 5135438.07 186.62
-9755283.63 5135439.66 185.81
-9755283.35 5135440.31 185.57
-9755284.23 5135439.98 185.57
-9755282.51 5135436.57 186.78
-9755283.36 5135442.40 185.05
-9755284.21 5135441.17 185.36
-9755287.42 5135443.29 184.75
-9755289.28 5135437.03 185.57
-9755289.82 5135443.36 184.50
-9755287.49 5135442.46 184.90
-9755283.71 5135435.50 186.43
-9755285.73 5135435.49 186.22
-9755286.67 5135435.83 186.03
-9755287.25 5135435.79 186.00
-9755286.36 5135434.67 186.22
-9755286.61 5135435.21 186.21
-9755291.11 5135429.63 186.91
-9755291.68 5135425.99 187.35
-9755291.38 5135428.07 187.11
-9755292.37 5135422.37 188.01
-9755290.83 5135423.98 187.80
-9755291.11 5135426.31 187.32
-9755290.53 5135429.22 186.89
-9755291.56 5135423.68 188.39
-9755292.34 5135424.58 187.55
-9755292.31 5135421.23 188.24
-9755292.30 5135426.66 187.11
-9755291.64 5135433.76 186.00
-9755290.52 5135427.19 187.33
-9755289.42 5135426.31 187.55
-9755282.66 5135421.44 189.02
-9755284.93 5135427.75 187.75
-9755290.26 5135424.01 187.81
-9755289.65 5135429.29 186.89
-9755287.62 5135429.02 187.11
-9755285.85 5135422.35 188.69
-9755289.06 5135426.35 187.53
-9755285.77 5135424.10 188.84
-9755284.96 5135423.54 188.46
-9755282.83 5135428.89 187.66
-9755289.56 5135430.43 186.68
-9755285.52 5135421.48 188.72
-9755287.00 5135427.78 187.53
-9755282.96 5135423.89 188.48
-9755285.01 5135428.96 187.94
-9755284.10 5135423.84 188.47
-9755289.15 5135420.60 188.70
-9755285.82 5135425.67 188.00
-9755284.37 5135425.60 188.21
-9755288.21 5135423.88 188.03
-9755283.15 5135426.82 187.99
-9755282.84 5135430.37 187.42
-9755283.69 5135425.52 188.97
-9755283.73 5135427.74 187.77
-9755284.96 5135420.56 189.05
-9755288.18 5135420.28 188.73
-9755289.04 5135427.26 187.33
-9755284.81 5135427.96 187.78
-9755286.43 5135425.98 187.81
-9755286.45 5135420.96 188.69
-9755288.84 5135420.03 188.73
-9755284.99 5135424.37 188.83
-9755284.77 5135423.93 188.98
-9755282.87 5135426.23 188.24
-9755288.80 5135419.72 188.78
-9755287.33 5135425.98 187.79
-9755288.82 5135420.64 188.70
-9755287.84 5135429.02 187.10
-9755286.96 5135427.04 188.17
-9755283.15 5135427.99 187.78
-9755283.25 5135423.86 189.11
-9755287.43 5135424.21 188.03
-9755287.07 5135423.17 188.78
-9755289.03 5135433.74 186.23
-9755282.59 5135430.73 187.36
-9755283.74 5135433.18 186.82
-9755288.45 5135431.38 186.64
-9755288.14 5135432.53 186.45
-9755285.75 5135433.10 186.63
-9755289.58 5135431.33 186.66
-9755289.04 5135432.52 186.42
-9755283.67 5135431.93 187.04
-9755289.31 5135432.93 186.28
-9755282.47 5135442.38 185.37
-9755281.05 5135437.54 186.23
-9755280.49 5135438.77 186.22
-9755281.60 5135441.97 185.53
-9755281.28 5135440.85 185.79
-9755281.26 5135442.00 185.56
-9755281.70 5135440.74 186.19
-9755280.42 5135437.23 186.44
-9755281.25 5135442.67 185.36
-9755280.38 5135439.61 186.00
-9755281.63 5135438.78 186.00
-9755280.39 5135441.12 185.78
-9755281.04 5135439.97 185.83
-9755279.22 5135440.26 186.00
-9755271.42 5135439.91 187.48
-9755273.95 5135442.84 186.23
-9755273.03 5135438.96 186.88
-9755277.51 5135436.93 186.68
-9755279.34 5135443.66 185.98
-9755275.11 5135437.04 186.91
-9755279.58 5135438.74 186.21
-9755277.56 5135438.37 187.00
-9755279.24 5135438.76 186.21
-9755274.22 5135442.83 186.22
-9755277.75 5135436.61 186.86
-9755275.09 5135442.02 186.21
-9755279.81 5135442.94 185.57
-9755275.38 5135438.39 186.68
-9755274.36 5135439.93 187.09
-9755272.49 5135441.99 186.51
-9755274.55 5135439.56 186.65
-9755274.25 5135436.61 187.10
-9755275.94 5135436.60 187.00
-9755271.29 5135442.87 186.56
-9755277.55 5135439.29 186.87
-9755276.13 5135438.81 187.08
-9755276.34 5135439.25 186.43
-9755272.50 5135442.90 186.41
-9755279.19 5135441.40 185.78
-9755275.97 5135441.63 186.20
-9755273.91 5135438.67 186.89
-9755277.55 5135438.74 186.43
-9755277.21 5135439.67 186.26
-9755274.82 5135438.71 186.78
-9755275.10 5135443.16 186.01
-9755277.19 5135441.62 186.59
-9755273.57 5135439.59 186.67
-9755275.11 5135440.76 186.43
-9755281.60 5135435.45 186.64
-9755280.74 5135434.58 186.88
-9755273.38 5135434.20 187.78
-9755271.01 5135436.25 187.57
-9755278.69 5135435.50 186.87
-9755272.46 5135436.22 187.52
-9755273.46 5135434.48 188.02
-9755279.58 5135435.44 186.87
-9755276.60 5135434.22 187.30
-9755273.46 5135435.51 187.89
-9755277.52 5135434.60 187.08
-9755273.47 5135434.51 187.78
-9755278.98 5135435.43 186.87
-9755272.48 5135434.17 187.78
-9755277.96 5135435.09 187.45
-9755278.72 5135434.57 187.09
-9755272.19 5135436.22 187.55
-9755270.02 5135437.67 188.11
-9755270.05 5135438.01 187.89
-9755270.43 5135441.31 186.91
-9755269.77 5135443.61 186.64
-9755270.43 5135439.57 187.19
-9755268.94 5135437.13 187.78
-9755270.07 5135439.22 187.32
-9755267.72 5135443.24 189.72
-9755267.72 5135443.58 187.55
-9755266.04 5135438.03 187.98
-9755268.34 5135439.20 187.52
-9755267.11 5135440.17 187.53
-9755266.04 5135438.85 187.82
-9755266.91 5135440.84 189.77
-9755266.81 5135441.68 190.42
-9755267.17 5135439.49 187.55
-9755266.86 5135440.43 187.37
-9755266.88 5135439.28 187.56
-9755266.84 5135440.74 187.96
-9755266.14 5135439.22 188.07
-9755267.72 5135442.80 186.86
-9755266.04 5135442.32 190.47
-9755266.55 5135439.95 188.24
-9755267.42 5135442.43 188.21
-9755266.30 5135436.27 189.12
-9755268.08 5135438.91 187.58
-9755267.13 5135439.06 188.01
-9755269.77 5135436.00 188.20
-9755268.66 5135433.83 188.25
-9755281.66 5135427.13 188.13
-9755282.29 5135428.04 187.89
-9755280.80 5135425.32 188.52
-9755280.27 5135422.64 189.03
-9755281.71 5135424.42 188.67
-9755281.77 5135420.56 189.04
-9755280.77 5135430.14 187.55
-9755281.64 5135427.69 188.01
-9755282.05 5135422.96 189.03
-9755281.64 5135428.59 187.86
-9755281.19 5135430.71 187.96
-9755280.17 5135432.20 187.32
-9755280.50 5135432.45 187.33
-9755271.98 5135425.51 189.04
-9755275.12 5135428.24 188.69
-9755272.64 5135422.26 189.00
-9755273.39 5135428.83 188.70
-9755278.82 5135419.83 190.31
-9755271.38 5135424.05 189.03
-9755272.01 5135423.49 189.02
-9755278.39 5135426.19 188.69
-9755274.65 5135428.57 188.49
-9755274.65 5135425.57 189.02
-9755272.57 5135426.16 189.02
-9755279.00 5135428.86 188.00
-9755275.88 5135420.20 189.01
-9755280.79 5135426.82 188.25
-9755277.86 5135426.47 188.69
-9755275.80 5135427.70 188.68
-9755271.41 5135422.27 188.99
-9755277.55 5135426.40 188.68
-9755279.98 5135420.22 189.05
-9755275.82 5135425.57 189.03
-9755275.81 5135429.69 188.23
-9755274.96 5135422.26 189.01
-9755278.74 5135426.14 188.46
-9755279.10 5135421.43 189.04
-9755271.41 5135425.52 189.03
-9755272.58 5135426.41 189.02
-9755273.45 5135422.89 189.02
-9755275.49 5135426.42 189.01
-9755279.62 5135423.80 188.93
-9755271.40 5135427.03 189.03
-9755277.93 5135423.21 189.03
-9755276.74 5135424.38 189.02
-9755276.31 5135428.86 188.28
-9755279.69 5135422.30 189.03
-9755276.35 5135426.48 188.70
-9755279.95 5135428.83 188.45
-9755279.28 5135428.32 188.27
-9755276.72 5135420.50 189.01
-9755274.99 5135427.26 188.99
-9755272.65 5135428.18 188.73
-9755275.52 5135423.15 189.04
-9755277.54 5135430.07 188.00
-9755272.55 5135425.54 189.03
-9755278.16 5135428.87 188.23
-9755277.27 5135423.46 189.02
-9755273.44 5135425.21 189.03
-9755278.73 5135427.97 188.23
-9755278.45 5135426.79 188.46
-9755276.38 5135430.65 188.01
-9755275.11 5135430.91 188.18
-9755274.24 5135433.27 187.77
-9755273.99 5135432.98 187.77
-9755274.30 5135432.95 187.76
-9755274.29 5135430.88 188.24
-9755275.46 5135433.59 187.54
-9755274.62 5135432.33 187.92
-9755275.39 5135433.54 187.89
-9755273.69 5135432.02 188.32
-9755271.74 5135430.78 188.98
-9755271.94 5135432.13 188.23
-9755276.37 5135432.11 187.77
-9755278.38 5135432.09 188.05
-9755277.93 5135431.67 187.57
-9755276.33 5135432.65 187.57
-9755277.85 5135433.03 187.93
-9755272.63 5135433.64 187.81
-9755274.06 5135430.91 188.23
-9755278.46 5135431.39 188.16
-9755275.74 5135433.35 187.54
-9755273.47 5135430.93 188.22
-9755271.03 5135426.69 189.03
-9755269.98 5135420.19 188.96
-9755269.60 5135426.38 189.05
-9755269.31 5135428.47 189.03
-9755269.32 5135428.78 189.02
-9755270.56 5135420.75 188.97
-9755269.03 5135421.10 188.98
-9755269.32 5135422.85 189.00
-9755270.55 5135425.51 189.03
-9755268.76 5135425.50 189.04
-9755269.06 5135422.26 189.00
-9755269.30 5135424.63 189.03
-9755267.56 5135421.08 188.99
-9755268.39 5135425.18 189.03
-9755267.53 5135423.10 189.02
-9755268.42 5135424.90 189.03
-9755267.26 5135421.65 189.00
-9755266.35 5135429.64 189.04
-9755266.06 5135427.56 189.03
-9755268.08 5135429.06 189.03
-9755266.65 5135426.39 189.02
-9755268.42 5135428.52 189.04
-9755269.35 5135432.11 189.06
-9755268.94 5135432.34 189.12
-9755268.71 5135431.71 188.70
-9755270.43 5135431.74 188.47
-9755268.16 5135430.55 189.02
-9755267.81 5135431.51 188.73
-9755267.19 5135433.74 189.06
-9755266.87 5135431.72 189.03
-9755290.91 5135417.36 189.03
-9755290.33 5135419.74 188.70
-9755286.18 5135419.71 189.03
-9755285.89 5135418.49 189.04
-9755287.07 5135419.66 189.04
-9755289.37 5135419.11 189.74
-9755277.89 5135419.07 189.04
-9755279.99 5135419.09 189.03
-9755274.64 5135418.76 188.99
-9755269.68 5135418.09 188.94
-9755270.58 5135418.39 188.94
-9755269.67 5135417.51 188.95
-9755257.75 5135442.88 189.03
-9755263.10 5135437.31 189.03
-9755262.75 5135442.97 189.04
-9755264.82 5135442.01 190.42
-9755255.36 5135443.61 191.89
-9755259.83 5135440.27 189.05
-9755260.71 5135437.88 190.50
-9755259.00 5135437.01 189.94
-9755255.97 5135443.13 191.73
-9755257.77 5135439.07 189.05
-9755261.87 5135443.52 189.04
-9755265.14 5135441.96 190.44
-9755262.45 5135438.80 189.05
-9755264.83 5135438.72 190.45
-9755258.32 5135438.75 189.05
-9755262.43 5135442.04 189.07
-9755265.99 5135439.38 189.65
-9755256.85 5135440.27 189.06
-9755256.58 5135441.18 189.05
-9755263.59 5135440.06 189.70
-9755257.19 5135437.88 189.05
-9755263.96 5135437.66 189.06
-9755261.86 5135437.60 189.05
-9755262.77 5135439.38 189.06
-9755261.65 5135437.25 189.95
-9755266.01 5135439.36 190.43
-9755262.76 5135441.17 189.06
-9755255.72 5135443.66 191.69
-9755265.39 5135440.82 190.46
-9755262.75 5135443.25 189.05
-9755263.97 5135439.34 189.69
-9755261.07 5135436.62 189.02
-9755256.36 5135443.65 191.44
-9755266.00 5135439.13 190.42
-9755264.20 5135440.83 189.73
-9755255.38 5135437.54 189.04
-9755256.54 5135441.46 189.05
-9755261.10 5135436.38 189.03
-9755263.99 5135436.10 189.13
-9755265.12 5135434.35 188.77
-9755260.72 5135435.52 189.98
-9755266.01 5135434.97 188.52
-9755256.26 5135434.62 189.03
-9755258.95 5135435.47 189.92
-9755257.76 5135434.36 189.04
-9755260.45 5135434.52 189.83
-9755260.42 5135434.10 189.66
-9755256.56 5135435.48 189.02
-9755257.79 5135436.07 189.02
-9755255.70 5135434.01 189.02
-9755256.09 5135425.13 188.99
-9755256.07 5135421.92 188.99
-9755262.54 5135424.30 188.97
-9755260.23 5135421.90 188.99
-9755261.08 5135420.75 189.00
-9755256.98 5135422.19 188.99
-9755255.46 5135427.17 189.01
-9755264.31 5135420.42 189.01
-9755261.61 5135426.38 188.95
-9755260.44 5135425.19 188.94
-9755255.76 5135422.18 189.00
-9755263.13 5135427.30 188.99
-9755265.18 5135425.49 189.01
-9755257.58 5135419.81 189.00
-9755258.75 5135427.21 188.97
-9755259.05 5135420.44 188.99
-9755259.02 5135423.07 188.96
-9755263.12 5135428.15 188.99
-9755263.99 5135427.20 189.00
-9755263.46 5135425.14 188.99
-9755259.59 5135419.81 189.01
