-9755588.89 5135378.43 185.52
-9755588.59 5135376.31 189.31
-9755588.81 5135377.91 186.85
-9755589.35 5135378.06 185.18
-9755589.40 5135376.99 188.38
-9755589.13 5135368.88 185.64
-9755589.04 5135376.15 186.61
-9755588.73 5135374.51 186.53
-9755589.56 5135377.79 186.59
-9755589.53 5135373.47 188.91
-9755589.09 5135376.86 186.90
-9755588.92 5135370.36 187.50
-9755589.57 5135371.59 188.84
-9755589.47 5135379.49 185.85
-9755588.85 5135379.67 184.93
-9755588.30 5135368.85 185.72
-9755588.37 5135374.56 185.36
-9755589.41 5135376.84 186.91
-9755589.19 5135371.42 184.96
-9755589.59 5135371.52 184.87
-9755589.51 5135370.57 187.67
-9755589.38 5135376.80 186.36
-9755588.28 5135369.86 187.69
-9755587.03 5135377.29 188.96
-9755586.56 5135369.25 186.05
-9755587.40 5135373.79 188.89
-9755587.98 5135375.37 186.32
-9755587.48 5135373.50 189.20
-9755587.19 5135375.18 188.65
-9755588.03 5135371.47 187.82
-9755587.87 5135375.43 188.56
-9755586.52 5135377.72 186.38
-9755586.90 5135371.24 187.68
-9755587.99 5135375.87 186.46
-9755587.57 5135372.90 189.19
-9755587.46 5135369.79 186.20
-9755587.73 5135375.00 187.39
-9755588.24 5135377.59 187.80
-9755587.65 5135374.14 187.25
-9755587.37 5135368.86 181.27
-9755587.42 5135369.80 184.47
-9755588.10 5135374.34 187.49
-9755587.37 5135374.35 188.68
-9755587.00 5135369.34 186.30
-9755586.59 5135373.13 188.34
-9755586.54 5135377.42 188.53
-9755587.87 5135372.61 184.94
-9755587.53 5135376.96 189.77
-9755587.03 5135374.36 188.92
-9755587.36 5135370.26 187.72
-9755587.15 5135378.05 186.02
-9755587.43 5135378.12 188.59
-9755587.73 5135372.05 188.31
-9755587.14 5135375.94 187.57
-9755586.53 5135369.83 185.15
-9755587.07 5135376.15 186.61
-9755586.82 5135374.31 188.92
-9755587.49 5135377.33 186.96
-9755587.65 5135377.68 181.27
-9755587.46 5135376.46 188.52
-9755586.93 5135372.95 189.03
-9755588.05 5135373.49 188.73
-9755587.37 5135376.84 186.66
-9755586.52 5135374.38 181.32
-9755587.52 5135374.76 187.49
-9755587.51 5135377.62 186.19
-9755587.42 5135374.44 186.21
-9755587.90 5135369.45 184.73
-9755587.03 5135372.68 188.99
-9755588.00 5135372.80 188.17
-9755586.55 5135370.92 186.76
-9755587.42 5135378.86 188.14
-9755587.44 5135374.76 186.90
-9755586.98 5135377.86 188.12
-9755586.53 5135374.73 181.30
-9755587.41 5135376.81 188.15
-9755586.73 5135372.68 186.13
-9755586.61 5135369.68 187.38
-9755587.97 5135369.68 187.21
-9755588.09 5135375.62 186.34
-9755587.10 5135378.33 187.67
-9755586.86 5135370.36 186.96
-9755587.40 5135370.31 181.29
-9755587.33 5135378.31 186.92
-9755587.85 5135370.28 184.72
-9755586.74 5135379.59 186.49
-9755587.92 5135371.01 188.70
-9755587.95 5135376.91 189.62
-9755586.77 5135377.39 186.02
-9755587.69 5135374.27 189.48
-9755586.80 5135376.34 188.54
-9755587.42 5135376.67 188.83
-9755588.02 5135372.80 189.34
-9755588.04 5135375.89 189.43
-9755586.37 5135375.82 186.59
-9755586.34 5135375.49 187.02
-9755587.09 5135378.29 186.36
-9755587.32 5135379.05 185.84
-9755587.81 5135379.36 188.60
-9755587.17 5135375.89 189.25
-9755586.96 5135376.45 189.00
-9755587.99 5135376.85 187.93
-9755587.21 5135374.18 186.05
-9755588.12 5135371.12 189.17
-9755586.68 5135378.93 186.91
-9755587.08 5135372.27 187.85
-9755588.29 5135378.47 188.72
-9755588.20 5135376.73 189.37
-9755587.64 5135374.40 181.37
-9755588.02 5135375.52 188.80
-9755586.74 5135376.39 189.15
-9755587.45 5135375.16 188.73
-9755587.52 5135373.58 184.06
-9755586.58 5135370.00 185.90
-9755586.60 5135369.48 186.51
-9755586.59 5135371.69 188.73
-9755586.65 5135370.54 187.37
-9755587.41 5135378.49 187.53
-9755587.78 5135378.82 188.22
-9755587.94 5135373.36 188.19
-9755586.70 5135375.19 184.75
-9755587.39 5135374.27 185.03
-9755587.81 5135373.53 189.29
-9755586.57 5135377.92 186.37
-9755587.43 5135374.44 188.13
-9755586.53 5135371.76 181.33
-9755586.93 5135374.74 184.92
-9755586.41 5135375.51 188.33
-9755586.70 5135375.11 188.99
-9755587.17 5135373.31 188.66
-9755587.04 5135376.78 181.27
-9755586.71 5135378.71 187.83
-9755588.05 5135375.54 188.01
-9755587.35 5135377.81 188.10
-9755586.93 5135369.56 185.06
-9755586.80 5135378.63 186.19
-9755587.92 5135377.63 187.82
-9755586.53 5135370.59 185.73
-9755588.29 5135371.71 181.34
-9755587.13 5135370.26 181.28
-9755587.76 5135378.64 187.50
-9755587.40 5135369.12 185.99
-9755586.77 5135378.85 187.18
-9755587.03 5135369.51 185.97
-9755587.25 5135378.96 188.12
-9755587.10 5135378.86 187.78
-9755587.44 5135376.25 186.59
-9755588.05 5135379.74 188.54
-9755587.09 5135369.67 185.97
-9755586.52 5135370.06 185.18
-9755586.85 5135377.04 188.18
-9755586.36 5135375.90 188.58
-9755587.42 5135375.76 188.79
-9755586.94 5135369.04 185.05
-9755587.50 5135371.41 187.87
-9755587.14 5135373.41 189.38
-9755586.65 5135375.13 186.95
-9755588.32 5135373.69 189.08
-9755587.11 5135377.38 187.99
-9755586.38 5135373.66 188.86
-9755586.36 5135370.51 186.74
-9755586.37 5135377.66 188.52
-9755586.81 5135375.37 185.84
-9755584.26 5135371.12 186.68
-9755584.27 5135373.93 188.22
-9755586.33 5135376.46 187.61
-9755584.50 5135377.94 185.75
-9755586.40 5135379.18 181.27
-9755584.52 5135372.65 188.05
-9755585.44 5135376.24 187.60
-9755583.86 5135370.06 185.40
-9755585.44 5135370.54 187.04
-9755584.15 5135375.79 185.94
-9755583.92 5135370.23 186.82
-9755585.68 5135376.28 187.46
-9755585.40 5135373.58 188.22
-9755583.62 5135378.86 186.86
-9755585.65 5135377.22 186.82
-9755584.25 5135371.38 187.91
-9755585.06 5135372.67 187.30
-9755586.29 5135373.17 187.64
-9755585.66 5135378.08 185.60
-9755586.30 5135375.67 185.92
-9755581.69 5135379.21 186.00
-9755586.07 5135378.00 185.80
-9755584.14 5135375.41 186.05
-9755585.67 5135377.58 187.05
-9755586.37 5135370.34 186.74
-9755584.99 5135378.77 186.54
-9755585.34 5135378.67 186.43
-9755585.90 5135372.68 186.32
-9755585.70 5135373.74 188.82
-9755586.03 5135371.51 188.25
-9755584.26 5135369.65 185.51
-9755585.33 5135377.73 185.67
-9755582.94 5135379.27 185.26
-9755581.76 5135371.16 181.06
-9755585.87 5135371.38 187.38
-9755584.16 5135378.52 187.14
-9755585.47 5135376.99 188.46
-9755585.89 5135378.75 188.01
-9755584.98 5135372.51 188.19
-9755583.66 5135368.94 185.07
-9755583.86 5135378.31 185.44
-9755585.34 5135377.98 186.82
-9755581.80 5135377.43 185.70
-9755585.99 5135375.90 186.71
-9755585.74 5135375.35 186.30
-9755586.39 5135377.87 189.18
-9755585.90 5135375.28 188.24
-9755585.71 5135370.60 187.48
-9755585.32 5135371.43 187.32
-9755583.74 5135372.80 187.65
-9755582.79 5135371.68 185.02
-9755584.15 5135376.90 186.88
-9755582.99 5135377.43 185.66
-9755583.61 5135375.28 181.05
-9755585.29 5135375.59 186.81
-9755586.21 5135374.69 188.17
-9755583.07 5135376.09 185.69
-9755585.06 5135369.55 187.29
-9755585.68 5135375.86 185.75
-9755582.95 5135371.50 181.06
-9755585.31 5135377.65 187.34
-9755581.75 5135377.03 181.05
-9755584.47 5135372.36 188.21
-9755578.82 5135373.79 181.04
-9755585.37 5135369.25 185.20
-9755583.99 5135377.80 181.09
-9755584.75 5135378.90 186.78
-9755585.05 5135369.67 185.54
-9755585.78 5135374.96 186.57
-9755583.70 5135370.38 185.40
-9755584.46 5135377.63 186.36
-9755575.36 5135372.88 181.07
-9755581.80 5135373.52 181.06
-9755586.29 5135369.11 186.03
-9755575.88 5135377.97 181.04
-9755585.11 5135377.38 187.48
-9755585.31 5135373.03 188.14
-9755583.63 5135373.79 188.59
-9755586.17 5135370.42 186.65
-9755580.65 5135371.14 181.05
-9755585.56 5135377.67 181.10
-9755585.78 5135374.01 186.51
-9755584.27 5135370.24 187.22
-9755585.36 5135368.94 185.35
-9755584.71 5135375.65 186.99
-9755585.43 5135372.57 187.01
-9755585.58 5135379.12 181.13
-9755584.15 5135373.50 181.05
-9755580.32 5135375.31 184.60
-9755582.88 5135376.79 186.17
-9755580.81 5135375.29 181.05
-9755584.65 5135378.35 185.75
-9755582.30 5135375.93 181.07
-9755583.25 5135374.71 185.64
-9755585.03 5135377.77 187.01
-9755582.62 5135377.46 185.79
-9755582.78 5135377.55 185.92
-9755583.05 5135370.99 185.32
-9755583.58 5135376.35 186.19
-9755584.44 5135372.93 181.06
-9755584.73 5135379.08 187.42
-9755586.18 5135370.29 187.99
-9755585.64 5135375.98 187.60
-9755583.19 5135376.24 185.98
-9755580.91 5135375.66 184.60
-9755583.81 5135371.12 181.07
-9755585.12 5135375.23 189.94
-9755585.31 5135376.39 188.72
-9755584.68 5135375.86 181.09
-9755584.55 5135374.98 186.01
-9755585.02 5135375.63 186.19
-9755584.21 5135370.65 186.70
-9755585.72 5135378.82 186.93
-9755583.27 5135372.93 188.34
-9755586.24 5135369.71 187.03
-9755583.84 5135374.73 185.64
-9755576.53 5135372.87 181.06
-9755583.60 5135370.79 186.68
-9755584.12 5135371.91 185.33
-9755583.94 5135377.17 185.68
-9755585.69 5135373.23 181.21
-9755584.98 5135373.48 187.78
-9755584.06 5135378.02 186.74
-9755582.41 5135370.62 185.22
-9755585.69 5135373.16 188.38
-9755584.19 5135376.84 186.35
-9755579.16 5135369.39 181.06
-9755585.28 5135375.08 185.99
-9755576.47 5135371.75 181.07
-9755578.51 5135376.75 181.05
-9755577.32 5135369.08 181.05
-9755581.77 5135374.44 181.05
-9755585.01 5135372.75 188.47
-9755583.29 5135377.44 185.69
-9755584.82 5135370.83 187.29
-9755584.14 5135375.05 186.10
-9755582.05 5135375.98 184.59
-9755579.11 5135377.10 181.05
-9755580.02 5135376.25 184.94
-9755584.99 5135373.61 186.13
-9755585.16 5135373.48 187.33
-9755583.29 5135371.88 185.04
-9755586.18 5135372.95 181.30
-9755586.25 5135376.83 186.90
-9755583.19 5135378.02 185.53
-9755585.74 5135378.23 187.13
-9755584.16 5135376.47 185.82
-9755582.30 5135378.51 181.06
-9755582.56 5135377.13 185.64
-9755585.93 5135378.67 185.70
-9755585.37 5135374.78 184.75
-9755585.67 5135372.31 189.14
-9755585.91 5135374.17 188.35
-9755583.94 5135372.16 181.10
-9755586.26 5135371.16 187.46
-9755576.72 5135374.43 181.04
-9755582.99 5135375.96 184.45
-9755585.06 5135379.58 186.74
-9755579.14 5135372.33 181.05
-9755585.14 5135372.27 188.43
-9755586.21 5135370.93 185.82
-9755583.81 5135378.58 186.64
-9755584.49 5135378.52 187.09
-9755584.24 5135374.09 187.74
-9755580.60 5135376.74 184.85
-9755581.26 5135374.65 184.40
-9755579.69 5135375.34 184.71
-9755584.76 5135379.56 186.44
-9755576.75 5135372.96 181.06
-9755581.24 5135372.06 181.09
-9755581.45 5135375.98 184.58
-9755581.44 5135373.21 181.07
-9755582.72 5135370.98 185.54
-9755582.84 5135372.83 188.45
-9755582.11 5135375.43 185.62
-9755584.23 5135376.28 186.39
-9755583.58 5135379.41 186.81
-9755584.50 5135372.11 187.29
-9755575.03 5135375.06 181.04
-9755583.88 5135375.00 185.63
-9755584.96 5135369.01 185.03
-9755583.75 5135376.02 185.78
-9755584.22 5135375.02 185.70
-9755584.56 5135369.45 185.56
-9755581.10 5135378.56 181.06
-9755585.65 5135378.91 181.16
-9755585.04 5135379.09 187.38
-9755582.58 5135370.89 185.25
-9755585.28 5135370.24 181.09
-9755586.07 5135369.67 187.83
-9755583.88 5135373.09 188.19
-9755581.59 5135375.73 184.53
-9755582.38 5135372.05 181.06
-9755582.72 5135369.64 181.05
-9755584.48 5135374.65 186.00
-9755583.27 5135373.68 188.19
-9755585.01 5135370.51 187.33
-9755580.19 5135375.93 184.60
-9755585.90 5135377.28 188.56
-9755586.10 5135368.87 187.34
-9755576.47 5135369.64 181.06
-9755579.03 5135378.19 181.05
-9755575.54 5135376.75 181.05
-9755583.02 5135376.31 185.69
-9755586.26 5135370.01 187.83
-9755582.44 5135377.10 186.51
-9755585.35 5135373.39 186.34
-9755585.61 5135377.98 187.30
-9755584.47 5135377.95 187.09
-9755575.92 5135371.06 181.06
-9755586.01 5135369.79 187.02
-9755586.25 5135373.90 186.61
-9755584.65 5135375.85 185.50
-9755584.73 5135372.70 187.77
-9755586.25 5135370.07 187.46
-9755583.06 5135373.81 188.34
-9755583.81 5135377.61 185.29
-9755583.28 5135376.69 186.12
-9755586.32 5135373.49 188.30
-9755584.18 5135378.87 185.55
-9755584.12 5135375.49 181.06
-9755583.58 5135375.42 185.81
-9755584.68 5135379.26 185.23
-9755584.73 5135370.67 185.54
-9755585.49 5135379.62 185.10
-9755584.73 5135379.66 187.18
-9755581.78 5135372.06 181.08
-9755584.49 5135375.92 187.08
-9755582.97 5135369.75 185.30
-9755586.14 5135378.91 188.01
-9755584.10 5135379.48 186.72
-9755585.54 5135373.30 187.46
-9755582.75 5135379.56 185.29
-9755586.34 5135372.58 187.68
-9755576.50 5135378.87 181.01
-9755585.93 5135372.86 188.31
-9755584.09 5135378.92 186.72
-9755576.69 5135369.67 181.07
-9755582.65 5135378.82 181.06
-9755577.37 5135377.03 181.07
-9755582.69 5135371.09 181.07
-9755578.47 5135378.51 181.05
-9755577.37 5135369.97 181.04
-9755585.90 5135378.66 186.32
-9755584.13 5135369.15 185.18
-9755585.12 5135372.29 187.32
-9755582.60 5135376.81 186.49
-9755585.35 5135374.35 188.67
-9755584.62 5135373.47 187.79
-9755585.35 5135377.59 188.66
-9755582.98 5135376.61 181.05
-9755585.90 5135371.52 186.99
-9755581.35 5135378.19 181.07
-9755583.32 5135370.42 185.43
-9755584.10 5135377.11 186.44
-9755585.67 5135375.38 185.56
-9755583.85 5135371.57 187.07
-9755578.24 5135372.33 181.05
-9755582.94 5135376.08 181.07
-9755580.87 5135377.61 181.07
-9755582.36 5135378.01 185.85
-9755583.81 5135368.85 185.50
-9755583.82 5135376.80 181.09
-9755585.75 5135375.72 189.96
-9755585.36 5135370.82 187.61
-9755584.62 5135379.37 181.09
-9755583.83 5135369.65 181.07
-9755584.77 5135378.93 181.09
-9755583.26 5135378.88 185.33
-9755581.14 5135378.61 186.07
-9755579.15 5135374.66 181.05
-9755585.01 5135371.80 181.06
-9755582.75 5135370.61 185.29
-9755583.30 5135372.72 181.08
-9755562.86 5135375.40 181.10
-9755571.74 5135369.56 181.08
-9755564.05 5135378.46 181.05
-9755571.44 5135372.84 181.07
-9755566.47 5135371.02 181.09
-9755565.22 5135373.48 181.09
-9755572.29 5135378.46 181.03
-9755564.09 5135371.93 181.10
-9755566.40 5135378.41 181.07
-9755574.31 5135380.25 181.03
-9755562.59 5135376.43 181.09
-9755573.27 5135372.89 181.06
-9755572.68 5135376.38 181.05
-9755574.64 5135378.28 181.04
-9755574.66 5135375.89 181.05
-9755572.66 5135371.01 181.07
-9755561.96 5135375.42 181.09
-9755563.50 5135369.56 181.10
-9755568.83 5135373.54 181.06
-9755562.29 5135373.76 181.08
-9755573.83 5135374.36 181.06
-9755567.28 5135374.58 181.08
-9755562.60 5135374.05 181.10
-9755571.42 5135374.38 181.08
-9755573.58 5135375.44 181.05
-9755574.38 5135377.02 181.05
-9755572.11 5135371.06 181.06
-9755573.41 5135377.90 181.05
-9755574.06 5135375.31 181.05
-9755566.22 5135371.97 181.09
-9755574.41 5135370.25 181.09
-9755573.50 5135374.42 181.08
-9755574.37 5135372.00 181.09
-9755568.17 5135376.14 181.07
-9755568.24 5135374.34 181.08
-9755566.20 5135371.09 181.09
-9755563.52 5135373.46 181.07
-9755565.32 5135378.70 181.06
-9755565.80 5135369.30 181.09
-9755563.50 5135376.63 181.09
-9755563.53 5135373.80 181.09
-9755565.92 5135377.28 181.06
-9755562.57 5135374.66 181.09
-9755569.46 5135376.06 181.05
-9755566.17 5135375.48 181.09
-9755564.41 5135373.08 181.09
-9755563.90 5135370.43 181.05
-9755561.85 5135369.55 181.08
-9755568.52 5135377.57 181.07
-9755565.24 5135370.53 181.09
-9755561.94 5135374.81 181.09
-9755572.29 5135377.89 181.03
-9755568.83 5135371.08 181.07
-9755568.51 5135375.79 181.07
-9755574.01 5135378.26 181.05
-9755567.30 5135377.12 181.07
-9755564.05 5135375.54 181.10
-9755566.34 5135372.87 181.09
-9755570.86 5135374.35 181.06
-9755567.93 5135379.28 181.05
-9755562.66 5135370.78 181.10
-9755564.88 5135368.99 181.09
-9755566.72 5135373.11 181.09
-9755569.17 5135371.35 181.06
-9755564.42 5135374.01 181.09
-9755567.64 5135370.15 181.07
-9755572.16 5135374.37 181.07
-9755564.40 5135371.65 181.09
-9755563.47 5135377.52 181.06
-9755570.86 5135371.06 181.07
-9755566.13 5135372.52 181.08
-9755570.30 5135372.04 181.06
-9755567.65 5135373.13 181.08
-9755562.97 5135372.89 181.09
-9755566.14 5135373.67 181.09
-9755561.68 5135376.27 181.06
-9755561.68 5135376.71 181.09
-9755561.70 5135378.08 181.09
-9755560.91 5135372.03 181.11
-9755560.87 5135377.58 181.08
-9755561.10 5135373.74 181.08
-9755560.85 5135373.74 181.10
-9755561.66 5135372.27 181.11
-9755560.21 5135387.68 181.06
-9755559.72 5135381.97 181.07
-9755559.92 5135383.78 181.04
-9755560.15 5135384.05 181.04
-9755560.10 5135390.81 181.00
-9755559.90 5135382.87 181.06
-9755556.44 5135380.21 181.08
-9755556.91 5135380.84 181.07
-9755557.52 5135380.43 181.08
-9755560.00 5135379.90 181.05
-9755558.13 5135380.42 181.08
-9755556.72 5135379.60 181.09
-9755559.52 5135382.60 181.08
-9755559.30 5135383.14 181.07
-9755557.41 5135393.48 181.05
-9755557.20 5135392.68 181.06
-9755557.76 5135391.97 181.05
-9755558.43 5135386.62 181.05
-9755556.87 5135392.91 181.06
-9755557.54 5135388.48 181.05
-9755556.40 5135385.29 181.03
-9755559.35 5135381.43 181.07
-9755555.99 5135391.07 181.05
-9755556.95 5135389.39 181.03
-9755557.45 5135391.09 181.06
-9755557.54 5135384.26 181.05
-9755557.77 5135389.02 181.04
-9755558.10 5135387.01 181.05
-9755557.16 5135387.58 181.07
-9755558.01 5135385.17 181.05
-9755559.33 5135381.69 181.06
-9755556.01 5135391.98 181.05
-9755559.18 5135393.62 181.05
-9755558.94 5135386.97 181.05
-9755559.82 5135393.17 181.06
-9755559.32 5135383.82 181.05
-9755557.53 5135386.97 181.04
-9755558.38 5135382.27 181.05
-9755556.07 5135385.49 181.05
-9755559.49 5135391.18 181.04
-9755559.21 5135398.25 181.07
-9755559.51 5135396.80 181.03
-9755558.69 5135395.02 181.03
-9755559.26 5135394.43 181.04
-9755557.84 5135395.00 181.05
-9755556.86 5135396.49 181.06
-9755556.61 5135396.81 181.09
-9755556.65 5135394.30 181.05
-9755560.64 5135375.12 181.10
-9755559.93 5135372.82 181.09
-9755559.92 5135378.46 181.10
-9755559.96 5135372.20 181.08
-9755560.27 5135369.50 181.10
-9755556.74 5135376.35 181.08
-9755556.70 5135369.79 181.09
-9755559.68 5135375.42 181.12
-9755558.23 5135371.91 181.10
-9755558.42 5135378.14 181.09
-9755556.76 5135372.82 181.10
-9755556.67 5135374.23 181.12
-9755559.36 5135371.92 181.10
-9755558.45 5135377.59 181.10
-9755556.40 5135371.01 181.11
-9755559.35 5135375.22 181.12
-9755556.75 5135373.96 181.12
-9755557.63 5135374.54 181.11
-9755557.88 5135370.48 181.11
-9755558.76 5135376.92 181.11
-9755556.68 5135375.69 181.09
-9755557.82 5135379.29 181.03
-9755557.26 5135373.66 181.11
-9755556.76 5135373.39 181.08
-9755557.62 5135368.71 181.11
-9755557.10 5135371.90 181.12
-9755558.19 5135374.54 181.10
-9755557.86 5135377.23 181.08
-9755556.16 5135372.48 181.10
-9755557.66 5135373.36 181.09
-9755557.27 5135374.58 181.12
-9755556.93 5135379.30 181.09
-9755606.34 5135364.73 181.05
-9755603.63 5135366.80 181.07
-9755606.55 5135366.28 181.06
-9755606.88 5135366.56 181.06
-9755605.38 5135365.78 181.04
-9755602.20 5135366.47 181.05
-9755606.57 5135367.19 181.06
-9755605.97 5135367.71 181.07
-9755607.48 5135367.16 181.07
-9755601.59 5135365.56 181.05
-9755604.59 5135365.09 181.05
-9755601.80 5135365.61 181.05
-9755598.61 5135368.93 181.09
-9755593.82 5135365.32 181.11
-9755595.97 5135364.76 181.10
-9755594.87 5135365.65 181.09
-9755591.53 5135365.70 186.82
-9755601.23 5135365.14 181.07
-9755592.31 5135366.58 181.09
-9755591.63 5135364.98 181.08
-9755591.54 5135365.28 187.00
-9755594.27 5135365.64 181.09
-9755600.38 5135365.08 181.08
-9755599.48 5135366.26 181.07
-9755593.32 5135366.13 181.07
-9755594.84 5135364.75 181.10
-9755593.33 5135367.03 181.09
-9755591.30 5135366.13 181.08
-9755595.38 5135366.99 181.08
-9755592.23 5135365.11 186.50
-9755600.70 5135366.20 181.08
-9755591.26 5135364.67 181.07
-9755590.14 5135364.64 187.36
-9755592.99 5135365.95 181.10
-9755598.90 5135366.15 181.08
-9755596.89 5135365.30 181.09
-9755593.66 5135364.62 181.09
-9755598.98 5135364.68 181.09
-9755598.10 5135364.76 181.09
-9755590.38 5135365.23 187.37
-9755607.09 5135368.24 181.05
-9755608.35 5135368.60 181.03
-9755605.98 5135368.12 181.06
-9755604.52 5135368.09 181.05
-9755604.12 5135368.03 181.05
-9755604.85 5135368.61 181.05
-9755603.91 5135369.26 181.05
-9755602.84 5135369.18 181.05
-9755605.40 5135368.32 181.06
-9755607.38 5135368.86 181.08
-9755593.06 5135369.19 181.08
-9755593.36 5135367.90 181.09
-9755599.18 5135367.91 181.07
-9755594.77 5135367.95 181.07
-9755601.24 5135367.99 181.08
-9755599.18 5135368.82 181.09
-9755591.14 5135368.50 185.07
-9755597.78 5135367.99 181.11
-9755590.92 5135368.73 181.05
-9755590.12 5135367.94 181.09
-9755601.26 5135368.89 181.06
-9755600.32 5135368.03 181.08
-9755590.16 5135368.06 185.63
-9755598.94 5135368.33 181.10
-9755591.86 5135368.79 185.65
-9755589.49 5135367.70 185.59
-9755589.25 5135367.18 185.54
-9755588.94 5135365.36 185.34
-9755588.92 5135367.54 186.42
-9755588.77 5135367.63 185.89
-9755589.40 5135367.44 185.90
-9755588.92 5135364.80 184.73
-9755588.60 5135367.73 185.51
-9755588.29 5135367.77 185.43
-9755588.28 5135367.41 185.24
-9755589.24 5135367.70 185.74
-9755588.94 5135366.45 185.99
-9755589.56 5135367.32 185.73
-9755588.58 5135366.87 185.38
-9755588.39 5135367.71 185.51
-9755589.50 5135364.67 181.22
-9755589.21 5135366.30 185.54
-9755589.27 5135364.76 185.22
-9755588.30 5135366.42 181.27
-9755588.19 5135366.39 185.41
-9755587.99 5135367.42 185.17
-9755587.14 5135364.62 181.27
-9755588.85 5135365.01 184.78
-9755587.50 5135366.82 184.98
-9755587.99 5135364.94 181.26
-9755586.95 5135367.76 185.25
-9755587.80 5135367.70 185.06
-9755587.42 5135365.25 185.58
-9755586.60 5135367.16 184.90
-9755587.99 5135366.84 185.07
-9755586.53 5135366.72 185.00
-9755587.47 5135367.79 185.84
-9755587.12 5135366.44 181.26
-9755587.70 5135367.08 184.56
-9755589.51 5135368.28 185.57
-9755589.18 5135368.82 181.25
-9755588.97 5135368.63 185.60
-9755589.58 5135367.91 186.44
-9755589.20 5135368.28 185.58
-9755588.90 5135367.97 185.54
-9755588.37 5135368.31 185.49
-9755586.79 5135367.99 184.84
-9755587.40 5135368.22 185.86
-9755587.10 5135367.98 184.86
-9755587.44 5135368.49 185.90
-9755587.22 5135367.90 185.04
-9755587.89 5135368.22 185.00
-9755587.56 5135368.06 185.41
-9755586.45 5135368.42 185.19
-9755587.98 5135368.24 181.27
-9755587.94 5135368.02 185.48
-9755587.13 5135367.99 185.86
-9755585.05 5135367.68 184.79
-9755585.71 5135366.52 184.83
-9755577.13 5135365.52 181.05
-9755575.91 5135364.63 181.06
-9755580.63 5135366.94 181.07
-9755585.33 5135367.04 181.16
-9755579.77 5135366.76 181.06
-9755579.12 5135366.05 181.05
-9755585.35 5135367.65 184.84
-9755577.45 5135365.16 181.05
-9755582.35 5135367.31 181.07
-9755577.10 5135366.98 181.04
-9755583.58 5135366.34 181.05
-9755585.51 5135366.04 184.87
-9755581.78 5135365.48 181.10
-9755583.91 5135365.51 181.08
-9755586.23 5135367.78 184.86
-9755585.98 5135365.49 181.26
-9755586.28 5135366.64 184.83
-9755585.68 5135367.03 181.23
-9755586.37 5135366.83 184.83
-9755576.48 5135366.30 181.08
-9755578.23 5135367.58 181.06
-9755580.38 5135366.13 181.08
-9755578.27 5135364.98 181.06
-9755580.84 5135364.63 181.08
-9755584.14 5135366.47 181.07
-9755579.53 5135366.38 181.07
-9755583.86 5135367.26 181.06
-9755580.30 5135367.33 181.07
-9755585.69 5135365.79 185.06
-9755575.59 5135366.35 181.04
-9755584.88 5135366.51 184.67
-9755576.20 5135364.65 181.06
-9755568.01 5135366.33 181.07
-9755567.89 5135366.88 181.07
-9755562.68 5135365.46 181.08
-9755565.65 5135367.22 181.09
-9755568.24 5135367.19 181.09
-9755564.19 5135364.86 181.06
-9755571.73 5135366.44 181.04
-9755569.50 5135366.31 181.07
-9755571.14 5135366.41 181.03
-9755571.43 5135365.23 181.08
-9755565.56 5135364.81 181.06
-9755573.30 5135364.83 181.05
-9755562.03 5135364.84 181.06
-9755563.22 5135366.03 181.07
-9755562.35 5135366.88 181.06
-9755568.81 5135367.23 181.07
-9755565.94 5135365.11 181.06
-9755571.45 5135367.56 181.06
-9755562.07 5135367.14 181.07
-9755563.18 5135364.78 181.08
-9755570.09 5135367.53 181.05
-9755573.89 5135364.85 181.06
-9755568.83 5135364.81 181.05
-9755564.05 5135366.85 181.06
-9755564.73 5135365.44 181.07
-9755560.88 5135366.79 181.06
-9755560.33 5135366.31 181.09
-9755585.38 5135368.01 184.79
-9755585.44 5135368.67 184.78
-9755576.81 5135368.50 181.06
-9755585.14 5135368.51 184.67
-9755575.33 5135368.72 181.07
-9755582.75 5135368.51 181.04
-9755578.02 5135368.43 181.05
-9755586.31 5135368.32 184.92
-9755583.83 5135368.15 181.05
-9755586.23 5135367.93 181.26
-9755584.49 5135368.77 184.44
-9755583.30 5135369.07 181.06
-9755579.72 5135367.89 181.06
-9755580.87 5135367.88 181.05
-9755579.75 5135368.43 181.06
-9755578.78 5135368.15 181.06
-9755573.91 5135368.15 181.07
-9755567.34 5135368.69 181.07
-9755568.20 5135368.31 181.07
-9755571.57 5135368.39 181.06
-9755568.02 5135367.81 181.08
-9755562.92 5135368.70 181.09
-9755574.46 5135368.71 181.08
-9755564.04 5135368.70 181.09
-9755567.65 5135367.83 181.07
-9755567.68 5135368.65 181.08
-9755560.90 5135368.06 181.08
-9755561.13 5135368.65 181.10
-9755556.17 5135364.77 181.11
-9755559.44 5135364.79 181.08
-9755558.53 5135364.83 181.10
-9755558.28 5135365.42 181.11
-9755558.22 5135368.62 181.11
-9755590.53 5135380.38 181.09
-9755592.13 5135380.15 185.64
-9755604.65 5135383.05 181.06
-9755602.90 5135381.58 181.05
-9755607.11 5135383.12 181.06
-9755607.64 5135389.30 181.07
-9755601.75 5135388.74 181.26
-9755606.13 5135384.40 181.09
-9755593.57 5135388.41 186.42
-9755590.57 5135390.25 186.16
-9755590.58 5135390.54 186.06
-9755590.61 5135390.12 188.54
-9755590.25 5135389.20 188.04
-9755591.73 5135389.34 185.03
-9755590.52 5135382.85 185.68
-9755590.68 5135383.08 185.49
-9755592.08 5135390.53 185.28
-9755593.86 5135384.91 185.79
-9755592.55 5135390.09 185.20
-9755590.31 5135384.39 184.82
-9755590.52 5135382.66 186.57
-9755592.62 5135384.60 185.81
-9755592.97 5135390.60 185.14
-9755594.73 5135383.95 185.80
-9755601.72 5135387.83 181.26
-9755593.72 5135388.50 186.71
-9755590.52 5135386.88 188.64
-9755590.48 5135384.33 185.95
-9755590.64 5135384.06 185.95
-9755592.09 5135388.08 188.03
-9755592.97 5135387.52 187.13
-9755590.68 5135387.68 188.39
-9755590.56 5135382.80 186.22
-9755592.96 5135383.12 185.29
-9755590.90 5135384.27 186.22
-9755595.85 5135383.73 181.02
-9755593.80 5135385.09 185.68
-9755593.78 5135388.45 186.42
-9755591.36 5135390.14 187.28
-9755593.13 5135389.41 186.73
-9755590.52 5135385.96 188.90
-9755592.98 5135382.89 185.31
-9755592.60 5135390.28 185.03
-9755592.06 5135381.86 185.84
-9755593.65 5135385.26 186.04
-9755590.14 5135385.50 188.10
-9755590.65 5135387.19 188.15
-9755590.89 5135388.07 187.55
-9755590.55 5135389.55 187.03
-9755590.63 5135381.46 184.88
-9755593.85 5135384.36 185.62
-9755592.68 5135390.53 185.15
-9755590.23 5135389.11 189.13
-9755591.67 5135383.51 184.69
-9755590.32 5135388.85 189.13
-9755590.48 5135388.47 186.06
-9755590.84 5135388.46 186.23
-9755591.49 5135386.02 186.20
-9755592.38 5135389.30 186.65
-9755592.61 5135386.59 186.74
-9755590.68 5135385.32 188.31
-9755592.12 5135385.68 186.70
-9755590.71 5135390.84 186.20
-9755591.86 5135383.26 184.96
-9755590.41 5135383.97 186.19
-9755589.78 5135388.99 185.91
-9755592.57 5135383.64 183.71
-9755591.79 5135388.58 186.97
-9755592.37 5135383.10 185.86
-9755592.10 5135390.24 185.29
-9755589.84 5135390.04 186.87
-9755590.10 5135389.48 188.44
-9755590.31 5135387.57 188.51
-9755595.50 5135387.19 180.98
-9755595.90 5135381.88 181.00
-9755593.93 5135384.10 186.12
-9755591.32 5135387.48 187.81
-9755590.52 5135385.63 188.02
-9755593.77 5135384.43 185.27
-9755591.77 5135383.67 185.93
-9755590.84 5135390.85 185.54
-9755590.65 5135388.08 188.48
-9755591.14 5135387.38 188.22
-9755592.64 5135389.30 186.66
-9755591.44 5135384.82 186.94
-9755593.03 5135388.17 186.64
-9755590.07 5135386.06 187.46
-9755590.99 5135387.80 186.30
-9755589.95 5135389.39 185.87
-9755590.65 5135384.04 186.21
-9755592.32 5135386.96 186.67
-9755590.55 5135386.63 186.88
-9755590.86 5135386.87 188.59
-9755592.70 5135384.88 185.82
-9755593.48 5135384.25 185.75
-9755590.24 5135388.41 181.23
-9755592.85 5135390.79 185.41
-9755590.00 5135384.03 185.87
-9755590.25 5135388.61 185.88
-9755603.81 5135376.40 181.05
-9755604.31 5135377.76 181.05
-9755608.03 5135375.73 181.05
-9755602.08 5135375.73 181.07
-9755602.67 5135370.35 181.03
-9755590.19 5135374.69 189.02
-9755590.63 5135374.30 185.35
-9755591.07 5135375.03 188.44
-9755590.60 5135374.85 188.51
-9755592.36 5135369.99 181.09
-9755590.97 5135374.33 188.14
-9755590.98 5135372.80 185.35
-9755591.83 5135377.46 186.63
-9755590.69 5135379.81 186.12
-9755598.33 5135376.21 181.07
-9755590.80 5135372.05 187.96
-9755592.58 5135373.51 181.05
-9755590.65 5135379.82 185.65
-9755590.57 5135378.02 185.87
-9755591.18 5135378.61 185.47
-9755599.16 5135379.18 181.05
-9755590.99 5135369.52 184.68
-9755594.70 5135378.02 181.05
-9755590.10 5135376.89 186.07
-9755591.29 5135377.21 185.39
-9755590.58 5135375.94 181.09
-9755592.16 5135373.74 185.10
-9755600.07 5135371.27 181.06
-9755590.55 5135373.20 188.09
-9755591.04 5135373.62 188.18
-9755590.41 5135374.72 189.08
-9755590.92 5135379.45 185.85
-9755591.59 5135371.20 188.31
-9755590.07 5135373.82 188.72
-9755590.93 5135378.05 185.87
-9755591.04 5135373.21 188.63
-9755590.71 5135371.57 187.81
-9755592.61 5135375.92 181.06
-9755592.17 5135372.27 188.30
-9755590.83 5135376.96 186.63
-9755591.05 5135377.44 186.64
-9755591.74 5135379.53 185.73
-9755591.15 5135379.00 185.83
-9755590.07 5135372.00 188.29
-9755599.11 5135377.74 181.08
-9755591.29 5135379.04 185.55
-9755590.71 5135369.53 185.63
-9755590.69 5135370.34 181.09
-9755590.64 5135377.70 186.55
-9755600.86 5135374.46 181.07
-9755590.55 5135375.17 188.80
-9755592.33 5135379.88 185.67
-9755591.38 5135378.76 185.77
-9755591.84 5135378.72 185.41
-9755591.16 5135378.60 185.93
-9755591.84 5135369.50 184.28
-9755588.92 5135380.41 185.95
-9755588.81 5135380.68 185.92
-9755587.32 5135380.00 187.24
-9755586.54 5135381.02 186.65
-9755587.48 5135380.21 187.14
-9755586.55 5135380.61 186.54
-9755589.98 5135385.19 187.94
-9755588.84 5135383.19 185.74
-9755588.32 5135384.79 186.64
-9755588.81 5135384.84 186.11
-9755588.76 5135381.09 186.76
-9755589.77 5135383.69 186.48
-9755588.62 5135381.32 185.02
-9755588.48 5135383.61 185.64
-9755589.74 5135381.68 186.56
-9755588.90 5135387.17 188.10
-9755588.83 5135385.27 188.62
-9755588.28 5135387.43 189.13
-9755589.04 5135382.53 186.61
-9755588.75 5135385.22 186.21
-9755588.95 5135384.87 184.53
-9755588.44 5135385.51 188.42
-9755589.15 5135389.19 187.81
-9755588.88 5135388.04 185.31
-9755588.75 5135387.03 186.60
-9755588.88 5135388.61 188.18
-9755589.71 5135384.85 188.07
-9755588.23 5135388.88 188.21
-9755588.88 5135386.46 188.64
-9755589.32 5135385.31 187.56
-9755588.14 5135385.15 188.06
-9755589.50 5135387.33 189.14
-9755589.73 5135389.65 186.81
-9755588.51 5135387.06 187.95
-9755589.06 5135383.62 186.11
-9755588.26 5135383.92 188.24
-9755588.44 5135385.11 186.64
-9755589.60 5135381.26 185.76
-9755588.44 5135386.91 188.00
-9755588.86 5135382.27 185.29
-9755589.79 5135385.31 188.02
-9755589.13 5135385.37 185.46
-9755588.55 5135385.92 188.18
-9755589.44 5135389.74 188.30
-9755589.73 5135383.17 186.18
-9755589.37 5135382.84 184.79
-9755589.67 5135390.71 186.95
-9755589.59 5135390.14 184.94
-9755589.73 5135382.10 186.37
-9755588.51 5135387.22 186.63
-9755588.54 5135386.80 183.47
-9755589.35 5135388.55 188.78
-9755588.80 5135385.93 188.05
-9755588.48 5135388.01 189.09
-9755588.91 5135388.08 189.11
-9755589.91 5135390.17 187.01
-9755588.76 5135389.41 185.12
-9755588.26 5135383.97 187.37
-9755588.10 5135385.72 188.67
-9755589.50 5135382.75 185.97
-9755589.16 5135390.27 186.26
-9755588.19 5135383.03 186.79
-9755588.87 5135382.77 185.55
-9755588.86 5135384.88 188.15
-9755588.59 5135384.24 187.38
-9755588.41 5135388.71 185.00
-9755588.92 5135389.52 187.85
-9755588.03 5135387.72 187.21
-9755588.54 5135385.81 188.70
-9755589.33 5135385.37 184.06
-9755588.73 5135386.02 188.55
-9755589.23 5135383.83 187.66
-9755589.41 5135383.70 184.23
-9755589.38 5135384.66 188.18
-9755588.82 5135386.51 188.57
-9755589.63 5135387.30 188.53
-9755588.24 5135386.86 187.97
-9755586.79 5135383.60 186.81
-9755587.84 5135388.05 186.63
-9755586.47 5135387.96 187.50
-9755587.76 5135390.69 186.59
-9755586.83 5135385.94 187.48
-9755586.89 5135384.05 185.11
-9755586.54 5135381.93 186.35
-9755587.06 5135385.97 187.43
-9755587.30 5135389.09 186.76
-9755586.45 5135390.67 184.49
-9755588.22 5135384.43 184.55
-9755586.82 5135382.70 187.06
-9755586.46 5135383.95 185.25
-9755587.23 5135389.29 185.89
-9755587.36 5135387.21 186.33
-9755587.70 5135388.64 188.45
-9755587.54 5135384.41 188.40
-9755587.59 5135385.37 183.97
-9755587.74 5135382.78 187.29
-9755587.08 5135384.83 186.36
-9755587.96 5135385.92 186.79
-9755587.30 5135386.57 188.20
-9755586.53 5135385.96 187.88
-9755587.59 5135383.63 187.96
-9755588.19 5135388.53 187.75
-9755587.30 5135390.07 188.03
-9755587.88 5135385.63 188.20
-9755586.47 5135389.24 186.16
-9755587.32 5135389.83 188.03
-9755587.72 5135384.28 185.32
-9755586.45 5135390.34 187.09
-9755587.24 5135390.56 186.32
-9755587.72 5135386.08 186.97
-9755586.54 5135385.56 186.73
-9755587.34 5135385.39 187.00
-9755587.27 5135390.79 184.46
-9755586.53 5135383.91 186.19
-9755586.76 5135387.63 185.70
-9755587.63 5135386.87 187.87
-9755586.58 5135384.47 187.44
-9755586.52 5135384.30 186.91
-9755587.30 5135388.56 186.68
-9755587.35 5135384.80 181.28
-9755587.34 5135388.13 186.72
-9755587.30 5135388.59 187.45
-9755587.54 5135389.29 186.45
-9755587.37 5135386.87 188.16
-9755586.68 5135389.82 185.95
-9755587.59 5135385.99 188.38
-9755587.96 5135387.20 186.98
-9755587.79 5135388.51 186.55
-9755586.68 5135380.54 187.42
-9755585.62 5135380.31 186.73
-9755586.32 5135380.99 186.69
-9755585.67 5135379.94 188.01
-9755586.79 5135380.10 187.32
-9755584.68 5135380.67 181.06
-9755586.20 5135380.67 186.96
-9755585.70 5135380.31 187.53
-9755585.67 5135380.65 187.80
-9755582.33 5135380.32 181.07
-9755585.96 5135380.10 187.97
-9755584.02 5135389.31 185.78
-9755583.52 5135388.54 185.81
-9755585.82 5135390.21 185.34
-9755583.27 5135383.97 184.65
-9755584.05 5135383.28 184.54
-9755584.25 5135390.55 185.20
-9755585.73 5135382.79 187.00
-9755583.80 5135383.93 181.00
-9755584.20 5135382.51 184.98
-9755586.49 5135383.26 187.28
-9755585.56 5135387.27 185.57
-9755586.31 5135389.52 185.60
-9755584.56 5135384.43 185.25
-9755585.46 5135385.86 184.77
-9755586.20 5135384.13 186.71
-9755586.36 5135384.06 188.17
-9755584.27 5135387.75 185.86
-9755585.18 5135388.51 184.94
-9755582.33 5135383.02 181.06
-9755583.80 5135388.05 185.31
-9755586.39 5135385.24 185.19
-9755584.57 5135383.16 184.94
-9755586.43 5135382.42 181.27
-9755584.45 5135385.78 186.04
-9755584.11 5135384.34 184.94
-9755586.14 5135388.54 185.62
-9755585.96 5135383.58 188.23
-9755585.61 5135386.88 186.21
-9755585.74 5135384.26 185.36
-9755584.16 5135383.20 184.31
-9755585.49 5135386.40 185.78
-9755584.63 5135388.77 185.06
-9755584.14 5135387.36 185.82
-9755584.69 5135382.75 185.25
-9755583.20 5135387.79 185.53
-9755586.43 5135384.88 185.84
-9755585.56 5135382.16 184.24
-9755583.56 5135381.71 181.05
-9755585.81 5135388.91 186.33
-9755583.74 5135383.85 184.74
-9755585.15 5135390.18 185.05
-9755585.56 5135390.54 185.36
-9755584.45 5135388.08 185.75
-9755585.63 5135390.57 185.05
-9755585.52 5135386.55 185.77
-9755584.29 5135388.74 185.75
-9755584.35 5135384.39 185.26
-9755585.52 5135383.91 181.09
-9755584.86 5135384.78 184.85
-9755585.64 5135382.69 187.47
-9755585.28 5135383.78 184.97
-9755583.74 5135388.06 185.77
-9755585.87 5135385.22 185.57
-9755584.69 5135383.10 185.21
-9755583.58 5135383.79 184.60
-9755583.95 5135384.25 184.73
-9755584.93 5135382.75 184.47
-9755585.52 5135388.96 187.13
-9755584.40 5135390.15 185.45
-9755585.34 5135386.86 184.89
-9755583.56 5135383.63 184.94
-9755585.61 5135388.14 185.38
-9755585.90 5135388.87 186.73
-9755584.67 5135389.80 185.58
-9755584.70 5135390.88 185.31
-9755585.29 5135386.80 181.07
-9755584.35 5135384.23 186.85
-9755585.24 5135388.18 185.24
-9755584.10 5135386.79 186.42
-9755585.32 5135389.96 185.04
-9755585.54 5135386.91 185.61
-9755585.21 5135385.88 186.49
-9755585.12 5135389.57 185.12
-9755584.10 5135383.46 184.36
-9755589.78 5135376.36 186.04
-9755590.07 5135370.28 184.64
-9755590.10 5135375.15 189.23
-9755589.73 5135369.44 185.64
-9755588.87 5135371.65 186.21
-9755589.21 5135370.36 187.22
-9755589.31 5135373.08 188.36
-9755588.09 5135376.24 189.69
-9755588.44 5135374.50 187.53
-9755589.53 5135373.49 188.36
-9755589.75 5135376.46 189.36
-9755588.93 5135372.40 188.05
-9755589.71 5135371.27 186.34
-9755588.29 5135377.36 188.72
-9755590.11 5135371.78 188.35
-9755588.89 5135377.37 188.16
-9755588.88 5135372.07 187.89
-9755589.57 5135375.26 189.45
-9755588.90 5135375.69 187.14
-9755588.35 5135371.18 185.05
-9755588.53 5135372.45 185.90
-9755590.05 5135374.61 189.49
-9755588.18 5135378.13 186.33
-9755589.70 5135378.39 185.30
-9755588.15 5135369.55 186.77
-9755589.70 5135377.75 186.64
-9755589.62 5135377.98 186.72
-9755588.89 5135374.06 189.34
-9755588.11 5135374.92 189.03
-9755589.62 5135374.72 188.36
-9755588.86 5135370.56 186.44
-9755589.76 5135379.51 185.87
-9755589.18 5135376.09 188.94
-9755589.68 5135376.59 185.96
-9755590.10 5135373.69 188.90
-9755588.14 5135376.43 188.83
-9755588.83 5135378.66 185.54
-9755588.97 5135373.46 188.17
-9755588.53 5135372.64 187.49
-9755590.03 5135375.28 185.64
-9755588.10 5135376.20 188.74
-9755588.36 5135372.06 188.30
-9755589.53 5135374.96 189.29
-9755588.99 5135374.58 189.37
-9755588.60 5135378.62 188.11
-9755588.89 5135373.18 188.79
-9755588.92 5135371.70 188.14
-9755589.70 5135373.88 187.82
-9755588.59 5135371.51 189.09
-9755589.45 5135376.12 188.69
-9755589.28 5135371.07 188.23
-9755588.93 5135374.41 188.03
-9755588.96 5135370.29 187.45
-9755589.22 5135370.51 187.12
-9755588.14 5135372.20 188.12
-9755589.36 5135373.74 188.57
-9755588.26 5135373.15 186.46
-9755589.52 5135375.34 189.20
-9755588.12 5135374.22 189.38
-9755588.47 5135376.15 187.94
-9755588.09 5135372.01 188.36
-9755586.74 5135371.98 188.24
-9755587.77 5135370.35 186.52
-9755588.22 5135370.76 186.17
-9755586.47 5135376.02 188.58
-9755587.79 5135374.04 189.13
-9755588.05 5135375.17 187.42
-9755588.09 5135371.24 186.18
-9755587.10 5135374.12 189.02
-9755586.88 5135370.37 186.43
-9755586.89 5135374.65 188.94
-9755586.85 5135376.12 188.90
-9755586.54 5135371.13 186.10
-9755587.16 5135375.77 188.81
-9755587.05 5135379.09 187.06
-9755587.67 5135376.18 189.21
-9755587.14 5135369.42 186.33
-9755588.06 5135376.40 188.72
-9755586.50 5135377.96 187.01
-9755587.75 5135370.90 187.55
-9755586.48 5135373.44 189.38
-9755586.74 5135370.47 186.82
-9755587.35 5135376.14 189.24
-9755587.70 5135379.21 187.84
-9755586.84 5135369.72 187.35
-9755586.83 5135377.60 189.17
-9755587.63 5135376.68 188.30
-9755587.43 5135374.08 188.59
-9755586.46 5135372.30 187.55
-9755587.86 5135376.42 189.50
-9755587.24 5135374.63 189.71
-9755587.77 5135376.01 186.31
-9755587.15 5135375.22 189.66
-9755587.36 5135374.09 188.00
-9755587.03 5135371.43 188.56
-9755587.16 5135371.16 187.46
-9755587.40 5135371.72 187.92
-9755586.45 5135371.27 187.51
-9755588.06 5135374.09 189.40
-9755587.64 5135376.90 188.56
-9755587.71 5135377.96 188.85
-9755587.94 5135373.38 189.28
-9755586.54 5135373.74 188.06
-9755587.47 5135375.92 188.71
-9755586.60 5135373.68 188.86
-9755586.53 5135373.53 188.26
-9755586.45 5135373.08 189.26
-9755587.73 5135372.20 186.99
-9755587.91 5135376.10 186.56
-9755588.05 5135373.28 186.62
-9755588.01 5135374.83 189.52
-9755587.93 5135373.40 189.24
-9755587.64 5135377.45 189.07
-9755587.97 5135372.43 185.73
-9755587.18 5135376.08 188.84
-9755587.91 5135369.14 185.87
-9755587.34 5135373.93 185.62
-9755586.55 5135377.37 186.68
-9755586.56 5135370.81 188.62
-9755587.76 5135374.46 188.53
-9755587.22 5135368.87 186.07
-9755587.99 5135374.85 188.02
-9755586.81 5135375.59 188.21
-9755586.72 5135372.88 187.69
-9755584.26 5135372.05 187.78
-9755582.38 5135376.26 181.06
-9755585.21 5135376.04 186.28
-9755586.38 5135377.14 187.03
-9755586.34 5135376.98 188.23
-9755583.92 5135377.36 186.44
-9755583.27 5135375.74 184.42
-9755583.92 5135370.86 187.10
-9755585.35 5135375.37 186.80
-9755585.90 5135377.78 185.77
-9755585.46 5135370.51 186.69
-9755585.29 5135377.78 186.85
-9755585.92 5135376.51 187.53
-9755584.77 5135376.14 186.18
-9755585.93 5135375.07 189.10
-9755584.68 5135377.45 186.66
-9755584.80 5135377.37 187.48
-9755584.86 5135369.47 185.14
-9755583.87 5135377.96 186.71
-9755582.35 5135374.09 181.08
-9755582.66 5135375.07 185.57
-9755586.30 5135374.67 188.77
-9755586.32 5135372.38 187.04
-9755585.63 5135375.57 187.00
-9755583.53 5135375.40 184.62
-9755585.60 5135375.11 189.64
-9755585.68 5135370.81 187.47
-9755585.86 5135371.26 187.08
-9755583.93 5135371.18 185.49
-9755583.93 5135378.99 185.44
-9755583.87 5135370.88 181.06
-9755584.16 5135377.98 187.07
-9755584.82 5135374.41 186.03
-9755586.05 5135375.65 185.96
-9755585.12 5135374.12 188.24
-9755583.56 5135376.87 185.72
-9755585.30 5135374.50 186.19
-9755585.26 5135377.45 187.42
-9755585.58 5135377.43 186.27
-9755582.42 5135377.76 185.60
-9755586.02 5135372.41 187.59
-9755586.19 5135372.69 187.04
-9755584.42 5135376.35 185.83
-9755584.58 5135376.82 186.67
-9755584.88 5135376.24 186.29
-9755584.84 5135373.34 186.07
-9755585.66 5135377.00 186.75
-9755584.02 5135370.04 187.21
-9755585.71 5135369.24 185.00
-9755586.03 5135371.16 187.46
-9755584.42 5135373.49 188.29
-9755584.47 5135378.52 186.40
-9755585.34 5135379.43 187.71
-9755585.58 5135377.34 181.13
-9755584.43 5135377.07 186.39
-9755583.61 5135369.28 185.05
-9755585.34 5135379.00 185.22
-9755583.93 5135377.94 186.78
-9755584.77 5135376.31 187.04
-9755585.68 5135374.78 186.57
-9755586.80 5135376.84 187.70
-9755583.70 5135369.46 185.36
-9755583.92 5135373.76 188.58
-9755585.50 5135374.50 184.77
-9755584.75 5135378.34 187.07
-9755583.75 5135372.02 188.23
-9755583.16 5135379.66 185.29
-9755583.60 5135374.83 185.63
-9755586.03 5135370.01 187.48
-9755585.93 5135378.14 185.92
-9755585.51 5135374.14 184.77
-9755585.01 5135372.37 188.19
-9755585.57 5135379.23 186.07
-9755583.11 5135371.65 185.04
-9755582.95 5135375.78 184.44
-9755584.57 5135372.44 187.33
-9755585.61 5135372.49 187.00
-9755585.46 5135378.62 188.03
-9755583.61 5135377.05 185.70
-9755585.39 5135375.20 186.32
-9755585.63 5135378.88 188.04
-9755584.02 5135370.21 187.20
-9755582.67 5135376.91 185.64
-9755586.00 5135378.26 186.62
-9755583.22 5135373.30 188.19
-9755585.58 5135374.52 186.58
-9755584.81 5135372.68 188.05
-9755586.34 5135372.93 187.65
-9755585.68 5135378.66 186.61
-9755584.69 5135375.04 185.98
-9755584.73 5135375.61 186.19
-9755584.81 5135373.76 188.29
-9755585.63 5135377.43 186.82
-9755585.59 5135374.67 184.90
-9755585.34 5135369.50 185.03
-9755585.38 5135370.41 187.51
-9755584.68 5135378.57 186.40
-9755582.37 5135371.13 181.06
-9755584.80 5135375.35 186.15
-9755583.28 5135377.77 185.62
-9755583.87 5135373.99 188.58
-9755583.55 5135377.77 185.60
-9755584.02 5135372.20 187.73
-9755585.37 5135374.16 188.36
-9755585.69 5135375.68 185.91
-9755583.98 5135372.64 188.21
-9755585.36 5135371.23 187.37
-9755585.56 5135373.26 186.23
-9755585.84 5135375.28 186.68
-9755586.60 5135369.98 187.34
-9755583.60 5135371.15 185.47
-9755585.66 5135372.85 187.74
-9755602.19 5135366.27 181.02
-9755607.53 5135366.23 181.07
-9755591.31 5135364.61 187.18
-9755592.20 5135367.71 181.10
-9755591.81 5135366.14 181.09
-9755598.36 5135366.50 181.09
-9755590.65 5135368.84 185.60
-9755590.15 5135368.61 185.70
-9755588.98 5135367.14 185.48
-9755588.89 5135367.75 185.51
-9755588.64 5135367.36 185.35
-9755588.98 5135367.34 185.93
-9755589.03 5135367.50 185.55
-9755586.80 5135366.54 184.97
-9755588.08 5135367.20 185.23
-9755588.15 5135367.86 185.37
-9755589.72 5135367.94 186.42
-9755589.73 5135367.94 185.58
-9755589.80 5135368.84 187.24
-9755588.02 5135368.31 185.49
-9755585.35 5135367.79 184.79
-9755585.29 5135366.17 184.72
-9755586.34 5135366.28 184.87
-9755585.38 5135368.35 184.79
-9755586.10 5135368.22 184.96
-9755586.04 5135368.65 185.12
-9755585.68 5135368.31 184.80
-9755575.24 5135380.25 181.03
-9755567.04 5135380.22 181.05
-9755575.73 5135390.31 180.98
-9755579.07 5135385.64 181.04
-9755576.40 5135387.71 180.99
-9755577.31 5135383.56 181.04
-9755581.38 5135388.88 181.05
-9755562.52 5135385.61 181.03
-9755571.98 5135382.83 181.00
-9755573.18 5135382.31 181.02
-9755572.67 5135384.42 180.98
-9755565.86 5135387.13 181.02
-9755566.64 5135382.29 181.02
-9755572.90 5135383.59 180.98
-9755569.09 5135381.44 181.02
-9755567.56 5135385.31 181.01
-9755569.85 5135389.72 180.94
-9755566.44 5135382.36 181.02
-9755570.29 5135388.53 180.97
-9755574.22 5135390.95 180.98
-9755561.67 5135379.56 181.03
-9755581.14 5135371.21 181.06
-9755581.61 5135377.41 185.48
-9755582.04 5135377.70 185.59
-9755580.32 5135371.18 181.05
-9755580.69 5135377.98 185.65
-9755581.46 5135370.83 181.07
-9755582.15 5135374.84 184.54
-9755582.14 5135375.61 185.65
-9755581.56 5135374.53 184.53
-9755581.80 5135377.83 185.58
-9755564.08 5135371.64 181.07
-9755569.06 5135374.72 181.06
-9755569.10 5135376.66 181.05
-9755572.41 5135373.29 181.07
-9755571.19 5135370.42 181.09
-9755572.89 5135371.98 181.08
-9755565.78 5135377.56 181.05
-9755564.10 5135370.76 181.09
-9755574.61 5135379.40 181.03
-9755571.21 5135371.97 181.08
-9755571.21 5135374.38 181.08
-9755555.98 5135389.64 181.07
-9755559.31 5135386.36 181.06
-9755558.95 5135389.33 181.02
-9755559.58 5135388.44 181.04
-9755560.46 5135379.30 181.07
-9755556.74 5135369.57 181.09
-9755559.38 5135375.79 181.11
-9755558.79 5135369.54 181.09
-9755557.67 5135370.44 181.10
-9755559.36 5135379.06 181.09
-9755558.46 5135374.92 181.08
-9755556.06 5135378.63 181.09
-9755581.50 5135365.81 181.09
-9755572.40 5135368.72 181.08
-9755571.27 5135368.71 181.06
-9755559.68 5135367.15 181.11
-9755601.61 5135406.97 183.33
-9755602.56 5135406.80 182.35
-9755602.81 5135406.73 183.26
-9755603.16 5135406.96 182.84
-9755603.44 5135407.05 183.17
-9755602.52 5135406.64 183.06
-9755602.20 5135407.11 182.63
-9755600.47 5135406.68 182.78
-9755592.21 5135407.08 181.10
-9755593.10 5135407.30 181.12
-9755601.36 5135407.84 183.60
-9755601.64 5135409.34 183.80
-9755602.20 5135409.33 183.37
-9755602.82 5135412.36 183.42
-9755601.98 5135409.93 183.76
-9755601.69 5135412.63 182.70
-9755602.24 5135407.85 183.65
-9755603.38 5135412.63 183.29
-9755603.93 5135410.56 183.44
-9755604.20 5135411.34 183.30
-9755602.86 5135412.00 183.60
-9755604.20 5135411.94 183.33
-9755602.25 5135412.63 183.35
-9755603.71 5135407.88 183.59
-9755604.04 5135409.08 183.44
-9755601.31 5135412.01 183.56
-9755602.22 5135409.39 183.67
-9755602.17 5135412.26 183.51
-9755603.08 5135412.70 182.94
-9755601.56 5135410.79 183.69
-9755603.72 5135410.81 183.54
-9755603.28 5135409.76 183.09
-9755601.93 5135411.10 183.75
-9755603.10 5135411.13 183.53
-9755603.71 5135410.60 182.86
-9755602.88 5135409.39 183.35
-9755602.22 5135412.04 183.55
-9755602.11 5135416.84 181.08
-9755603.15 5135409.86 183.13
-9755602.21 5135410.77 183.74
-9755594.27 5135415.85 185.18
-9755600.45 5135409.91 183.54
-9755592.18 5135416.08 184.04
-9755592.23 5135411.00 185.56
-9755590.61 5135413.59 186.59
-9755590.24 5135410.02 185.24
-9755594.01 5135413.54 184.98
-9755590.44 5135416.46 186.95
-9755594.87 5135416.90 185.72
-9755600.45 5135410.82 183.57
-9755591.02 5135408.31 184.64
-9755600.80 5135410.81 183.62
-9755592.99 5135415.79 184.14
-9755593.96 5135411.92 184.89
-9755590.76 5135408.31 184.76
-9755593.85 5135415.95 184.89
-9755600.73 5135409.03 183.76
-9755599.68 5135408.40 183.50
-9755591.86 5135411.55 185.50
-9755589.81 5135415.97 185.85
-9755589.96 5135407.84 184.15
-9755593.48 5135413.81 185.83
-9755593.62 5135412.44 184.55
-9755593.40 5135417.30 184.79
-9755590.16 5135416.99 184.45
-9755593.06 5135413.73 185.79
-9755589.86 5135412.85 186.71
-9755592.49 5135416.04 185.63
-9755591.90 5135411.21 185.80
-9755590.47 5135408.31 185.13
-9755592.08 5135415.23 184.77
-9755590.29 5135411.78 185.84
-9755593.37 5135417.17 185.79
-9755591.13 5135413.19 185.06
-9755590.75 5135409.88 183.41
-9755590.42 5135408.92 184.63
-9755592.84 5135412.09 185.74
-9755592.16 5135411.92 185.73
-9755592.16 5135412.09 185.61
-9755593.37 5135411.51 185.35
-9755589.90 5135408.05 184.15
-9755590.23 5135417.18 185.69
-9755593.31 5135416.87 185.76
-9755590.19 5135411.52 185.97
-9755590.50 5135410.53 185.01
-9755591.61 5135415.91 186.99
-9755593.42 5135413.36 184.80
-9755590.87 5135415.67 184.35
-9755590.49 5135413.33 186.32
-9755590.21 5135412.62 186.70
-9755590.25 5135411.13 185.96
-9755593.67 5135416.95 184.94
-9755590.68 5135409.50 184.27
-9755592.14 5135416.90 185.93
-9755593.13 5135414.20 185.69
-9755590.61 5135409.79 185.26
-9755591.04 5135412.44 184.95
-9755593.41 5135413.28 185.91
-9755591.49 5135416.11 183.76
-9755594.58 5135414.82 185.25
