-9755254.66 5135600.09 183.93
-9755261.75 5135600.17 183.04
-9755254.10 5135595.13 182.38
-9755260.53 5135598.66 182.93
-9755261.18 5135594.58 182.51
-9755254.42 5135601.23 184.11
-9755264.98 5135603.71 183.32
-9755255.88 5135600.09 183.73
-9755257.97 5135605.10 184.55
-9755260.15 5135597.16 183.29
-9755261.23 5135594.69 183.69
-9755264.07 5135601.68 182.96
-9755264.50 5135600.75 183.35
-9755256.09 5135604.80 184.80
-9755257.91 5135606.29 184.32
-9755265.20 5135603.23 183.62
-9755256.70 5135605.68 184.94
-9755266.80 5135601.71 182.81
-9755255.84 5135595.37 183.63
-9755257.92 5135603.36 183.90
-9755263.45 5135605.19 184.17
-9755261.20 5135597.19 182.73
-9755261.12 5135601.94 183.34
-9755258.35 5135604.18 184.52
-9755259.24 5135601.07 183.90
-9755262.88 5135605.15 183.69
-9755261.67 5135604.54 183.69
-9755260.26 5135601.66 183.89
-9755262.86 5135594.54 183.55
-9755260.26 5135604.86 183.85
-9755266.88 5135598.95 182.70
-9755254.43 5135596.33 182.40
-9755266.81 5135598.41 182.30
-9755258.51 5135600.71 183.44
-9755265.04 5135601.07 182.81
-9755255.22 5135605.39 184.52
-9755254.94 5135602.41 184.12
-9755256.09 5135594.75 183.22
-9755259.18 5135599.22 183.69
-9755262.93 5135602.79 183.32
-9755260.85 5135597.75 183.25
-9755260.03 5135594.54 183.10
-9755264.96 5135605.45 183.53
-9755263.56 5135602.07 182.90
-9755258.47 5135599.51 183.33
-9755259.93 5135601.64 183.37
-9755264.11 5135595.82 182.22
-9755265.33 5135597.54 182.25
-9755254.10 5135598.28 183.83
-9755266.75 5135603.46 183.62
-9755257.38 5135595.16 182.33
-9755266.15 5135606.10 184.10
-9755262.65 5135596.33 182.40
-9755258.83 5135597.76 183.12
-9755257.02 5135599.20 183.47
-9755266.15 5135606.05 183.54
-9755258.37 5135604.52 184.52
-9755255.56 5135599.20 183.73
-9755261.14 5135605.52 183.87
-9755256.42 5135602.80 184.50
-9755258.81 5135605.71 184.14
-9755257.06 5135595.39 183.12
-9755256.21 5135595.41 182.39
-9755258.53 5135600.07 183.96
-9755255.52 5135602.19 183.94
-9755259.07 5135597.80 183.10
-9755265.90 5135604.22 183.86
-9755254.32 5135595.97 183.57
-9755264.65 5135594.60 182.18
-9755254.93 5135595.98 184.26
-9755254.74 5135596.22 183.54
-9755254.38 5135595.99 182.38
-9755262.71 5135604.45 184.09
-9755261.69 5135602.55 183.33
-9755256.42 5135595.17 182.41
-9755266.91 5135606.10 184.14
-9755259.72 5135595.15 182.75
-9755263.21 5135601.03 182.95
-9755265.85 5135601.45 182.86
-9755255.80 5135604.17 184.79
-9755260.94 5135596.89 182.76
-9755258.77 5135601.29 183.53
-9755263.24 5135599.29 182.72
-9755265.87 5135600.50 182.73
-9755260.85 5135605.72 183.90
-9755260.53 5135605.20 183.88
-9755257.92 5135604.81 184.64
-9755263.81 5135597.56 182.45
-9755256.73 5135604.52 184.15
-9755254.39 5135604.22 184.35
-9755263.50 5135603.98 183.95
-9755255.83 5135600.36 183.73
-9755255.74 5135605.99 185.04
-9755264.98 5135594.51 182.69
-9755259.67 5135605.40 183.98
-9755261.43 5135605.79 183.90
-9755266.44 5135605.80 184.14
-9755255.51 5135605.66 184.54
-9755257.05 5135598.92 183.47
-9755255.27 5135598.30 183.66
-9755265.83 5135605.78 183.52
-9755259.13 5135598.63 183.13
-9755254.30 5135596.25 183.57
-9755256.43 5135605.09 184.32
-9755257.91 5135604.26 183.96
-9755264.95 5135604.88 183.53
-9755254.19 5135596.23 184.29
-9755258.84 5135600.94 183.90
-9755265.85 5135599.62 182.57
-9755263.23 5135602.50 183.15
-9755266.78 5135602.90 182.99
-9755254.83 5135595.91 183.44
-9755266.45 5135604.08 183.30
-9755263.22 5135598.45 182.62
-9755261.72 5135597.77 182.74
-9755254.68 5135599.16 183.83
-9755262.60 5135600.77 183.02
-9755265.25 5135599.99 182.57
-9755260.94 5135600.78 183.65
-9755265.34 5135599.00 183.00
-9755253.79 5135601.27 184.81
-9755267.03 5135600.25 182.58
-9755263.23 5135605.18 183.69
-9755259.43 5135597.78 182.96
-9755266.43 5135597.56 182.20
-9755255.26 5135601.21 184.46
-9755261.76 5135601.64 183.23
-9755255.52 5135605.39 184.51
-9755255.55 5135595.35 183.55
-9755267.04 5135599.62 182.48
-9755259.41 5135602.88 184.12
-9755254.68 5135603.35 184.34
-9755262.06 5135597.85 182.58
-9755261.71 5135601.93 183.27
-9755259.71 5135596.02 182.83
-9755264.01 5135603.22 183.32
-9755260.01 5135596.59 182.83
-9755258.76 5135598.66 183.14
-9755267.04 5135605.78 183.53
-9755261.43 5135603.68 183.52
-9755257.32 5135595.04 184.05
-9755257.60 5135601.60 183.72
-9755265.07 5135595.46 182.56
-9755254.99 5135604.38 184.97
-9755256.41 5135602.45 183.92
-9755258.87 5135594.51 183.90
-9755254.16 5135600.38 183.97
-9755256.85 5135599.72 184.11
-9755265.91 5135596.67 182.16
-9755258.51 5135598.31 183.15
-9755261.10 5135606.03 183.91
-9755265.83 5135599.49 182.99
-9755264.12 5135599.30 182.63
-9755262.63 5135599.58 182.85
-9755259.97 5135598.69 183.50
-9755260.82 5135603.63 183.90
-9755265.90 5135598.30 182.84
-9755259.94 5135602.49 183.53
-9755262.04 5135600.14 182.99
-9755259.97 5135604.28 183.81
-9755256.72 5135605.40 184.33
-9755263.81 5135605.70 184.16
-9755254.97 5135597.72 183.65
-9755263.83 5135595.20 182.22
-9755258.77 5135606.29 184.22
-9755265.25 5135594.80 182.60
-9755253.80 5135603.29 184.35
-9755255.21 5135600.69 184.40
-9755259.67 5135600.39 183.32
-9755265.23 5135602.23 183.45
-9755257.64 5135597.45 183.25
-9755264.66 5135606.09 183.71
-9755260.05 5135597.79 182.94
-9755259.68 5135599.25 183.14
-9755265.27 5135604.59 183.36
-9755257.86 5135603.55 184.44
-9755258.26 5135596.00 183.04
-9755265.90 5135603.75 183.18
-9755255.82 5135605.09 184.33
-9755262.03 5135600.44 183.04
-9755262.94 5135598.14 182.57
-9755259.39 5135598.04 182.96
-9755257.69 5135601.82 184.18
-9755258.80 5135598.91 183.58
-9755254.08 5135597.71 183.77
-9755264.94 5135606.10 183.72
-9755261.11 5135598.71 183.44
-9755257.84 5135601.21 184.07
-9755258.80 5135602.77 183.72
-9755254.09 5135604.43 184.53
-9755266.38 5135595.90 182.13
-9755257.04 5135602.40 184.32
-9755253.80 5135602.10 184.31
-9755264.13 5135596.96 182.36
-9755266.82 5135605.12 183.38
-9755257.29 5135601.03 183.72
-9755257.57 5135598.67 183.33
-9755255.23 5135600.98 183.91
-9755255.18 5135600.04 184.34
-9755263.85 5135600.44 182.80
-9755254.67 5135599.77 183.89
-9755263.07 5135604.53 184.10
-9755259.12 5135603.31 184.27
-9755253.79 5135602.40 184.32
-9755257.26 5135602.71 184.40
-9755262.07 5135600.76 183.08
-9755257.89 5135596.53 183.12
-9755264.68 5135603.42 183.24
-9755262.83 5135601.73 183.74
-9755258.43 5135603.63 184.34
-9755256.75 5135596.90 183.32
-9755258.53 5135599.19 183.72
-9755257.44 5135602.04 184.23
-9755259.69 5135600.70 183.33
-9755255.52 5135602.72 184.13
-9755258.47 5135605.75 184.19
-9755264.12 5135599.93 182.72
-9755266.45 5135598.72 182.39
-9755256.43 5135605.39 184.34
-9755279.48 5135587.03 181.30
-9755279.50 5135583.78 181.31
-9755279.16 5135586.11 181.30
-9755280.09 5135586.41 181.31
-9755281.00 5135583.50 181.32
-9755279.22 5135586.72 181.30
-9755280.08 5135587.00 181.31
-9755280.11 5135583.80 181.32
-9755275.94 5135587.63 181.29
-9755274.50 5135587.59 181.29
-9755269.44 5135587.55 181.26
-9755276.56 5135587.61 181.30
-9755275.72 5135584.04 181.30
-9755272.10 5135586.11 181.29
-9755270.96 5135585.21 181.29
-9755270.64 5135583.11 181.29
-9755274.20 5135584.05 181.29
-9755270.69 5135585.18 181.28
-9755271.83 5135585.47 181.29
-9755275.07 5135583.16 181.30
-9755272.70 5135584.30 181.29
-9755269.76 5135584.58 181.28
-9755276.83 5135585.27 181.30
-9755278.30 5135586.75 181.31
-9755275.99 5135583.47 181.30
-9755278.32 5135584.97 181.31
-9755272.13 5135584.62 181.30
-9755272.43 5135585.19 181.29
-9755276.27 5135585.24 181.30
-9755275.06 5135586.67 181.30
-9755277.74 5135583.48 181.30
-9755270.64 5135585.51 181.28
-9755272.43 5135584.59 181.29
-9755270.36 5135587.28 181.27
-9755277.17 5135586.99 181.30
-9755273.27 5135586.39 181.29
-9755275.40 5135583.73 181.30
-9755274.49 5135584.35 181.29
-9755276.53 5135585.54 181.30
-9755269.76 5135585.19 181.26
-9755269.17 5135586.95 181.26
-9755268.24 5135587.25 181.26
-9755268.84 5135586.34 181.26
-9755267.99 5135584.58 181.27
-9755268.53 5135584.29 181.28
-9755268.56 5135583.71 181.28
-9755267.40 5135585.47 181.26
-9755267.72 5135585.45 181.27
-9755268.89 5135586.07 181.27
-9755268.32 5135585.45 181.27
-9755268.30 5135584.92 181.27
-9755255.91 5135587.14 182.44
-9755267.42 5135586.95 181.27
-9755260.65 5135585.42 182.51
-9755265.02 5135587.50 181.21
-9755256.80 5135587.11 182.44
-9755262.70 5135585.17 181.19
-9755257.69 5135585.66 182.43
-9755262.45 5135584.23 181.21
-9755258.25 5135587.17 182.42
-9755261.21 5135586.85 182.40
-9755261.79 5135586.86 182.46
-9755259.48 5135582.95 182.39
-9755264.76 5135587.25 181.21
-9755264.19 5135585.19 181.22
-9755255.98 5135585.09 182.47
-9755255.36 5135583.88 182.46
-9755262.74 5135587.08 183.56
-9755260.94 5135583.89 182.58
-9755260.29 5135585.64 183.29
-9755260.93 5135585.36 182.98
-9755260.94 5135583.60 182.60
-9755255.94 5135582.94 182.48
-9755256.25 5135583.61 182.47
-9755261.58 5135585.12 182.60
-9755265.91 5135586.67 181.23
-9755265.37 5135583.10 181.26
-9755257.99 5135583.86 182.43
-9755254.74 5135585.94 182.46
-9755258.36 5135582.70 182.42
-9755254.75 5135586.23 182.45
-9755255.63 5135584.46 182.47
-9755262.15 5135585.35 183.55
-9755259.52 5135583.16 183.31
-9755259.70 5135582.72 183.33
-9755259.49 5135583.86 182.41
-9755254.77 5135584.47 182.47
-9755258.57 5135585.37 182.44
-9755256.57 5135582.98 182.47
-9755260.98 5135584.76 183.04
-9755255.32 5135585.67 182.46
-9755261.74 5135585.69 182.58
-9755257.10 5135585.61 182.45
-9755260.64 5135584.21 182.56
-9755261.00 5135585.06 182.98
-9755258.29 5135584.72 182.44
-9755258.27 5135584.49 182.43
-9755261.61 5135583.52 183.55
-9755253.86 5135585.06 182.46
-9755257.72 5135584.45 182.43
-9755254.74 5135584.74 182.46
-9755260.36 5135583.55 182.53
-9755263.55 5135586.91 181.19
-9755264.19 5135583.99 181.22
-9755265.94 5135583.68 181.26
-9755265.96 5135584.26 181.25
-9755261.20 5135583.52 183.55
-9755255.03 5135582.98 182.47
-9755257.11 5135582.68 182.44
-9755259.19 5135582.97 182.40
-9755262.19 5135585.42 182.63
-9755263.62 5135585.16 181.21
-9755255.03 5135586.88 182.45
-9755255.31 5135586.79 182.45
-9755260.35 5135585.08 182.46
-9755255.59 5135586.22 182.45
-9755254.14 5135587.11 182.44
-9755261.27 5135584.19 182.62
-9755255.96 5135583.90 182.47
-9755260.64 5135583.00 182.58
-9755257.14 5135584.76 182.46
-9755260.91 5135582.70 182.60
-9755255.97 5135582.71 182.47
-9755260.05 5135586.24 182.39
-9755265.06 5135585.46 181.23
-9755259.72 5135584.80 182.39
-9755255.04 5135584.19 182.47
-9755267.39 5135584.28 181.28
-9755259.17 5135587.13 182.42
-9755259.15 5135584.73 182.42
-9755256.81 5135584.17 182.46
-9755262.09 5135586.49 183.57
-9755261.85 5135585.93 183.57
-9755267.13 5135586.36 181.25
-9755255.94 5135586.83 182.45
-9755257.11 5135585.07 182.45
-9755261.24 5135584.79 182.60
-9755260.06 5135584.49 182.40
-9755260.05 5135583.94 182.46
-9755257.12 5135586.83 182.44
-9755257.43 5135583.94 182.44
-9755265.10 5135583.66 181.24
-9755262.46 5135586.85 182.59
-9755259.13 5135585.95 182.42
-9755262.96 5135585.42 181.20
-9755251.08 5135607.69 185.37
-9755252.68 5135607.41 185.71
-9755253.42 5135607.42 185.55
-9755253.47 5135606.85 184.94
-9755251.70 5135607.77 185.29
-9755253.44 5135607.65 185.55
-9755253.18 5135606.56 184.94
-9755253.20 5135608.26 185.15
-9755252.01 5135606.81 185.13
-9755252.61 5135607.72 185.13
-9755251.42 5135606.48 185.14
-9755251.35 5135607.36 185.15
-9755253.19 5135607.40 184.96
-9755253.43 5135608.26 185.14
-9755251.38 5135609.45 185.57
-9755250.45 5135609.15 185.58
-9755251.69 5135608.61 185.37
-9755253.44 5135609.11 185.17
-9755251.38 5135608.58 185.38
-9755250.46 5135608.31 185.37
-9755252.03 5135608.20 185.35
-9755253.41 5135609.49 185.36
-9755251.09 5135608.26 185.38
-9755251.05 5135609.15 185.57
-9755250.56 5135608.58 185.56
-9755249.65 5135607.81 186.04
-9755250.59 5135606.49 185.16
-9755250.20 5135607.40 185.98
-9755249.99 5135607.32 185.38
-9755249.63 5135607.38 185.52
-9755249.88 5135610.01 186.42
-9755249.65 5135608.54 185.58
-9755249.64 5135608.93 186.13
-9755249.89 5135608.31 185.57
-9755247.25 5135607.88 186.32
-9755248.48 5135607.64 186.09
-9755247.57 5135608.10 186.37
-9755244.64 5135607.31 186.24
-9755245.78 5135607.02 186.01
-9755244.32 5135607.57 186.40
-9755240.30 5135607.11 196.14
-9755246.73 5135607.05 185.98
-9755248.14 5135607.64 185.79
-9755249.00 5135607.69 185.57
-9755249.46 5135606.80 185.37
-9755245.30 5135607.04 186.69
-9755244.96 5135606.72 186.19
-9755246.03 5135607.31 186.65
-9755243.48 5135606.70 186.42
-9755240.56 5135607.09 196.14
-9755247.87 5135607.37 185.79
-9755240.97 5135607.42 196.21
-9755246.11 5135607.35 186.01
-9755240.88 5135607.38 196.73
-9755246.04 5135606.46 186.01
-9755245.54 5135607.88 186.22
-9755247.96 5135606.44 186.19
-9755248.40 5135607.64 185.77
-9755249.33 5135607.08 185.57
-9755245.18 5135607.91 186.23
-9755244.58 5135607.89 186.32
-9755239.67 5135607.14 196.68
-9755239.69 5135606.38 196.76
-9755247.24 5135609.69 186.23
-9755243.75 5135608.20 186.45
-9755241.52 5135608.55 196.18
-9755248.42 5135609.46 186.01
-9755240.47 5135609.79 197.15
-9755239.99 5135608.26 196.65
-9755241.19 5135609.17 196.18
-9755241.44 5135609.16 196.17
-9755244.65 5135608.52 186.44
-9755245.81 5135608.55 186.22
-9755244.65 5135608.15 186.92
-9755244.91 5135609.35 186.44
-9755240.01 5135608.54 196.62
-9755247.15 5135608.19 186.40
-9755244.05 5135608.47 186.86
-9755239.91 5135609.13 197.20
-9755241.42 5135609.39 196.71
-9755242.32 5135609.81 196.17
-9755247.77 5135609.62 186.42
-9755246.19 5135609.61 186.76
-9755241.81 5135608.23 196.73
-9755246.08 5135608.76 186.21
-9755248.77 5135609.42 185.79
-9755240.27 5135608.31 196.16
-9755241.46 5135609.76 196.17
-9755248.82 5135609.51 186.39
-9755248.15 5135609.11 186.00
-9755245.47 5135608.21 186.23
-9755242.04 5135608.61 196.75
-9755249.39 5135608.48 185.59
-9755244.42 5135608.74 186.97
-9755244.63 5135608.16 186.44
-9755242.08 5135609.48 196.18
-9755245.23 5135609.05 186.43
-9755245.24 5135608.23 186.86
-9755246.06 5135609.37 186.21
-9755248.15 5135608.56 185.80
-9755253.26 5135593.64 182.40
-9755251.20 5135589.45 182.44
-9755252.94 5135590.07 182.40
-9755252.96 5135592.75 182.41
-9755251.44 5135592.73 182.42
-9755250.88 5135591.26 182.44
-9755251.15 5135591.84 182.43
-9755252.08 5135593.05 182.40
-9755252.96 5135592.14 182.40
-9755251.77 5135590.04 182.42
-9755252.91 5135591.23 182.41
-9755252.67 5135587.98 182.45
-9755250.62 5135591.50 182.46
-9755251.78 5135590.96 182.42
-9755250.89 5135588.52 182.45
-9755252.10 5135587.98 182.44
-9755251.46 5135591.25 182.41
-9755250.90 5135592.13 182.46
-9755252.97 5135589.45 182.42
-9755250.89 5135593.02 182.46
-9755252.04 5135591.58 182.41
-9755251.16 5135589.17 182.45
-9755253.55 5135588.90 182.42
-9755252.37 5135587.13 182.45
-9755251.15 5135594.27 182.48
-9755252.98 5135588.88 182.43
-9755252.65 5135589.16 182.43
-9755253.24 5135588.01 182.44
-9755253.84 5135594.49 182.40
-9755253.38 5135602.80 184.90
-9755253.49 5135601.51 184.30
-9755253.63 5135602.28 184.97
-9755252.92 5135598.60 184.05
-9755253.17 5135606.25 184.91
-9755253.19 5135602.64 184.87
-9755251.78 5135598.24 184.59
-9755252.87 5135604.21 184.65
-9755251.44 5135601.79 184.56
-9755251.41 5135603.26 184.74
-9755251.11 5135601.53 184.63
-9755253.42 5135605.93 184.76
-9755252.00 5135605.70 185.57
-9755252.59 5135604.16 184.73
-9755251.15 5135597.56 184.50
-9755252.63 5135595.14 182.40
-9755252.29 5135601.59 184.43
-9755250.51 5135605.91 185.49
-9755250.86 5135595.85 184.56
-9755251.43 5135602.97 184.74
-9755253.07 5135601.70 184.95
-9755251.11 5135606.22 185.13
-9755250.88 5135596.78 184.48
-9755251.09 5135606.45 185.14
-9755253.55 5135596.60 182.40
-9755251.39 5135604.16 184.90
-9755253.51 5135600.88 184.63
-9755252.32 5135595.95 182.37
-9755253.44 5135604.44 184.54
-9755252.30 5135600.33 184.33
-9755252.01 5135603.86 184.75
-9755252.93 5135594.55 182.39
-9755253.58 5135596.91 182.45
-9755252.60 5135605.94 184.90
-9755252.90 5135602.42 184.45
-9755252.04 5135602.09 184.53
-9755253.30 5135602.18 184.91
-9755251.46 5135600.30 184.45
-9755252.67 5135597.43 182.41
-9755251.63 5135597.61 183.52
-9755252.31 5135599.44 184.23
-9755250.98 5135595.19 184.55
-9755253.04 5135596.47 184.33
-9755251.95 5135602.50 185.06
-9755252.98 5135604.42 185.23
-9755252.02 5135600.65 184.40
-9755251.97 5135597.51 182.44
-9755252.65 5135598.26 184.05
-9755250.81 5135602.06 184.74
-9755251.33 5135605.58 184.96
-9755252.91 5135600.32 184.25
-9755250.50 5135594.77 184.90
-9755253.48 5135599.17 184.02
-9755252.55 5135597.50 183.99
-9755251.73 5135596.88 182.46
-9755251.72 5135596.31 182.48
-9755250.51 5135595.58 184.34
-9755251.73 5135600.95 184.47
-9755252.92 5135596.91 182.37
-9755252.90 5135595.39 182.38
-9755251.54 5135604.45 185.35
-9755252.89 5135604.78 184.75
-9755250.57 5135602.57 185.11
-9755251.48 5135597.06 184.54
-9755252.87 5135596.59 182.36
-9755252.94 5135599.76 184.17
-9755251.72 5135605.01 184.94
-9755251.72 5135601.17 184.52
-9755251.49 5135599.33 184.89
-9755253.11 5135602.00 184.76
-9755253.46 5135597.29 184.39
-9755252.58 5135602.40 184.52
-9755252.14 5135597.20 184.50
-9755252.66 5135597.12 184.47
-9755251.14 5135602.41 184.74
-9755252.30 5135605.62 185.30
-9755250.59 5135596.16 184.31
-9755252.61 5135601.22 184.33
-9755251.76 5135597.31 184.49
-9755252.31 5135605.61 184.93
-9755252.93 5135603.41 185.16
-9755253.08 5135604.59 184.73
-9755250.51 5135605.28 185.14
-9755250.88 5135600.34 184.53
-9755250.51 5135604.25 185.50
-9755252.60 5135600.32 184.29
-9755250.90 5135599.93 184.96
-9755253.51 5135595.41 182.38
-9755252.59 5135603.66 184.59
-9755252.28 5135604.51 184.76
-9755252.32 5135601.21 184.37
-9755253.49 5135596.47 184.36
-9755250.57 5135595.69 185.12
-9755253.17 5135599.15 184.08
-9755249.97 5135594.29 184.91
-9755249.76 5135592.63 184.53
-9755250.18 5135593.42 184.76
-9755250.65 5135590.94 182.51
-9755250.31 5135592.15 182.65
-9755250.27 5135593.52 184.57
-9755250.00 5135592.90 184.97
-9755250.01 5135592.02 184.49
-9755250.06 5135597.92 184.95
-9755250.22 5135601.45 184.75
-9755249.66 5135605.41 185.74
-9755250.25 5135598.56 184.52
-9755250.21 5135600.16 184.36
-9755249.99 5135596.20 184.31
-9755250.25 5135603.20 184.94
-9755250.24 5135594.72 184.35
-9755249.66 5135606.46 185.36
-9755250.19 5135598.25 184.90
-9755250.22 5135597.17 184.68
-9755249.64 5135604.99 185.63
-9755250.26 5135594.77 185.29
-9755249.70 5135599.34 185.11
-9755250.26 5135596.81 184.30
-9755250.27 5135602.66 184.89
-9755250.25 5135605.06 185.15
-9755249.67 5135600.94 184.77
-9755250.31 5135595.30 184.34
-9755249.66 5135598.81 184.54
-9755249.98 5135597.05 184.31
-9755250.22 5135604.41 185.07
-9755250.31 5135594.97 184.37
-9755249.71 5135596.21 184.31
-9755249.97 5135602.32 184.90
-9755249.92 5135604.98 185.15
-9755250.25 5135594.95 184.88
-9755249.71 5135597.60 184.52
-9755249.98 5135605.31 185.14
-9755244.74 5135591.41 185.12
-9755246.49 5135591.66 184.72
-9755245.65 5135588.78 184.75
-9755248.31 5135590.27 184.85
-9755246.16 5135593.21 184.76
-9755247.39 5135588.81 184.51
-9755250.00 5135587.71 182.45
-9755244.29 5135592.22 185.65
-9755248.69 5135592.55 184.97
-9755247.66 5135589.36 184.52
-9755246.54 5135592.59 185.25
-9755248.54 5135592.03 184.32
-9755249.67 5135592.95 184.37
-9755243.59 5135589.61 185.17
-9755244.39 5135592.52 185.13
-9755244.17 5135593.78 185.75
-9755244.11 5135592.11 185.48
-9755249.49 5135589.22 184.31
-9755248.86 5135587.26 184.42
-9755242.59 5135593.44 185.57
-9755247.68 5135592.29 184.54
-9755246.81 5135592.88 184.73
-9755242.65 5135591.74 186.06
-9755240.41 5135588.06 186.18
-9755249.39 5135588.75 184.55
-9755244.72 5135587.81 185.51
-9755240.52 5135589.91 186.39
-9755242.61 5135593.72 185.56
-9755245.91 5135588.42 184.72
-9755249.71 5135593.51 184.36
-9755245.65 5135589.63 184.76
-9755240.28 5135591.94 186.01
-9755246.18 5135588.23 185.10
-9755244.72 5135592.63 185.14
-9755242.58 5135588.90 185.81
-9755240.32 5135591.30 185.99
-9755241.46 5135591.63 185.78
-9755240.93 5135587.47 185.77
-9755249.32 5135587.59 184.57
-9755248.25 5135591.71 184.52
-9755247.91 5135590.82 184.50
-9755241.44 5135590.06 186.20
-9755247.09 5135587.27 184.51
-9755242.40 5135590.45 185.55
-9755247.34 5135592.22 184.88
-9755247.99 5135591.44 184.50
-9755241.19 5135591.04 185.80
-9755244.41 5135594.35 185.14
-9755247.31 5135591.95 185.08
-9755246.49 5135592.27 184.72
-9755248.49 5135591.71 184.93
-9755241.89 5135588.15 186.06
-9755248.85 5135588.80 184.33
-9755240.11 5135589.45 185.84
-9755242.07 5135589.25 185.57
-9755247.36 5135588.46 184.50
-9755244.10 5135594.37 185.35
-9755244.73 5135593.13 185.15
-9755242.33 5135592.86 185.57
-9755243.89 5135587.47 185.13
-9755240.30 5135587.71 185.76
-9755249.44 5135591.50 184.38
-9755242.10 5135588.08 185.55
-9755241.14 5135591.60 185.80
-9755248.51 5135589.64 184.31
-9755242.98 5135591.54 185.64
-9755240.60 5135593.68 186.01
-9755247.90 5135589.35 184.88
-9755242.67 5135594.34 185.56
-9755244.45 5135589.90 185.13
-9755245.24 5135593.44 185.52
-9755243.75 5135590.27 185.38
-9755248.50 5135593.82 184.47
-9755241.83 5135593.69 185.74
-9755246.79 5135592.55 184.72
-9755248.40 5135591.43 184.77
-9755245.27 5135592.05 185.31
-9755242.93 5135592.26 185.38
-9755245.60 5135591.08 185.25
-9755240.60 5135592.20 185.82
-9755246.94 5135593.76 185.40
-9755248.45 5135593.25 184.85
-9755245.58 5135592.55 184.93
-9755242.05 5135590.75 185.57
-9755244.39 5135592.98 185.58
-9755240.19 5135587.74 186.06
-9755248.85 5135590.24 184.31
-9755240.34 5135588.22 186.44
-9755241.98 5135588.69 185.29
-9755245.61 5135593.43 184.93
-9755247.66 5135588.49 184.51
-9755243.20 5135593.36 185.79
-9755244.72 5135588.27 185.57
-9755242.35 5135594.27 185.57
-9755247.37 5135587.61 184.51
-9755242.10 5135589.23 186.15
-9755249.66 5135588.83 184.34
-9755243.53 5135592.85 185.37
-9755247.69 5135590.55 184.53
-9755240.63 5135587.26 186.31
-9755244.41 5135593.28 185.70
-9755241.20 5135590.41 185.79
-9755241.18 5135590.05 186.31
-9755245.55 5135590.76 184.92
-9755243.54 5135589.30 185.17
-9755248.81 5135590.53 184.31
-9755240.00 5135588.13 186.00
-9755245.61 5135587.52 184.73
-9755249.43 5135587.81 185.02
-9755242.99 5135588.15 185.34
-9755245.18 5135591.77 185.24
-9755241.88 5135591.90 186.01
-9755248.00 5135587.87 184.31
-9755240.23 5135589.40 186.39
-9755246.88 5135588.46 185.00
-9755244.74 5135588.41 184.92
-9755243.22 5135591.06 185.37
-9755248.84 5135587.59 184.48
-9755242.13 5135593.57 186.18
-9755248.31 5135587.92 184.31
-9755243.22 5135591.38 185.36
-9755244.37 5135590.47 185.14
-9755244.43 5135591.40 185.12
-9755242.75 5135591.12 185.54
-9755247.47 5135593.48 184.86
-9755243.28 5135590.31 185.84
-9755240.32 5135592.54 186.00
-9755247.65 5135593.82 184.53
-9755242.32 5135592.28 185.57
-9755248.86 5135592.06 184.32
-9755245.91 5135589.33 184.73
-9755240.24 5135588.61 186.41
-9755244.15 5135592.57 185.14
-9755244.51 5135589.30 184.98
-9755245.32 5135588.41 184.91
-9755244.78 5135590.20 184.96
-9755244.69 5135592.21 185.12
-9755242.36 5135588.62 185.36
-9755242.04 5135590.44 185.57
-9755240.54 5135590.36 186.40
-9755244.39 5135590.83 185.14
-9755249.51 5135590.53 185.02
-9755247.96 5135589.60 184.53
-9755241.18 5135593.71 185.81
-9755242.30 5135589.83 185.55
-9755247.92 5135592.89 184.52
-9755242.40 5135591.26 186.04
-9755242.31 5135587.20 185.81
-9755244.36 5135588.14 185.18
-9755246.37 5135592.95 185.02
-9755246.48 5135590.19 184.72
-9755241.61 5135592.27 186.10
-9755239.76 5135587.78 186.01
-9755243.47 5135589.26 185.73
-9755243.66 5135587.36 185.73
-9755241.48 5135593.09 185.79
-9755245.29 5135591.67 184.94
-9755240.32 5135590.10 185.87
-9755240.90 5135588.30 185.79
-9755247.92 5135587.50 184.65
-9755249.41 5135593.77 184.33
-9755243.56 5135591.59 185.36
-9755241.53 5135587.17 185.56
-9755247.01 5135591.42 184.70
-9755240.31 5135592.19 186.01
-9755240.01 5135587.11 186.11
-9755239.69 5135589.28 186.00
-9755239.88 5135592.68 186.58
-9755249.38 5135606.43 185.95
-9755243.12 5135601.54 186.55
-9755244.95 5135605.25 186.02
-9755248.21 5135596.14 184.63
-9755249.57 5135599.77 184.69
-9755248.79 5135603.51 185.76
-9755246.68 5135599.98 185.77
-9755241.41 5135598.68 186.61
-9755247.57 5135600.86 185.07
-9755248.78 5135606.48 185.56
-9755242.57 5135605.83 186.44
-9755246.47 5135599.07 185.15
-9755245.59 5135603.80 185.73
-9755249.04 5135604.97 185.34
-9755240.23 5135599.32 186.23
-9755247.03 5135599.69 185.14
-9755243.60 5135603.49 186.33
-9755248.15 5135602.05 185.14
-9755241.12 5135596.02 185.97
-9755246.11 5135598.25 185.70
-9755246.13 5135597.87 185.14
-9755245.19 5135603.73 185.79
-9755248.18 5135605.90 185.57
-9755241.26 5135598.46 186.61
-9755243.12 5135604.30 186.21
-9755247.86 5135605.02 185.58
-9755249.40 5135604.97 185.73
-9755246.76 5135599.96 185.15
-9755246.41 5135604.37 185.69
-9755246.14 5135600.47 185.78
-9755244.42 5135604.04 185.95
-9755242.34 5135599.28 186.00
-9755239.90 5135599.57 186.40
-9755241.41 5135599.24 186.61
-9755247.56 5135601.10 185.73
-9755246.78 5135596.73 184.93
-9755244.28 5135602.85 186.46
-9755249.43 5135596.74 184.50
-9755242.46 5135600.47 186.62
-9755243.37 5135604.13 186.62
-9755243.75 5135603.74 186.00
-9755245.29 5135601.70 185.56
-9755245.79 5135604.99 185.82
-9755240.53 5135596.64 186.01
-9755247.28 5135603.80 185.46
-9755247.02 5135603.18 185.46
-9755244.08 5135601.69 185.79
-9755241.13 5135600.20 186.21
-9755241.75 5135602.91 186.44
-9755242.85 5135604.90 186.26
-9755240.24 5135595.76 186.00
-9755242.95 5135594.86 185.54
-9755241.28 5135602.03 186.84
-9755243.20 5135597.84 185.68
-9755244.05 5135603.41 185.82
-9755241.57 5135602.51 186.80
-9755243.12 5135595.53 185.53
-9755244.10 5135596.72 185.45
-9755245.26 5135595.82 185.15
-9755245.26 5135599.07 185.36
-9755241.12 5135601.98 186.24
-9755244.81 5135606.13 186.14
-9755242.29 5135605.17 186.43
-9755240.25 5135595.95 186.54
-9755246.47 5135595.82 184.93
-9755245.55 5135596.71 185.16
-9755248.79 5135602.33 185.07
-9755243.76 5135605.26 186.19
-9755246.11 5135604.37 185.75
-9755247.07 5135594.66 184.73
-9755246.15 5135599.95 185.36
-9755244.13 5135595.81 185.36
-9755243.80 5135598.45 185.57
-9755242.89 5135604.08 186.21
-9755242.10 5135603.53 186.66
-9755245.53 5135604.97 185.88
-9755244.92 5135602.95 185.77
-9755247.31 5135602.94 185.39
-9755248.46 5135597.13 184.70
-9755244.07 5135604.94 186.13
-9755247.58 5135605.87 185.58
-9755241.74 5135597.82 185.96
-9755247.65 5135601.19 185.12
-9755243.39 5135604.57 186.65
-9755248.80 5135604.44 185.82
-9755246.17 5135600.54 185.35
-9755249.38 5135598.49 185.09
-9755247.31 5135597.64 184.92
-9755244.38 5135598.99 185.55
-9755248.45 5135602.34 185.12
-9755242.92 5135596.95 185.66
-9755249.43 5135600.91 185.29
-9755240.86 5135598.40 186.15
-9755244.71 5135599.13 185.55
-9755242.05 5135598.13 185.91
-9755247.29 5135601.66 185.79
-9755247.85 5135604.72 185.37
-9755248.22 5135595.24 184.58
-9755249.36 5135599.37 185.11
-9755249.38 5135597.06 184.53
-9755248.18 5135598.50 185.34
-9755242.08 5135594.56 185.58
-9755244.65 5135599.37 185.97
-9755246.94 5135604.86 186.20
-9755243.19 5135597.28 185.65
-9755248.22 5135596.75 184.71
-9755241.37 5135603.79 186.42
-9755241.96 5135605.18 186.44
-9755240.24 5135599.53 186.24
-9755245.84 5135597.58 185.15
-9755246.10 5135599.61 185.62
-9755240.19 5135600.45 186.43
-9755248.82 5135598.79 184.73
-9755242.71 5135601.07 186.50
-9755243.32 5135598.73 185.97
-9755242.32 5135599.62 186.01
-9755240.00 5135594.58 186.01
-9755241.43 5135599.94 186.17
-9755248.86 5135597.94 185.14
-9755248.19 5135602.91 185.23
-9755246.48 5135606.49 185.80
-9755244.32 5135605.50 186.60
-9755242.64 5135595.20 185.56
-9755246.75 5135602.92 185.46
-9755240.54 5135601.06 186.41
-9755247.02 5135595.86 184.86
-9755249.37 5135600.31 184.73
-9755247.59 5135601.73 185.14
-9755245.14 5135602.94 185.75
-9755245.57 5135596.40 185.14
-9755248.15 5135600.98 185.42
-9755244.18 5135605.67 186.60
-9755244.65 5135599.65 185.56
-9755244.39 5135598.80 185.53
-9755243.42 5135601.99 185.94
-9755242.33 5135603.80 186.21
-9755240.79 5135601.04 186.23
-9755243.49 5135604.93 186.20
-9755247.64 5135596.17 184.74
-9755242.01 5135601.66 186.79
-9755248.76 5135602.93 185.12
-9755244.97 5135598.72 185.36
-9755249.39 5135599.71 184.72
-9755246.41 5135602.29 185.36
-9755242.03 5135595.15 186.21
-9755244.51 5135603.74 186.29
-9755245.76 5135601.81 185.86
-9755245.56 5135602.32 185.56
-9755247.27 5135601.14 185.14
-9755243.91 5135602.29 186.02
-9755240.95 5135594.57 185.87
-9755249.64 5135603.58 184.98
-9755248.78 5135605.88 185.39
-9755244.74 5135596.39 185.27
-9755241.42 5135600.51 186.24
-9755242.03 5135601.31 186.53
-9755242.53 5135599.94 186.00
-9755243.48 5135601.71 185.81
-9755242.44 5135599.29 186.32
-9755245.23 5135603.14 186.17
-9755247.04 5135601.20 185.15
-9755248.25 5135597.02 184.71
-9755243.45 5135602.85 186.01
-9755239.98 5135598.37 186.30
-9755240.58 5135599.62 186.57
-9755242.65 5135604.91 186.84
-9755247.93 5135599.10 184.92
-9755241.17 5135601.69 186.85
-9755241.68 5135603.06 186.61
-9755248.77 5135605.31 185.37
-9755242.60 5135596.66 185.67
-9755247.88 5135605.24 185.58
-9755247.26 5135601.10 185.70
-9755244.38 5135600.19 185.56
-9755240.57 5135594.52 186.00
-9755242.88 5135604.64 186.22
-9755243.75 5135599.11 186.12
-9755241.13 5135599.63 186.21
-9755244.02 5135598.77 185.57
-9755245.54 5135606.14 186.01
-9755249.67 5135595.59 184.36
-9755245.81 5135600.09 185.81
-9755242.05 5135604.07 186.24
-9755243.21 5135599.06 185.78
-9755247.58 5135604.40 185.50
-9755240.37 5135599.90 186.25
-9755249.06 5135604.42 185.18
-9755245.24 5135604.06 185.82
-9755247.68 5135599.07 184.93
-9755244.41 5135597.29 185.42
-9755249.38 5135603.87 185.14
-9755244.13 5135599.20 186.21
-9755245.58 5135603.15 185.60
-9755246.15 5135604.96 185.80
-9755245.26 5135599.64 185.36
-9755244.35 5135603.26 186.40
-9755244.34 5135595.54 185.31
-9755245.22 5135602.36 185.57
-9755241.11 5135598.40 186.09
-9755246.43 5135603.83 185.60
-9755248.47 5135597.95 184.73
-9755246.45 5135598.84 185.16
-9755246.16 5135599.68 185.17
-9755247.97 5135598.85 185.27
-9755240.24 5135595.43 186.00
-9755241.41 5135599.82 186.61
-9755248.14 5135601.15 185.42
-9755242.93 5135596.41 185.60
-9755240.29 5135597.82 186.21
-9755240.80 5135601.19 186.76
-9755247.87 5135597.28 185.22
-9755249.61 5135605.91 185.35
-9755245.56 5135598.10 185.62
-9755241.80 5135598.92 186.50
-9755243.78 5135599.03 185.57
-9755242.63 5135599.91 185.96
-9755242.04 5135600.86 186.62
-9755239.99 5135596.93 186.20
-9755246.11 5135604.07 185.69
-9755244.64 5135603.22 185.79
-9755239.76 5135605.36 196.76
-9755239.72 5135605.90 196.18
-9755239.80 5135599.53 186.82
-9755239.67 5135597.49 186.29
-9755239.66 5135595.41 186.21
-9755239.69 5135596.63 186.20
-9755252.68 5135586.81 182.45
-9755253.29 5135582.96 182.45
-9755252.68 5135584.43 182.45
-9755251.82 5135585.05 182.46
-9755252.97 5135585.02 182.46
-9755251.76 5135585.36 182.45
-9755252.97 5135586.20 182.46
-9755251.18 5135585.06 182.46
-9755252.35 5135586.19 182.45
-9755252.72 5135583.60 182.46
-9755252.40 5135582.98 182.45
-9755252.07 5135585.60 182.45
-9755251.20 5135585.29 182.46
-9755252.67 5135585.92 182.46
-9755250.93 5135584.18 182.45
-9755251.52 5135584.42 182.45
-9755250.61 5135586.77 182.45
-9755253.27 5135586.23 182.44
-9755251.80 5135584.13 182.46
-9755253.58 5135583.85 182.46
-9755251.83 5135582.67 182.46
-9755250.04 5135583.86 182.47
-9755250.65 5135584.44 182.46
-9755250.31 5135586.49 182.46
-9755249.74 5135583.56 182.45
-9755244.74 5135585.46 184.92
-9755241.12 5135587.08 186.20
-9755241.49 5135584.80 185.57
-9755244.35 5135586.49 185.54
-9755248.89 5135584.69 184.57
-9755244.80 5135584.35 184.92
-9755242.14 5135585.39 185.85
-9755247.37 5135585.52 184.34
-9755249.45 5135585.02 182.45
-9755248.54 5135585.53 184.36
-9755245.87 5135584.56 184.70
-9755241.73 5135586.31 185.53
-9755240.57 5135586.90 186.20
-9755242.10 5135586.03 185.35
-9755243.27 5135586.21 185.68
-9755241.76 5135586.70 186.01
-9755245.66 5135585.51 184.71
-9755242.33 5135586.03 185.34
-9755245.60 5135586.60 184.73
-9755242.42 5135583.66 185.35
-9755245.33 5135583.70 184.71
-9755241.93 5135585.60 185.76
-9755247.06 5135585.76 184.51
-9755242.99 5135582.78 185.19
-9755244.15 5135583.68 184.95
-9755248.52 5135585.19 185.00
-9755247.97 5135585.19 184.32
-9755248.55 5135585.20 184.36
-9755241.48 5135585.12 185.56
-9755246.79 5135586.37 184.52
-9755240.61 5135586.61 185.79
-9755243.91 5135585.10 185.07
-9755243.58 5135583.99 185.14
-9755241.83 5135585.14 185.59
-9755248.83 5135584.53 185.01
-9755241.50 5135585.69 185.57
-9755244.45 5135586.07 184.93
-9755243.03 5135583.04 185.19
-9755246.80 5135584.59 184.51
-9755246.24 5135584.91 185.10
-9755245.70 5135586.62 185.23
-9755248.91 5135585.46 184.55
-9755246.48 5135583.72 185.07
-9755243.79 5135585.46 185.55
-9755242.39 5135584.57 185.36
-9755247.11 5135584.38 184.34
-9755243.85 5135583.66 185.56
-9755243.31 5135584.68 185.72
-9755240.85 5135584.70 186.11
-9755244.18 5135584.59 184.92
-9755242.30 5135587.80 185.94
-9755246.48 5135586.99 184.54
-9755247.67 5135585.26 184.32
-9755241.07 5135586.40 186.21
-9755243.85 5135586.36 185.12
-9755248.24 5135584.33 184.33
-9755246.14 5135584.27 184.97
-9755241.82 5135582.77 185.43
-9755245.99 5135583.47 184.57
-9755248.56 5135582.77 184.88
-9755240.33 5135586.03 185.78
-9755247.99 5135583.44 184.31
-9755242.10 5135585.47 185.36
-9755248.51 5135583.46 184.56
-9755248.55 5135585.78 184.34
-9755249.73 5135586.19 182.46
-9755243.58 5135583.68 185.12
-9755248.27 5135586.07 184.31
-9755246.83 5135583.10 184.49
-9755244.46 5135585.49 184.92
-9755247.92 5135586.95 184.32
-9755243.27 5135583.99 185.15
-9755246.83 5135585.25 184.51
-9755243.55 5135585.48 185.13
-9755240.06 5135584.79 185.78
-9755240.96 5135583.66 185.59
-9755243.72 5135584.80 185.12
-9755242.83 5135585.16 185.73
-9755249.39 5135586.64 184.51
-9755244.77 5135582.79 184.86
-9755246.21 5135585.83 184.53
-9755245.38 5135586.82 185.23
-9755249.51 5135587.03 184.56
-9755241.80 5135585.98 185.46
-9755247.61 5135586.49 184.89
-9755248.83 5135585.23 184.55
-9755247.69 5135583.71 184.32
-9755247.54 5135586.60 184.89
-9755244.46 5135584.57 184.92
-9755247.69 5135582.55 184.31
-9755244.48 5135582.80 184.91
-9755244.14 5135583.91 184.95
-9755248.26 5135582.99 184.90
-9755240.71 5135586.02 186.21
-9755240.29 5135584.54 186.26
-9755243.80 5135583.98 185.11
-9755240.06 5135586.48 186.31
-9755239.95 5135586.84 185.79
-9755239.92 5135584.81 186.17
-9755291.93 5135582.93 181.36
-9755291.04 5135579.69 181.35
-9755290.15 5135578.48 181.34
-9755291.66 5135577.29 181.34
-9755289.31 5135579.39 181.34
-9755291.94 5135577.93 181.36
-9755289.25 5135577.32 181.33
-9755291.94 5135579.69 181.36
-9755289.61 5135576.42 181.33
-9755290.75 5135579.39 181.36
-9755290.76 5135576.73 181.35
-9755289.87 5135577.57 181.34
-9755289.87 5135579.98 181.34
-9755292.22 5135580.31 181.36
-9755290.14 5135577.31 181.33
-9755291.65 5135580.59 181.36
-9755290.42 5135581.16 181.36
-9755291.61 5135582.38 181.37
-9755292.15 5135582.35 181.37
-9755289.29 5135581.43 181.35
-9755291.31 5135581.76 181.35
-9755284.81 5135582.88 181.34
-9755288.96 5135580.27 181.34
-9755288.96 5135581.15 181.34
-9755283.40 5135575.78 181.31
-9755281.30 5135579.01 181.32
-9755286.32 5135577.89 181.33
-9755281.62 5135576.06 181.31
-9755283.68 5135580.57 181.32
-9755283.06 5135580.53 181.32
-9755281.85 5135580.54 181.32
-9755286.02 5135579.67 181.34
-9755286.62 5135577.29 181.31
-9755286.04 5135575.50 181.33
-9755281.60 5135580.21 181.31
-9755282.81 5135577.86 181.31
-9755282.48 5135579.92 181.32
-9755280.99 5135578.43 181.31
-9755283.39 5135579.92 181.32
-9755288.97 5135577.60 181.33
-9755282.50 5135578.46 181.31
-9755286.57 5135578.47 181.34
-9755283.40 5135576.68 181.31
-9755286.91 5135579.66 181.34
-9755283.98 5135578.77 181.32
-9755287.22 5135576.38 181.32
-9755287.21 5135577.90 181.34
-9755286.63 5135575.48 181.33
-9755281.92 5135576.95 181.30
-9755288.11 5135577.27 181.34
-9755282.21 5135576.08 181.31
-9755284.88 5135578.48 181.32
-9755283.64 5135578.75 181.32
-9755283.95 5135577.84 181.32
-9755288.08 5135580.55 181.34
-9755284.23 5135578.48 181.32
-9755283.40 5135578.46 181.31
-9755288.11 5135577.61 181.34
-9755284.90 5135577.28 181.33
-9755284.84 5135577.57 181.32
-9755282.51 5135576.97 181.31
-9755286.33 5135577.29 181.31
-9755281.89 5135577.87 181.31
-9755288.63 5135581.14 181.34
-9755286.03 5135577.29 181.31
-9755285.78 5135578.47 181.33
-9755283.37 5135582.31 181.34
-9755286.00 5135581.45 181.32
-9755282.75 5135581.99 181.33
-9755287.22 5135582.32 181.33
-9755282.49 5135582.30 181.32
-9755280.98 5135581.12 181.31
-9755279.48 5135582.31 181.30
-9755275.73 5135582.83 181.30
-9755274.79 5135582.30 181.29
-9755275.71 5135582.29 181.30
-9755274.20 5135582.26 181.30
-9755277.43 5135582.86 181.30
-9755272.45 5135582.83 181.29
-9755280.13 5135580.84 181.31
-9755280.43 5135580.47 181.30
-9755279.28 5135578.44 181.30
-9755280.73 5135576.67 181.30
-9755280.70 5135577.54 181.31
-9755279.23 5135582.00 181.32
-9755280.43 5135581.42 181.31
-9755278.64 5135579.03 181.30
-9755276.01 5135579.29 181.30
-9755278.38 5135576.66 181.30
-9755274.25 5135579.85 181.30
-9755272.47 5135576.02 181.28
-9755272.74 5135576.33 181.28
-9755277.77 5135578.13 181.30
-9755275.99 5135579.90 181.30
-9755273.09 5135580.49 181.28
-9755273.36 5135577.19 181.29
-9755278.97 5135578.74 181.30
-9755270.99 5135579.29 181.28
-9755273.68 5135576.02 181.30
-9755278.68 5135578.09 181.31
-9755276.87 5135578.41 181.30
-9755272.75 5135578.12 181.29
-9755272.76 5135577.24 181.29
-9755275.67 5135580.22 181.29
-9755269.85 5135576.29 181.30
-9755277.79 5135576.07 181.30
-9755275.71 5135580.79 181.30
-9755273.09 5135578.11 181.29
-9755272.46 5135578.37 181.29
-9755275.42 5135578.71 181.29
-9755274.51 5135580.48 181.29
-9755278.03 5135577.23 181.29
-9755276.89 5135580.18 181.30
-9755274.55 5135576.93 181.30
-9755278.04 5135578.99 181.29
-9755271.02 5135576.62 181.29
-9755276.59 5135576.04 181.30
-9755271.00 5135576.01 181.29
-9755273.36 5135578.68 181.30
-9755273.00 5135579.56 181.29
-9755271.00 5135577.46 181.27
-9755271.85 5135579.30 181.29
-9755276.86 5135580.75 181.30
-9755274.80 5135581.95 181.29
-9755271.55 5135581.34 181.29
-9755275.68 5135581.69 181.30
-9755277.76 5135580.80 181.31
-9755272.47 5135581.37 181.28
-9755270.65 5135581.36 181.29
-9755273.93 5135582.82 181.30
-9755271.55 5135581.94 181.29
-9755269.82 5135581.36 181.28
-9755270.96 5135581.34 181.29
-9755274.52 5135581.98 181.29
-9755275.41 5135581.06 181.30
-9755270.42 5135581.93 181.28
-9755269.79 5135582.20 181.28
-9755257.10 5135582.37 182.43
-9755255.96 5135582.40 182.47
-9755260.33 5135582.36 182.57
-9755265.08 5135582.21 181.25
-9755265.99 5135582.20 181.25
-9755257.75 5135582.42 182.42
-9755263.29 5135582.78 181.22
-9755260.05 5135582.69 182.54
-9755257.44 5135582.72 182.44
-9755262.72 5135582.49 181.20
-9755265.95 5135582.54 181.27
-9755267.52 5135578.98 181.28
-9755268.92 5135578.71 181.29
-9755268.35 5135578.38 181.28
-9755267.74 5135575.69 181.28
-9755268.37 5135575.71 181.28
-9755268.63 5135580.40 181.29
-9755269.21 5135579.25 181.29
-9755268.65 5135576.00 181.28
-9755269.22 5135580.76 181.29
-9755255.96 5135576.51 182.41
-9755266.86 5135577.48 181.28
-9755262.46 5135575.70 181.24
-9755259.53 5135575.96 181.19
-9755257.41 5135578.83 182.42
-9755266.02 5135578.94 181.27
-9755260.37 5135577.17 181.21
-9755255.15 5135575.61 182.46
-9755261.58 5135576.58 181.22
-9755259.50 5135578.82 183.55
-9755259.18 5135579.72 182.59
-9755259.25 5135577.02 183.56
-9755255.06 5135579.73 182.47
-9755258.92 5135577.27 183.56
-9755256.88 5135576.75 182.40
-9755254.79 5135578.80 182.47
-9755257.11 5135576.76 182.38
-9755255.97 5135579.44 182.45
-9755259.14 5135580.30 182.58
-9755257.13 5135580.34 182.43
-9755258.10 5135576.38 183.12
-9755258.92 5135580.00 182.58
-9755258.35 5135577.71 182.56
-9755257.77 5135577.35 182.52
-9755264.80 5135578.08 181.27
-9755260.09 5135580.39 182.61
-9755258.36 5135577.39 182.61
-9755258.90 5135575.51 183.56
-9755254.16 5135580.32 182.47
-9755258.80 5135579.34 182.44
-9755259.24 5135575.77 183.57
-9755260.97 5135578.84 181.22
-9755261.82 5135577.10 181.22
-9755254.50 5135577.67 182.47
-9755256.28 5135576.12 182.39
-9755257.75 5135576.50 182.60
-9755259.15 5135576.18 183.56
-9755258.43 5135577.10 183.31
-9755259.74 5135577.12 181.22
-9755260.97 5135578.04 181.23
-9755260.12 5135578.83 183.55
-9755259.32 5135580.50 183.07
-9755263.67 5135577.48 181.25
-9755262.45 5135578.06 181.24
-9755263.36 5135576.58 181.25
-9755264.18 5135580.77 181.24
-9755257.13 5135577.65 182.41
-9755265.70 5135579.57 181.25
-9755259.75 5135580.37 182.60
-9755254.22 5135579.72 182.47
-9755254.20 5135576.45 182.48
-9755259.46 5135578.87 182.60
-9755265.10 5135578.98 181.26
-9755266.23 5135580.44 181.27
-9755255.97 5135579.70 182.46
-9755254.21 5135578.21 182.48
-9755258.90 5135576.10 183.56
-9755257.14 5135577.36 182.40
-9755259.55 5135577.90 183.56
-9755254.81 5135578.57 182.47
-9755260.41 5135579.96 183.56
-9755260.37 5135576.56 181.21
-9755262.73 5135578.32 181.24
-9755257.98 5135578.23 182.39
-9755265.39 5135578.92 181.26
-9755265.13 5135576.87 181.25
-9755259.78 5135580.22 183.55
-9755259.18 5135576.41 183.57
-9755260.37 5135578.62 181.21
-9755259.49 5135578.61 182.60
-9755263.36 5135578.04 181.23
-9755255.41 5135576.50 182.46
-9755266.56 5135576.01 181.27
-9755259.31 5135578.87 182.56
-9755256.27 5135578.86 182.44
-9755269.22 5135581.30 181.28
-9755255.94 5135580.91 182.46
-9755254.76 5135582.08 182.47
-9755266.82 5135580.71 181.27
-9755261.83 5135580.71 181.22
-9755264.21 5135581.00 181.24
-9755258.65 5135580.66 182.43
-9755258.64 5135580.92 182.41
-9755263.63 5135581.92 181.22
-9755256.24 5135581.56 182.46
-9755265.08 5135580.72 181.26
-9755256.54 5135581.79 182.46
-9755260.99 5135581.51 183.55
-9755254.77 5135581.79 182.47
-9755255.05 5135581.49 182.47
-9755266.32 5135581.31 181.27
-9755266.01 5135581.00 181.26
-9755257.75 5135580.93 182.41
-9755259.19 5135581.78 182.40
-9755259.48 5135582.09 182.47
-9755260.40 5135581.50 182.63
-9755265.18 5135581.62 181.26
-9755265.71 5135581.31 181.27
-9755259.23 5135581.17 183.36
-9755256.24 5135580.91 182.46
-9755266.25 5135581.87 181.25
-9755260.63 5135581.74 182.47
-9755260.95 5135581.81 183.54
-9755251.23 5135582.36 182.47
-9755253.31 5135582.66 182.47
-9755253.57 5135582.36 182.46
-9755251.82 5135582.38 182.46
-9755250.95 5135582.38 182.47
-9755253.61 5135577.61 182.49
-9755253.02 5135577.35 182.48
-9755253.31 5135579.43 182.48
-9755252.99 5135580.30 182.48
-9755251.57 5135577.03 182.47
-9755253.02 5135576.73 182.48
-9755252.11 5135578.81 182.48
-9755252.98 5135579.11 182.48
-9755250.70 5135575.54 182.47
-9755252.15 5135575.57 182.47
-9755252.72 5135579.11 182.49
-9755251.86 5135577.65 182.47
-9755251.85 5135577.33 182.47
-9755253.31 5135576.13 182.48
-9755252.74 5135577.07 182.48
-9755250.69 5135577.30 182.46
-9755253.31 5135576.45 182.48
-9755252.78 5135575.57 182.47
-9755251.24 5135575.56 182.47
-9755252.72 5135576.45 182.49
-9755252.15 5135578.23 182.48
-9755251.83 5135580.62 182.46
-9755250.66 5135579.43 182.47
-9755253.96 5135577.92 182.48
-9755251.27 5135578.55 182.47
-9755250.66 5135578.18 182.47
-9755252.43 5135578.49 182.48
-9755252.97 5135582.07 182.47
-9755253.02 5135581.78 182.47
-9755250.92 5135580.88 182.47
-9755251.51 5135581.47 182.46
-9755250.64 5135581.47 182.46
-9755240.08 5135582.15 186.26
-9755246.51 5135582.21 184.50
-9755250.06 5135582.64 182.46
-9755248.50 5135582.08 185.26
-9755250.10 5135576.41 182.46
-9755250.68 5135579.70 182.47
-9755242.45 5135580.41 185.66
-9755242.31 5135578.83 185.77
-9755247.72 5135578.65 184.35
-9755246.86 5135577.22 184.31
-9755240.61 5135580.30 185.59
-9755240.97 5135578.50 185.88
-9755246.24 5135579.86 184.47
-9755247.74 5135579.92 184.33
-9755246.84 5135578.70 184.30
-9755242.05 5135579.86 185.70
-9755248.23 5135580.45 184.61
-9755247.69 5135579.03 184.35
-9755249.20 5135576.40 182.44
-9755242.69 5135578.05 185.13
-9755249.50 5135577.29 182.44
-9755244.29 5135578.88 185.12
-9755247.37 5135575.73 184.36
-9755240.33 5135578.64 186.01
-9755243.90 5135579.29 184.95
-9755242.39 5135578.62 185.14
-9755241.74 5135578.83 185.85
-9755242.07 5135579.15 185.65
-9755248.90 5135580.25 182.42
-9755247.16 5135578.66 182.50
-9755245.64 5135576.61 184.51
-9755243.07 5135577.95 185.71
-9755247.75 5135577.03 184.56
-9755244.54 5135579.72 185.32
-9755246.23 5135578.38 184.50
-9755243.07 5135576.58 185.59
-9755248.93 5135576.46 182.44
-9755247.52 5135578.36 184.99
-9755245.30 5135577.47 185.13
-9755249.19 5135577.89 182.44
-9755245.66 5135577.79 184.51
-9755240.71 5135578.25 185.61
-9755247.78 5135575.51 184.64
-9755244.90 5135576.49 185.14
-9755240.29 5135579.47 185.58
-9755243.61 5135578.62 184.94
-9755245.92 5135576.88 184.52
-9755241.85 5135576.24 185.61
-9755246.33 5135577.49 184.91
-9755242.85 5135580.21 185.73
-9755241.95 5135576.53 185.68
-9755244.83 5135578.04 184.72
-9755242.65 5135575.67 185.63
-9755247.14 5135577.48 184.31
-9755241.87 5135577.15 185.15
-9755245.42 5135580.07 184.69
-9755242.41 5135578.92 185.13
-9755246.55 5135579.75 184.92
-9755244.52 5135576.02 184.74
-9755243.09 5135578.84 185.53
-9755249.77 5135575.52 182.45
-9755243.02 5135578.92 185.14
-9755246.53 5135577.79 184.31
-9755248.89 5135579.71 182.43
-9755241.83 5135577.68 185.70
-9755240.61 5135577.33 185.50
-9755245.08 5135578.66 184.72
-9755248.91 5135575.52 182.44
-9755241.81 5135577.10 185.75
-9755248.48 5135576.93 182.81
-9755250.09 5135576.13 182.46
-9755247.74 5135579.26 184.34
-9755244.53 5135579.27 185.39
-9755242.41 5135576.59 185.15
-9755248.01 5135580.18 184.57
-9755249.79 5135580.27 182.45
-9755240.58 5135575.68 186.03
-9755247.73 5135580.75 184.31
-9755243.94 5135576.03 184.73
-9755245.12 5135578.73 185.17
-9755242.77 5135577.48 185.13
-9755248.90 5135577.03 182.44
-9755241.34 5135579.68 186.00
-9755242.71 5135579.85 185.15
-9755244.32 5135576.39 185.30
-9755245.96 5135578.86 185.07
-9755240.19 5135579.77 186.04
-9755245.70 5135577.14 184.52
-9755240.71 5135580.38 185.41
-9755241.28 5135576.84 185.35
-9755247.15 5135580.19 184.31
-9755243.87 5135578.28 185.36
-9755246.86 5135580.20 184.31
-9755245.97 5135575.69 184.31
-9755244.95 5135577.87 184.71
-9755247.17 5135576.96 184.32
-9755243.59 5135576.58 184.93
-9755246.89 5135576.67 184.31
-9755241.57 5135577.43 185.33
-9755245.39 5135579.78 184.76
-9755247.43 5135579.27 184.32
-9755241.54 5135577.72 185.35
-9755239.78 5135577.93 186.24
-9755239.86 5135578.27 186.34
-9755239.92 5135580.06 185.71
-9755239.78 5135576.50 185.58
-9755239.68 5135576.35 186.05
-9755239.80 5135578.94 185.65
-9755242.73 5135581.90 185.16
-9755239.83 5135580.61 185.79
-9755241.27 5135581.88 186.00
-9755248.07 5135581.90 184.48
-9755242.00 5135581.87 185.80
-9755249.47 5135581.48 182.44
-9755243.29 5135581.29 185.12
-9755243.88 5135581.60 184.95
-9755242.61 5135580.55 185.53
-9755241.83 5135581.30 185.35
-9755243.62 5135581.00 184.96
-9755247.98 5135581.40 184.33
-9755249.49 5135581.80 182.44
-9755240.93 5135581.24 185.58
-9755243.12 5135581.19 185.61
-9755241.18 5135581.23 185.50
-9755247.10 5135581.89 184.40
-9755240.73 5135581.21 186.07
-9755244.18 5135581.89 184.94
-9755241.19 5135581.85 185.56
-9755248.37 5135581.74 184.67
-9755245.66 5135581.89 184.65
-9755242.74 5135581.56 185.68
-9755242.73 5135580.99 185.15
-9755241.25 5135580.98 185.39
-9755241.82 5135581.88 185.36
-9755241.62 5135581.31 185.36
-9755245.61 5135580.44 185.14
-9755247.41 5135581.08 184.33
-9755245.87 5135581.06 185.04
-9755239.76 5135581.83 185.77
-9755289.50 5135590.37 181.33
-9755290.66 5135592.74 181.35
-9755289.49 5135589.44 181.33
-9755290.32 5135594.42 181.33
-9755291.51 5135596.57 181.78
-9755290.33 5135598.88 181.76
-9755291.53 5135601.81 182.23
-9755290.91 5135599.78 181.84
-9755291.21 5135598.30 181.69
-9755290.33 5135601.81 182.22
-9755289.42 5135599.23 181.86
-9755292.37 5135598.03 181.65
-9755290.65 5135597.44 181.52
-9755289.44 5135596.56 181.64
-9755290.35 5135600.32 182.02
-9755289.19 5135596.18 181.32
-9755291.53 5135601.54 182.22
-9755290.01 5135596.54 181.54
-9755290.63 5135596.48 181.52
-9755291.55 5135597.14 181.52
-9755290.32 5135598.34 181.68
-9755290.32 5135596.57 181.54
