-9755082.68 5135663.44 183.56
-9755084.19 5135665.16 184.08
-9755083.07 5135664.37 183.24
-9755083.14 5135666.53 184.24
-9755082.17 5135663.88 184.28
-9755084.13 5135665.15 183.42
-9755087.13 5135664.05 181.52
-9755082.77 5135663.32 184.09
-9755082.95 5135665.73 183.92
-9755082.40 5135664.86 184.21
-9755081.78 5135665.42 183.81
-9755083.31 5135664.44 184.84
-9755083.03 5135663.07 184.19
-9755083.29 5135663.06 182.97
-9755107.21 5135656.17 181.52
-9755104.53 5135658.85 181.45
-9755099.19 5135657.83 182.40
-9755102.52 5135657.07 181.42
-9755099.19 5135657.09 182.36
-9755100.69 5135659.44 181.30
-9755097.99 5135656.94 182.33
-9755098.37 5135655.21 182.74
-9755098.98 5135655.84 182.75
-9755097.82 5135654.69 182.14
-9755099.50 5135661.15 181.33
-9755101.26 5135661.78 181.32
-9755095.13 5135655.23 181.37
-9755089.80 5135659.04 181.37
-9755089.81 5135659.95 181.37
-9755082.76 5135657.08 184.86
-9755081.51 5135660.71 183.10
-9755081.65 5135655.39 183.72
-9755082.77 5135656.83 183.56
-9755086.84 5135660.19 181.50
-9755085.47 5135656.64 183.45
-9755082.19 5135658.24 184.82
-9755082.80 5135657.64 183.83
-9755088.92 5135655.79 181.35
-9755082.75 5135657.15 182.80
-9755081.86 5135655.08 183.57
-9755083.39 5135655.91 184.11
-9755084.34 5135656.30 184.08
-9755081.87 5135657.67 182.97
-9755083.56 5135656.24 183.86
-9755086.83 5135656.67 182.21
-9755084.79 5135657.73 184.03
-9755084.30 5135659.76 183.30
-9755082.42 5135654.90 181.21
-9755082.20 5135656.73 184.65
-9755082.76 5135657.02 184.24
-9755086.85 5135656.79 183.14
-9755083.07 5135657.40 183.43
-9755083.93 5135658.87 184.11
-9755085.66 5135657.44 183.08
-9755083.92 5135655.68 183.97
-9755085.38 5135656.80 183.78
-9755084.59 5135658.01 183.84
-9755082.81 5135656.85 183.95
-9755086.01 5135656.07 181.55
-9755084.47 5135656.84 183.81
-9755086.24 5135656.60 182.62
-9755086.45 5135657.21 181.90
-9755081.93 5135657.10 183.79
-9755083.93 5135660.75 182.89
-9755083.97 5135656.84 184.10
-9755084.78 5135656.31 184.15
-9755083.88 5135657.98 183.49
-9755081.56 5135656.79 183.58
-9755081.55 5135655.93 184.29
-9755082.72 5135661.39 183.30
-9755081.76 5135656.20 184.40
-9755083.72 5135656.17 184.15
-9755081.51 5135656.21 183.50
-9755082.78 5135656.32 183.90
-9755084.21 5135657.45 183.71
-9755084.66 5135660.69 182.57
-9755083.95 5135657.98 183.58
-9755083.91 5135657.42 184.26
-9755086.18 5135657.44 182.79
-9755084.48 5135658.30 183.64
-9755084.78 5135656.45 183.83
-9755083.55 5135658.31 184.17
-9755081.54 5135657.76 182.89
-9755082.42 5135658.27 184.85
-9755081.55 5135660.09 183.02
-9755082.76 5135655.94 183.64
-9755084.74 5135658.07 183.61
-9755082.77 5135656.82 184.27
-9755082.12 5135654.55 183.46
-9755082.74 5135656.79 183.90
-9755082.21 5135656.75 183.74
-9755084.86 5135658.89 183.83
-9755081.94 5135662.74 183.55
-9755082.07 5135662.07 183.44
-9755081.55 5135661.83 184.15
-9755081.56 5135662.23 183.49
-9755085.65 5135661.69 181.55
-9755083.30 5135661.88 183.66
-9755083.35 5135661.22 182.94
-9755084.25 5135661.84 183.35
-9755082.46 5135661.54 183.33
-9755081.82 5135662.12 184.18
-9755081.82 5135662.71 184.22
-9755082.67 5135661.89 183.58
-9755084.72 5135662.52 184.19
-9755082.31 5135662.45 183.56
-9755082.70 5135662.14 183.59
-9755083.33 5135662.13 183.69
-9755082.70 5135661.57 183.40
-9755133.96 5135669.98 181.38
-9755133.37 5135672.03 181.32
-9755133.98 5135674.13 181.20
-9755133.33 5135673.26 181.19
-9755134.21 5135675.34 181.24
-9755134.17 5135677.67 181.30
-9755134.18 5135675.63 181.26
-9755133.61 5135675.29 181.22
-9755133.58 5135677.66 181.32
-9755132.71 5135676.81 181.29
-9755133.25 5135677.38 181.30
-9755132.79 5135671.09 181.34
-9755131.88 5135671.13 181.33
-9755131.58 5135672.90 181.25
-9755133.01 5135672.63 181.31
-9755132.46 5135670.58 181.35
-9755132.44 5135671.16 181.34
-9755130.96 5135674.38 181.22
-9755131.86 5135669.65 181.38
-9755131.82 5135673.85 181.20
-9755132.72 5135674.43 181.20
-9755130.71 5135669.97 181.40
-9755119.46 5135670.48 181.37
-9755120.41 5135670.26 186.91
-9755119.24 5135669.39 186.46
-9755118.55 5135670.20 186.23
-9755118.01 5135668.86 186.94
-9755129.46 5135672.58 181.34
-9755120.33 5135669.26 187.63
-9755122.12 5135672.29 181.30
-9755129.25 5135668.76 181.39
-9755120.94 5135669.28 186.43
-9755119.80 5135669.09 186.48
-9755118.06 5135670.84 186.60
-9755120.10 5135669.62 186.57
-9755120.41 5135669.95 186.85
-9755118.57 5135672.60 181.19
-9755120.37 5135674.09 181.23
-9755120.09 5135669.89 187.23
-9755125.95 5135672.05 181.32
-9755124.21 5135668.74 181.41
-9755119.18 5135671.33 181.34
-9755120.47 5135668.96 187.54
-9755123.66 5135669.60 181.40
-9755123.91 5135672.04 181.34
-9755119.17 5135668.88 186.47
-9755118.63 5135668.81 187.21
-9755129.21 5135672.01 181.34
-9755122.15 5135673.44 181.22
-9755120.06 5135668.97 181.41
-9755121.28 5135674.60 181.25
-9755128.92 5135674.39 181.22
-9755118.24 5135668.85 185.68
-9755126.59 5135670.80 181.33
-9755118.79 5135669.66 185.79
-9755125.41 5135672.55 181.23
-9755121.14 5135668.81 186.56
-9755129.20 5135669.64 181.39
-9755119.22 5135669.94 186.48
-9755126.57 5135672.93 181.19
-9755119.20 5135672.85 181.19
-9755125.04 5135674.00 181.23
-9755118.88 5135669.61 186.41
-9755125.34 5135675.25 181.24
-9755126.90 5135673.84 181.21
-9755119.55 5135668.73 181.42
-9755130.09 5135672.92 181.22
-9755118.30 5135672.87 181.19
-9755121.54 5135673.47 181.23
-9755119.51 5135669.54 187.03
-9755119.16 5135670.49 181.36
-9755129.49 5135672.94 181.20
-9755118.71 5135670.77 186.90
-9755119.20 5135669.31 187.18
-9755122.71 5135673.75 181.23
-9755118.72 5135670.27 185.49
-9755120.11 5135668.83 185.88
-9755129.50 5135674.41 181.22
-9755120.06 5135670.33 186.48
-9755120.26 5135668.66 188.94
-9755118.40 5135669.29 181.41
-9755123.35 5135669.00 181.41
-9755129.80 5135671.73 181.37
-9755117.83 5135668.77 185.22
-9755119.01 5135669.58 187.18
-9755120.92 5135668.67 187.39
-9755125.10 5135671.13 181.35
-9755119.40 5135668.71 187.65
-9755118.90 5135670.02 186.49
-9755127.72 5135669.93 181.34
-9755124.78 5135671.70 181.35
-9755128.36 5135672.62 181.29
-9755120.98 5135670.81 181.37
-9755120.94 5135670.47 181.38
-9755129.82 5135671.14 181.37
-9755120.02 5135669.90 186.53
-9755118.42 5135669.35 187.32
-9755117.48 5135669.84 186.75
-9755121.58 5135670.79 181.38
-9755120.71 5135670.22 186.65
-9755125.65 5135671.70 181.34
-9755120.41 5135669.34 181.41
-9755120.62 5135672.59 181.19
-9755122.46 5135671.06 181.37
-9755124.17 5135672.27 181.30
-9755123.60 5135671.71 181.36
-9755117.79 5135670.18 186.97
-9755118.08 5135669.56 187.45
-9755122.44 5135668.67 181.41
-9755117.53 5135669.34 187.01
-9755120.35 5135670.49 186.54
-9755128.66 5135669.68 181.37
-9755117.99 5135674.06 181.23
-9755119.95 5135669.54 185.33
-9755121.28 5135672.02 181.31
-9755122.14 5135671.97 181.34
-9755118.43 5135668.91 186.10
-9755118.34 5135674.94 181.26
-9755119.72 5135668.69 187.16
-9755118.08 5135669.24 186.91
-9755130.64 5135675.93 181.26
-9755131.90 5135676.16 181.26
-9755132.38 5135679.39 181.35
-9755130.89 5135680.34 181.36
-9755131.81 5135680.31 181.37
-9755132.46 5135678.25 181.32
-9755132.08 5135679.16 181.34
-9755132.44 5135677.35 181.31
-9755130.97 5135677.36 181.30
-9755131.55 5135680.04 181.37
-9755131.55 5135679.14 181.34
-9755130.39 5135677.65 181.31
-9755132.13 5135678.26 181.32
-9755130.66 5135676.82 181.30
-9755118.26 5135679.94 181.35
-9755128.03 5135675.85 181.26
-9755118.29 5135680.80 181.37
-9755123.63 5135675.52 181.28
-9755119.17 5135678.44 181.34
-9755119.16 5135675.24 181.26
-9755119.42 5135680.82 181.37
-9755118.27 5135679.37 181.34
-9755125.66 5135675.24 181.25
-9755121.24 5135676.97 181.33
-9755124.18 5135678.54 181.34
-9755120.89 5135680.90 181.38
-9755128.59 5135680.90 181.37
-9755121.82 5135676.12 181.30
-9755129.44 5135680.87 181.38
-9755121.54 5135680.87 181.35
-9755125.36 5135679.36 181.34
-9755126.53 5135680.01 181.35
-9755123.32 5135677.88 181.32
-9755118.26 5135677.56 181.33
-9755120.68 5135677.64 181.33
-9755120.65 5135679.04 181.33
-9755125.98 5135679.13 181.34
-9755121.26 5135675.56 181.30
-9755119.96 5135680.86 181.37
-9755119.11 5135680.83 181.37
-9755121.23 5135680.28 181.35
-9755117.97 5135676.07 181.27
-9755121.82 5135677.04 181.31
-9755127.65 5135677.37 181.32
-9755120.01 5135679.90 181.35
-9755118.27 5135676.11 181.28
-9755124.45 5135675.29 181.26
-9755129.47 5135676.80 181.30
-9755121.56 5135678.47 181.32
-9755120.34 5135676.11 181.28
-9755122.34 5135679.99 181.34
-9755125.38 5135677.34 181.32
-9755120.89 5135677.59 181.33
-9755124.99 5135680.87 181.37
-9755122.12 5135677.64 181.31
-9755130.07 5135677.37 181.31
-9755122.36 5135677.60 181.31
-9755124.47 5135678.81 181.34
-9755123.23 5135678.78 181.33
-9755118.27 5135677.00 181.33
-9755118.57 5135679.03 181.35
-9755124.77 5135677.61 181.32
-9755123.85 5135676.74 181.30
-9755126.54 5135675.86 181.26
-9755122.71 5135679.39 181.34
-9755120.86 5135679.93 181.36
-9755125.90 5135677.64 181.32
-9755134.07 5135667.16 189.65
-9755133.47 5135664.60 189.54
-9755134.08 5135665.17 188.90
-9755132.79 5135667.56 187.28
-9755134.08 5135667.53 187.11
-9755132.83 5135665.22 189.31
-9755133.21 5135666.59 189.50
-9755132.59 5135664.31 189.23
-9755132.82 5135666.65 189.81
-9755134.09 5135666.61 189.83
-9755133.53 5135663.94 190.65
-9755133.24 5135664.66 190.91
-9755132.86 5135665.35 189.84
-9755134.12 5135665.87 189.52
-9755133.49 5135664.19 190.38
-9755133.10 5135666.23 190.73
-9755134.02 5135664.72 190.69
-9755133.13 5135666.94 188.17
-9755133.53 5135663.75 190.83
-9755133.22 5135667.34 187.23
-9755132.79 5135666.72 186.32
-9755133.10 5135667.58 181.42
-9755133.19 5135663.64 189.98
-9755133.12 5135664.19 190.97
-9755134.06 5135666.58 190.24
-9755133.28 5135664.61 188.89
-9755134.12 5135667.47 189.56
-9755133.78 5135667.16 189.70
-9755133.96 5135667.01 187.52
-9755133.46 5135666.63 189.64
-9755133.07 5135665.98 186.62
-9755132.87 5135664.20 189.79
-9755133.47 5135665.02 189.70
-9755134.11 5135664.51 190.88
-9755134.02 5135663.73 189.05
-9755133.44 5135663.35 190.02
-9755133.49 5135664.81 191.31
-9755132.60 5135665.47 188.36
-9755134.01 5135666.02 190.38
-9755132.85 5135666.11 187.09
-9755134.10 5135667.43 184.92
-9755133.30 5135663.66 191.32
-9755134.02 5135665.13 190.61
-9755132.85 5135663.84 190.53
-9755132.82 5135664.17 190.93
-9755133.10 5135664.26 190.02
-9755133.58 5135666.37 189.64
-9755132.86 5135665.76 189.80
-9755133.17 5135666.24 190.20
-9755134.01 5135664.63 189.67
-9755134.11 5135664.15 190.02
-9755132.83 5135665.31 190.94
-9755133.47 5135666.15 190.73
-9755134.16 5135667.58 187.71
-9755133.55 5135664.30 190.97
-9755133.19 5135664.09 186.71
-9755134.10 5135664.58 189.42
-9755132.88 5135664.31 186.24
-9755132.83 5135666.24 190.71
-9755133.46 5135663.68 190.00
-9755133.50 5135666.91 188.17
-9755132.78 5135667.77 184.82
-9755134.00 5135664.61 187.62
-9755133.47 5135663.35 189.30
-9755132.81 5135665.89 187.35
-9755132.89 5135666.27 190.02
-9755133.47 5135665.65 190.24
-9755133.11 5135666.33 189.46
-9755133.92 5135663.95 189.82
-9755133.69 5135667.53 187.78
-9755133.10 5135667.53 188.28
-9755132.70 5135667.08 189.89
-9755131.54 5135667.60 185.39
-9755131.63 5135666.35 186.61
-9755133.27 5135664.13 184.95
-9755131.05 5135667.31 185.94
-9755132.67 5135667.41 184.82
-9755131.51 5135663.74 186.17
-9755131.73 5135665.76 189.18
-9755132.04 5135665.10 190.09
-9755131.51 5135663.46 187.23
-9755131.08 5135665.83 188.43
-9755131.63 5135663.82 186.49
-9755132.70 5135666.55 187.35
-9755131.98 5135663.62 186.19
-9755131.91 5135663.72 188.21
-9755131.59 5135663.76 186.92
-9755131.93 5135664.23 187.73
-9755131.09 5135665.44 188.77
-9755131.05 5135665.21 187.54
-9755132.31 5135666.83 186.74
-9755131.90 5135666.71 186.72
-9755131.28 5135665.83 186.64
-9755132.05 5135665.71 189.23
-9755131.45 5135665.36 186.56
-9755131.34 5135667.61 181.40
-9755132.30 5135664.30 188.93
-9755131.66 5135663.47 187.81
-9755132.36 5135666.91 187.99
-9755132.27 5135665.37 189.58
-9755131.96 5135665.72 189.87
-9755132.62 5135666.55 189.97
-9755131.02 5135665.88 188.12
-9755131.63 5135666.79 185.79
-9755131.87 5135665.38 188.05
-9755132.31 5135666.45 186.67
-9755132.55 5135665.88 187.66
-9755131.84 5135665.78 190.65
-9755132.36 5135663.29 189.60
-9755131.68 5135666.34 189.08
-9755131.10 5135665.81 186.24
-9755131.67 5135664.90 188.26
-9755131.65 5135664.59 185.75
-9755132.10 5135666.02 190.21
-9755132.43 5135665.20 188.14
-9755131.64 5135664.67 186.89
-9755131.47 5135665.81 185.53
-9755131.64 5135664.61 187.78
-9755130.72 5135665.48 186.01
-9755130.99 5135666.22 186.23
-9755131.11 5135665.65 185.47
-9755131.69 5135663.42 186.17
-9755130.96 5135665.29 186.76
-9755132.31 5135666.06 190.21
-9755131.30 5135665.90 185.44
-9755131.66 5135665.84 188.48
-9755130.83 5135664.32 186.22
-9755131.07 5135667.35 185.39
-9755131.04 5135666.37 186.71
-9755131.32 5135666.35 186.61
-9755132.07 5135666.00 188.15
-9755131.11 5135664.75 185.49
-9755132.57 5135663.91 189.60
-9755131.89 5135665.82 186.63
-9755132.21 5135664.62 187.70
-9755132.53 5135667.02 187.41
-9755132.73 5135664.11 187.91
-9755132.58 5135665.22 189.56
-9755131.76 5135666.64 186.19
-9755131.63 5135665.66 185.52
-9755131.70 5135665.18 189.92
-9755131.67 5135665.43 189.13
-9755130.79 5135666.16 186.16
-9755132.51 5135667.51 188.09
-9755132.69 5135664.59 189.73
-9755132.26 5135664.37 188.12
-9755131.28 5135663.51 185.64
-9755131.11 5135663.80 185.68
-9755131.68 5135665.21 188.81
-9755130.73 5135667.28 181.42
-9755131.44 5135664.95 187.53
-9755130.74 5135666.70 181.41
-9755131.07 5135667.14 185.39
-9755131.53 5135666.82 185.36
-9755132.33 5135663.68 187.13
-9755132.51 5135666.80 187.57
-9755131.66 5135666.41 188.52
-9755132.06 5135664.26 189.27
-9755132.26 5135666.24 189.99
-9755130.74 5135665.90 185.62
-9755131.14 5135664.13 186.08
-9755130.86 5135664.75 187.56
-9755131.88 5135664.01 189.36
-9755131.62 5135663.18 187.23
-9755132.57 5135666.26 190.49
-9755131.74 5135665.32 189.93
-9755131.65 5135664.37 185.77
-9755132.14 5135664.25 188.43
-9755132.56 5135666.40 188.05
-9755131.32 5135666.70 186.68
-9755130.79 5135665.65 185.56
-9755131.05 5135665.55 187.54
-9755131.97 5135664.46 189.26
-9755131.97 5135663.94 188.88
-9755132.44 5135667.12 186.70
-9755131.64 5135664.00 188.28
-9755131.20 5135666.29 188.99
-9755131.76 5135663.24 187.96
-9755131.88 5135665.51 188.80
-9755131.73 5135663.80 187.78
-9755132.48 5135667.93 181.39
-9755131.14 5135665.65 188.56
-9755131.56 5135663.86 185.72
-9755131.12 5135664.60 187.82
-9755131.97 5135665.12 188.48
-9755117.75 5135668.70 181.41
-9755130.27 5135666.35 185.65
-9755118.80 5135663.74 188.11
-9755118.47 5135664.44 189.24
-9755122.91 5135667.56 186.23
-9755118.05 5135665.62 186.75
-9755119.30 5135665.35 189.94
-9755122.53 5135666.73 188.01
-9755120.08 5135665.95 189.79
-9755121.22 5135663.55 187.93
-9755119.38 5135664.27 189.25
-9755122.56 5135666.29 188.59
-9755119.21 5135668.61 188.67
-9755119.58 5135664.59 187.77
-9755119.55 5135663.96 189.03
-9755119.57 5135664.41 190.56
-9755119.78 5135666.92 188.59
-9755122.52 5135667.48 187.14
-9755120.98 5135665.45 189.00
-9755118.74 5135665.36 189.86
-9755120.94 5135668.30 186.58
-9755119.34 5135665.00 189.68
-9755118.78 5135663.85 189.63
-9755118.70 5135667.17 189.36
-9755117.85 5135666.34 186.77
-9755117.85 5135666.00 188.14
-9755122.48 5135668.29 185.90
-9755117.79 5135668.07 187.85
-9755126.08 5135665.77 187.52
-9755122.64 5135663.74 187.26
-9755124.53 5135663.77 188.39
-9755119.30 5135664.49 188.79
-9755123.16 5135666.64 188.42
-9755121.30 5135665.98 189.01
-9755117.84 5135666.27 187.74
-9755117.86 5135667.86 187.25
-9755119.86 5135664.22 188.12
-9755120.48 5135665.29 190.04
-9755125.22 5135665.55 187.61
-9755121.97 5135664.69 188.46
-9755118.93 5135667.79 188.74
-9755119.67 5135665.34 189.37
-9755122.56 5135663.09 189.10
-9755118.98 5135665.91 189.95
-9755119.32 5135663.86 189.50
-9755118.50 5135668.55 186.19
-9755120.53 5135666.23 189.91
-9755122.00 5135664.23 188.55
-9755118.97 5135663.97 189.38
-9755118.65 5135664.25 187.35
-9755125.24 5135665.20 187.85
-9755119.45 5135665.56 190.28
-9755119.33 5135664.81 189.28
-9755130.13 5135667.84 181.40
-9755117.58 5135664.52 188.20
-9755120.82 5135665.06 188.14
-9755119.96 5135665.40 188.10
-9755122.53 5135665.77 188.60
-9755120.78 5135665.31 189.21
-9755124.91 5135666.12 188.18
-9755125.14 5135663.91 188.61
-9755121.41 5135663.32 188.60
-9755119.53 5135664.33 181.51
-9755119.55 5135664.75 190.14
-9755123.08 5135668.27 185.89
-9755122.53 5135667.21 188.65
-9755117.50 5135665.14 188.18
-9755120.55 5135664.10 190.68
-9755121.34 5135665.38 188.87
-9755120.80 5135666.82 189.27
-9755120.38 5135668.36 189.02
-9755122.28 5135666.27 188.83
-9755119.08 5135666.84 189.47
-9755120.19 5135663.08 187.39
-9755121.47 5135668.45 186.10
-9755125.42 5135666.61 181.41
-9755122.84 5135665.72 186.81
-9755121.07 5135666.82 188.99
-9755118.76 5135667.83 187.31
-9755117.91 5135665.16 189.20
-9755119.67 5135667.14 189.24
-9755123.68 5135664.55 184.77
-9755121.12 5135664.20 189.84
-9755118.46 5135667.14 188.04
-9755119.81 5135668.49 187.08
-9755118.74 5135667.95 189.34
-9755118.47 5135667.47 188.08
-9755120.98 5135667.46 181.42
-9755130.24 5135665.05 186.24
-9755126.68 5135664.27 188.17
-9755126.34 5135664.65 188.17
-9755125.24 5135665.86 188.74
-9755124.85 5135664.90 187.62
-9755130.28 5135665.60 186.03
-9755117.58 5135663.11 187.39
-9755130.10 5135666.40 181.43
-9755121.36 5135667.66 187.41
-9755118.40 5135667.78 188.79
-9755120.19 5135667.52 189.45
-9755118.37 5135667.46 188.79
-9755123.62 5135665.71 187.17
-9755125.79 5135664.60 188.50
-9755121.71 5135666.27 188.87
-9755123.45 5135664.63 188.39
-9755121.32 5135665.58 189.20
-9755120.42 5135666.32 186.72
-9755118.40 5135665.38 189.83
-9755118.15 5135663.91 186.59
-9755121.25 5135666.01 189.20
-9755122.74 5135664.53 188.47
-9755130.44 5135663.40 181.54
-9755123.06 5135663.63 188.15
-9755123.78 5135664.21 188.76
-9755119.82 5135667.13 188.98
-9755122.90 5135663.35 188.15
-9755117.69 5135667.21 187.71
-9755124.56 5135665.43 187.77
-9755118.35 5135668.69 181.42
-9755129.56 5135664.31 181.49
-9755117.79 5135663.71 188.07
-9755119.92 5135667.21 189.29
-9755124.33 5135663.36 188.33
-9755122.51 5135664.63 188.75
-9755118.05 5135666.00 185.96
-9755124.57 5135664.82 188.10
-9755122.46 5135666.62 187.35
-9755119.57 5135666.53 188.56
-9755129.25 5135666.70 181.40
-9755122.14 5135663.38 186.64
-9755122.19 5135667.90 185.17
-9755121.34 5135667.74 188.85
-9755118.10 5135666.44 185.18
-9755121.74 5135665.46 188.85
-9755125.82 5135666.64 188.27
-9755122.87 5135664.31 187.29
-9755122.41 5135665.94 181.43
-9755118.76 5135664.52 188.06
-9755122.91 5135665.13 188.53
-9755122.52 5135664.49 188.47
-9755120.38 5135666.19 189.29
-9755121.19 5135664.25 187.80
-9755130.14 5135665.15 185.06
-9755122.76 5135667.15 187.92
-9755130.13 5135665.79 181.45
-9755117.77 5135665.91 184.87
-9755117.80 5135666.19 185.98
-9755122.24 5135663.25 187.70
-9755124.03 5135664.22 188.61
-9755117.87 5135663.53 188.90
-9755123.62 5135663.19 189.00
-9755119.98 5135665.95 189.97
-9755125.49 5135666.26 188.54
-9755122.22 5135666.82 188.90
-9755122.52 5135667.45 188.74
-9755118.68 5135665.01 189.72
-9755121.78 5135664.41 187.95
-9755121.29 5135665.85 187.71
-9755118.28 5135665.98 188.07
-9755124.64 5135665.18 188.06
-9755117.90 5135663.43 188.03
-9755120.74 5135664.46 189.80
-9755125.46 5135667.84 181.43
-9755125.22 5135664.60 188.58
-9755125.23 5135663.98 187.01
-9755121.52 5135666.16 189.22
-9755124.24 5135664.51 188.58
-9755120.37 5135667.23 188.99
-9755119.32 5135666.04 187.87
-9755120.24 5135663.32 189.10
-9755119.58 5135663.28 188.49
-9755124.03 5135665.05 188.00
-9755122.16 5135664.29 187.01
-9755118.98 5135664.25 189.61
-9755125.12 5135666.41 181.41
-9755125.82 5135664.22 188.85
-9755121.11 5135666.06 186.76
-9755126.63 5135665.37 188.10
-9755122.75 5135668.19 186.26
-9755119.79 5135667.78 186.85
-9755122.92 5135663.65 188.57
-9755122.14 5135665.10 188.16
-9755123.37 5135668.59 185.07
-9755118.78 5135668.49 187.43
-9755121.97 5135664.57 187.19
-9755119.74 5135666.10 187.76
-9755119.31 5135666.31 189.42
-9755122.85 5135663.96 187.80
-9755124.01 5135667.60 185.61
-9755122.53 5135665.34 189.06
-9755125.22 5135664.28 188.54
-9755119.16 5135667.84 181.45
-9755119.30 5135666.32 188.96
-9755122.01 5135665.48 189.17
-9755120.45 5135667.91 187.43
-9755120.78 5135665.88 186.53
-9755120.87 5135664.15 190.11
-9755120.74 5135667.17 189.58
-9755121.69 5135665.68 188.87
-9755122.22 5135665.18 189.13
-9755119.88 5135665.13 190.24
-9755129.85 5135665.38 185.27
-9755118.65 5135665.99 189.17
-9755120.67 5135665.76 189.28
-9755117.81 5135663.93 189.31
-9755117.72 5135667.49 188.45
-9755123.72 5135668.41 181.44
-9755123.21 5135665.97 187.07
-9755119.33 5135664.94 190.07
-9755118.61 5135665.54 185.16
-9755124.13 5135664.43 187.63
-9755117.50 5135666.05 188.05
-9755123.75 5135664.60 188.49
-9755117.51 5135664.27 187.69
-9755120.47 5135667.43 188.62
-9755124.94 5135666.22 188.57
-9755124.06 5135664.04 188.75
-9755118.40 5135665.95 189.60
-9755117.90 5135666.09 189.11
-9755123.65 5135667.63 185.74
-9755130.14 5135665.53 185.71
-9755117.57 5135665.50 187.02
-9755122.02 5135667.76 185.88
-9755119.25 5135667.23 189.62
-9755119.60 5135665.38 189.00
-9755119.88 5135665.18 181.50
-9755122.52 5135667.62 187.92
-9755121.37 5135663.18 189.06
-9755124.55 5135662.94 186.93
-9755118.43 5135666.62 189.11
-9755126.60 5135666.37 181.39
-9755124.32 5135663.33 188.83
-9755117.52 5135667.71 188.02
-9755125.75 5135665.08 187.42
-9755122.87 5135664.79 188.75
-9755118.65 5135664.78 187.36
-9755121.09 5135668.41 186.97
-9755121.12 5135663.54 188.81
-9755118.43 5135665.40 189.19
-9755124.50 5135664.16 188.29
-9755120.17 5135667.13 187.92
-9755118.12 5135664.46 189.26
-9755124.96 5135664.54 188.71
-9755121.56 5135667.61 189.00
-9755122.51 5135668.20 185.19
-9755118.30 5135666.43 189.37
-9755122.40 5135668.47 185.60
-9755129.82 5135666.69 181.41
-9755118.04 5135665.96 186.91
-9755123.05 5135663.50 187.23
-9755117.73 5135664.16 188.90
-9755119.57 5135665.89 190.06
-9755123.46 5135664.25 188.51
-9755121.89 5135663.96 188.34
-9755120.78 5135664.21 189.83
-9755124.63 5135664.57 186.84
-9755118.35 5135665.12 188.97
-9755118.37 5135667.20 187.28
-9755125.80 5135666.74 188.59
-9755121.90 5135666.67 186.34
-9755121.92 5135663.58 188.13
-9755122.93 5135667.14 188.59
-9755119.39 5135666.82 188.52
-9755121.34 5135666.83 189.19
-9755117.87 5135664.02 187.81
-9755120.44 5135663.88 190.05
-9755125.01 5135666.59 187.43
-9755124.33 5135666.33 187.28
-9755122.24 5135666.70 188.68
-9755119.89 5135663.68 187.80
-9755117.76 5135665.13 185.34
-9755117.87 5135665.03 184.29
-9755120.80 5135666.22 189.21
-9755117.51 5135666.69 186.54
-9755118.74 5135663.89 189.11
-9755121.59 5135663.57 188.55
-9755118.10 5135665.93 189.55
-9755121.94 5135667.81 188.17
-9755129.83 5135667.59 181.39
-9755124.95 5135664.24 188.69
-9755126.27 5135668.40 182.16
-9755122.97 5135667.70 187.86
-9755124.69 5135665.48 188.61
-9755122.90 5135663.43 187.02
-9755122.27 5135666.12 186.50
-9755125.79 5135665.72 188.52
-9755124.60 5135664.26 188.69
-9755120.82 5135666.03 189.90
-9755126.30 5135667.83 182.17
-9755123.37 5135663.40 188.44
-9755117.60 5135666.19 188.01
-9755120.73 5135663.42 188.59
-9755124.50 5135663.61 188.12
-9755123.40 5135664.02 187.25
-9755128.10 5135664.34 181.46
-9755117.90 5135665.33 188.96
-9755122.01 5135667.25 185.65
-9755125.16 5135663.87 188.98
-9755122.72 5135667.86 185.11
-9755120.04 5135666.55 189.66
-9755119.54 5135666.87 189.33
-9755121.97 5135663.12 188.70
-9755119.66 5135665.85 189.73
-9755129.55 5135663.75 181.51
-9755130.16 5135665.33 185.34
-9755118.23 5135665.42 184.75
-9755117.55 5135666.66 186.84
-9755118.56 5135665.19 185.22
-9755125.56 5135664.17 188.78
-9755120.39 5135668.75 185.85
-9755118.51 5135668.50 185.43
-9755120.21 5135665.08 189.85
-9755120.41 5135664.99 190.10
-9755119.29 5135664.78 189.68
-9755119.26 5135667.15 187.92
-9755121.46 5135665.23 189.57
-9755125.00 5135665.64 188.44
-9755122.97 5135663.91 185.09
-9755121.65 5135667.23 188.66
-9755123.37 5135666.30 186.23
-9755123.87 5135667.09 185.69
-9755119.91 5135663.06 187.57
-9755119.86 5135666.02 187.89
-9755123.25 5135667.99 185.82
-9755126.03 5135668.18 182.10
-9755129.63 5135665.33 185.27
-9755119.64 5135668.43 187.55
-9755122.30 5135666.30 188.31
-9755120.47 5135668.30 188.49
-9755118.38 5135667.77 189.39
-9755120.38 5135664.65 190.35
-9755117.86 5135668.32 185.22
-9755120.51 5135663.50 189.92
-9755125.81 5135667.15 188.36
-9755119.95 5135663.41 187.95
-9755119.58 5135663.84 189.99
-9755117.54 5135668.52 187.28
-9755121.85 5135667.30 187.53
-9755117.62 5135665.66 187.76
-9755123.73 5135664.11 187.60
-9755118.13 5135664.17 188.96
-9755121.56 5135666.91 181.43
-9755117.82 5135665.41 189.19
-9755120.18 5135664.43 189.34
-9755118.35 5135664.60 187.96
-9755117.48 5135666.30 187.74
-9755117.80 5135665.10 187.71
-9755120.68 5135663.86 190.06
-9755124.96 5135663.67 188.25
-9755118.67 5135668.18 188.73
-9755122.52 5135663.39 188.57
-9755123.73 5135663.63 187.21
-9755124.91 5135667.00 188.52
-9755125.27 5135664.91 188.84
-9755126.68 5135665.11 188.49
-9755119.28 5135664.30 186.66
-9755122.86 5135665.13 187.30
-9755116.99 5135669.31 186.92
-9755117.19 5135669.59 186.96
-9755117.72 5135670.20 181.37
-9755117.18 5135669.99 186.67
-9755117.15 5135672.85 181.21
-9755117.39 5135668.64 185.05
-9755117.47 5135668.80 187.32
-9755117.11 5135668.64 186.66
-9755117.23 5135668.66 187.16
-9755117.46 5135670.25 186.94
-9755116.81 5135672.81 181.19
-9755116.82 5135668.96 186.40
-9755116.55 5135669.32 186.16
-9755116.88 5135668.92 186.69
-9755116.18 5135669.45 185.98
-9755116.84 5135672.23 181.21
-9755116.45 5135668.57 187.65
-9755116.85 5135670.49 181.35
-9755116.88 5135669.56 181.38
-9755116.26 5135669.59 181.38
-9755116.28 5135669.21 181.40
-9755116.63 5135669.01 186.43
-9755117.67 5135678.80 181.34
-9755117.73 5135677.88 181.32
-9755116.24 5135675.24 181.28
-9755117.35 5135677.58 181.34
-9755117.09 5135678.73 181.34
-9755116.19 5135678.15 181.33
-9755116.23 5135678.47 181.34
-9755116.24 5135679.91 181.37
-9755117.55 5135666.72 185.95
-9755117.01 5135667.48 186.75
-9755117.21 5135664.27 187.51
-9755117.65 5135667.27 187.98
-9755117.21 5135667.20 186.82
-9755117.20 5135664.79 188.20
-9755117.24 5135666.67 186.34
-9755117.13 5135665.98 186.81
-9755117.12 5135668.49 187.23
-9755117.21 5135663.73 187.30
-9755117.53 5135666.77 184.36
-9755117.26 5135666.17 186.56
-9755117.18 5135668.07 187.35
-9755116.91 5135664.31 187.09
-9755117.21 5135667.52 187.92
-9755117.49 5135663.90 188.12
-9755116.72 5135667.52 186.69
-9755117.19 5135667.77 181.46
-9755116.92 5135665.06 188.45
-9755116.89 5135667.82 186.61
-9755117.15 5135666.23 186.13
-9755117.21 5135666.07 187.53
-9755117.24 5135665.81 186.45
-9755116.36 5135668.20 186.84
-9755117.03 5135665.99 184.48
-9755116.95 5135664.82 187.68
-9755117.26 5135665.33 188.21
-9755116.88 5135665.81 186.71
-9755117.50 5135665.52 188.13
-9755117.33 5135663.53 185.65
-9755117.01 5135665.12 187.77
-9755116.97 5135667.78 187.07
-9755116.92 5135664.75 185.68
-9755116.60 5135665.57 187.18
-9755117.23 5135666.26 187.90
-9755117.44 5135666.75 188.55
-9755117.19 5135666.14 184.49
-9755116.90 5135665.95 187.14
-9755116.56 5135666.56 186.62
-9755116.69 5135663.43 185.23
-9755116.25 5135665.42 187.28
-9755116.24 5135668.12 186.03
-9755116.29 5135665.99 186.55
-9755116.29 5135668.44 185.99
-9755116.24 5135667.22 186.08
-9755116.35 5135665.76 187.09
-9755116.63 5135664.56 185.68
-9755116.67 5135666.71 186.07
-9755116.83 5135668.37 181.44
-9755116.91 5135667.04 186.84
-9755116.01 5135666.23 186.50
-9755116.30 5135664.54 181.48
-9755116.60 5135667.80 185.98
-9755116.83 5135665.69 181.49
-9755116.62 5135666.14 186.57
-9755117.19 5135663.03 181.52
-9755116.27 5135666.35 186.23
-9755116.27 5135666.90 181.42
-9755116.84 5135663.85 188.21
-9755116.35 5135663.94 187.15
-9755116.40 5135664.08 186.72
-9755116.08 5135663.70 186.89
-9755116.58 5135665.82 183.48
-9755116.03 5135664.33 186.99
-9755116.28 5135664.37 186.34
-9755116.27 5135667.20 181.45
-9755116.34 5135667.83 186.84
-9755116.57 5135663.04 187.33
-9755116.48 5135664.36 187.57
-9755116.55 5135665.22 185.72
-9755116.37 5135666.69 186.13
-9755116.85 5135663.37 188.22
-9755116.37 5135664.20 185.36
-9755116.50 5135663.19 185.13
-9755116.33 5135666.99 186.87
-9755116.38 5135665.17 187.22
-9755116.32 5135665.22 186.83
-9755106.28 5135668.65 181.32
-9755107.75 5135670.38 181.32
-9755110.35 5135672.77 181.29
-9755104.73 5135671.89 181.35
-9755111.78 5135672.87 181.26
-9755106.17 5135673.93 181.36
-9755111.26 5135669.26 181.40
-9755113.53 5135673.68 181.25
-9755112.08 5135673.14 181.25
-9755114.50 5135670.47 181.34
-9755111.21 5135674.86 181.28
-9755114.51 5135669.89 181.36
-9755107.12 5135669.48 181.32
-9755108.83 5135674.26 181.31
-9755109.48 5135673.67 181.32
-9755109.47 5135670.38 181.29
-9755108.00 5135673.41 181.32
-9755107.39 5135670.98 181.32
-9755106.81 5135671.00 181.33
-9755112.07 5135674.57 181.28
-9755114.73 5135674.31 181.25
-9755115.32 5135673.76 181.25
-9755112.39 5135674.29 181.28
-9755109.17 5135669.49 181.40
-9755110.35 5135671.30 181.30
-9755110.02 5135671.07 181.31
-9755110.37 5135674.23 181.31
-9755114.48 5135674.56 181.25
-9755109.44 5135671.62 181.31
-9755108.85 5135672.78 181.31
-9755103.82 5135670.67 181.33
-9755114.45 5135669.27 181.38
-9755115.37 5135671.06 181.33
-9755112.19 5135671.32 181.25
-9755106.84 5135672.51 181.34
-9755115.04 5135671.08 181.34
-9755115.94 5135668.69 181.41
-9755111.81 5135669.27 181.41
-9755107.95 5135674.84 181.33
-9755106.80 5135668.91 181.31
-9755107.69 5135671.85 181.33
-9755113.56 5135674.88 181.27
-9755114.72 5135672.50 181.21
-9755112.18 5135668.68 181.42
-9755111.57 5135670.81 181.31
-9755106.81 5135673.10 181.34
-9755109.19 5135673.39 181.32
-9755106.80 5135672.72 181.33
-9755115.67 5135668.68 181.41
-9755115.02 5135672.82 181.22
-9755110.39 5135670.43 181.37
-9755107.96 5135671.91 181.32
-9755104.17 5135674.25 181.36
-9755114.16 5135672.53 181.20
-9755113.57 5135672.20 181.20
-9755115.07 5135675.20 181.27
-9755114.48 5135675.75 181.30
-9755105.87 5135680.18 181.41
-9755104.12 5135675.09 181.36
-9755105.33 5135678.99 181.38
-9755112.05 5135679.29 181.35
-9755110.89 5135678.44 181.33
-9755112.68 5135679.88 181.37
-9755104.38 5135680.14 181.39
-9755114.46 5135676.09 181.30
-9755110.31 5135679.62 181.36
-9755104.39 5135678.74 181.38
-9755107.93 5135675.19 181.32
-9755106.42 5135680.73 181.39
-9755104.09 5135680.76 181.41
-9755111.51 5135677.54 181.32
-9755112.65 5135678.46 181.33
-9755106.19 5135677.52 181.36
-9755112.96 5135676.67 181.32
-9755108.85 5135676.07 181.34
-9755107.66 5135679.56 181.38
-9755112.31 5135680.20 181.35
-9755111.20 5135678.16 181.33
-9755114.15 5135679.97 181.37
-9755112.10 5135675.79 181.30
-9755112.06 5135678.10 181.31
-9755108.81 5135679.57 181.37
-9755113.56 5135675.79 181.30
-9755109.71 5135679.92 181.38
-9755113.51 5135679.89 181.34
-9755108.82 5135679.87 181.36
-9755111.16 5135679.94 181.36
-9755104.42 5135679.55 181.40
-9755107.35 5135679.34 181.38
-9755105.86 5135679.27 181.38
-9755113.31 5135678.46 181.35
-9755114.44 5135677.85 181.34
-9755112.98 5135677.31 181.32
-9755110.26 5135680.74 181.38
-9755111.23 5135676.67 181.33
-9755104.12 5135680.15 181.39
-9755113.48 5135679.00 181.35
-9755115.31 5135679.31 181.36
-9755105.27 5135680.47 181.40
-9755108.83 5135678.69 181.35
-9755113.56 5135677.22 181.33
-9755113.88 5135677.54 181.33
-9755103.01 5135668.60 181.34
-9755103.25 5135673.38 181.36
-9755097.37 5135669.45 181.40
-9755102.98 5135673.04 181.36
-9755099.65 5135673.59 181.38
-9755102.07 5135670.65 181.35
-9755101.47 5135672.71 181.36
-9755100.60 5135671.25 181.38
-9755100.95 5135668.62 181.37
-9755099.49 5135670.65 181.38
-9755098.52 5135669.42 181.40
-9755100.64 5135669.19 181.37
-9755101.83 5135672.77 181.36
-9755101.17 5135670.99 181.36
-9755101.49 5135671.24 181.35
-9755101.19 5135674.53 181.38
-9755101.81 5135673.39 181.36
-9755097.64 5135671.21 181.40
-9755098.54 5135671.80 181.39
-9755100.58 5135672.17 181.37
-9755099.40 5135674.49 181.39
-9755102.68 5135675.14 181.38
-9755103.51 5135679.28 181.39
-9755103.24 5135675.17 181.37
-9755103.21 5135679.30 181.39
-9755099.65 5135680.17 181.42
-9755100.56 5135678.06 181.38
-9755098.78 5135680.74 181.41
-9755101.49 5135676.82 181.38
-9755102.93 5135677.73 181.39
-9755102.29 5135678.97 181.41
-9755101.17 5135678.32 181.37
-9755099.10 5135677.44 181.39
-9755101.76 5135676.00 181.37
-9755100.26 5135675.96 181.40
-9755099.69 5135680.71 181.42
-9755101.13 5135680.71 181.41
-9755097.96 5135675.39 181.40
-9755099.36 5135680.72 181.42
-9755097.92 5135679.80 181.41
-9755098.81 5135679.26 181.41
-9755097.92 5135678.62 181.40
-9755099.13 5135679.24 181.41
-9755100.59 5135675.44 181.40
-9755099.93 5135679.27 181.40
-9755101.77 5135679.21 181.40
-9755098.23 5135680.18 181.42
-9755107.73 5135666.87 181.37
-9755116.09 5135665.57 186.53
-9755107.16 5135666.23 181.37
-9755116.04 5135663.36 181.51
-9755112.16 5135664.54 181.44
-9755109.79 5135667.15 181.41
-9755111.25 5135667.77 181.42
-9755114.47 5135667.52 181.44
-9755112.76 5135663.64 181.44
-9755110.08 5135667.14 181.41
-9755114.47 5135668.09 181.41
-9755113.64 5135664.54 181.45
-9755114.53 5135666.30 181.46
-9755104.82 5135662.96 181.41
-9755111.26 5135663.62 181.44
-9755112.73 5135666.87 181.44
-9755110.68 5135667.49 181.43
-9755115.88 5135663.46 187.21
-9755106.59 5135664.19 181.41
-9755105.98 5135665.36 181.37
-9755113.59 5135666.03 181.48
-9755109.77 5135666.28 181.41
-9755105.09 5135664.51 181.40
-9755108.05 5135664.24 181.41
-9755107.75 5135667.17 181.37
-9755108.86 5135668.02 181.39
-9755109.20 5135665.37 181.42
-9755104.52 5135663.88 181.40
-9755111.33 5135663.22 181.92
-9755108.86 5135666.54 181.39
-9755113.64 5135663.97 181.47
-9755105.67 5135665.98 181.35
-9755104.19 5135667.12 181.34
-9755107.75 5135665.99 181.40
-9755105.65 5135663.00 181.41
-9755112.72 5135667.48 181.44
-9755111.00 5135664.20 181.44
-9755116.08 5135665.79 187.04
-9755112.71 5135668.35 181.42
-9755116.01 5135664.81 181.48
-9755108.62 5135665.94 181.40
-9755114.22 5135665.43 181.44
-9755110.08 5135664.23 181.44
-9755113.29 5135668.36 181.41
-9755106.81 5135666.55 181.36
-9755112.77 5135668.09 181.42
-9755105.67 5135665.39 181.37
-9755106.26 5135668.04 181.32
-9755115.79 5135664.27 186.58
-9755111.25 5135664.80 181.44
-9755114.25 5135664.55 181.47
-9755115.06 5135665.09 181.45
-9755103.61 5135664.17 181.38
-9755103.57 5135667.69 181.33
-9755103.02 5135664.73 181.31
-9755101.84 5135666.83 181.35
-9755103.04 5135663.27 181.37
-9755099.78 5135664.46 181.36
-9755098.01 5135663.86 181.35
-9755099.84 5135667.12 181.36
-9755103.05 5135664.46 181.32
-9755098.89 5135662.95 181.36
-9755100.36 5135665.88 181.34
-9755097.42 5135663.55 181.37
-9755100.39 5135665.59 181.34
-9755101.83 5135665.92 181.35
-9755101.86 5135667.69 181.34
-9755098.00 5135665.94 181.37
-9755100.92 5135665.95 181.35
-9755098.91 5135665.90 181.37
-9755099.49 5135666.53 181.37
-9755100.93 5135666.80 181.35
-9755099.47 5135663.24 181.35
-9755100.04 5135668.30 181.38
-9755099.44 5135667.04 181.36
-9755098.63 5135665.01 181.35
-9755098.00 5135662.96 181.35
-9755100.97 5135664.17 181.34
-9755103.02 5135667.13 181.34
-9755098.31 5135665.28 181.37
-9755101.54 5135667.68 181.36
-9755098.59 5135664.80 181.35
-9755094.74 5135670.02 181.43
-9755096.23 5135675.02 181.40
-9755095.85 5135675.09 181.40
-9755096.25 5135673.00 181.39
-9755092.09 5135670.64 181.43
-9755095.84 5135674.20 181.39
-9755094.73 5135672.68 181.42
-9755095.31 5135672.66 181.41
-9755092.98 5135671.21 181.44
-9755095.60 5135672.66 181.40
-9755095.34 5135670.89 181.41
-9755092.10 5135669.15 181.42
-9755095.29 5135674.15 181.39
-9755092.37 5135670.03 181.43
-9755093.25 5135674.16 181.41
-9755091.49 5135668.85 181.43
-9755094.08 5135674.20 181.41
-9755096.19 5135673.57 181.37
-9755092.99 5135672.10 181.43
-9755094.40 5135675.08 181.40
-9755095.59 5135671.22 181.41
-9755093.01 5135668.55 181.41
-9755092.02 5135671.43 181.42
-9755094.74 5135671.20 181.43
-9755094.71 5135673.60 181.39
-9755096.22 5135670.36 181.43
-9755094.65 5135679.49 181.41
-9755094.41 5135675.98 181.40
-9755097.07 5135675.98 181.41
-9755093.52 5135676.18 181.40
-9755095.82 5135678.38 181.42
-9755095.84 5135680.12 181.40
-9755093.76 5135680.40 181.42
-9755094.14 5135678.33 181.41
-9755094.67 5135680.38 181.42
-9755093.80 5135680.67 181.42
-9755092.31 5135677.42 181.40
-9755096.15 5135678.39 181.41
-9755095.62 5135675.40 181.40
-9755093.81 5135675.43 181.41
-9755092.90 5135677.77 181.41
-9755092.56 5135680.08 181.41
-9755096.18 5135678.91 181.40
-9755095.87 5135675.99 181.39
-9755091.47 5135676.20 181.42
-9755093.87 5135667.97 181.40
-9755092.06 5135665.87 181.42
-9755096.86 5135662.94 181.36
-9755094.79 5135667.40 181.40
-9755091.58 5135662.91 181.39
-9755094.79 5135667.94 181.39
-9755094.73 5135664.08 181.39
-9755096.28 5135663.54 181.37
-9755094.75 5135665.88 181.41
-9755093.03 5135664.15 181.40
-9755092.09 5135662.94 181.38
-9755093.92 5135664.68 181.40
-9755096.20 5135664.71 181.39
-9755093.05 5135664.93 181.40
-9755091.22 5135665.00 181.40
-9755090.66 5135666.17 181.41
-9755091.23 5135668.54 181.42
-9755096.50 5135663.58 181.37
-9755095.68 5135662.88 181.38
-9755093.85 5135665.63 181.41
-9755093.02 5135667.07 181.42
-9755094.81 5135664.44 181.37
-9755090.95 5135662.92 181.37
-9755094.15 5135667.10 181.40
-9755089.74 5135672.37 181.43
-9755090.56 5135670.91 181.41
-9755085.29 5135673.52 181.37
-9755087.29 5135674.10 181.39
-9755087.05 5135670.85 181.42
-9755084.66 5135672.36 181.41
-9755083.23 5135673.54 181.42
-9755084.13 5135674.47 181.36
-9755081.76 5135671.74 181.52
-9755089.70 5135668.79 181.40
-9755083.53 5135672.64 181.43
-9755083.82 5135668.80 181.51
-9755086.13 5135675.02 181.37
-9755083.52 5135670.25 181.52
-9755088.49 5135674.42 181.38
-9755085.81 5135673.27 181.37
-9755088.26 5135669.15 181.41
-9755085.02 5135670.28 181.49
-9755086.51 5135669.71 181.49
-9755082.95 5135671.18 181.50
-9755083.55 5135671.14 181.48
-9755087.36 5135672.40 181.39
-9755086.15 5135668.78 181.49
-9755082.92 5135672.28 181.47
-9755088.23 5135673.57 181.39
-9755089.12 5135671.20 181.42
-9755083.23 5135674.42 181.42
-9755089.64 5135673.85 181.41
-9755082.06 5135671.15 181.53
-9755087.96 5135670.35 181.41
-9755089.15 5135673.54 181.41
-9755085.25 5135674.19 181.36
-9755089.45 5135670.30 181.43
-9755084.68 5135674.65 181.34
-9755087.41 5135668.77 181.52
-9755087.32 5135672.07 181.39
-9755090.34 5135675.64 181.41
-9755089.98 5135677.13 181.42
-9755089.96 5135676.23 181.40
-9755085.27 5135675.01 181.36
-9755086.17 5135674.46 181.38
-9755087.32 5135675.88 181.38
-9755083.78 5135679.14 181.35
-9755089.07 5135677.63 181.39
-9755084.97 5135676.80 181.36
-9755083.18 5135679.42 181.35
-9755081.97 5135676.79 181.32
-9755086.68 5135679.14 181.37
-9755085.54 5135677.11 181.35
-9755084.37 5135675.92 181.34
-9755081.70 5135677.09 181.32
-9755087.32 5135679.18 181.38
-9755082.95 5135679.17 186.96
-9755087.89 5135677.37 181.41
-9755086.74 5135680.11 181.38
-9755087.02 5135679.45 181.39
-9755088.22 5135677.72 181.38
-9755083.00 5135677.56 187.34
-9755083.48 5135680.12 186.99
-9755082.63 5135679.75 186.87
-9755082.80 5135676.13 187.34
-9755084.93 5135680.69 181.35
-9755085.85 5135680.68 181.37
-9755081.69 5135680.01 181.34
-9755085.27 5135678.30 181.36
-9755084.40 5135677.73 181.33
-9755082.94 5135679.69 187.40
-9755088.15 5135679.47 181.41
-9755087.93 5135677.09 181.40
-9755083.12 5135676.50 187.35
-9755090.68 5135664.42 181.37
-9755083.03 5135662.80 183.62
-9755082.99 5135664.67 183.55
-9755083.85 5135663.37 183.56
-9755084.25 5135665.30 184.07
-9755088.84 5135664.63 181.38
-9755083.13 5135665.07 184.70
-9755089.16 5135664.36 181.37
-9755083.89 5135664.22 184.68
-9755084.48 5135662.80 184.15
-9755082.63 5135666.75 181.53
-9755083.88 5135663.01 184.06
-9755083.87 5135665.20 183.93
-9755082.64 5135663.07 183.56
-9755082.36 5135663.36 184.60
-9755082.64 5135666.57 183.93
-9755088.28 5135667.07 181.42
-9755082.42 5135667.23 183.69
-9755083.28 5135663.33 184.82
-9755082.67 5135668.49 181.55
-9755089.42 5135668.50 181.41
-9755082.68 5135664.33 183.55
-9755082.64 5135664.62 183.10
-9755085.63 5135667.62 181.49
-9755081.82 5135666.88 183.75
-9755083.89 5135664.82 183.90
-9755084.71 5135664.00 183.00
-9755086.50 5135667.32 181.49
-9755081.55 5135665.72 184.02
-9755082.14 5135663.02 184.24
-9755082.14 5135665.59 181.44
-9755083.18 5135667.13 183.96
-9755082.40 5135663.35 183.94
-9755082.12 5135665.32 184.52
-9755083.05 5135663.80 184.52
-9755082.40 5135665.53 181.46
-9755082.97 5135663.36 184.67
-9755082.12 5135664.16 183.22
-9755081.60 5135665.74 183.59
-9755084.76 5135667.89 181.50
-9755087.93 5135668.55 181.44
-9755084.18 5135666.43 181.54
-9755082.97 5135664.27 181.50
-9755082.57 5135664.72 181.46
-9755082.11 5135665.67 184.51
-9755082.99 5135664.22 184.85
-9755081.74 5135666.28 183.76
-9755081.77 5135667.62 181.46
-9755087.34 5135667.61 181.50
-9755083.90 5135665.78 183.20
-9755083.56 5135667.00 181.57
-9755086.53 5135666.69 181.50
-9755082.94 5135664.85 184.28
-9755082.57 5135664.24 183.18
-9755088.85 5135667.89 181.43
-9755084.19 5135662.99 183.69
-9755085.03 5135665.87 181.50
-9755082.71 5135662.84 183.20
-9755082.12 5135666.59 183.79
-9755084.24 5135664.56 184.52
-9755087.88 5135667.65 181.49
-9755084.21 5135663.84 184.66
-9755082.72 5135665.44 183.83
-9755083.47 5135662.96 183.08
-9755086.20 5135665.53 181.50
-9755083.33 5135665.72 184.71
-9755082.55 5135664.18 183.96
-9755082.11 5135662.78 184.06
-9755082.10 5135665.80 181.45
-9755088.88 5135665.86 181.40
-9755084.47 5135665.19 183.48
-9755082.61 5135663.98 183.41
-9755082.73 5135666.86 184.21
-9755086.22 5135667.01 181.50
-9755082.18 5135663.97 183.24
-9755121.36 5135662.97 188.60
-9755133.49 5135646.59 181.36
-9755133.50 5135651.32 181.58
-9755134.01 5135657.85 181.34
-9755133.49 5135650.71 181.60
-9755134.08 5135661.21 185.75
-9755133.46 5135661.46 184.81
-9755133.97 5135661.80 185.66
-9755133.74 5135650.40 181.58
-9755133.70 5135658.75 181.34
-9755133.43 5135659.30 181.34
-9755133.19 5135661.24 185.15
-9755133.24 5135648.63 182.19
-9755133.44 5135654.25 181.49
-9755134.06 5135652.79 181.59
-9755133.45 5135656.37 181.34
-9755133.14 5135663.42 188.87
-9755134.04 5135663.16 189.38
-9755134.08 5135662.74 189.67
-9755133.22 5135661.61 187.57
-9755132.85 5135662.29 186.55
-9755133.75 5135663.05 189.06
-9755133.09 5135662.26 187.36
-9755132.89 5135662.59 187.55
-9755133.71 5135662.04 187.39
-9755132.87 5135662.45 189.39
-9755134.06 5135663.11 190.05
-9755134.10 5135662.20 189.70
-9755133.45 5135663.07 190.22
-9755132.85 5135662.64 186.51
-9755134.07 5135662.24 189.49
-9755133.42 5135661.98 187.89
-9755131.13 5135646.55 181.38
-9755132.06 5135644.50 181.37
-9755131.72 5135644.17 181.38
-9755134.11 5135643.87 181.36
-9755132.30 5135646.54 181.36
-9755132.61 5135643.95 181.36
-9755131.74 5135647.42 181.37
-9755132.64 5135647.49 181.37
-9755125.84 5135647.59 188.44
-9755124.49 5135647.33 188.85
-9755127.56 5135647.84 188.96
-9755123.60 5135647.67 189.84
-9755127.09 5135647.77 188.99
-9755123.03 5135647.92 187.39
-9755125.82 5135646.82 187.91
-9755122.58 5135647.29 186.75
-9755126.23 5135646.47 187.96
-9755125.91 5135647.88 189.03
-9755123.77 5135647.68 189.51
-9755125.83 5135647.26 188.76
-9755123.91 5135647.62 188.38
-9755125.89 5135646.56 187.90
-9755121.13 5135647.58 186.46
-9755124.44 5135647.88 189.28
-9755127.04 5135646.53 188.06
-9755123.74 5135647.04 187.05
-9755127.57 5135646.58 187.94
-9755123.16 5135645.59 181.36
-9755120.92 5135647.11 186.64
-9755128.51 5135646.91 187.97
-9755126.68 5135646.54 188.03
-9755126.43 5135647.75 187.22
-9755124.29 5135645.04 181.34
-9755122.88 5135647.22 187.04
-9755119.33 5135647.07 181.33
-9755124.42 5135647.30 188.44
-9755119.92 5135646.54 186.55
-9755120.63 5135647.79 186.06
-9755120.85 5135644.45 181.35
-9755126.88 5135646.50 187.52
-9755127.88 5135645.64 181.37
-9755123.15 5135646.48 186.82
-9755121.07 5135645.33 181.36
-9755125.91 5135647.35 189.26
-9755122.95 5135646.86 186.80
-9755122.89 5135644.45 181.36
-9755118.47 5135645.01 181.31
-9755127.99 5135647.11 187.86
-9755124.94 5135647.72 181.36
-9755121.73 5135647.46 186.61
-9755124.15 5135647.94 189.18
-9755123.26 5135647.68 187.40
-9755123.21 5135647.95 189.30
-9755119.61 5135646.54 186.28
-9755127.31 5135645.65 181.39
-9755122.69 5135646.66 186.83
-9755128.30 5135646.80 188.82
-9755123.24 5135647.33 187.05
-9755119.37 5135646.52 186.32
-9755123.82 5135647.35 189.49
-9755125.28 5135647.92 189.44
-9755124.21 5135647.90 188.37
-9755121.99 5135647.90 186.47
-9755128.25 5135646.49 188.52
-9755120.17 5135646.26 181.34
-9755122.09 5135647.53 187.17
-9755120.26 5135646.89 186.57
-9755123.25 5135647.08 188.36
-9755121.10 5135647.06 186.82
-9755124.39 5135646.44 187.18
-9755124.64 5135647.79 187.68
-9755119.40 5135645.64 181.34
-9755123.14 5135647.41 187.33
-9755127.13 5135648.25 188.98
-9755122.62 5135647.71 188.26
-9755125.00 5135647.27 189.50
-9755125.32 5135644.75 181.37
-9755125.25 5135647.08 188.27
-9755118.14 5135647.09 181.30
-9755122.06 5135646.39 187.45
-9755120.84 5135647.48 186.48
-9755119.65 5135647.10 186.21
-9755119.05 5135647.10 181.31
-9755121.10 5135645.05 181.36
-9755122.95 5135647.08 188.42
-9755122.66 5135648.08 186.82
-9755125.01 5135647.39 188.44
-9755122.34 5135644.70 181.37
-9755123.76 5135647.28 188.93
-9755121.49 5135647.95 186.75
-9755123.09 5135647.94 189.29
-9755127.10 5135647.21 188.06
-9755123.79 5135647.25 186.68
-9755125.98 5135647.35 188.19
-9755121.14 5135646.55 186.90
-9755120.85 5135647.74 181.34
-9755123.38 5135646.86 189.15
-9755120.23 5135647.94 187.00
-9755122.36 5135647.45 187.17
-9755119.87 5135647.08 181.33
-9755129.05 5135647.14 188.06
-9755124.67 5135645.35 181.36
-9755124.50 5135647.46 187.32
-9755125.92 5135648.14 189.53
-9755125.02 5135647.08 188.26
-9755122.02 5135647.50 186.69
-9755125.83 5135644.75 181.37
-9755126.55 5135646.41 188.54
-9755119.35 5135647.41 181.32
-9755127.11 5135648.00 187.92
-9755119.34 5135644.95 181.32
-9755119.99 5135647.96 186.60
-9755120.85 5135647.18 187.00
-9755126.20 5135647.97 187.55
-9755119.99 5135647.41 186.95
-9755126.77 5135647.77 189.50
-9755123.47 5135647.46 186.62
-9755126.52 5135647.32 188.94
-9755119.97 5135647.43 186.46
-9755124.48 5135646.54 188.27
-9755119.66 5135647.81 186.59
-9755126.47 5135647.08 187.32
-9755130.53 5135647.15 181.36
-9755122.93 5135644.15 181.36
-9755123.77 5135646.56 188.40
-9755124.68 5135647.08 189.43
-9755125.83 5135648.10 187.69
-9755121.14 5135647.46 186.85
-9755122.05 5135647.54 185.09
-9755121.87 5135647.88 187.16
-9755126.17 5135647.45 188.13
-9755126.70 5135644.43 181.36
-9755133.43 5135656.05 181.34
-9755130.80 5135650.32 188.49
-9755130.54 5135650.54 188.39
-9755131.46 5135653.03 186.61
-9755132.27 5135656.91 181.33
-9755132.58 5135653.65 181.54
-9755130.94 5135651.62 187.50
-9755130.84 5135650.52 188.76
-9755131.95 5135656.95 181.33
-9755131.31 5135650.32 189.36
-9755130.62 5135651.25 188.00
-9755131.66 5135650.02 188.52
-9755130.86 5135653.09 186.50
-9755131.52 5135650.63 188.86
-9755131.07 5135658.42 181.36
-9755132.53 5135655.47 181.35
-9755131.18 5135650.30 188.76
-9755131.53 5135649.81 189.02
-9755131.48 5135650.26 189.37
-9755131.54 5135650.64 188.52
-9755132.28 5135648.04 181.45
-9755132.81 5135660.25 181.40
-9755131.18 5135649.72 189.35
-9755131.18 5135651.91 188.12
-9755130.60 5135652.36 188.60
-9755131.53 5135650.61 189.45
-9755132.07 5135652.71 187.20
-9755132.48 5135652.32 187.09
-9755131.39 5135651.10 189.85
-9755133.12 5135655.47 181.35
-9755130.94 5135650.34 189.73
-9755131.86 5135650.85 188.56
-9755131.43 5135651.07 189.24
-9755131.28 5135654.60 186.18
-9755130.61 5135650.86 189.12
-9755132.87 5135657.23 181.34
-9755132.57 5135653.36 181.55
-9755133.21 5135651.30 181.59
-9755130.87 5135654.51 188.74
-9755132.52 5135659.33 181.34
-9755132.01 5135651.12 185.34
-9755132.04 5135652.02 187.06
-9755132.19 5135650.52 186.04
-9755130.82 5135652.61 188.90
-9755130.64 5135650.64 188.10
-9755131.06 5135652.11 187.94
-9755131.21 5135649.80 181.56
