-9755232.16 5135473.72 192.23
-9755229.81 5135476.23 189.04
-9755231.43 5135475.00 190.32
-9755232.47 5135483.58 189.05
-9755229.80 5135478.26 189.05
-9755228.30 5135480.34 189.03
-9755232.52 5135475.75 191.05
-9755229.81 5135473.55 189.04
-9755229.81 5135477.40 189.05
-9755231.00 5135480.66 189.03
-9755229.56 5135483.62 189.08
-9755232.43 5135480.37 189.04
-9755232.20 5135476.82 189.03
-9755228.94 5135478.59 189.04
-9755229.77 5135482.51 189.03
-9755231.83 5135483.30 190.43
-9755228.01 5135479.48 189.05
-9755231.79 5135475.07 190.17
-9755232.08 5135482.26 190.74
-9755231.58 5135484.44 190.55
-9755228.00 5135480.35 189.04
-9755230.61 5135491.39 187.57
-9755230.68 5135488.14 187.74
-9755230.33 5135486.91 188.18
-9755231.27 5135485.33 190.54
-9755231.26 5135487.56 187.87
-9755229.12 5135490.17 187.81
-9755229.03 5135485.94 189.13
-9755231.82 5135487.24 187.56
-9755230.67 5135485.91 189.67
-9755228.54 5135485.74 189.85
-9755229.09 5135486.49 189.18
-9755229.77 5135488.12 187.92
-9755228.58 5135485.68 189.04
-9755228.59 5135488.43 188.13
-9755227.54 5135490.48 188.28
-9755231.20 5135485.70 189.67
-9755230.32 5135489.58 187.57
-9755231.17 5135489.01 187.55
-9755227.64 5135494.36 188.18
-9755227.28 5135495.49 188.19
-9755225.58 5135496.38 188.26
-9755223.99 5135496.01 188.90
-9755223.20 5135495.72 188.71
-9755225.27 5135495.74 188.24
-9755223.22 5135496.04 188.70
-9755223.08 5135495.68 189.13
-9755225.80 5135496.03 188.27
-9755223.84 5135495.11 188.71
-9755218.21 5135495.97 189.03
-9755215.79 5135495.98 189.01
-9755218.21 5135495.08 189.03
-9755221.15 5135495.73 189.03
-9755219.07 5135495.97 189.03
-9755219.95 5135495.10 189.03
-9755216.17 5135494.76 189.00
-9755216.74 5135495.98 189.01
-9755213.48 5135495.97 188.96
-9755227.34 5135491.07 188.30
-9755227.64 5135493.45 188.04
-9755222.88 5135493.98 188.75
-9755224.41 5135492.46 188.71
-9755222.61 5135491.90 189.03
-9755224.11 5135491.85 189.13
-9755224.59 5135493.92 188.88
-9755222.31 5135494.57 189.02
-9755226.48 5135494.05 188.38
-9755227.02 5135492.17 188.31
-9755225.01 5135493.95 188.48
-9755224.43 5135493.34 188.84
-9755225.27 5135492.17 188.46
-9755218.25 5135491.85 189.03
-9755217.92 5135491.24 189.02
-9755217.05 5135493.93 189.01
-9755214.96 5135493.91 188.99
-9755216.43 5135493.92 189.00
-9755219.99 5135493.05 189.04
-9755221.15 5135493.02 189.03
-9755216.46 5135492.71 189.01
-9755225.62 5135483.61 189.02
-9755222.44 5135477.00 189.00
-9755224.78 5135480.32 189.04
-9755222.75 5135481.49 189.03
-9755223.57 5135482.36 189.03
-9755222.77 5135475.01 188.99
-9755224.17 5135481.20 189.04
-9755226.50 5135482.43 189.02
-9755224.79 5135477.09 189.01
-9755224.79 5135477.35 189.02
-9755226.51 5135484.46 189.02
-9755225.68 5135477.08 189.03
-9755225.68 5135480.06 189.03
-9755223.23 5135484.37 190.11
-9755225.71 5135473.79 189.01
-9755223.92 5135478.28 189.01
-9755223.59 5135484.13 189.05
-9755223.00 5135475.02 188.99
-9755226.57 5135475.00 189.02
-9755226.53 5135477.05 189.03
-9755227.68 5135490.11 188.29
-9755227.65 5135487.47 188.38
-9755223.25 5135490.63 189.04
-9755226.46 5135489.28 188.47
-9755226.48 5135485.10 189.03
-9755222.33 5135487.75 189.03
-9755224.43 5135487.41 189.03
-9755225.29 5135487.83 189.10
-9755224.12 5135486.52 189.03
-9755223.26 5135489.78 189.03
-9755225.62 5135488.61 188.72
-9755224.73 5135489.85 189.12
-9755226.20 5135486.29 188.77
-9755224.84 5135488.63 188.67
-9755222.38 5135485.32 189.03
-9755224.42 5135488.35 189.03
-9755222.35 5135487.98 189.03
-9755226.50 5135489.58 188.47
-9755226.51 5135485.99 189.12
-9755221.79 5135489.81 189.03
-9755221.57 5135476.44 189.00
-9755217.47 5135473.79 188.98
-9755219.75 5135480.31 189.00
-9755221.57 5135477.04 189.00
-9755221.88 5135474.97 188.99
-9755214.72 5135483.20 188.96
-9755219.45 5135482.95 188.99
-9755220.64 5135484.49 189.00
-9755216.55 5135478.23 189.00
-9755221.54 5135480.61 189.02
-9755219.49 5135478.20 189.02
-9755221.55 5135477.96 189.01
-9755215.35 5135480.00 188.98
-9755214.16 5135481.17 188.96
-9755216.54 5135477.92 189.02
-9755221.23 5135482.41 189.02
-9755217.73 5135475.00 188.99
-9755216.54 5135479.09 188.99
-9755217.37 5135482.64 188.96
-9755214.75 5135479.09 188.99
-9755219.79 5135475.83 188.99
-9755219.49 5135479.14 189.02
-9755216.23 5135482.64 188.96
-9755217.42 5135483.26 188.96
-9755221.60 5135475.84 189.00
-9755218.86 5135483.24 188.98
-9755219.47 5135475.86 188.98
-9755213.57 5135482.33 188.96
-9755213.33 5135473.98 190.04
-9755219.42 5135486.54 188.99
-9755221.52 5135488.91 189.04
-9755218.23 5135487.71 188.99
-9755216.18 5135488.26 188.98
-9755214.98 5135486.51 188.97
-9755219.11 5135488.61 189.01
-9755216.21 5135486.46 188.96
-9755220.33 5135486.50 189.01
-9755216.18 5135489.16 189.00
-9755217.39 5135488.03 188.99
-9755215.29 5135487.36 188.98
-9755214.19 5135485.00 188.96
-9755219.44 5135485.88 188.99
-9755219.74 5135488.58 189.00
-9755217.40 5135485.95 188.96
-9755221.49 5135489.46 189.03
-9755220.34 5135485.65 189.02
-9755220.31 5135487.38 189.00
-9755213.54 5135488.59 189.00
-9755239.62 5135473.05 193.31
-9755232.88 5135473.33 193.31
-9755233.06 5135473.07 193.35
-9755233.73 5135472.13 193.34
-9755234.60 5135472.13 194.42
-9755239.26 5135472.50 193.30
-9755233.41 5135472.51 193.33
-9755233.72 5135472.10 194.33
-9755234.83 5135471.86 194.35
-9755231.86 5135472.53 192.60
-9755228.03 5135472.94 189.03
-9755239.63 5135470.89 194.03
-9755235.44 5135470.43 193.30
-9755235.77 5135470.42 193.31
-9755239.37 5135471.23 194.04
-9755234.02 5135471.19 193.31
-9755235.51 5135471.32 193.31
-9755237.82 5135471.30 193.30
-9755239.59 5135471.60 194.40
-9755233.31 5135471.41 194.74
-9755232.88 5135471.56 194.32
-9755229.71 5135471.27 189.03
-9755229.59 5135470.87 189.01
-9755228.06 5135470.27 189.02
-9755231.37 5135471.33 193.32
-9755224.85 5135472.93 189.01
-9755227.22 5135472.93 189.00
-9755220.74 5135471.75 188.97
-9755220.07 5135471.74 188.96
-9755215.69 5135472.90 188.98
-9755217.47 5135472.92 188.98
-9755228.07 5135471.40 189.03
-9755200.91 5135495.92 195.60
-9755209.64 5135494.72 188.97
-9755200.81 5135495.71 194.49
-9755200.74 5135495.99 197.59
-9755201.07 5135494.50 194.98
-9755200.69 5135495.62 198.22
-9755211.69 5135495.93 188.96
-9755208.44 5135495.62 188.98
-9755200.30 5135495.14 192.41
-9755200.61 5135496.10 194.37
-9755203.53 5135495.97 192.89
-9755212.91 5135495.64 188.96
-9755200.76 5135495.67 198.27
-9755200.97 5135495.10 198.85
-9755200.63 5135495.96 198.03
-9755209.93 5135495.92 188.96
-9755212.91 5135494.75 188.98
-9755210.83 5135495.34 188.97
-9755200.55 5135492.48 192.38
-9755204.37 5135494.35 192.98
-9755201.72 5135491.62 192.40
-9755200.57 5135493.06 192.37
-9755201.69 5135491.93 194.86
-9755208.78 5135492.37 188.99
-9755201.79 5135491.27 197.08
-9755204.02 5135492.25 192.76
-9755201.74 5135493.06 192.41
-9755201.75 5135492.19 192.40
-9755204.60 5135491.52 192.83
-9755201.76 5135491.64 198.51
-9755200.55 5135493.95 192.39
-9755202.86 5135491.44 193.64
-9755201.33 5135493.89 198.95
-9755201.85 5135491.00 198.66
-9755203.46 5135492.71 192.68
-9755203.74 5135493.02 192.81
-9755210.84 5135492.08 188.99
-9755212.59 5135492.69 188.99
-9755210.83 5135492.96 188.98
-9755201.00 5135493.61 194.52
-9755209.99 5135493.57 188.99
-9755212.94 5135491.54 188.99
-9755201.80 5135491.35 195.54
-9755201.48 5135492.12 194.12
-9755206.56 5135474.96 192.93
-9755204.21 5135478.23 192.80
-9755207.43 5135475.14 192.90
-9755204.25 5135483.21 194.82
-9755205.11 5135479.17 192.41
-9755205.54 5135479.84 195.23
-9755206.24 5135477.58 194.48
-9755204.23 5135481.58 192.39
-9755212.06 5135482.35 188.97
-9755204.37 5135482.58 199.50
-9755203.06 5135476.48 192.33
-9755205.89 5135478.17 195.36
-9755201.50 5135479.42 192.34
-9755206.22 5135483.32 192.29
-9755203.01 5135478.24 192.34
-9755206.66 5135484.77 192.87
-9755201.93 5135483.25 192.92
-9755203.93 5135484.03 199.16
-9755205.11 5135481.58 195.64
-9755206.29 5135473.59 192.35
-9755200.95 5135473.83 192.30
-9755206.24 5135478.33 192.41
-9755201.20 5135483.53 192.35
-9755205.06 5135481.20 192.41
-9755208.00 5135479.72 192.84
-9755204.17 5135483.72 199.00
-9755204.27 5135483.34 197.92
-9755200.91 5135479.72 192.32
-9755205.68 5135474.16 192.97
-9755203.99 5135473.79 193.11
-9755211.23 5135475.09 190.08
-9755204.16 5135483.60 192.38
-9755207.19 5135480.66 192.72
-9755205.98 5135478.30 192.41
-9755203.57 5135483.63 192.41
-9755206.29 5135475.08 192.34
-9755203.02 5135474.10 192.33
-9755206.19 5135478.22 195.32
-9755205.07 5135476.16 192.37
-9755211.79 5135484.41 188.98
-9755205.95 5135474.98 192.36
-9755205.79 5135479.14 199.80
-9755204.51 5135473.37 192.85
-9755209.10 5135479.43 193.02
-9755204.11 5135484.16 192.41
-9755204.80 5135477.07 192.37
-9755205.42 5135473.54 192.34
-9755203.89 5135482.96 192.38
-9755202.12 5135479.12 192.34
-9755207.07 5135481.60 192.81
-9755206.87 5135473.75 192.72
-9755208.07 5135479.98 192.85
-9755207.32 5135481.82 192.84
-9755203.63 5135484.75 197.42
-9755207.14 5135474.14 192.36
-9755205.06 5135476.56 192.37
-9755205.54 5135479.14 199.18
-9755203.03 5135481.52 192.36
-9755213.04 5135475.38 191.46
-9755205.92 5135474.30 192.91
-9755207.77 5135479.44 192.77
-9755204.20 5135474.43 193.10
-9755206.92 5135475.45 192.71
-9755211.20 5135474.78 191.73
-9755207.69 5135480.92 192.83
-9755205.10 5135477.38 192.38
-9755206.79 5135475.88 192.60
-9755205.09 5135474.11 192.33
-9755207.47 5135475.04 192.69
-9755213.28 5135478.52 189.00
-9755205.93 5135476.22 192.37
-9755207.36 5135477.11 192.50
-9755203.05 5135474.41 192.33
-9755202.10 5135483.55 193.04
-9755204.21 5135475.61 192.35
-9755212.11 5135481.45 188.97
-9755207.40 5135484.44 193.02
-9755205.62 5135478.25 192.40
-9755205.04 5135479.47 192.42
-9755203.30 5135478.27 192.35
-9755205.64 5135479.46 199.07
-9755208.01 5135474.96 192.68
-9755203.54 5135482.40 192.37
-9755206.76 5135483.63 192.89
-9755212.39 5135474.92 190.02
-9755203.95 5135483.62 195.63
-9755203.83 5135483.28 192.38
-9755204.24 5135475.03 192.34
-9755205.10 5135481.71 195.93
-9755200.98 5135475.62 192.30
-9755204.26 5135482.79 199.45
-9755200.93 5135480.94 192.32
-9755206.89 5135478.27 192.40
-9755203.86 5135478.86 192.37
-9755206.92 5135481.57 192.75
-9755212.44 5135475.71 190.07
-9755212.35 5135473.35 191.77
-9755202.19 5135475.03 192.31
-9755203.88 5135478.25 192.36
-9755206.90 5135475.04 192.37
-9755206.79 5135477.08 192.38
-9755203.85 5135481.56 192.38
-9755202.06 5135490.86 195.67
-9755201.81 5135487.36 193.55
-9755203.26 5135484.52 192.41
-9755203.79 5135484.85 197.45
-9755201.15 5135487.73 193.59
-9755202.79 5135487.41 194.86
-9755202.23 5135489.38 194.19
-9755203.44 5135485.12 197.38
-9755202.88 5135488.02 198.24
-9755202.16 5135490.53 198.23
-9755202.97 5135484.77 192.40
-9755204.40 5135490.46 192.79
-9755200.87 5135487.77 192.36
-9755203.85 5135486.58 193.26
-9755203.28 5135485.67 192.38
-9755201.77 5135488.28 193.60
-9755206.10 5135485.67 192.88
-9755205.83 5135484.95 192.62
-9755200.88 5135486.57 192.35
-9755204.41 5135489.76 192.74
-9755202.62 5135489.81 192.41
-9755213.25 5135487.69 188.99
-9755200.77 5135488.27 193.30
-9755204.30 5135490.35 192.60
-9755205.98 5135486.11 192.89
-9755202.40 5135489.34 194.90
-9755203.04 5135486.43 194.82
-9755203.41 5135485.58 195.82
-9755212.08 5135487.34 188.99
-9755202.00 5135490.66 194.46
-9755201.74 5135487.16 192.37
-9755205.90 5135486.88 192.87
-9755201.16 5135491.00 192.43
-9755202.96 5135487.94 194.29
-9755203.26 5135486.14 195.51
-9755202.81 5135487.85 198.24
-9755202.72 5135487.78 194.19
-9755203.52 5135486.51 192.39
-9755202.34 5135489.45 194.73
-9755203.22 5135486.15 194.87
-9755205.62 5135485.67 192.68
-9755212.93 5135490.61 189.01
-9755201.77 5135489.55 192.40
-9755202.66 5135488.21 195.30
-9755200.90 5135485.06 192.35
-9755202.61 5135488.49 195.51
-9755200.91 5135486.21 192.36
-9755202.61 5135486.55 192.38
-9755205.60 5135485.17 192.62
-9755205.73 5135485.57 192.82
-9755212.33 5135489.41 189.03
-9755202.40 5135487.73 192.38
-9755203.01 5135487.64 194.13
-9755203.83 5135486.55 192.43
-9755201.72 5135487.76 192.35
-9755202.56 5135489.28 194.52
-9755213.23 5135489.15 189.02
-9755201.77 5135484.50 192.37
-9755203.21 5135486.45 195.58
-9755202.00 5135487.71 193.55
-9755202.63 5135488.75 194.85
-9755204.17 5135486.19 192.44
-9755205.43 5135486.36 192.79
-9755202.81 5135486.55 194.82
-9755202.43 5135488.45 193.64
-9755202.41 5135489.77 194.85
-9755203.02 5135485.70 192.37
-9755202.60 5135489.17 194.85
-9755203.54 5135487.40 194.26
-9755211.79 5135486.45 188.99
-9755204.21 5135490.21 192.71
-9755201.78 5135489.21 192.38
-9755203.33 5135486.39 194.87
-9755197.24 5135496.30 192.33
-9755195.56 5135494.50 192.30
-9755195.79 5135495.97 192.30
-9755199.68 5135494.77 192.36
-9755199.37 5135496.02 192.37
-9755196.98 5135494.79 192.32
-9755196.97 5135496.02 192.32
-9755198.51 5135495.12 192.36
-9755199.96 5135493.99 192.36
-9755198.47 5135494.28 192.34
-9755199.07 5135491.90 192.35
-9755198.49 5135493.05 192.33
-9755199.71 5135492.16 192.35
-9755199.34 5135492.73 192.90
-9755197.64 5135493.06 192.33
-9755196.69 5135493.89 192.31
-9755194.40 5135491.28 192.27
-9755200.04 5135493.06 192.36
-9755198.49 5135492.14 192.33
-9755194.38 5135492.09 192.27
-9755193.50 5135494.80 192.29
-9755191.48 5135495.58 188.49
-9755191.46 5135495.64 189.08
-9755189.58 5135494.78 186.21
-9755191.04 5135495.02 186.22
-9755191.66 5135495.66 187.04
-9755191.82 5135494.30 191.75
-9755191.06 5135496.29 186.23
-9755191.49 5135495.29 190.05
-9755191.56 5135495.17 191.58
-9755191.58 5135494.85 192.08
-9755191.45 5135496.33 190.31
-9755191.44 5135495.73 188.32
-9755191.48 5135494.83 190.90
-9755191.73 5135494.75 186.98
-9755191.71 5135495.50 191.38
-9755191.81 5135494.61 188.79
-9755191.18 5135496.32 191.57
-9755191.85 5135495.19 188.57
-9755186.94 5135495.34 186.19
-9755191.58 5135494.73 187.56
-9755191.39 5135495.60 189.45
-9755191.97 5135494.10 189.99
-9755186.94 5135494.47 186.20
-9755187.78 5135496.27 186.21
-9755191.46 5135495.80 190.63
-9755191.83 5135494.66 187.80
-9755189.87 5135494.76 186.21
-9755191.87 5135494.82 191.33
-9755193.16 5135493.94 192.29
-9755192.55 5135492.03 186.98
-9755192.31 5135494.10 191.69
-9755193.48 5135491.82 192.27
-9755192.78 5135491.44 186.52
-9755192.60 5135491.72 188.89
-9755192.58 5135491.43 190.31
-9755192.85 5135491.00 189.09
-9755192.96 5135490.94 186.64
-9755192.64 5135491.71 187.91
-9755191.92 5135494.36 188.15
-9755192.35 5135492.44 191.59
-9755192.03 5135494.04 190.71
-9755192.60 5135492.22 189.81
-9755189.88 5135493.88 186.22
-9755186.96 5135491.51 186.20
-9755191.96 5135493.53 187.93
-9755192.56 5135491.75 188.81
-9755191.11 5135491.78 186.22
-9755192.37 5135492.46 190.81
-9755192.22 5135492.54 190.64
-9755192.13 5135493.49 187.51
-9755189.01 5135492.99 186.22
-9755192.52 5135491.82 186.25
-9755188.98 5135493.90 186.21
-9755186.96 5135493.87 186.19
-9755192.64 5135491.56 188.17
-9755190.45 5135493.94 186.21
-9755192.05 5135493.15 190.11
-9755192.31 5135492.50 190.31
-9755190.21 5135491.81 186.21
-9755192.37 5135492.54 189.89
-9755187.84 5135491.81 186.21
-9755192.06 5135493.10 188.45
-9755190.20 5135493.86 186.22
-9755192.26 5135492.44 191.56
-9755192.12 5135492.76 189.99
-9755200.35 5135481.21 192.31
-9755194.39 5135484.42 187.42
-9755198.34 5135474.19 191.02
-9755195.92 5135480.03 190.93
-9755194.50 5135483.70 190.95
-9755199.74 5135483.25 192.33
-9755197.39 5135475.84 188.86
-9755194.60 5135483.11 183.80
-9755197.17 5135477.41 189.33
-9755197.64 5135475.95 189.07
-9755197.32 5135476.61 187.73
-9755198.51 5135483.59 192.30
-9755194.71 5135483.36 191.17
-9755198.38 5135474.49 190.19
-9755194.79 5135483.00 189.30
-9755194.72 5135482.45 192.12
-9755195.64 5135481.22 190.65
-9755196.20 5135473.73 187.71
-9755194.37 5135483.83 186.46
-9755198.24 5135473.78 190.86
-9755194.37 5135483.61 192.34
-9755194.63 5135484.13 187.12
-9755194.98 5135482.88 189.30
-9755197.32 5135475.84 192.84
-9755196.83 5135477.57 193.33
-9755196.83 5135476.99 193.31
-9755195.04 5135479.04 187.71
-9755198.35 5135473.35 190.68
-9755196.74 5135478.63 188.33
-9755196.73 5135478.22 190.52
-9755194.39 5135481.10 187.71
-9755195.56 5135479.92 187.72
-9755198.29 5135474.32 187.85
-9755197.56 5135475.98 190.22
-9755196.05 5135479.56 189.67
-9755195.90 5135480.33 190.36
-9755199.72 5135480.88 192.30
-9755196.77 5135478.47 193.33
-9755197.65 5135475.67 189.53
-9755195.53 5135481.64 187.74
-9755196.96 5135477.50 190.28
-9755197.35 5135476.20 189.17
-9755196.01 5135479.90 189.28
-9755196.70 5135478.22 189.98
-9755195.55 5135480.78 188.84
-9755197.68 5135474.60 187.72
-9755196.77 5135483.59 192.30
-9755194.36 5135484.08 187.09
-9755197.43 5135475.79 191.29
-9755195.90 5135477.84 187.70
-9755195.00 5135483.23 192.33
-9755196.00 5135479.31 189.83
-9755198.31 5135473.75 193.34
-9755196.89 5135477.47 190.24
-9755197.69 5135483.56 192.29
-9755199.79 5135475.00 192.30
-9755194.48 5135483.76 185.71
-9755194.79 5135483.21 184.90
-9755195.76 5135480.76 190.96
-9755197.16 5135476.35 189.54
-9755197.68 5135473.39 187.71
-9755195.24 5135481.82 189.27
-9755197.43 5135478.25 192.29
-9755196.96 5135476.90 191.31
-9755196.13 5135479.40 189.88
-9755197.98 5135482.94 192.39
-9755194.71 5135483.28 190.98
-9755197.68 5135475.24 187.72
-9755195.61 5135473.40 187.70
-9755194.96 5135482.83 187.60
-9755194.85 5135482.69 192.33
-9755194.31 5135484.10 186.28
-9755195.71 5135480.65 190.33
-9755197.15 5135476.54 190.95
-9755194.94 5135482.01 187.71
-9755196.83 5135474.33 187.71
-9755196.48 5135475.76 187.71
-9755194.96 5135483.07 190.39
-9755197.14 5135476.68 189.00
-9755197.67 5135478.84 192.30
-9755194.90 5135482.01 188.01
-9755197.67 5135474.97 191.86
-9755197.86 5135475.36 191.64
-9755195.34 5135481.09 192.90
-9755198.87 5135481.82 192.30
-9755198.41 5135473.90 189.06
-9755199.75 5135482.36 192.31
-9755198.91 5135474.99 192.31
-9755198.89 5135475.89 192.29
-9755196.80 5135477.26 187.72
-9755194.87 5135483.17 187.37
-9755197.71 5135475.31 191.29
-9755198.05 5135474.09 191.30
-9755195.05 5135482.85 188.96
-9755195.58 5135479.33 187.72
-9755195.73 5135480.29 190.84
-9755198.30 5135477.04 192.29
-9755196.43 5135479.02 187.74
-9755196.45 5135478.45 187.73
-9755197.97 5135475.78 187.69
-9755196.76 5135477.84 187.74
-9755194.78 5135482.99 186.56
-9755195.08 5135482.44 191.25
-9755198.27 5135480.27 192.89
-9755197.66 5135484.45 192.30
-9755196.19 5135478.71 187.72
-9755194.72 5135483.93 191.35
-9755198.53 5135473.71 187.77
-9755195.26 5135481.55 190.52
-9755198.29 5135478.27 192.29
-9755196.79 5135477.93 191.75
-9755194.41 5135484.54 191.78
-9755199.95 5135488.41 193.26
-9755199.71 5135490.39 192.35
-9755194.08 5135486.44 189.17
-9755194.34 5135484.87 189.70
-9755199.67 5135488.91 192.34
-9755196.44 5135485.94 192.30
-9755194.32 5135485.19 189.92
-9755200.00 5135486.60 192.34
-9755194.12 5135485.97 189.98
-9755195.89 5135488.57 192.28
-9755198.81 5135485.63 192.31
-9755198.28 5135486.51 192.31
-9755194.08 5135486.49 190.25
-9755194.32 5135485.31 186.94
-9755195.27 5135487.70 192.29
-9755198.52 5135488.58 192.34
-9755199.72 5135486.50 192.34
-9755194.36 5135487.98 192.30
-9755198.51 5135486.51 192.31
-9755198.82 5135486.55 192.32
-9755197.67 5135489.46 192.32
-9755198.52 5135485.66 192.31
-9755196.43 5135489.79 192.80
-9755194.00 5135485.61 188.04
-9755194.16 5135485.17 189.02
-9755195.90 5135486.54 192.30
-9755196.44 5135489.23 192.78
-9755197.63 5135487.71 192.30
-9755195.60 5135485.02 192.31
-9755194.07 5135485.74 190.34
-9755195.60 5135485.90 192.31
-9755194.53 5135485.68 191.68
-9755197.66 5135488.03 192.30
-9755195.00 5135488.58 192.29
-9755194.04 5135485.59 186.72
-9755193.50 5135474.47 188.37
-9755193.15 5135482.40 184.14
-9755193.92 5135473.42 189.14
-9755193.20 5135474.21 188.60
-9755193.15 5135481.87 187.56
-9755193.55 5135477.54 187.69
-9755193.64 5135473.30 189.04
-9755193.54 5135481.98 188.04
-9755192.97 5135480.79 188.03
-9755193.82 5135482.38 184.25
-9755193.52 5135482.72 184.08
-9755194.14 5135476.64 187.69
-9755193.56 5135475.19 187.69
-9755193.53 5135480.78 187.71
-9755193.35 5135474.38 188.89
-9755193.50 5135483.52 186.45
-9755193.10 5135489.83 188.73
-9755193.55 5135486.97 187.46
-9755193.07 5135490.58 192.64
-9755192.81 5135488.60 186.21
-9755193.60 5135486.96 189.62
-9755192.69 5135490.29 189.00
-9755193.43 5135488.99 187.96
-9755193.50 5135488.89 187.96
-9755193.50 5135488.88 187.30
-9755193.46 5135486.51 186.23
-9755193.43 5135487.39 191.51
-9755193.13 5135489.14 188.24
-9755194.28 5135484.97 187.13
-9755193.42 5135488.63 186.26
-9755193.41 5135489.00 191.02
-9755193.42 5135489.32 191.15
-9755192.74 5135490.40 192.66
-9755193.05 5135489.76 187.52
-9755193.22 5135489.34 188.38
-9755192.73 5135490.49 190.06
-9755192.86 5135490.40 189.99
-9755193.56 5135487.39 191.33
-9755193.18 5135488.59 188.22
-9755193.30 5135488.59 187.68
-9755193.84 5135486.56 187.53
-9755193.20 5135489.16 190.95
-9755193.57 5135487.57 188.21
-9755193.07 5135489.78 186.75
-9755193.70 5135488.03 189.86
-9755193.58 5135487.69 191.11
-9755193.48 5135488.32 186.76
-9755192.57 5135490.56 188.83
-9755193.44 5135488.93 189.95
-9755193.54 5135487.30 187.33
-9755193.21 5135489.33 190.81
-9755193.46 5135489.17 186.90
-9755192.92 5135489.83 192.30
-9755193.91 5135486.22 191.38
-9755193.49 5135488.43 189.00
-9755193.49 5135488.79 188.31
-9755193.32 5135488.79 189.92
-9755192.94 5135490.02 187.92
-9755193.16 5135489.76 186.26
-9755193.31 5135488.13 187.71
-9755193.91 5135487.50 189.08
-9755193.57 5135487.59 190.22
-9755193.77 5135487.30 190.19
-9755193.76 5135487.01 188.59
-9755192.87 5135490.34 187.92
-9755193.37 5135489.02 191.75
-9755193.48 5135485.62 186.23
-9755192.84 5135490.56 187.57
-9755192.79 5135490.25 188.04
-9755192.92 5135490.61 188.24
-9755193.18 5135488.86 186.24
-9755193.17 5135489.26 189.49
-9755192.73 5135489.45 186.78
-9755193.81 5135486.54 191.13
-9755193.12 5135488.98 190.27
-9755193.41 5135488.19 188.01
-9755193.52 5135489.12 186.57
-9755193.57 5135487.60 186.86
-9755193.46 5135488.18 187.32
-9755193.86 5135486.49 190.23
-9755192.65 5135479.92 187.70
-9755190.63 5135477.53 187.67
-9755187.32 5135484.10 186.18
-9755188.41 5135482.29 186.26
-9755187.31 5135474.24 187.62
-9755192.28 5135481.86 184.12
-9755189.44 5135473.67 187.64
-9755192.37 5135476.64 187.68
-9755188.16 5135481.77 186.46
-9755188.43 5135481.12 183.64
-9755191.65 5135482.73 184.30
-9755188.41 5135482.00 186.45
-9755192.00 5135482.46 184.17
-9755190.72 5135480.68 184.17
-9755187.30 5135479.96 181.53
-9755190.23 5135480.18 181.69
-9755191.51 5135476.64 187.67
-9755187.34 5135477.51 187.64
-9755188.55 5135473.35 187.62
-9755187.62 5135476.59 187.64
-9755192.68 5135473.98 187.67
-9755187.28 5135481.72 186.44
-9755188.15 5135481.85 183.60
-9755192.64 5135482.48 183.21
-9755188.18 5135480.62 183.16
-9755188.82 5135481.64 183.73
-9755189.35 5135478.70 187.67
-9755189.38 5135482.62 186.26
-9755188.42 5135481.54 184.02
-9755188.23 5135481.52 183.93
-9755192.39 5135474.13 190.32
-9755192.09 5135479.87 187.69
-9755190.83 5135479.94 188.01
-9755189.40 5135476.06 187.66
-9755190.61 5135476.61 187.67
-9755188.75 5135482.39 184.62
-9755191.60 5135482.81 184.00
-9755192.67 5135475.46 187.68
-9755192.66 5135474.60 187.68
-9755192.19 5135482.46 183.33
-9755187.03 5135479.15 182.79
-9755190.85 5135480.41 183.45
-9755189.85 5135482.53 184.73
-9755187.35 5135474.87 187.63
-9755192.02 5135482.76 182.17
-9755190.57 5135474.89 187.66
-9755191.51 5135480.77 187.70
-9755191.08 5135484.42 186.22
-9755189.20 5135481.53 183.00
-9755188.12 5135481.68 184.60
-9755190.92 5135473.70 187.65
-9755187.36 5135473.37 187.63
-9755188.13 5135481.28 184.17
-9755189.40 5135482.18 184.30
-9755192.65 5135480.23 187.70
-9755188.78 5135480.37 183.27
-9755190.28 5135483.25 186.33
-9755190.23 5135484.44 186.21
-9755192.27 5135488.82 186.21
-9755191.09 5135489.42 186.22
-9755191.44 5135486.47 186.23
-9755187.61 5135485.24 186.19
-9755190.48 5135489.43 186.22
-9755190.47 5135488.55 186.22
-9755190.54 5135486.52 186.22
-9755187.87 5135488.54 186.21
-9755190.85 5135485.30 186.22
-9755192.31 5135489.72 186.21
-9755187.56 5135488.57 186.20
-9755207.16 5135473.23 192.41
-9755206.30 5135473.30 192.71
-9755207.75 5135472.93 192.63
-9755212.48 5135471.88 191.70
-9755205.32 5135472.52 193.09
-9755204.21 5135472.03 192.70
-9755208.63 5135471.72 192.66
-9755212.39 5135472.76 191.79
-9755206.24 5135472.62 192.68
-9755212.01 5135472.53 191.72
-9755212.20 5135472.50 191.74
-9755205.03 5135472.37 193.04
-9755207.44 5135473.00 192.36
-9755206.82 5135472.92 192.36
-9755212.42 5135472.19 191.73
-9755205.12 5135473.22 192.34
-9755211.23 5135470.06 192.49
-9755212.79 5135470.92 191.70
-9755209.94 5135470.87 192.45
-9755207.46 5135471.33 198.25
-9755206.30 5135470.88 192.35
-9755209.22 5135471.51 192.69
-9755210.71 5135471.16 192.68
-9755212.79 5135471.25 191.72
-9755200.11 5135472.06 192.33
-9755198.81 5135473.17 193.34
-9755198.81 5135472.06 189.34
-9755198.82 5135472.23 189.07
-9755198.84 5135472.14 190.02
-9755198.93 5135472.49 188.53
-9755198.57 5135472.12 190.48
-9755198.57 5135473.32 190.83
-9755198.60 5135472.96 191.69
-9755198.67 5135472.01 189.93
-9755198.91 5135471.69 192.33
-9755198.89 5135471.87 191.30
-9755198.81 5135472.12 190.44
-9755198.51 5135472.88 188.28
-9755198.76 5135473.05 189.13
-9755194.00 5135472.75 188.28
-9755193.57 5135472.96 189.11
-9755194.08 5135472.80 188.30
-9755188.95 5135471.73 189.19
-9755187.36 5135472.45 187.62
-9755192.69 5135472.84 187.65
-9755190.04 5135472.90 190.32
-9755189.33 5135472.08 190.28
-9755187.98 5135472.45 187.63
-9755191.48 5135472.50 187.65
-9755188.81 5135472.19 189.70
-9755199.13 5135471.58 188.34
-9755198.56 5135470.77 187.71
-9755196.84 5135470.45 187.70
-9755199.60 5135470.08 190.77
-9755199.30 5135470.71 188.43
-9755199.26 5135470.43 189.82
-9755196.82 5135471.32 187.70
-9755198.94 5135471.68 191.03
-9755199.21 5135471.17 192.37
-9755199.25 5135471.26 189.83
-9755195.66 5135471.61 187.69
-9755199.10 5135471.30 188.46
-9755199.51 5135470.52 193.32
-9755194.74 5135471.64 187.68
-9755199.25 5135470.97 188.62
-9755198.97 5135471.35 190.85
-9755199.19 5135471.29 187.73
-9755192.71 5135471.35 187.66
-9755189.80 5135470.18 189.02
-9755189.77 5135470.27 189.12
-9755189.82 5135470.70 188.87
-9755188.85 5135470.39 187.61
-9755189.67 5135470.63 188.79
-9755189.43 5135470.15 187.62
-9755189.78 5135470.07 187.85
-9755187.08 5135470.08 188.01
-9755189.54 5135470.46 188.33
-9755189.43 5135470.54 188.97
-9755191.22 5135470.41 187.63
-9755188.52 5135470.40 187.60
-9755191.51 5135470.72 187.64
-9755192.13 5135471.62 187.66
-9755189.14 5135471.32 189.68
-9755189.40 5135471.24 188.56
-9755188.56 5135471.60 187.61
-9755189.25 5135471.18 190.00
-9755189.17 5135471.22 189.09
-9755188.52 5135471.03 187.61
-9755234.81 5135510.47 185.88
-9755235.85 5135511.07 185.72
-9755234.29 5135511.33 185.81
-9755236.91 5135511.62 185.37
-9755233.11 5135512.20 186.01
-9755238.15 5135510.43 184.97
-9755233.43 5135512.83 186.00
-9755236.30 5135514.91 185.36
-9755239.18 5135517.57 184.76
-9755233.13 5135512.51 186.01
-9755238.07 5135518.22 184.94
-9755234.81 5135516.95 185.58
-9755234.29 5135517.80 185.96
-9755236.31 5135515.76 185.37
-9755232.66 5135517.85 186.03
-9755238.07 5135519.07 184.96
-9755232.71 5135518.41 186.03
-9755234.77 5135519.55 185.59
-9755239.64 5135515.27 184.81
-9755235.77 5135522.05 185.32
-9755239.50 5135519.45 184.53
-9755234.86 5135519.91 185.48
-9755233.06 5135515.16 186.07
-9755233.03 5135518.35 186.19
-9755232.46 5135517.83 186.02
-9755233.13 5135514.91 185.82
-9755232.54 5135522.02 185.86
-9755232.98 5135515.71 185.99
-9755233.98 5135516.05 185.80
-9755235.42 5135514.98 185.39
-9755238.38 5135516.75 184.93
-9755233.68 5135514.91 185.77
-9755239.26 5135515.26 184.73
-9755235.42 5135522.02 185.37
-9755235.87 5135518.57 185.35
-9755235.12 5135516.14 185.64
-9755235.10 5135521.12 185.44
-9755233.91 5135516.66 185.88
-9755228.93 5135510.95 186.89
-9755231.46 5135511.97 186.24
-9755227.81 5135512.07 187.11
-9755228.09 5135519.55 186.87
-9755227.85 5135514.43 187.22
-9755227.76 5135513.03 187.11
-9755228.31 5135521.60 186.74
-9755228.64 5135515.33 186.90
-9755228.95 5135517.48 186.64
-9755230.17 5135513.06 186.72
-9755230.14 5135516.90 186.44
-9755228.43 5135516.96 186.69
-9755228.95 5135519.86 186.66
-9755229.22 5135517.80 186.65
-9755229.08 5135512.73 186.68
-9755231.53 5135518.65 186.21
-9755231.89 5135514.58 186.22
-9755228.11 5135513.03 187.30
-9755227.78 5135512.69 187.11
-9755228.91 5135521.95 186.64
-9755229.85 5135514.17 186.63
-9755230.26 5135522.24 186.46
-9755228.08 5135512.12 187.28
-9755231.27 5135518.71 186.22
-9755230.99 5135516.34 186.61
-9755227.82 5135514.20 187.24
-9755231.25 5135514.07 186.61
-9755230.19 5135513.65 186.84
-9755233.46 5135501.80 186.62
-9755237.63 5135501.94 185.57
-9755237.64 5135502.46 185.64
-9755235.52 5135504.52 185.79
-9755234.93 5135503.34 186.02
-9755233.75 5135500.87 186.62
-9755238.78 5135501.32 185.37
-9755232.72 5135504.47 186.59
-9755232.50 5135507.14 186.66
-9755235.61 5135502.67 185.80
-9755232.67 5135504.19 186.59
-9755234.30 5135504.49 186.02
-9755237.85 5135503.39 185.38
-9755235.26 5135503.11 186.18
-9755234.91 5135504.85 185.87
-9755234.58 5135500.94 186.24
-9755239.22 5135505.12 185.18
-9755235.17 5135507.80 185.77
-9755235.50 5135503.30 186.22
-9755234.91 5135504.20 186.17
-9755235.42 5135508.99 185.98
-9755238.46 5135502.18 185.36
-9755238.49 5135503.08 185.37
-9755232.78 5135503.54 186.49
-9755237.57 5135504.31 185.81
-9755234.27 5135506.31 185.96
-9755238.74 5135508.12 185.34
-9755234.90 5135505.39 185.89
-9755238.15 5135508.77 185.13
-9755236.91 5135507.51 185.37
-9755236.42 5135508.12 185.37
-9755239.43 5135501.30 185.58
-9755233.17 5135505.39 186.21
-9755236.95 5135504.24 185.57
-9755232.63 5135502.97 186.44
-9755239.63 5135506.36 184.96
-9755233.18 5135508.34 186.42
-9755233.82 5135510.11 186.13
-9755235.88 5135505.39 185.68
-9755232.30 5135503.60 186.43
-9755237.20 5135509.00 185.37
-9755237.84 5135507.53 185.15
-9755237.57 5135505.44 185.36
-9755233.73 5135508.34 186.01
-9755236.36 5135507.26 185.56
-9755239.31 5135502.56 185.15
-9755233.05 5135502.64 186.54
-9755234.31 5135508.62 185.80
-9755229.00 5135510.37 186.88
-9755229.70 5135503.51 187.30
-9755229.54 5135503.46 187.13
-9755230.84 5135502.92 186.71
-9755229.64 5135508.30 186.69
-9755228.63 5135509.90 187.28
-9755227.88 5135502.13 187.76
-9755227.33 5135508.55 187.34
-9755232.21 5135508.77 186.66
-9755230.46 5135507.13 186.64
-9755230.83 5135508.31 186.45
-9755228.16 5135502.33 187.32
-9755228.97 5135505.51 187.09
-9755230.53 5135503.26 186.88
-9755228.18 5135503.79 187.28
-9755227.84 5135506.19 187.38
-9755227.88 5135506.15 187.12
-9755231.66 5135509.17 186.46
-9755229.37 5135505.35 186.93
-9755229.04 5135505.01 187.04
-9755228.23 5135502.93 187.34
-9755230.75 5135508.35 186.69
-9755231.68 5135510.37 186.61
-9755229.97 5135502.98 187.31
-9755228.73 5135509.20 186.88
-9755228.44 5135507.07 187.10
-9755229.29 5135507.69 186.85
-9755227.57 5135509.20 187.13
-9755231.78 5135509.78 186.64
-9755231.35 5135509.24 186.43
-9755229.60 5135506.24 186.85
-9755222.00 5135511.45 188.25
-9755223.70 5135511.74 188.03
-9755222.78 5135511.22 188.32
-9755224.62 5135510.85 187.81
-9755226.03 5135511.21 187.72
-9755223.96 5135517.36 187.80
-9755224.51 5135522.41 187.57
-9755225.10 5135522.64 187.74
-9755223.99 5135513.06 188.19
-9755222.38 5135513.88 188.31
-9755221.91 5135519.45 188.12
-9755225.68 5135522.47 187.32
-9755221.91 5135516.19 188.28
-9755226.87 5135519.56 187.10
-9755221.63 5135515.58 188.24
-9755221.57 5135521.47 188.27
-9755226.63 5135514.78 187.48
-9755223.97 5135514.16 187.78
-9755223.08 5135516.13 188.17
-9755224.83 5135518.86 187.57
-9755221.63 5135518.86 188.27
-9755222.42 5135514.08 188.39
-9755226.03 5135518.85 187.35
-9755222.71 5135522.15 188.06
-9755223.14 5135513.25 188.01
-9755222.48 5135522.71 188.01
-9755224.37 5135514.13 187.52
-9755224.83 5135515.29 187.56
-9755226.01 5135521.91 187.36
-9755226.92 5135513.60 187.10
-9755225.74 5135517.40 187.31
-9755224.19 5135516.56 187.62
-9755223.62 5135521.80 187.82
-9755222.21 5135514.08 188.28
-9755226.41 5135517.11 187.45
-9755223.32 5135513.22 188.00
-9755225.11 5135520.69 187.44
-9755224.87 5135516.25 187.55
-9755226.31 5135516.17 187.32
-9755223.98 5135516.77 187.78
-9755221.57 5135520.04 188.23
-9755223.75 5135512.96 188.17
-9755222.69 5135522.05 187.93
-9755217.83 5135510.49 189.03
-9755220.44 5135511.28 188.83
-9755214.88 5135510.75 189.00
-9755215.75 5135511.34 189.03
-9755213.68 5135511.40 188.99
-9755221.48 5135521.82 188.26
-9755216.59 5135517.00 189.04
-9755220.70 5135516.19 188.48
-9755214.58 5135516.98 189.02
-9755220.99 5135514.07 188.45
-9755219.22 5135519.09 188.70
-9755219.81 5135519.40 188.55
-9755221.32 5135522.38 188.24
-9755215.39 5135517.88 189.04
-9755213.66 5135517.02 189.02
-9755217.20 5135518.14 189.03
-9755220.34 5135522.72 188.49
-9755219.22 5135518.20 188.70
-9755218.96 5135514.98 189.11
-9755214.82 5135513.73 189.02
-9755220.73 5135514.44 188.46
-9755219.82 5135514.63 188.76
-9755215.71 5135516.09 189.04
-9755221.04 5135514.99 188.62
-9755219.84 5135520.30 188.58
-9755219.56 5135516.72 188.70
-9755215.34 5135521.90 190.07
-9755214.49 5135520.26 189.02
-9755214.50 5135519.36 189.02
-9755216.04 5135516.99 189.03
-9755220.22 5135517.01 188.88
-9755215.19 5135520.67 191.56
-9755216.27 5135516.99 189.04
-9755220.70 5135516.76 188.48
-9755217.84 5135513.77 189.04
-9755215.77 5135514.04 189.04
-9755218.48 5135518.31 188.75
-9755217.47 5135514.90 189.03
-9755215.68 5135521.14 189.03
-9755215.08 5135520.25 189.02
-9755218.12 5135518.17 189.04
-9755219.83 5135512.86 188.70
-9755218.96 5135521.95 189.36
-9755218.00 5135521.45 189.05
-9755217.47 5135517.65 189.04
-9755219.56 5135517.87 188.73
-9755214.81 5135522.35 189.03
-9755218.66 5135512.94 189.05
-9755227.26 5135509.76 187.48
-9755227.27 5135500.99 187.93
-9755226.98 5135504.65 187.46
-9755225.21 5135502.92 188.00
-9755226.70 5135502.04 187.58
-9755225.54 5135501.38 188.03
-9755226.98 5135505.53 187.32
-9755225.16 5135510.03 187.57
-9755224.09 5135501.39 188.26
-9755223.18 5135507.83 188.09
-9755222.55 5135508.74 188.25
-9755225.74 5135504.94 187.82
-9755227.27 5135501.43 187.56
-9755223.50 5135507.86 188.47
-9755222.24 5135506.65 188.49
-9755224.58 5135509.98 187.79
-9755226.65 5135505.90 187.56
-9755224.82 5135506.88 188.24
-9755224.56 5135502.25 188.46
-9755226.38 5135507.96 187.60
-9755224.05 5135507.64 188.03
-9755221.71 5135503.97 188.72
-9755222.01 5135500.74 188.69
-9755224.87 5135509.44 187.82
-9755226.67 5135507.82 187.74
-9755224.06 5135506.40 188.01
-9755223.17 5135502.00 188.48
-9755223.38 5135505.85 188.22
-9755226.67 5135508.84 187.19
-9755224.06 5135502.89 188.16
-9755223.69 5135507.97 188.02
-9755222.90 5135501.35 188.47
-9755221.92 5135508.16 188.47
-9755223.46 5135501.39 188.26
-9755226.05 5135507.06 187.56
-9755224.50 5135500.72 188.26
-9755224.30 5135506.69 188.00
-9755222.26 5135504.26 188.46
-9755226.33 5135507.08 187.57
-9755221.98 5135503.71 188.56
-9755221.40 5135505.43 188.75
-9755219.93 5135508.79 189.10
-9755218.95 5135509.58 189.02
-9755213.68 5135510.13 188.99
-9755218.15 5135509.60 189.03
-9755213.70 5135504.51 189.00
-9755214.91 5135505.43 189.00
-9755214.61 5135508.74 189.01
-9755221.40 5135501.22 189.11
-9755216.95 5135506.33 189.03
-9755215.78 5135504.87 189.01
-9755217.86 5135502.80 189.05
-9755213.70 5135509.00 188.99
-9755219.91 5135507.50 189.03
-9755218.98 5135509.01 189.03
-9755219.05 5135504.27 189.03
-9755216.97 5135507.85 189.04
-9755220.80 5135509.98 188.76
-9755219.31 5135508.72 189.03
-9755221.38 5135507.53 188.50
-9755215.79 5135507.52 189.02
-9755220.79 5135509.36 188.77
-9755219.29 5135509.62 189.01
-9755221.19 5135506.66 188.49
-9755216.33 5135504.27 189.02
-9755214.96 5135504.28 189.00
-9755213.68 5135505.46 189.00
-9755220.52 5135501.29 189.04
-9755218.71 5135505.47 189.03
-9755218.98 5135506.08 189.03
-9755214.29 5135502.15 189.03
-9755217.86 5135506.35 189.02
-9755220.82 5135507.58 188.71
-9755215.15 5135509.57 189.02
-9755221.31 5135505.21 188.71
-9755213.75 5135508.10 188.99
-9755236.41 5135496.85 185.99
-9755235.86 5135497.94 186.39
-9755234.70 5135497.66 186.65
-9755236.82 5135497.52 185.84
-9755234.33 5135496.48 186.43
-9755234.43 5135497.60 186.52
-9755232.29 5135496.76 186.89
-9755233.55 5135497.10 186.80
-9755233.48 5135497.95 186.44
-9755237.54 5135500.72 185.58
-9755234.16 5135498.56 186.58
-9755238.76 5135500.69 185.36
-9755233.91 5135500.06 186.24
-9755234.35 5135498.81 186.64
-9755237.86 5135499.30 185.57
-9755235.28 5135500.03 186.02
-9755232.61 5135499.73 186.66
-9755239.35 5135500.25 185.39
-9755234.60 5135499.74 186.22
-9755236.11 5135498.89 186.01
-9755238.14 5135499.28 185.58
-9755238.19 5135500.15 185.61
-9755234.37 5135500.64 186.24
-9755233.73 5135498.88 186.43
-9755233.51 5135499.81 186.44
-9755230.18 5135497.31 187.46
-9755231.15 5135496.44 187.12
-9755228.05 5135496.71 187.60
-9755227.56 5135498.18 187.85
-9755228.52 5135496.40 187.56
-9755231.46 5135497.99 186.87
-9755228.53 5135497.61 187.57
-9755231.19 5135496.78 187.13
-9755228.50 5135499.67 187.76
-9755229.95 5135498.77 187.53
-9755228.14 5135499.07 187.57
-9755229.65 5135498.53 187.37
-9755230.21 5135499.70 187.11
-9755229.97 5135500.90 187.11
-9755227.60 5135499.66 187.57
-9755231.15 5135498.48 187.26
-9755228.75 5135500.82 187.88
-9755223.27 5135497.26 188.78
-9755227.29 5135498.15 187.81
-9755225.76 5135497.23 188.42
-9755223.23 5135498.36 188.91
-9755224.37 5135498.22 188.70
-9755223.17 5135499.28 188.94
-9755225.19 5135498.69 188.30
-9755225.84 5135498.44 188.01
-9755226.14 5135499.05 188.03
-9755222.62 5135499.29 188.72
-9755221.67 5135499.53 189.06
-9755224.98 5135499.31 188.31
-9755226.73 5135498.54 188.20
-9755226.71 5135499.30 187.79
-9755226.40 5135499.31 187.80
-9755223.47 5135500.48 188.50
-9755218.16 5135496.84 189.03
-9755215.81 5135496.54 189.00
-9755215.83 5135497.78 189.00
-9755218.52 5135498.05 189.04
-9755219.05 5135498.08 189.03
-9755220.24 5135499.55 189.04
-9755218.19 5135498.68 189.04
-9755221.16 5135498.66 189.02
-9755219.05 5135499.28 189.03
-9755216.10 5135498.92 189.01
-9755208.33 5135511.93 188.99
-9755200.46 5135510.52 192.82
-9755209.24 5135511.60 188.99
-9755210.71 5135511.60 189.00
-9755210.13 5135511.63 188.99
-9755207.10 5135522.56 188.96
-9755206.27 5135521.97 188.96
-9755206.58 5135513.70 189.02
-9755211.61 5135513.71 189.01
-9755209.25 5135514.89 189.01
-9755211.56 5135515.17 189.01
-9755208.96 5135512.50 188.99
-9755202.75 5135513.66 189.01
-9755211.93 5135516.95 189.00
-9755206.57 5135512.82 189.01
-9755212.50 5135516.08 189.03
-9755204.26 5135512.49 189.01
-9755207.16 5135518.46 188.95
-9755202.13 5135521.91 189.01
-9755207.78 5135513.67 189.02
-9755208.28 5135522.59 188.96
-9755206.02 5135512.85 189.01
-9755210.13 5135512.49 189.00
-9755210.39 5135515.49 189.00
-9755202.21 5135512.77 189.02
-9755210.41 5135515.21 189.01
-9755206.84 5135521.97 188.96
-9755210.42 5135512.21 188.99
-9755206.28 5135513.08 189.02
-9755210.42 5135510.16 188.96
-9755200.83 5135507.54 192.78
-9755201.21 5135502.98 192.65
-9755208.39 5135503.35 188.99
-9755201.62 5135503.14 192.83
-9755205.17 5135505.09 188.99
-9755200.42 5135500.54 194.97
-9755208.72 5135506.30 188.97
-9755207.54 5135504.78 188.98
-9755208.72 5135505.38 188.98
-9755200.96 5135509.68 192.77
-9755201.70 5135503.64 192.78
-9755206.65 5135505.05 188.98
-9755200.84 5135503.07 192.53
-9755201.75 5135508.06 192.98
-9755209.91 5135504.21 188.99
-9755208.37 5135508.69 188.96
-9755201.75 5135502.17 192.80
-9755206.64 5135507.47 188.97
-9755209.90 5135509.57 188.96
-9755201.97 5135507.49 193.04
-9755211.34 5135506.27 188.96
-9755210.81 5135501.25 189.01
-9755201.97 5135502.15 192.84
-9755200.98 5135505.27 192.66
-9755210.72 5135507.52 188.96
-9755211.67 5135503.34 189.00
-9755201.00 5135507.26 192.82
-9755201.29 5135506.94 192.79
-9755201.23 5135506.05 192.80
-9755209.89 5135505.43 188.97
-9755201.77 5135502.51 192.80
-9755205.76 5135504.22 188.99
-9755201.30 5135502.17 192.61
-9755206.66 5135506.27 188.98
-9755207.76 5135506.27 188.96
-9755205.20 5135504.20 189.00
-9755208.67 5135509.57 188.96
-9755207.22 5135509.57 188.98
-9755206.68 5135501.19 189.02
-9755200.86 5135506.33 192.63
-9755210.79 5135506.32 188.95
-9755205.70 5135506.25 188.98
-9755209.00 5135504.27 188.98
-9755200.54 5135508.79 192.73
-9755208.13 5135502.14 189.02
-9755206.31 5135508.03 188.96
-9755207.53 5135507.46 188.95
-9755200.10 5135511.23 192.71
-9755200.00 5135510.02 192.57
-9755193.98 5135511.09 192.32
-9755198.99 5135510.24 192.70
-9755196.93 5135510.81 192.37
-9755195.16 5135511.99 192.35
-9755199.09 5135510.28 193.01
-9755196.90 5135511.64 192.38
-9755198.37 5135522.09 192.79
-9755194.89 5135512.83 192.71
-9755197.51 5135512.79 192.53
-9755194.64 5135512.84 193.06
-9755196.87 5135513.61 192.60
-9755197.14 5135513.35 192.72
-9755196.59 5135512.89 192.70
-9755198.09 5135522.04 192.65
-9755199.25 5135517.56 192.63
-9755196.86 5135514.04 192.37
-9755198.13 5135515.27 192.70
-9755199.24 5135517.89 192.76
-9755198.09 5135512.27 192.69
-9755199.21 5135518.09 192.77
-9755197.22 5135512.26 192.57
-9755195.38 5135521.17 192.35
-9755194.00 5135516.44 192.38
-9755193.61 5135522.04 192.34
-9755194.52 5135519.07 192.34
-9755196.87 5135514.92 192.38
-9755195.93 5135522.34 192.38
-9755197.52 5135521.13 192.64
-9755197.20 5135516.40 192.42
-9755193.96 5135512.23 192.70
-9755197.66 5135522.35 192.64
-9755193.88 5135521.11 192.34
-9755196.89 5135518.43 192.49
-9755199.01 5135517.01 192.57
-9755197.47 5135518.22 192.55
-9755197.19 5135512.33 192.64
-9755197.73 5135521.14 192.66
-9755197.64 5135515.86 192.49
-9755199.26 5135518.87 193.05
-9755196.19 5135512.53 192.44
-9755197.15 5135518.69 192.58
-9755197.72 5135517.33 192.45
-9755197.44 5135519.45 192.61
-9755194.81 5135520.87 192.35
-9755194.54 5135518.15 192.35
-9755194.16 5135516.20 193.71
-9755194.74 5135521.72 192.36
-9755196.97 5135517.36 192.45
-9755194.57 5135512.93 192.34
-9755196.03 5135516.12 192.38
-9755195.43 5135516.14 192.35
-9755195.44 5135512.80 192.66
-9755194.81 5135517.94 192.35
-9755196.00 5135517.60 192.39
-9755198.44 5135520.23 192.48
-9755194.34 5135516.57 193.75
-9755193.86 5135519.35 192.35
-9755193.65 5135518.20 192.32
-9755193.02 5135520.27 192.33
-9755193.62 5135519.08 192.34
-9755193.67 5135512.83 192.71
-9755192.47 5135510.78 192.30
-9755189.56 5135511.25 192.72
-9755188.86 5135511.16 191.12
-9755188.89 5135511.86 186.67
-9755188.92 5135511.61 190.92
-9755188.91 5135510.50 192.25
-9755188.89 5135511.21 187.63
-9755188.90 5135511.09 190.23
-9755188.60 5135510.32 186.82
-9755187.71 5135511.59 186.49
-9755188.63 5135511.62 192.04
-9755188.57 5135510.80 186.25
-9755188.68 5135511.63 192.01
-9755188.76 5135510.77 193.30
-9755188.90 5135511.63 192.37
-9755191.03 5135510.82 192.31
-9755187.72 5135510.15 186.24
-9755188.96 5135510.50 190.95
-9755188.92 5135511.69 191.57
-9755188.03 5135511.05 186.29
-9755189.05 5135509.99 192.34
-9755188.05 5135511.00 186.55
-9755188.80 5135512.00 186.08
-9755188.50 5135518.54 188.20
-9755188.70 5135514.13 190.57
-9755188.90 5135512.89 189.06
-9755188.88 5135512.47 185.65
-9755192.44 5135515.81 192.32
-9755188.56 5135520.44 189.00
-9755188.51 5135518.07 190.75
-9755188.26 5135518.16 185.98
-9755188.59 5135514.32 185.51
-9755188.68 5135513.25 189.54
-9755188.66 5135513.13 185.81
-9755188.40 5135521.22 189.80
-9755188.30 5135521.88 189.58
-9755188.90 5135513.18 189.83
-9755188.26 5135521.84 187.63
-9755188.59 5135515.04 189.27
-9755188.34 5135518.49 192.16
-9755188.85 5135512.56 187.64
-9755188.82 5135512.74 192.01
-9755188.63 5135515.82 192.34
-9755188.20 5135521.07 187.09
-9755188.97 5135514.10 185.19
-9755188.93 5135513.68 189.60
-9755188.70 5135515.33 189.27
-9755188.66 5135514.66 190.11
-9755188.58 5135520.30 191.09
-9755188.90 5135512.83 185.19
-9755188.64 5135512.84 187.21
-9755188.52 5135518.68 187.52
-9755188.36 5135521.17 191.38
-9755188.63 5135515.74 193.29
-9755188.56 5135519.41 190.94
-9755188.70 5135512.15 186.53
-9755188.59 5135512.94 185.79
-9755192.41 5135518.22 192.32
-9755188.07 5135521.11 192.14
-9755190.13 5135516.11 192.30
-9755188.83 5135512.15 191.54
-9755191.56 5135512.81 192.71
-9755188.58 5135518.51 186.49
-9755191.87 5135515.50 192.30
-9755188.65 5135512.47 193.28
-9755188.30 5135520.21 185.72
-9755190.05 5135517.85 192.30
-9755188.28 5135517.92 185.92
-9755188.29 5135519.55 187.13
-9755188.96 5135515.08 186.65
-9755188.67 5135512.54 190.89
-9755188.60 5135513.22 184.42
-9755188.68 5135512.96 188.78
-9755188.27 5135520.19 186.46
-9755188.50 5135517.97 188.13
-9755188.66 5135512.44 188.07
-9755188.60 5135514.85 188.99
-9755188.67 5135513.69 192.85
-9755188.45 5135520.21 186.69
-9755188.47 5135518.26 190.38
-9755188.90 5135514.66 190.89
-9755188.51 5135519.22 187.76
-9755188.76 5135512.42 188.12
-9755187.04 5135522.32 185.33
-9755188.28 5135522.31 186.39
-9755188.39 5135520.72 189.01
-9755188.69 5135512.67 188.37
-9755188.20 5135519.04 190.70
-9755188.32 5135522.31 191.70
-9755188.37 5135517.83 186.26
-9755188.53 5135515.75 192.95
-9755188.43 5135522.13 189.95
-9755188.50 5135520.27 190.66
-9755188.24 5135521.12 188.88
-9755188.59 5135511.92 190.80
-9755188.56 5135517.24 189.21
-9755189.22 5135515.79 192.31
-9755188.75 5135512.53 184.31
-9755188.63 5135514.28 187.90
-9755188.29 5135520.88 192.15
-9755187.33 5135514.65 185.31
-9755187.93 5135519.07 185.34
-9755188.63 5135516.32 193.29
-9755188.98 5135512.23 183.80
-9755188.81 5135514.42 185.01
-9755188.71 5135512.94 182.53
-9755188.78 5135512.71 186.76
-9755188.81 5135512.01 186.21
-9755190.11 5135521.45 192.29
-9755191.87 5135516.14 192.31
-9755188.17 5135521.51 189.35
-9755188.64 5135513.22 188.98
-9755188.60 5135514.25 184.81
-9755190.09 5135522.32 192.30
-9755188.56 5135515.48 192.16
-9755188.50 5135517.85 191.18
-9755188.53 5135517.73 189.21
-9755188.60 5135516.15 191.58
-9755191.84 5135519.67 192.31
-9755188.50 5135520.96 190.17
-9755188.74 5135513.67 191.70
-9755188.94 5135516.06 192.32
-9755188.26 5135520.24 185.99
-9755188.48 5135521.57 185.50
-9755186.94 5135514.52 181.64
-9755188.62 5135515.30 191.09
-9755188.40 5135520.13 186.70
-9755188.26 5135520.78 189.45
-9755188.59 5135518.15 193.29
-9755188.47 5135520.43 187.44
-9755188.60 5135514.83 189.20
-9755191.57 5135516.96 192.30
-9755191.87 5135514.91 192.30
-9755188.96 5135512.77 183.56
-9755188.63 5135516.13 187.63
-9755188.53 5135514.98 185.57
-9755188.47 5135520.64 187.45
-9755188.75 5135512.74 192.01
-9755188.86 5135513.76 188.07
-9755188.61 5135512.94 184.51
-9755188.28 5135521.95 193.28
-9755188.51 5135520.61 190.87
-9755188.32 5135521.23 189.50
-9755187.02 5135515.63 181.63
-9755188.54 5135517.43 187.90
-9755188.59 5135512.53 186.87
-9755188.93 5135512.88 187.87
-9755191.83 5135520.24 192.31
-9755188.56 5135515.65 186.97
-9755189.23 5135519.08 192.28
-9755188.67 5135513.28 186.22
-9755190.66 5135519.62 192.27
-9755188.32 5135521.95 191.76
-9755191.04 5135512.53 192.70
-9755187.97 5135521.22 186.52
-9755188.12 5135520.22 193.24
-9755188.95 5135513.15 185.86
-9755188.29 5135520.20 187.11
-9755191.02 5135518.48 192.28
-9755188.72 5135515.74 192.74
-9755188.52 5135518.01 189.99
-9755188.49 5135517.41 190.04
-9755188.50 5135519.16 191.75
-9755188.42 5135521.27 189.02
-9755188.25 5135516.17 185.35
-9755188.59 5135512.58 184.28
-9755188.37 5135518.68 186.39
-9755188.91 5135514.53 188.81
-9755188.83 5135512.20 191.30
-9755188.32 5135518.22 186.71
-9755189.74 5135522.60 192.30
-9755188.24 5135522.75 190.09
-9755198.05 5135510.18 192.44
-9755199.38 5135501.81 196.95
-9755199.02 5135504.14 194.88
-9755199.60 5135502.13 194.94
-9755198.53 5135507.02 197.50
-9755199.03 5135503.00 194.11
-9755199.16 5135503.82 194.91
-9755199.38 5135501.63 194.14
-9755198.40 5135508.16 196.98
-9755198.43 5135506.69 192.42
-9755198.48 5135506.82 194.02
-9755195.16 5135506.64 192.33
-9755199.05 5135503.82 194.70
-9755196.36 5135504.57 192.33
-9755196.39 5135501.32 192.34
-9755198.97 5135503.28 194.11
-9755195.17 5135509.92 192.34
-9755198.44 5135507.89 197.51
-9755198.12 5135505.47 192.37
-9755198.15 5135508.74 192.40
