-9755068.69 5135682.37 181.46
-9755063.42 5135687.28 182.05
-9755067.21 5135682.59 181.47
-9755068.42 5135684.96 181.50
-9755065.16 5135685.85 182.01
-9755071.61 5135685.29 181.46
-9755065.42 5135685.47 181.73
-9755069.92 5135682.94 181.45
-9755064.01 5135682.57 181.52
-9755071.67 5135682.59 181.42
-9755073.73 5135685.90 181.44
-9755068.06 5135687.02 181.65
-9755066.63 5135684.64 181.50
-9755064.27 5135683.16 181.53
-9755070.77 5135682.89 181.44
-9755064.86 5135686.70 182.04
-9755065.41 5135687.54 181.72
-9755067.83 5135682.57 181.47
-9755068.13 5135683.82 181.48
-9755071.60 5135686.79 181.48
-9755071.34 5135685.02 181.46
-9755067.53 5135684.38 181.48
-9755063.65 5135687.30 181.74
-9755063.78 5135682.58 181.52
-9755072.86 5135682.37 181.42
-9755064.27 5135687.90 181.59
-9755064.56 5135685.81 182.03
-9755069.88 5135687.95 181.50
-9755072.83 5135687.37 181.48
-9755073.16 5135687.09 181.47
-9755067.53 5135687.61 181.58
-9755072.22 5135687.04 181.48
-9755069.29 5135685.90 181.51
-9755066.67 5135687.00 181.69
-9755073.40 5135685.05 181.44
-9755064.28 5135684.66 181.54
-9755069.30 5135682.97 181.46
-9755063.95 5135687.91 181.59
-9755063.42 5135684.08 181.55
-9755073.66 5135687.69 181.48
-9755072.82 5135684.44 181.44
-9755063.43 5135684.34 181.55
-9755072.56 5135682.95 181.43
-9755064.59 5135685.54 181.86
-9755073.72 5135684.18 181.43
-9755064.84 5135683.79 181.53
-9755071.63 5135686.50 181.46
-9755070.75 5135684.71 181.46
-9755064.87 5135684.94 181.55
-9755069.03 5135684.65 181.48
-9755072.52 5135687.10 181.48
-9755065.49 5135685.53 181.80
-9755066.64 5135683.19 181.50
-9755071.66 5135682.35 181.42
-9755066.04 5135684.64 181.52
-9755071.08 5135685.83 181.47
-9755069.00 5135687.95 181.51
-9755070.77 5135687.06 181.50
-9755068.98 5135685.88 181.59
-9755073.39 5135684.14 181.43
-9755069.92 5135683.82 181.47
-9755064.33 5135685.57 181.89
-9755070.20 5135682.94 181.45
-9755068.71 5135686.47 181.62
-9755069.02 5135683.81 181.47
-9755072.21 5135688.30 181.48
-9755067.49 5135685.87 181.65
-9755067.50 5135687.06 181.67
-9755070.75 5135683.25 181.45
-9755064.56 5135682.00 181.51
-9755069.32 5135683.87 181.46
-9755072.82 5135683.50 181.43
-9755064.24 5135689.10 181.58
-9755073.68 5135688.54 181.47
-9755063.42 5135688.52 181.61
-9755071.62 5135689.69 181.51
-9755074.04 5135689.13 181.47
-9755070.42 5135688.58 181.51
-9755072.22 5135689.20 181.50
-9755067.50 5135688.55 181.55
-9755066.89 5135689.16 181.55
-9755068.36 5135689.14 181.55
-9755068.10 5135689.13 181.55
-9755064.53 5135688.49 181.58
-9755068.38 5135689.74 181.53
-9755070.77 5135689.74 181.51
-9755069.27 5135689.13 181.53
-9755068.94 5135689.09 181.53
-9755071.02 5135689.11 181.51
-9755064.91 5135688.81 181.58
-9755073.41 5135689.18 181.48
-9755072.80 5135689.14 181.49
-9755078.47 5135682.06 181.39
-9755079.30 5135680.91 181.36
-9755076.70 5135681.77 181.37
-9755076.92 5135681.14 181.36
-9755075.52 5135681.76 181.34
-9755074.90 5135681.44 181.37
-9755071.67 5135681.75 181.42
-9755069.88 5135681.75 181.44
-9755064.63 5135681.65 181.51
-9755063.41 5135681.72 181.54
-9755071.95 5135681.78 181.41
-9755064.94 5135681.73 181.50
-9755065.45 5135681.67 181.48
-9755063.38 5135681.37 181.51
-9755068.69 5135681.12 181.44
-9755071.37 5135681.73 181.42
-9755072.85 5135681.49 181.40
-9755067.49 5135682.05 181.47
-9755065.19 5135681.69 181.49
-9755065.48 5135681.12 181.49
-9755066.68 5135681.44 181.48
-9755067.55 5135681.16 181.46
-9755066.02 5135681.70 181.48
-9755073.46 5135681.81 181.41
-9755070.23 5135681.72 181.43
-9755070.75 5135681.16 181.42
-9755069.32 5135681.77 181.45
-9755062.54 5135682.88 181.56
-9755063.10 5135681.73 181.54
-9755063.08 5135682.55 181.53
-9755062.78 5135684.63 181.58
-9755062.22 5135687.30 181.90
-9755062.49 5135684.67 181.58
-9755062.81 5135687.94 181.62
-9755062.83 5135687.24 181.94
-9755062.18 5135686.70 182.07
-9755062.80 5135686.70 182.08
-9755062.80 5135683.78 181.56
-9755060.02 5135687.45 181.96
-9755060.71 5135685.48 181.79
-9755059.25 5135688.44 181.69
-9755060.68 5135682.51 181.59
-9755061.92 5135685.81 182.02
-9755058.45 5135682.22 181.61
-9755061.36 5135683.16 181.56
-9755059.83 5135687.91 181.66
-9755058.92 5135685.74 181.99
-9755061.33 5135682.54 181.59
-9755060.13 5135685.48 181.80
-9755059.55 5135686.66 182.11
-9755059.53 5135685.77 182.07
-9755061.65 5135685.82 182.03
-9755061.32 5135683.48 181.57
-9755058.38 5135687.25 182.08
-9755060.73 5135683.74 181.60
-9755059.24 5135688.51 181.69
-9755059.27 5135683.70 181.63
-9755059.90 5135684.63 181.62
-9755060.47 5135683.18 181.59
-9755059.27 5135684.03 181.63
-9755059.88 5135683.74 181.62
-9755058.68 5135683.76 181.64
-9755060.18 5135684.65 181.62
-9755060.16 5135688.17 181.66
-9755061.03 5135685.47 181.75
-9755060.48 5135684.88 181.62
-9755060.99 5135685.77 182.05
-9755058.66 5135687.86 181.71
-9755061.94 5135682.57 181.56
-9755059.27 5135682.55 181.61
-9755059.88 5135685.81 182.08
-9755060.78 5135684.61 181.61
-9755061.34 5135685.40 181.69
-9755061.29 5135687.26 181.94
-9755062.49 5135688.79 181.62
-9755059.24 5135689.68 181.69
-9755061.61 5135688.82 181.63
-9755061.32 5135689.39 181.65
-9755059.22 5135689.06 181.69
-9755061.89 5135689.95 181.63
-9755061.06 5135689.13 181.65
-9755058.36 5135682.58 181.63
-9755057.51 5135684.60 181.67
-9755058.39 5135685.77 181.96
-9755058.07 5135685.50 181.81
-9755055.21 5135686.68 182.48
-9755057.18 5135684.31 181.66
-9755056.89 5135687.82 181.75
-9755056.00 5135686.08 182.19
-9755055.98 5135685.81 182.05
-9755055.15 5135685.18 181.75
-9755056.92 5135685.54 181.78
-9755056.00 5135687.54 181.86
-9755056.61 5135685.46 181.73
-9755055.75 5135684.60 181.70
-9755055.42 5135686.32 182.54
-9755056.32 5135687.54 181.85
-9755056.00 5135686.97 182.21
-9755056.00 5135683.99 181.70
-9755057.58 5135687.43 182.04
-9755057.17 5135688.15 181.73
-9755056.34 5135685.83 182.08
-9755057.82 5135687.27 182.08
-9755057.19 5135682.51 181.66
-9755056.94 5135685.73 181.99
-9755057.76 5135685.87 182.17
-9755055.15 5135685.52 181.83
-9755055.18 5135682.20 181.69
-9755056.34 5135682.59 181.68
-9755058.34 5135688.76 181.71
-9755055.44 5135685.46 181.88
-9755057.15 5135687.61 181.75
-9755057.14 5135685.99 182.41
-9755057.77 5135687.11 185.29
-9755055.97 5135686.66 182.30
-9755056.87 5135685.80 182.04
-9755055.43 5135687.00 182.25
-9755057.96 5135685.45 187.95
-9755056.69 5135686.15 182.46
-9755058.38 5135684.04 181.64
-9755057.75 5135682.59 181.64
-9755055.17 5135681.99 181.69
-9755057.30 5135687.55 181.88
-9755055.41 5135686.06 182.20
-9755056.59 5135686.99 182.20
-9755056.34 5135686.37 182.49
-9755057.25 5135683.14 181.65
-9755056.65 5135685.76 182.02
-9755056.91 5135686.28 182.51
-9755056.35 5135682.80 181.67
-9755056.92 5135683.10 181.66
-9755055.43 5135685.78 182.05
-9755056.06 5135686.86 182.48
-9755057.75 5135687.89 181.73
-9755057.79 5135686.63 182.28
-9755057.43 5135686.55 184.56
-9755055.17 5135686.06 182.21
-9755056.93 5135685.87 182.33
-9755057.60 5135685.90 185.39
-9755055.16 5135689.94 181.76
-9755056.01 5135689.60 181.76
-9755055.39 5135689.93 181.76
-9755056.38 5135688.46 181.75
-9755058.05 5135689.04 181.70
-9755057.47 5135688.74 181.72
-9755056.00 5135689.34 181.76
-9755057.15 5135689.31 181.73
-9755055.99 5135689.11 181.75
-9755059.89 5135681.73 181.59
-9755060.49 5135681.64 181.57
-9755061.30 5135681.09 181.55
-9755058.99 5135681.37 181.60
-9755056.36 5135681.98 181.67
-9755055.18 5135681.38 181.69
-9755057.80 5135681.69 181.63
-9755051.83 5135701.17 181.91
-9755055.07 5135701.17 181.81
-9755054.74 5135701.44 181.87
-9755051.45 5135701.35 181.78
-9755052.69 5135701.78 181.94
-9755051.23 5135701.47 181.98
-9755051.24 5135701.16 181.75
-9755049.99 5135701.44 182.02
-9755052.71 5135701.18 181.73
-9755054.14 5135701.18 181.83
-9755050.61 5135701.43 181.99
-9755049.77 5135701.45 182.03
-9755053.85 5135701.78 181.92
-9755049.75 5135701.43 181.88
-9755049.74 5135701.75 182.03
-9755045.97 5135701.39 182.05
-9755045.67 5135701.40 182.01
-9755047.66 5135701.13 181.85
-9755046.20 5135701.38 182.04
-9755046.50 5135701.72 182.13
-9755047.12 5135701.42 182.03
-9755051.79 5135703.53 182.00
-9755050.31 5135706.89 185.27
-9755051.21 5135702.31 182.00
-9755049.75 5135702.92 182.05
-9755053.26 5135704.78 185.61
-9755052.71 5135703.51 181.97
-9755054.99 5135703.55 181.91
-9755053.24 5135704.41 181.98
-9755050.91 5135702.33 182.00
-9755049.74 5135703.83 182.06
-9755053.53 5135703.20 181.94
-9755053.53 5135704.97 181.98
-9755053.24 5135703.54 181.96
-9755049.99 5135704.38 182.07
-9755050.60 5135703.79 182.05
-9755054.73 5135703.84 181.93
-9755052.08 5135704.40 182.01
-9755049.43 5135704.40 182.09
-9755053.54 5135704.38 181.98
-9755054.71 5135704.66 181.95
-9755050.34 5135704.36 182.06
-9755054.17 5135703.51 181.94
-9755050.62 5135707.25 185.19
-9755051.82 5135702.91 181.99
-9755053.83 5135704.09 181.95
-9755053.86 5135703.80 181.95
-9755053.82 5135704.71 181.97
-9755053.88 5135706.36 185.27
-9755053.84 5135702.34 181.93
-9755053.57 5135702.96 181.94
-9755049.12 5135703.49 182.08
-9755052.72 5135704.08 181.99
-9755049.74 5135704.82 185.70
-9755054.73 5135704.16 181.92
-9755050.06 5135702.35 182.04
-9755054.47 5135704.40 181.95
-9755048.54 5135704.35 182.10
-9755047.39 5135702.29 182.11
-9755048.53 5135703.81 182.10
-9755048.54 5135703.18 182.09
-9755047.04 5135704.39 182.15
-9755045.30 5135704.30 182.21
-9755045.32 5135704.96 182.22
-9755048.54 5135704.07 182.10
-9755047.99 5135703.51 182.12
-9755048.28 5135704.80 185.74
-9755046.73 5135704.36 182.15
-9755047.35 5135702.88 182.13
-9755048.01 5135706.02 185.54
-9755046.16 5135704.35 182.19
-9755047.36 5135704.82 185.78
-9755047.68 5135702.90 182.11
-9755047.36 5135704.99 182.17
-9755047.60 5135705.20 182.18
-9755045.27 5135703.80 182.20
-9755046.48 5135704.93 182.16
-9755045.79 5135705.18 182.20
-9755045.30 5135703.18 182.18
-9755045.35 5135704.69 182.21
-9755045.93 5135704.36 182.20
-9755040.31 5135701.52 182.18
-9755040.28 5135701.70 182.30
-9755045.03 5135701.12 181.94
-9755043.84 5135701.13 181.98
-9755042.34 5135701.68 182.25
-9755044.43 5135701.15 181.95
-9755043.54 5135701.41 182.04
-9755041.77 5135701.10 182.01
-9755041.15 5135704.35 182.32
-9755040.30 5135705.09 182.34
-9755044.43 5135701.99 182.19
-9755040.29 5135701.98 182.32
-9755045.00 5135705.66 185.71
-9755041.47 5135703.15 182.29
-9755041.72 5135704.30 182.30
-9755040.34 5135704.33 182.34
-9755040.29 5135704.93 182.34
-9755042.38 5135702.90 182.26
-9755040.33 5135704.05 182.34
-9755042.35 5135703.74 182.27
-9755044.48 5135705.67 185.72
-9755044.44 5135702.27 182.19
-9755042.80 5135704.00 186.00
-9755043.21 5135702.88 182.24
-9755044.42 5135702.55 182.20
-9755042.58 5135705.28 182.29
-9755039.71 5135705.16 182.37
-9755043.54 5135704.01 182.24
-9755044.35 5135704.32 182.23
-9755042.04 5135703.16 182.26
-9755043.23 5135704.91 182.25
-9755044.43 5135703.47 182.22
-9755042.34 5135704.64 182.27
-9755040.30 5135704.63 182.34
-9755044.44 5135705.29 182.36
-9755042.78 5135705.56 182.16
-9755044.44 5135702.83 182.21
-9755040.59 5135705.18 182.33
-9755040.32 5135705.30 182.50
-9755044.43 5135703.74 182.23
-9755040.57 5135704.33 182.33
-9755043.81 5135704.39 182.25
-9755042.33 5135704.05 182.28
-9755043.84 5135701.97 182.21
-9755039.44 5135705.22 182.39
-9755043.59 5135704.43 185.96
-9755044.71 5135704.42 182.23
-9755042.05 5135704.36 182.29
-9755044.39 5135704.95 182.25
-9755041.23 5135705.12 182.31
-9755039.17 5135705.95 185.83
-9755043.85 5135703.17 182.22
-9755040.32 5135703.13 182.33
-9755039.46 5135702.56 182.33
-9755044.17 5135705.33 182.47
-9755043.78 5135705.18 182.26
-9755038.52 5135701.61 182.33
-9755038.25 5135701.37 182.13
-9755038.29 5135701.62 182.34
-9755038.64 5135701.50 182.32
-9755037.02 5135703.09 182.42
-9755037.70 5135704.39 186.13
-9755038.79 5135705.19 182.39
-9755039.07 5135704.00 182.38
-9755036.18 5135704.01 182.44
-9755036.19 5135704.25 182.45
-9755036.16 5135705.59 185.98
-9755037.05 5135703.99 182.41
-9755038.85 5135705.60 185.90
-9755038.48 5135705.21 182.41
-9755037.02 5135704.53 182.43
-9755038.51 5135705.30 185.96
-9755038.22 5135703.73 182.38
-9755036.20 5135705.20 182.46
-9755036.18 5135705.45 182.48
-9755037.05 5135704.92 182.43
-9755037.38 5135703.11 182.40
-9755037.61 5135706.45 185.78
-9755037.13 5135704.13 186.16
-9755039.39 5135704.41 186.10
-9755037.68 5135704.01 182.40
-9755051.83 5135698.19 181.78
-9755054.75 5135700.60 181.64
-9755052.74 5135697.67 181.74
-9755054.76 5135700.88 181.66
-9755049.77 5135699.67 181.81
-9755055.09 5135698.20 181.69
-9755050.92 5135700.23 181.75
-9755050.66 5135700.00 181.76
-9755050.65 5135699.07 181.78
-9755053.56 5135700.60 181.67
-9755055.06 5135700.32 181.65
-9755048.59 5135698.18 181.85
-9755052.70 5135699.43 181.72
-9755054.13 5135700.30 181.67
-9755053.29 5135699.39 181.70
-9755049.44 5135700.53 181.79
-9755050.33 5135699.38 181.78
-9755050.00 5135700.27 181.77
-9755050.61 5135699.66 181.78
-9755048.58 5135699.07 181.85
-9755054.43 5135700.60 181.65
-9755049.74 5135700.90 181.80
-9755051.54 5135698.18 181.78
-9755050.62 5135700.80 181.76
-9755040.30 5135701.08 182.08
-9755048.28 5135698.15 181.86
-9755045.63 5135699.06 181.94
-9755046.75 5135700.25 181.89
-9755045.33 5135700.22 181.93
-9755046.23 5135699.03 181.93
-9755045.92 5135698.14 181.94
-9755046.48 5135699.66 181.91
-9755045.29 5135700.49 181.93
-9755046.48 5135700.84 181.89
-9755046.50 5135700.54 181.89
-9755047.38 5135699.00 181.88
-9755046.54 5135698.17 181.92
-9755045.63 5135698.17 181.94
-9755045.33 5135698.74 181.96
-9755047.41 5135698.19 181.91
-9755045.59 5135699.66 181.94
-9755045.86 5135700.19 181.92
-9755042.41 5135700.50 182.01
-9755043.58 5135700.49 181.98
-9755043.62 5135698.12 182.00
-9755043.87 5135697.86 182.00
-9755045.05 5135700.22 181.94
-9755043.58 5135697.53 182.01
-9755044.76 5135698.15 181.98
-9755039.49 5135697.81 182.14
-9755044.39 5135699.65 181.97
-9755041.20 5135697.84 182.09
-9755044.15 5135699.02 181.98
-9755040.32 5135698.15 182.10
-9755040.31 5135697.53 182.12
-9755042.07 5135697.82 182.07
-9755044.42 5135700.23 181.96
-9755042.39 5135697.54 182.05
-9755039.14 5135699.84 182.13
-9755042.35 5135700.79 182.01
-9755040.32 5135698.44 182.10
-9755040.33 5135699.92 182.08
-9755039.43 5135697.86 182.14
-9755039.13 5135698.97 182.13
-9755042.33 5135699.58 182.04
-9755040.93 5135697.85 182.11
-9755052.74 5135697.03 181.76
-9755050.94 5135697.01 181.81
-9755049.75 5135697.26 181.84
-9755050.63 5135697.30 181.82
-9755053.02 5135697.29 181.75
-9755050.40 5135694.05 181.85
-9755049.15 5135694.93 181.88
-9755055.08 5135691.94 181.75
-9755055.07 5135692.89 181.75
-9755048.57 5135696.69 181.87
-9755054.77 5135697.37 181.71
-9755053.26 5135697.38 181.74
-9755055.04 5135697.36 181.69
-9755052.72 5135694.08 181.79
-9755052.75 5135696.10 181.77
-9755048.58 5135694.33 181.91
-9755050.67 5135690.79 181.89
-9755049.83 5135696.69 181.85
-9755050.97 5135690.76 181.88
-9755053.93 5135691.68 181.78
-9755049.75 5135694.07 181.86
-9755050.08 5135697.33 181.82
-9755052.78 5135692.03 181.82
-9755053.30 5135695.25 181.76
-9755050.69 5135694.29 181.85
-9755050.37 5135690.74 181.90
-9755048.94 5135692.53 181.92
-9755055.07 5135696.48 181.71
-9755050.98 5135692.23 181.86
-9755054.21 5135694.07 181.76
-9755051.86 5135694.93 181.81
-9755048.63 5135691.64 181.94
-9755049.48 5135693.72 181.89
-9755049.22 5135690.78 181.93
-9755053.28 5135696.14 181.75
-9755048.94 5135691.37 181.93
-9755053.06 5135694.09 181.78
-9755053.71 5135694.10 181.76
-9755054.78 5135694.00 181.74
-9755050.13 5135693.40 181.87
-9755049.76 5135695.51 181.87
-9755053.95 5135694.62 181.76
-9755048.56 5135696.08 181.89
-9755051.87 5135691.96 181.84
-9755053.34 5135694.03 181.77
-9755054.50 5135692.01 181.77
-9755054.79 5135694.94 181.74
-9755055.13 5135693.49 181.74
-9755049.79 5135691.64 181.89
-9755052.47 5135691.98 181.83
-9755051.84 5135695.21 181.80
-9755052.78 5135692.87 181.80
-9755049.53 5135692.85 181.90
-9755053.02 5135691.39 181.82
-9755054.50 5135697.33 181.71
-9755052.44 5135690.81 181.83
-9755049.48 5135690.74 181.92
-9755049.17 5135692.83 181.91
-9755050.69 5135695.50 181.83
-9755053.01 5135693.49 181.80
-9755052.43 5135696.11 181.77
-9755049.78 5135694.32 181.87
-9755051.81 5135692.86 181.83
-9755047.42 5135694.92 181.94
-9755048.31 5135690.81 181.95
-9755046.82 5135696.08 181.94
-9755048.32 5135693.68 181.93
-9755046.86 5135692.82 181.98
-9755046.53 5135696.68 181.94
-9755046.29 5135692.82 181.99
-9755047.71 5135694.62 181.92
-9755045.36 5135694.02 182.03
-9755047.06 5135696.97 181.93
-9755045.66 5135693.44 182.00
-9755046.53 5135694.28 181.98
-9755045.66 5135690.70 182.04
-9755047.74 5135694.29 181.92
-9755048.33 5135694.89 181.91
-9755046.22 5135695.78 181.96
-9755048.08 5135690.75 181.95
-9755047.70 5135692.26 181.97
-9755047.05 5135696.07 181.92
-9755045.65 5135694.88 182.00
-9755046.84 5135694.86 181.95
-9755047.73 5135696.38 181.92
-9755046.23 5135693.71 182.00
-9755047.15 5135693.70 181.95
-9755045.93 5135695.76 181.98
-9755047.75 5135690.21 181.99
-9755048.30 5135694.93 181.91
-9755046.85 5135690.79 182.00
-9755047.74 5135691.00 181.97
-9755043.56 5135697.00 182.05
-9755042.41 5135697.26 182.07
-9755043.55 5135697.23 182.04
-9755041.51 5135697.25 182.09
-9755042.12 5135694.90 182.09
-9755043.63 5135695.47 182.05
-9755044.48 5135695.72 182.03
-9755043.52 5135691.94 182.08
-9755043.58 5135696.63 182.04
-9755042.41 5135690.71 182.15
-9755041.55 5135690.10 182.17
-9755039.47 5135695.74 182.18
-9755044.48 5135694.56 182.03
-9755043.60 5135690.43 182.11
-9755041.23 5135690.41 182.16
-9755043.56 5135693.97 182.07
-9755040.90 5135696.93 182.11
-9755040.37 5135691.57 182.19
-9755040.32 5135696.62 182.13
-9755042.39 5135694.30 182.10
-9755039.46 5135693.99 182.20
-9755040.94 5135692.46 182.16
-9755039.53 5135690.41 182.23
-9755044.22 5135691.61 182.06
-9755043.62 5135693.08 182.07
-9755044.22 5135690.76 182.07
-9755039.45 5135693.69 182.19
-9755039.48 5135691.28 182.21
-9755045.05 5135693.70 182.03
-9755043.58 5135696.36 182.04
-9755039.47 5135694.55 182.18
-9755040.96 5135693.66 182.15
-9755044.80 5135691.63 182.05
-9755042.79 5135692.52 182.12
-9755039.47 5135690.11 182.23
-9755043.59 5135692.83 182.08
-9755045.08 5135694.89 182.01
-9755042.41 5135695.76 182.08
-9755042.74 5135695.76 182.07
-9755041.51 5135690.70 182.16
-9755044.45 5135695.25 182.02
-9755039.46 5135696.31 182.16
-9755042.40 5135691.60 182.13
-9755040.97 5135690.42 182.18
-9755043.60 5135692.22 182.08
-9755040.35 5135695.17 182.15
-9755039.48 5135696.90 182.15
-9755044.45 5135692.87 182.05
-9755040.03 5135691.58 182.20
-9755044.77 5135692.52 182.04
-9755043.00 5135691.60 182.11
-9755040.65 5135693.99 182.16
-9755040.30 5135693.06 182.18
-9755042.42 5135693.37 182.11
-9755041.81 5135695.77 182.10
-9755041.51 5135694.89 182.12
-9755039.49 5135694.23 182.18
-9755041.55 5135691.06 182.16
-9755044.47 5135693.11 182.04
-9755044.44 5135694.24 182.04
-9755043.58 5135691.00 182.09
-9755042.45 5135696.33 182.06
-9755044.54 5135693.69 182.03
-9755037.36 5135699.88 182.18
-9755038.29 5135700.75 182.12
-9755036.17 5135700.74 182.18
-9755036.76 5135699.90 182.18
-9755038.54 5135701.05 182.12
-9755037.08 5135698.66 182.19
-9755036.18 5135697.52 182.23
-9755037.08 5135699.25 182.19
-9755037.66 5135699.86 182.17
-9755037.39 5135698.38 182.20
-9755037.10 5135699.84 182.18
-9755036.78 5135697.77 182.21
-9755037.36 5135697.50 182.21
-9755038.22 5135699.01 182.15
-9755036.19 5135700.17 182.19
-9755036.20 5135697.23 182.23
-9755038.30 5135692.16 182.24
-9755039.49 5135690.69 182.23
-9755038.85 5135696.57 182.18
-9755037.67 5135694.50 182.23
-9755037.68 5135696.87 182.20
-9755038.28 5135697.17 182.18
-9755036.19 5135693.66 182.29
-9755038.59 5135696.91 182.17
-9755038.00 5135691.58 182.25
-9755036.81 5135690.32 182.30
-9755038.91 5135691.55 182.24
-9755036.21 5135696.33 182.26
-9755036.19 5135695.73 182.25
-9755038.63 5135692.77 182.23
-9755038.33 5135691.63 182.25
-9755037.37 5135693.04 182.26
-9755036.27 5135693.94 182.29
-9755036.21 5135691.01 182.32
-9755038.62 5135691.64 182.23
-9755037.42 5135690.99 182.28
-9755036.75 5135694.54 182.25
-9755036.21 5135695.18 182.25
-9755037.08 5135696.88 182.22
-9755038.27 5135695.10 182.19
-9755037.40 5135691.89 182.26
-9755036.24 5135693.01 182.29
-9755037.06 5135695.15 182.23
-9755036.16 5135700.99 182.17
-9755035.60 5135701.60 182.26
-9755034.97 5135701.62 182.41
-9755029.65 5135701.59 182.33
-9755030.04 5135701.71 182.52
-9755032.10 5135701.61 182.47
-9755031.76 5135701.58 182.45
-9755032.04 5135701.59 182.31
-9755029.46 5135701.60 182.46
-9755032.07 5135701.33 182.29
-9755030.63 5135701.62 182.41
-9755030.78 5135701.54 182.31
-9755033.87 5135701.59 182.42
-9755032.34 5135701.89 182.50
-9755032.65 5135701.56 182.31
-9755034.75 5135701.62 182.43
-9755033.52 5135701.93 182.48
-9755034.46 5135701.59 182.23
-9755035.59 5135705.17 182.47
-9755035.58 5135701.96 182.43
-9755035.32 5135705.31 186.04
-9755035.37 5135705.39 182.47
-9755035.35 5135705.17 182.47
-9755036.18 5135704.44 186.17
-9755034.98 5135703.40 182.47
-9755035.34 5135706.53 185.84
-9755032.05 5135701.89 182.51
-9755032.02 5135705.16 182.57
-9755033.74 5135705.22 182.53
-9755035.00 5135704.87 182.47
-9755029.69 5135702.36 185.37
-9755033.79 5135704.00 182.51
-9755028.79 5135705.27 186.21
-9755030.27 5135704.84 182.59
-9755032.60 5135703.99 182.53
-9755032.34 5135702.77 182.53
-9755028.80 5135702.11 182.58
-9755032.03 5135704.81 182.55
-9755032.02 5135704.69 186.25
-9755030.33 5135702.91 185.38
-9755028.80 5135703.37 182.60
-9755031.46 5135704.71 186.26
-9755032.94 5135702.19 182.49
-9755032.92 5135703.40 182.51
-9755031.13 5135703.95 182.56
-9755030.87 5135705.55 186.15
-9755031.96 5135705.38 182.56
-9755033.00 5135705.29 186.12
-9755029.97 5135705.44 182.62
-9755034.12 5135704.00 186.22
-9755031.48 5135705.23 186.18
-9755029.96 5135703.92 182.58
-9755030.58 5135702.79 182.56
-9755032.06 5135706.16 185.98
-9755030.82 5135704.52 182.56
-9755029.98 5135702.47 182.56
-9755031.50 5135702.76 182.54
-9755034.10 5135704.00 182.51
-9755030.27 5135702.35 185.39
-9755033.27 5135706.20 185.95
-9755034.96 5135704.56 182.47
-9755033.51 5135703.96 182.51
-9755034.64 5135705.13 182.51
-9755035.57 5135699.84 182.21
-9755035.34 5135698.04 182.25
-9755035.32 5135697.79 182.26
-9755035.29 5135698.65 182.25
-9755035.62 5135699.86 182.21
-9755035.64 5135698.96 182.24
-9755035.03 5135699.84 182.22
-9755029.11 5135700.71 182.33
-9755032.96 5135697.82 182.31
-9755034.18 5135697.49 182.28
-9755033.23 5135699.84 182.26
-9755033.22 5135700.72 182.25
-9755028.80 5135699.82 182.36
-9755032.97 5135698.66 182.29
-9755030.05 5135699.80 182.34
-9755034.13 5135698.91 182.27
-9755034.95 5135698.94 182.25
-9755032.92 5135700.39 182.27
-9755034.71 5135699.81 182.23
-9755031.18 5135698.67 182.32
-9755032.09 5135698.63 182.31
-9755029.42 5135697.78 182.38
-9755029.14 5135699.84 182.35
-9755029.73 5135700.72 182.33
-9755032.67 5135698.67 182.30
-9755028.84 5135698.66 182.39
-9755032.92 5135700.70 182.26
-9755029.99 5135698.96 182.35
-9755032.09 5135697.73 182.33
-9755034.12 5135700.47 182.24
-9755034.68 5135701.05 182.19
-9755032.07 5135698.97 182.31
-9755031.20 5135701.02 182.29
-9755033.24 5135698.93 182.28
-9755034.13 5135698.35 182.28
-9755029.96 5135700.71 182.31
-9755030.32 5135697.43 182.37
-9755034.74 5135698.66 182.26
-9755030.30 5135699.81 182.33
-9755030.89 5135699.82 182.32
-9755031.17 5135697.76 182.35
-9755035.37 5135694.54 182.29
-9755035.38 5135690.34 182.34
-9755035.37 5135691.85 182.32
-9755035.98 5135690.35 182.33
-9755035.31 5135696.58 182.27
-9755035.02 5135693.33 182.30
-9755035.33 5135690.93 182.33
-9755035.01 5135695.73 182.27
-9755035.37 5135692.73 182.32
-9755032.10 5135693.88 182.36
-9755030.85 5135697.17 182.37
-9755032.14 5135697.18 182.33
-9755035.01 5135696.61 182.28
-9755035.04 5135691.60 182.34
-9755034.72 5135695.71 182.29
-9755030.37 5135694.79 182.40
-9755033.26 5135695.72 182.33
-9755028.87 5135691.25 182.48
-9755032.95 5135695.39 182.33
-9755034.76 5135696.59 182.28
-9755032.11 5135690.93 182.41
-9755031.79 5135691.80 182.42
-9755032.98 5135692.44 182.37
-9755029.17 5135693.26 182.45
-9755028.85 5135690.36 182.48
-9755033.57 5135696.62 182.30
-9755029.72 5135695.68 182.41
-9755034.15 5135691.87 182.36
-9755032.12 5135690.34 182.43
-9755029.48 5135694.46 182.42
-9755034.11 5135697.17 182.29
-9755034.14 5135691.53 182.37
-9755033.27 5135695.98 182.31
-9755029.15 5135693.02 182.46
-9755031.56 5135691.57 182.42
-9755030.31 5135691.23 182.44
-9755031.50 5135694.53 182.38
-9755030.61 5135690.32 182.46
-9755028.84 5135695.68 182.43
-9755031.49 5135696.58 182.35
-9755033.88 5135693.26 182.34
-9755033.32 5135693.02 182.37
-9755029.44 5135691.20 182.47
-9755028.85 5135693.90 182.45
-9755031.23 5135693.89 182.40
-9755031.85 5135690.35 182.43
-9755030.33 5135696.55 182.37
-9755032.15 5135691.24 182.40
-9755029.10 5135696.56 182.41
-9755030.38 5135690.06 182.47
-9755032.41 5135690.00 182.42
-9755032.41 5135692.41 182.39
-9755034.17 5135693.93 182.33
-9755032.06 5135693.66 182.37
-9755029.17 5135690.67 182.48
-9755030.04 5135690.65 182.46
-9755034.77 5135694.54 182.30
-9755033.57 5135695.73 182.32
-9755029.71 5135694.48 182.41
-9755032.13 5135693.30 182.37
-9755034.20 5135693.31 182.33
-9755029.21 5135690.01 182.49
-9755032.95 5135693.94 182.35
-9755029.14 5135695.98 182.41
-9755030.62 5135694.48 182.40
-9755031.25 5135692.45 182.40
-9755031.19 5135695.67 182.36
-9755034.47 5135692.44 182.32
-9755033.86 5135693.03 182.34
-9755030.92 5135696.58 182.37
-9755033.57 5135692.46 182.37
-9755033.27 5135695.08 182.33
-9755030.65 5135692.45 182.42
-9755033.61 5135690.68 182.37
-9755050.04 5135685.85 182.21
-9755055.08 5135686.66 182.26
-9755052.23 5135687.56 182.05
-9755053.37 5135687.53 181.96
-9755052.48 5135682.20 181.76
-9755052.18 5135683.08 181.79
-9755053.94 5135687.60 181.87
-9755050.17 5135685.98 182.31
-9755053.94 5135685.43 181.80
-9755054.23 5135685.43 181.80
-9755048.96 5135682.46 181.86
-9755050.13 5135682.79 181.84
-9755052.23 5135681.96 181.76
-9755049.82 5135687.48 182.34
-9755053.33 5135685.47 181.82
-9755049.82 5135686.30 182.51
-9755050.17 5135684.20 181.85
-9755052.23 5135685.16 181.82
-9755050.12 5135685.43 181.90
-9755052.19 5135687.54 181.89
-9755053.68 5135686.06 182.49
-9755049.87 5135683.37 181.85
-9755054.86 5135686.65 182.25
-9755050.70 5135685.96 182.19
-9755049.85 5135684.00 181.87
-9755050.21 5135686.35 182.35
-9755055.10 5135686.34 182.23
-9755050.14 5135683.39 181.85
-9755053.05 5135686.30 182.51
-9755051.02 5135685.45 181.87
-9755054.88 5135686.30 182.48
-9755051.61 5135685.71 182.11
-9755049.25 5135687.80 182.05
-9755049.55 5135686.29 182.38
-9755053.62 5135686.66 182.51
-9755050.99 5135686.30 182.64
-9755052.72 5135686.90 182.52
-9755053.41 5135686.64 182.49
-9755048.93 5135686.91 182.61
-9755053.97 5135688.16 181.81
-9755053.03 5135686.94 182.30
-9755052.18 5135686.64 182.52
-9755053.36 5135684.57 181.77
-9755049.35 5135686.33 182.56
-9755049.56 5135682.19 181.84
-9755051.91 5135687.48 182.30
-9755050.73 5135683.39 181.83
-9755048.67 5135686.34 182.50
-9755053.40 5135686.02 182.22
-9755054.27 5135684.87 181.76
-9755054.24 5135685.80 182.16
-9755049.56 5135686.63 182.65
-9755052.81 5135684.58 181.79
-9755054.54 5135687.85 181.80
-9755053.04 5135686.62 182.30
-9755051.32 5135684.24 181.82
-9755052.51 5135686.94 182.46
-9755053.70 5135686.29 182.52
-9755052.46 5135685.97 182.18
-9755051.34 5135686.95 182.32
-9755052.77 5135685.51 181.87
-9755051.03 5135686.04 182.33
-9755050.12 5135686.93 182.48
-9755049.56 5135684.24 181.86
-9755051.01 5135684.31 181.82
-9755054.26 5135684.32 181.73
-9755050.13 5135686.59 182.58
-9755052.82 5135686.65 182.29
-9755054.59 5135685.81 182.09
-9755052.16 5135686.28 182.55
-9755050.99 5135686.91 182.37
-9755049.83 5135682.52 181.85
-9755051.97 5135683.35 181.79
-9755053.09 5135683.99 181.76
-9755049.22 5135684.60 181.88
-9755053.08 5135684.88 181.78
-9755049.81 5135685.96 182.26
-9755053.13 5135682.50 181.74
-9755052.81 5135685.77 182.10
-9755054.55 5135686.06 182.21
-9755055.14 5135682.79 181.69
-9755051.30 5135686.58 182.59
-9755049.81 5135688.08 181.93
-9755051.36 5135685.99 182.23
-9755049.46 5135687.46 182.29
-9755054.28 5135687.82 181.80
-9755055.09 5135685.49 181.80
-9755048.58 5135686.60 182.59
-9755048.95 5135684.26 181.88
-9755048.95 5135688.12 181.95
-9755051.87 5135686.01 182.25
-9755050.11 5135684.56 181.85
-9755050.44 5135684.26 181.84
-9755054.51 5135683.39 181.73
-9755052.81 5135682.16 181.75
-9755051.57 5135686.61 182.58
-9755045.72 5135687.51 182.15
-9755046.85 5135687.42 182.45
-9755045.66 5135687.46 182.47
-9755047.73 5135684.25 181.93
-9755046.91 5135687.90 182.02
-9755047.75 5135687.81 182.01
-9755047.24 5135686.55 182.58
-9755045.76 5135685.76 182.23
-9755048.09 5135685.97 182.25
-9755046.03 5135687.77 182.24
-9755047.45 5135687.49 182.36
-9755046.90 5135686.58 182.45
-9755047.77 5135686.30 182.47
-9755046.25 5135683.33 181.96
-9755048.03 5135683.37 181.91
-9755045.72 5135686.86 182.47
-9755048.06 5135687.48 182.36
-9755045.40 5135683.01 181.97
-9755045.73 5135687.73 182.31
-9755045.74 5135684.26 181.98
-9755046.87 5135687.65 182.42
-9755048.09 5135686.03 182.38
-9755046.59 5135687.77 182.24
-9755047.29 5135687.73 182.23
-9755046.06 5135685.70 182.17
-9755048.12 5135683.37 181.91
-9755048.38 5135686.58 182.58
-9755048.44 5135682.75 181.88
-9755046.55 5135686.59 182.51
-9755045.72 5135682.46 181.98
-9755047.76 5135682.78 181.90
-9755047.73 5135686.58 182.74
-9755047.78 5135684.83 181.93
-9755046.59 5135683.36 181.95
-9755047.44 5135686.00 182.34
-9755048.63 5135688.73 181.96
-9755053.08 5135689.35 181.83
-9755050.08 5135689.58 181.91
-9755050.97 5135689.29 181.89
-9755051.92 5135688.70 181.87
-9755053.93 5135689.00 181.80
-9755054.30 5135688.74 181.78
-9755049.84 5135689.01 181.91
-9755055.12 5135688.44 181.78
-9755050.96 5135689.58 181.89
-9755048.58 5135689.92 181.96
-9755051.00 5135688.73 181.89
-9755049.51 5135689.57 181.93
-9755055.10 5135689.64 181.77
-9755048.96 5135689.02 181.94
-9755051.86 5135688.99 181.88
-9755052.46 5135689.59 181.84
-9755046.86 5135689.86 182.01
-9755047.72 5135689.26 181.98
-9755046.32 5135689.56 182.03
-9755045.68 5135689.29 182.04
-9755048.36 5135688.69 181.96
-9755047.78 5135688.68 181.99
-9755046.58 5135688.38 182.02
-9755048.31 5135689.57 181.97
-9755047.77 5135689.61 181.98
-9755046.89 5135689.55 182.01
-9755045.37 5135688.36 182.06
-9755044.00 5135685.99 182.42
-9755039.49 5135686.21 182.64
-9755040.62 5135685.85 182.23
-9755039.52 5135687.10 182.87
-9755042.78 5135683.02 182.05
-9755043.63 5135687.77 182.28
-9755041.94 5135683.34 182.10
-9755039.51 5135685.35 182.20
-9755045.13 5135685.40 182.04
-9755045.11 5135682.16 181.98
-9755039.55 5135685.96 182.50
-9755039.48 5135688.06 182.26
-9755045.05 5135687.75 182.14
-9755043.66 5135683.28 182.04
-9755040.42 5135686.84 182.87
-9755041.89 5135687.12 182.59
-9755041.58 5135686.21 182.58
-9755040.74 5135682.70 182.12
-9755040.40 5135686.54 182.75
-9755043.64 5135683.06 182.05
-9755039.54 5135687.16 182.78
-9755042.75 5135687.17 182.55
-9755042.77 5135685.72 182.26
-9755040.67 5135687.80 182.26
-9755043.32 5135687.42 182.52
-9755043.59 5135686.27 182.48
-9755044.86 5135685.67 182.12
-9755040.40 5135681.77 182.12
-9755042.80 5135682.41 182.05
-9755044.28 5135686.26 182.48
-9755042.19 5135687.13 182.56
-9755039.50 5135684.22 182.18
-9755039.52 5135684.77 182.18
-9755039.79 5135684.15 182.18
-9755041.93 5135682.10 182.07
-9755044.80 5135687.74 182.19
-9755039.14 5135685.82 182.27
-9755040.68 5135685.99 182.43
-9755041.86 5135686.85 182.60
-9755044.46 5135685.91 182.34
-9755041.26 5135683.04 182.11
-9755039.77 5135687.11 182.78
-9755044.90 5135683.62 182.00
-9755041.63 5135686.85 182.60
-9755041.52 5135685.70 182.19
-9755041.54 5135686.54 182.62
-9755040.72 5135683.29 182.12
-9755042.45 5135687.16 182.56
-9755040.71 5135687.42 182.69
-9755039.52 5135683.61 182.18
-9755040.06 5135685.88 182.28
-9755044.27 5135686.88 182.70
-9755043.36 5135685.43 182.08
-9755041.59 5135684.47 182.12
-9755042.21 5135682.16 182.06
-9755044.26 5135682.13 182.00
-9755039.49 5135682.69 182.15
-9755040.70 5135684.77 182.14
-9755041.61 5135682.42 182.09
-9755039.21 5135687.44 182.66
-9755044.84 5135684.83 182.02
-9755042.99 5135687.82 182.16
-9755040.40 5135687.42 182.64
-9755045.10 5135687.79 182.28
-9755044.00 5135682.73 182.01
-9755044.27 5135686.00 182.45
-9755040.68 5135686.55 182.68
-9755044.61 5135685.66 182.15
-9755040.95 5135685.93 182.39
-9755045.11 5135689.58 182.05
-9755040.38 5135689.86 182.20
-9755041.88 5135689.55 182.16
-9755042.75 5135689.22 182.14
-9755042.18 5135688.37 182.15
-9755043.62 5135688.70 182.11
-9755040.09 5135689.18 182.21
-9755043.62 5135689.85 182.12
-9755041.84 5135688.36 182.16
-9755041.23 5135689.50 182.19
-9755040.38 5135689.50 182.19
-9755041.59 5135688.88 182.17
-9755044.81 5135688.36 182.07
-9755044.83 5135689.22 182.08
-9755037.81 5135687.03 182.94
-9755039.19 5135684.47 182.19
-9755037.18 5135684.17 182.23
-9755036.56 5135685.09 182.26
-9755037.19 5135687.13 182.92
-9755038.63 5135685.06 182.21
-9755036.24 5135686.52 182.91
-9755036.26 5135684.19 182.26
-9755036.54 5135686.56 182.74
-9755037.09 5135687.97 182.44
-9755038.65 5135682.14 182.16
-9755036.54 5135685.66 182.29
-9755038.33 5135684.78 182.21
-9755038.20 5135685.82 182.30
-9755036.88 5135688.30 182.31
-9755037.78 5135682.70 182.19
-9755038.34 5135684.18 182.20
-9755038.93 5135682.99 182.18
-9755038.09 5135686.00 182.53
-9755038.31 5135686.22 182.59
-9755036.89 5135685.37 182.25
-9755038.09 5135682.99 182.20
-9755037.02 5135685.92 182.33
-9755038.63 5135685.66 182.24
-9755036.56 5135685.91 182.46
-9755037.43 5135687.11 182.77
-9755038.03 5135685.38 182.24
-9755038.63 5135683.62 182.20
-9755036.91 5135686.04 182.56
-9755036.58 5135682.41 182.23
-9755036.51 5135685.90 182.40
-9755038.06 5135686.27 182.90
-9755036.33 5135682.98 182.24
-9755038.64 5135685.37 182.22
-9755037.13 5135682.08 182.21
-9755038.66 5135685.88 182.40
-9755036.43 5135687.66 182.62
-9755037.74 5135682.98 182.21
-9755036.64 5135682.74 182.23
-9755037.79 5135682.09 182.19
-9755037.44 5135686.55 182.79
-9755036.32 5135686.26 182.67
-9755038.62 5135686.20 182.58
-9755036.00 5135685.85 182.33
-9755035.96 5135687.11 182.76
-9755038.60 5135688.32 182.26
-9755038.88 5135688.32 182.24
-9755038.65 5135689.22 182.26
-9755038.31 5135688.92 182.27
-9755054.29 5135681.92 181.72
-9755052.79 5135681.34 181.73
-9755048.95 5135681.04 181.84
-9755053.42 5135681.36 181.73
-9755050.17 5135681.59 181.82
-9755049.56 5135681.30 181.83
-9755052.50 5135681.30 181.74
-9755052.21 5135681.61 181.76
-9755054.60 5135681.36 181.69
-9755051.01 5135681.90 181.80
-9755046.90 5135681.33 181.91
-9755047.78 5135681.88 181.90
-9755047.51 5135681.32 181.91
-9755044.27 5135680.99 181.98
-9755042.76 5135681.56 182.04
-9755041.90 5135680.92 182.07
-9755039.53 5135681.51 182.15
-9755044.59 5135681.28 181.97
-9755042.21 5135681.27 182.05
-9755038.40 5135680.95 182.15
-9755038.63 5135681.49 182.17
-9755036.30 5135680.91 182.22
-9755037.18 5135681.26 182.18
-9755037.78 5135681.55 182.18
-9755038.64 5135680.95 182.15
-9755036.63 5135680.94 182.20
-9755035.98 5135681.78 182.23
-9755035.38 5135682.39 182.26
-9755035.74 5135687.71 182.66
-9755035.40 5135683.83 182.26
-9755035.42 5135683.24 182.26
-9755035.74 5135684.18 182.27
-9755035.34 5135685.88 182.44
-9755035.68 5135687.06 182.76
-9755035.06 5135687.70 182.62
-9755035.12 5135687.10 182.82
-9755035.38 5135687.42 182.78
-9755035.25 5135687.11 182.89
-9755035.37 5135684.45 182.29
-9755035.35 5135685.92 182.47
-9755033.58 5135686.27 182.81
-9755033.32 5135686.49 182.80
-9755030.32 5135686.74 182.95
-9755034.54 5135687.10 182.89
-9755030.05 5135687.89 182.62
-9755029.20 5135686.17 182.73
-9755029.39 5135687.79 182.58
-9755034.57 5135687.94 182.53
-9755030.10 5135686.76 182.93
-9755031.29 5135683.81 182.37
-9755034.74 5135686.23 182.66
-9755032.20 5135682.94 182.33
-9755032.73 5135687.39 182.92
-9755032.07 5135687.02 183.07
-9755032.45 5135686.52 182.88
-9755032.19 5135681.75 182.32
-9755033.57 5135687.88 182.63
-9755033.34 5135685.01 182.35
-9755034.50 5135687.07 182.82
-9755033.93 5135687.11 182.93
-9755031.29 5135682.36 182.36
-9755032.46 5135688.01 182.57
-9755031.28 5135686.15 182.63
-9755031.88 5135686.22 182.72
-9755033.30 5135688.26 182.40
-9755030.06 5135687.07 183.15
-9755028.93 5135686.77 183.00
-9755028.88 5135684.96 182.44
-9755034.82 5135687.95 182.50
-9755029.25 5135684.10 182.40
-9755031.21 5135688.00 182.58
-9755030.06 5135686.77 183.01
-9755030.72 5135687.11 182.88
-9755032.42 5135686.19 182.71
-9755030.98 5135685.97 182.54
-9755034.21 5135686.14 182.63
-9755029.19 5135687.63 183.05
-9755031.30 5135685.94 182.48
-9755034.47 5135685.96 182.56
-9755034.54 5135684.77 182.30
-9755034.82 5135687.70 182.66
-9755034.54 5135684.16 182.30
-9755031.29 5135682.97 182.35
-9755030.10 5135684.98 182.41
-9755034.53 5135682.35 182.28
-9755029.19 5135685.02 182.43
-9755033.64 5135682.13 182.30
-9755032.44 5135685.03 182.36
-9755033.34 5135684.76 182.34
-9755029.17 5135684.48 182.40
-9755035.14 5135683.00 182.27
-9755032.15 5135688.30 182.43
-9755030.69 5135687.04 183.12
-9755031.60 5135681.76 182.33
-9755030.07 5135684.40 182.40
-9755033.34 5135684.13 182.33
-9755029.82 5135685.01 182.41
-9755033.61 5135684.17 182.33
-9755031.73 5135687.39 183.12
-9755034.86 5135686.49 182.89
-9755035.13 5135682.17 182.26
-9755033.32 5135686.21 182.72
-9755029.13 5135687.31 183.03
-9755032.45 5135682.33 182.31
-9755030.40 5135686.76 183.16
-9755031.25 5135686.22 182.71
-9755033.31 5135685.60 182.37
-9755030.33 5135686.10 182.55
-9755034.77 5135687.10 182.92
-9755034.53 5135684.46 182.31
-9755033.32 5135685.94 182.52
-9755033.67 5135687.76 182.65
-9755031.86 5135681.78 182.33
-9755033.86 5135685.07 182.33
-9755031.05 5135682.98 182.36
-9755034.50 5135686.86 182.84
-9755035.98 5135689.18 182.34
-9755035.36 5135688.33 182.34
-9755035.36 5135689.48 182.35
-9755033.86 5135689.15 182.39
-9755033.31 5135689.78 182.40
-9755034.22 5135689.74 182.39
-9755034.79 5135689.17 182.37
-9755032.12 5135689.14 182.43
-9755029.15 5135688.56 182.49
-9755030.66 5135689.17 182.45
-9755034.52 5135681.52 182.28
-9755078.63 5135727.91 183.07
-9755080.49 5135727.04 183.58
-9755080.21 5135728.74 184.92
-9755078.20 5135728.81 181.49
-9755079.15 5135728.14 184.95
-9755080.23 5135727.63 183.12
-9755079.61 5135727.10 182.69
-9755078.79 5135728.69 183.66
-9755081.08 5135727.15 183.12
-9755078.96 5135728.97 180.84
-9755079.68 5135727.82 184.25
-9755078.81 5135729.15 183.61
-9755080.28 5135728.74 183.22
-9755079.35 5135728.91 185.37
-9755081.19 5135729.37 183.34
-9755080.88 5135727.83 183.94
-9755078.15 5135728.75 183.56
-9755079.88 5135728.20 183.56
-9755080.00 5135727.92 184.67
-9755079.05 5135728.75 185.09
-9755079.59 5135728.69 180.92
-9755079.05 5135728.29 182.57
-9755079.44 5135727.06 182.85
-9755079.69 5135727.87 184.87
-9755079.00 5135729.39 183.63
-9755080.28 5135729.61 184.33
-9755078.26 5135729.51 181.55
-9755078.98 5135730.34 180.84
-9755079.57 5135733.59 184.59
-9755079.51 5135733.10 183.99
-9755081.07 5135733.46 184.80
-9755080.74 5135730.21 183.69
-9755078.99 5135730.32 183.32
-9755079.05 5135733.24 184.51
-9755079.01 5135729.95 184.01
-9755081.05 5135730.51 184.04
-9755079.02 5135721.48 183.52
-9755081.49 5135723.39 184.47
-9755079.01 5135723.78 180.75
-9755078.47 5135726.54 184.11
-9755078.54 5135720.47 184.14
-9755077.55 5135721.88 183.31
-9755077.72 5135724.63 182.92
-9755078.58 5135721.39 183.99
-9755078.24 5135725.47 183.15
-9755078.22 5135723.39 184.14
-9755077.97 5135720.45 184.16
-9755078.12 5135726.04 184.42
-9755080.90 5135722.54 184.39
-9755077.28 5135724.95 182.59
-9755079.12 5135724.95 184.09
-9755079.12 5135723.33 185.29
-9755080.60 5135723.99 185.14
-9755081.42 5135726.25 181.33
-9755078.48 5135722.52 184.13
-9755078.84 5135725.40 184.09
-9755077.61 5135724.40 182.92
-9755078.54 5135721.92 183.83
-9755079.01 5135724.25 185.08
-9755077.58 5135720.45 184.18
-9755078.13 5135721.71 182.82
-9755077.89 5135723.45 184.12
-9755079.89 5135725.09 184.32
-9755080.21 5135722.17 184.42
-9755078.12 5135724.45 182.91
-9755080.28 5135721.99 183.95
-9755077.91 5135726.07 184.29
-9755077.41 5135726.44 182.97
-9755079.04 5135723.41 183.95
-9755077.93 5135723.71 184.08
-9755078.19 5135720.76 183.96
-9755078.81 5135723.30 180.78
-9755078.48 5135725.00 180.58
-9755077.77 5135722.49 184.11
-9755078.44 5135725.38 180.76
-9755077.35 5135726.03 184.58
-9755078.20 5135721.71 183.26
-9755078.98 5135722.52 183.94
-9755078.20 5135724.84 182.92
-9755078.87 5135722.22 184.20
-9755079.07 5135721.74 183.43
-9755078.01 5135720.48 184.04
-9755079.06 5135722.68 184.20
-9755077.35 5135726.62 184.85
-9755076.16 5135727.17 184.71
-9755077.07 5135726.99 184.43
-9755076.35 5135727.64 183.79
-9755076.20 5135727.65 183.67
-9755076.67 5135728.31 180.25
-9755076.65 5135726.80 184.65
-9755075.88 5135726.92 184.23
-9755077.06 5135727.90 182.72
-9755075.29 5135727.31 183.43
-9755075.43 5135727.01 183.61
-9755074.90 5135726.72 183.22
-9755074.68 5135726.71 183.18
-9755064.65 5135727.18 182.49
-9755064.62 5135727.80 182.23
-9755066.17 5135728.61 181.71
-9755066.33 5135728.58 182.51
-9755065.04 5135726.97 180.95
-9755066.37 5135727.89 182.74
-9755066.63 5135727.37 179.71
-9755066.94 5135729.07 181.55
-9755065.46 5135729.08 181.56
-9755067.87 5135727.11 180.07
-9755065.84 5135727.31 180.02
-9755066.68 5135727.61 182.76
-9755064.28 5135726.73 182.17
-9755064.95 5135727.22 184.40
-9755065.22 5135727.77 182.29
-9755068.81 5135726.70 182.84
-9755065.77 5135729.09 181.48
-9755067.09 5135726.92 182.87
-9755066.34 5135727.03 182.58
-9755067.56 5135728.97 180.84
-9755064.69 5135727.43 182.47
-9755068.21 5135727.62 182.49
-9755067.67 5135727.28 179.69
-9755067.79 5135727.74 182.16
-9755064.89 5135727.88 181.91
-9755065.21 5135727.95 181.64
-9755065.78 5135729.12 182.40
-9755065.74 5135729.05 181.70
-9755065.76 5135726.89 181.35
-9755063.75 5135727.78 183.38
-9755067.64 5135727.44 183.35
-9755067.83 5135726.69 180.96
-9755065.57 5135728.21 182.36
-9755069.77 5135728.75 181.80
-9755066.15 5135729.38 183.07
-9755066.04 5135727.10 183.90
-9755064.96 5135727.57 183.21
-9755064.60 5135727.52 184.82
-9755068.28 5135727.16 182.58
-9755067.46 5135726.99 180.53
-9755063.11 5135727.61 182.30
-9755065.85 5135729.33 183.27
-9755064.38 5135728.10 182.07
-9755067.49 5135726.89 183.71
-9755067.87 5135728.60 180.38
-9755066.45 5135728.26 181.91
-9755066.20 5135727.32 182.47
-9755063.12 5135727.92 182.46
-9755067.87 5135728.35 180.24
-9755068.37 5135728.49 181.73
-9755068.35 5135730.11 181.66
-9755066.26 5135732.44 181.57
-9755067.86 5135730.60 180.62
-9755068.38 5135731.41 182.65
-9755070.91 5135732.10 183.30
-9755068.78 5135731.67 183.42
-9755067.95 5135732.80 181.66
-9755066.97 5135731.17 181.80
-9755067.81 5135730.30 181.80
-9755069.93 5135730.68 180.91
-9755066.00 5135731.57 178.00
-9755069.62 5135731.17 182.57
-9755069.57 5135730.26 181.67
-9755070.76 5135731.19 182.19
-9755069.77 5135730.26 182.59
-9755070.79 5135730.23 180.77
-9755067.90 5135731.69 181.79
-9755066.65 5135731.82 181.40
-9755069.28 5135733.54 182.26
-9755065.18 5135729.65 182.10
-9755068.65 5135732.65 181.20
-9755065.80 5135731.10 177.99
-9755068.74 5135731.06 181.29
-9755069.89 5135730.16 182.91
-9755069.91 5135732.41 180.37
-9755066.84 5135733.17 182.10
-9755068.45 5135730.31 181.68
-9755066.09 5135729.54 183.33
-9755068.35 5135732.32 181.73
-9755066.21 5135732.15 180.17
-9755070.76 5135731.64 178.79
-9755069.54 5135733.34 180.32
-9755070.87 5135731.18 181.42
-9755069.51 5135732.91 181.09
-9755069.29 5135731.15 181.80
-9755070.07 5135730.33 181.08
-9755070.44 5135733.55 181.98
-9755068.21 5135733.23 180.94
-9755068.41 5135733.58 181.28
-9755067.85 5135732.71 182.16
-9755065.49 5135730.41 178.24
-9755066.65 5135731.34 178.02
-9755068.31 5135732.11 182.54
-9755069.87 5135732.31 183.11
-9755070.01 5135731.98 181.06
-9755070.77 5135731.81 181.55
-9755067.71 5135732.95 180.51
-9755070.50 5135730.21 180.80
-9755070.20 5135730.65 180.92
-9755067.85 5135729.93 180.05
-9755068.36 5135732.73 178.28
-9755070.24 5135732.95 181.66
-9755069.86 5135731.18 180.64
-9755069.88 5135732.30 182.26
-9755069.53 5135730.70 180.98
-9755068.34 5135731.25 180.69
-9755071.05 5135731.11 181.71
-9755069.24 5135733.49 180.56
-9755065.84 5135730.12 178.34
-9755069.85 5135731.54 182.77
-9755068.11 5135732.39 181.51
-9755066.11 5135731.94 180.19
-9755071.38 5135733.57 180.65
-9755068.79 5135732.31 181.82
-9755067.43 5135731.13 180.29
-9755066.41 5135732.06 181.34
-9755067.53 5135730.94 180.30
-9755068.22 5135733.32 181.34
-9755069.45 5135733.42 180.11
-9755069.00 5135731.50 181.34
-9755067.21 5135733.60 180.52
-9755068.76 5135732.81 183.30
-9755068.49 5135731.57 180.30
-9755070.46 5135733.60 180.65
-9755066.61 5135733.15 177.95
-9755067.31 5135732.78 180.11
-9755068.75 5135732.68 182.05
-9755065.97 5135729.85 183.04
-9755069.26 5135729.97 181.19
-9755070.43 5135732.74 180.62
-9755068.99 5135731.28 181.32
-9755069.00 5135731.10 182.00
-9755068.37 5135731.63 182.71
-9755064.91 5135730.65 178.34
-9755069.04 5135732.05 181.05
-9755070.78 5135732.69 182.56
-9755069.22 5135731.15 181.08
-9755071.68 5135733.57 182.57
-9755067.30 5135732.01 182.28
-9755069.95 5135732.28 181.73
-9755077.30 5135725.45 184.28
-9755077.28 5135725.16 180.11
-9755077.38 5135725.20 184.27
-9755075.51 5135725.75 184.28
-9755075.60 5135726.02 184.07
-9755076.98 5135725.38 184.54
-9755075.86 5135721.69 183.24
-9755076.47 5135721.64 184.18
-9755076.98 5135725.33 180.35
-9755076.14 5135726.38 184.36
-9755075.77 5135725.75 183.54
-9755076.10 5135725.72 184.33
-9755076.81 5135725.44 184.53
-9755076.97 5135725.21 182.55
-9755076.12 5135721.04 183.44
-9755076.72 5135721.35 183.65
-9755077.28 5135724.16 180.41
-9755076.76 5135725.25 184.25
-9755076.42 5135726.58 184.63
-9755076.44 5135725.43 184.41
-9755075.84 5135726.32 184.57
-9755076.15 5135722.73 183.47
-9755076.11 5135725.04 183.29
-9755076.32 5135724.57 184.25
-9755075.95 5135726.05 184.65
-9755076.46 5135721.32 183.62
-9755076.00 5135726.17 183.58
-9755076.12 5135724.60 184.18
-9755075.51 5135721.67 183.10
-9755075.04 5135725.82 183.11
-9755075.25 5135721.35 182.84
-9755075.34 5135721.03 183.25
-9755075.23 5135725.47 183.63
-9755075.30 5135720.79 183.26
-9755074.97 5135726.07 183.04
-9755075.38 5135720.53 181.80
-9755075.28 5135725.73 183.47
-9755075.04 5135725.55 183.44
-9755066.90 5135726.23 179.89
-9755063.84 5135726.16 181.61
-9755068.23 5135726.18 182.80
-9755066.64 5135722.83 181.14
-9755065.49 5135724.56 184.12
-9755065.40 5135725.44 183.18
-9755068.45 5135726.58 182.25
-9755068.39 5135726.61 182.82
-9755065.12 5135725.37 181.98
-9755068.53 5135725.80 182.47
-9755066.77 5135725.40 183.10
-9755067.43 5135724.60 181.93
-9755065.38 5135724.63 183.12
-9755068.73 5135724.68 184.08
-9755068.54 5135726.08 182.24
-9755066.67 5135725.92 179.10
-9755065.17 5135725.41 183.64
-9755067.43 5135726.07 181.69
-9755068.24 5135724.56 183.92
-9755068.49 5135726.22 180.93
-9755070.05 5135725.79 183.24
-9755063.41 5135723.36 182.53
-9755063.47 5135723.34 182.18
-9755067.61 5135724.89 183.49
-9755066.80 5135726.21 183.33
-9755064.62 5135726.11 182.28
-9755072.86 5135723.03 179.33
-9755065.85 5135725.01 180.13
-9755068.28 5135724.18 184.43
-9755064.01 5135726.24 183.24
-9755069.43 5135726.18 183.02
-9755066.18 5135723.76 181.10
-9755068.28 5135725.25 182.95
-9755063.13 5135726.33 182.15
-9755068.83 5135725.75 182.36
-9755066.35 5135725.39 181.71
-9755068.79 5135723.76 183.29
-9755067.91 5135726.17 181.08
-9755064.01 5135721.25 177.41
-9755065.76 5135724.11 184.17
-9755065.11 5135724.88 182.24
-9755065.91 5135724.79 183.47
-9755064.73 5135725.72 183.34
-9755067.03 5135725.23 179.57
-9755067.01 5135725.57 180.91
-9755068.11 5135725.46 182.99
-9755069.95 5135726.35 182.72
-9755067.68 5135725.99 183.31
-9755066.38 5135726.10 183.38
-9755067.58 5135725.92 183.91
-9755066.82 5135724.97 181.60
-9755068.27 5135725.43 183.53
-9755069.93 5135721.26 178.69
-9755069.93 5135725.18 182.91
-9755067.57 5135725.21 183.35
-9755067.20 5135723.76 182.15
-9755069.88 5135723.32 178.65
