-9755461.44 5135564.02 221.07
-9755463.11 5135554.15 220.87
-9755461.93 5135559.56 207.95
-9755462.13 5135555.99 207.94
-9755458.57 5135558.77 205.69
-9755459.74 5135552.82 207.41
-9755454.94 5135565.35 203.64
-9755466.02 5135562.17 220.87
-9755463.28 5135556.29 208.53
-9755457.03 5135563.78 204.96
-9755462.71 5135563.45 207.97
-9755463.10 5135557.74 208.48
-9755460.73 5135556.60 207.36
-9755459.70 5135555.15 206.82
-9755462.33 5135564.93 207.53
-9755463.83 5135558.84 208.53
-9755454.62 5135564.49 203.63
-9755466.45 5135559.24 220.85
-9755462.95 5135564.00 207.40
-9755457.02 5135559.62 205.11
-9755462.11 5135554.28 220.91
-9755458.79 5135561.22 206.12
-9755458.90 5135554.46 206.94
-9755458.58 5135556.05 206.26
-9755454.69 5135554.31 204.02
-9755460.63 5135557.50 206.82
-9755458.08 5135555.85 206.25
-9755463.22 5135559.10 207.97
-9755463.55 5135561.34 208.50
-9755462.63 5135557.12 207.95
-9755456.75 5135559.96 204.59
-9755464.40 5135560.33 220.90
-9755457.30 5135561.71 205.12
-9755457.36 5135559.65 205.12
-9755465.95 5135565.41 220.90
-9755456.42 5135562.95 204.56
-9755458.39 5135564.41 205.53
-9755456.04 5135557.53 205.11
-9755460.27 5135561.60 206.81
-9755466.95 5135555.11 220.80
-9755457.93 5135564.05 205.35
-9755465.54 5135558.63 220.89
-9755460.95 5135556.64 207.36
-9755461.26 5135552.97 207.95
-9755455.80 5135564.11 204.25
-9755457.73 5135553.45 206.34
-9755456.52 5135557.53 205.11
-9755462.40 5135562.02 207.41
-9755461.52 5135558.38 207.38
-9755461.35 5135555.08 220.96
-9755460.71 5135559.98 221.08
-9755459.11 5135564.73 206.05
-9755457.35 5135561.14 205.12
-9755460.11 5135555.95 207.17
-9755461.20 5135555.12 207.39
-9755461.18 5135553.92 207.42
-9755457.87 5135562.05 205.13
-9755465.44 5135553.80 220.86
-9755464.88 5135564.70 220.92
-9755465.05 5135564.53 208.91
-9755458.51 5135562.22 205.68
-9755463.20 5135559.85 207.97
-9755456.15 5135560.89 204.55
-9755460.61 5135553.38 207.40
-9755462.76 5135554.27 207.97
-9755462.62 5135562.25 207.42
-9755455.24 5135558.55 204.00
-9755466.03 5135563.46 220.87
-9755460.88 5135554.70 207.91
-9755460.56 5135558.11 206.81
-9755457.31 5135557.60 205.12
-9755461.26 5135561.42 206.82
-9755464.15 5135561.37 208.51
-9755459.71 5135554.24 206.82
-9755463.15 5135561.55 220.95
-9755465.49 5135560.66 220.88
-9755460.61 5135558.76 206.80
-9755461.24 5135554.58 207.39
-9755463.96 5135554.14 220.88
-9755464.52 5135563.39 208.52
-9755455.29 5135554.32 204.58
-9755458.58 5135562.88 205.68
-9755454.44 5135555.82 204.03
-9755461.28 5135554.24 207.95
-9755462.10 5135561.39 207.39
-9755454.46 5135558.50 203.51
-9755456.12 5135563.80 204.47
-9755455.20 5135563.25 203.40
-9755460.91 5135557.14 206.98
-9755459.18 5135560.72 205.67
-9755456.23 5135557.89 205.03
-9755462.56 5135562.82 207.39
-9755457.61 5135557.43 205.17
-9755458.28 5135554.87 206.25
-9755463.10 5135563.72 220.98
-9755461.65 5135559.79 221.04
-9755456.15 5135562.36 204.55
-9755462.78 5135563.67 207.97
-9755456.17 5135559.41 204.56
-9755461.17 5135562.21 207.30
-9755461.83 5135553.88 207.95
-9755456.56 5135556.74 205.14
-9755454.07 5135560.37 203.46
-9755460.29 5135556.00 206.81
-9755455.31 5135553.78 204.59
-9755461.10 5135558.90 221.10
-9755462.02 5135564.38 206.86
-9755459.94 5135565.43 203.62
-9755462.97 5135555.19 208.52
-9755458.86 5135555.73 206.27
-9755454.13 5135554.71 204.02
-9755460.21 5135561.92 206.30
-9755464.65 5135560.16 220.90
-9755466.64 5135556.24 220.92
-9755454.35 5135553.43 204.47
-9755460.12 5135556.45 207.23
-9755452.35 5135556.19 203.36
-9755453.72 5135556.79 203.45
-9755452.34 5135558.07 203.32
-9755453.71 5135562.40 204.01
-9755453.60 5135554.65 204.02
-9755453.56 5135563.89 203.06
-9755452.64 5135556.71 204.01
-9755452.92 5135553.28 203.70
-9755452.31 5135558.44 203.32
-9755453.91 5135561.94 204.03
-9755452.31 5135556.71 204.02
-9755452.86 5135556.43 203.46
-9755453.22 5135553.66 203.84
-9755453.25 5135559.65 203.48
-9755452.63 5135560.57 203.81
-9755453.53 5135563.91 202.64
-9755453.46 5135561.95 203.13
-9755453.23 5135562.70 203.08
-9755453.16 5135555.88 203.45
-9755452.36 5135556.82 203.37
-9755453.29 5135554.12 203.44
-9755452.35 5135555.56 203.41
-9755453.20 5135562.15 203.44
-9755452.65 5135555.86 204.01
-9755453.79 5135563.80 204.01
-9755452.11 5135554.96 203.35
-9755453.20 5135560.32 204.01
-9755452.17 5135557.07 203.34
-9755453.77 5135565.35 203.45
-9755453.00 5135561.73 202.88
-9755452.07 5135547.52 203.44
-9755452.01 5135547.23 203.43
-9755452.05 5135551.76 204.02
-9755451.83 5135546.67 203.44
-9755450.68 5135546.33 204.00
-9755452.13 5135550.53 203.47
-9755450.59 5135547.50 203.86
-9755451.17 5135549.66 203.34
-9755452.16 5135546.46 203.46
-9755450.55 5135547.14 203.83
-9755450.59 5135548.09 203.89
-9755451.24 5135548.76 203.44
-9755452.08 5135554.31 204.00
-9755451.56 5135554.26 203.47
-9755451.30 5135553.40 203.40
-9755451.23 5135554.34 203.72
-9755451.26 5135555.46 203.79
-9755485.14 5135548.22 207.11
-9755501.09 5135539.27 203.44
-9755502.26 5135539.26 203.43
-9755500.75 5135539.85 203.43
-9755500.18 5135539.55 203.42
-9755501.94 5135545.21 203.46
-9755500.18 5135542.21 203.44
-9755500.45 5135545.79 203.46
-9755500.17 5135542.82 203.45
-9755502.25 5135544.01 203.45
-9755500.53 5135541.93 203.44
-9755501.06 5135542.56 203.44
-9755500.47 5135543.09 203.45
-9755501.03 5135546.07 203.47
-9755501.34 5135540.78 203.45
-9755500.58 5135524.46 203.55
-9755501.45 5135526.55 203.52
-9755503.24 5135525.97 203.52
-9755502.63 5135524.19 203.56
-9755502.32 5135526.25 203.54
-9755503.21 5135526.54 203.53
-9755502.36 5135523.83 203.57
-9755502.93 5135525.36 203.55
-9755501.45 5135524.15 203.56
-9755502.07 5135525.97 203.54
-9755502.04 5135525.34 203.55
-9755500.57 5135523.84 203.56
-9755500.56 5135526.81 203.53
-9755501.80 5135526.27 203.54
-9755501.75 5135525.04 203.55
-9755501.43 5135530.10 203.48
-9755502.91 5135531.88 203.46
-9755502.89 5135527.73 203.51
-9755501.15 5135532.76 203.45
-9755500.87 5135529.17 203.49
-9755502.63 5135534.21 203.42
-9755500.21 5135536.86 203.42
-9755500.51 5135536.89 203.41
-9755499.95 5135534.81 203.44
-9755499.97 5135528.64 203.50
-9755502.34 5135527.16 203.52
-9755502.34 5135530.68 203.48
-9755502.64 5135527.11 203.52
-9755503.19 5135535.76 203.42
-9755501.37 5135537.50 203.43
-9755501.79 5135528.61 203.50
-9755500.25 5135533.40 203.46
-9755500.52 5135529.47 203.49
-9755501.73 5135527.14 203.52
-9755500.19 5135536.05 203.42
-9755502.63 5135534.52 203.43
-9755500.83 5135534.56 203.43
-9755500.23 5135531.83 203.47
-9755502.59 5135538.08 203.43
-9755502.33 5135530.40 203.48
-9755502.90 5135531.61 203.46
-9755502.62 5135531.29 203.46
-9755500.84 5135531.24 203.47
-9755501.66 5135536.88 203.42
-9755501.07 5135538.69 203.43
-9755501.73 5135531.25 203.46
-9755501.12 5135535.72 203.40
-9755501.46 5135534.25 203.44
-9755500.80 5135537.79 203.42
-9755501.74 5135534.52 203.43
-9755496.34 5135539.26 203.46
-9755495.24 5135539.80 203.46
-9755499.58 5135539.82 203.43
-9755499.04 5135539.58 203.43
-9755491.64 5135539.51 203.50
-9755485.45 5135539.47 203.59
-9755491.97 5135539.79 203.50
-9755487.81 5135539.79 203.56
-9755489.31 5135539.51 203.53
-9755498.45 5135540.13 203.44
-9755496.95 5135541.91 203.45
-9755494.26 5135546.32 203.48
-9755495.15 5135543.62 203.46
-9755496.92 5135543.11 203.46
-9755495.15 5135542.20 203.47
-9755496.66 5135543.67 203.46
-9755497.27 5135540.47 203.45
-9755496.93 5135541.01 203.46
-9755497.82 5135540.76 203.45
-9755494.89 5135544.81 203.46
-9755496.08 5135542.53 203.45
-9755498.74 5135540.74 203.45
-9755497.54 5135546.35 203.47
-9755499.25 5135546.36 203.46
-9755499.33 5135543.13 203.46
-9755497.19 5135543.08 203.45
-9755498.96 5135544.87 203.45
-9755499.02 5135541.03 203.44
-9755496.63 5135542.22 203.45
-9755498.99 5135542.79 203.45
-9755494.55 5135543.34 203.48
-9755498.09 5135546.05 203.46
-9755493.42 5135540.39 203.48
-9755498.12 5135541.28 203.45
-9755494.60 5135541.01 203.47
-9755499.31 5135542.51 203.45
-9755496.98 5135542.49 203.45
-9755497.83 5135543.08 203.45
-9755495.72 5135543.09 203.46
-9755484.88 5135540.33 203.61
-9755491.36 5135540.10 203.52
-9755486.64 5135546.55 203.60
-9755491.65 5135544.85 203.53
-9755489.51 5135546.58 203.55
-9755492.79 5135545.75 203.50
-9755486.89 5135545.10 203.60
-9755488.98 5135546.30 203.56
-9755486.36 5135545.07 203.61
-9755484.27 5135541.26 203.63
-9755488.14 5135545.12 203.58
-9755483.69 5135545.63 203.63
-9755486.65 5135545.70 203.60
-9755486.60 5135544.82 203.60
-9755487.80 5135540.68 203.57
-9755486.03 5135541.24 203.61
-9755492.24 5135546.02 203.52
-9755489.02 5135543.02 203.56
-9755484.28 5135543.62 203.63
-9755491.62 5135543.64 203.53
-9755487.46 5135545.39 203.59
-9755487.21 5135541.83 203.58
-9755490.46 5135545.72 203.53
-9755484.56 5135543.02 203.63
-9755483.99 5135540.67 203.63
-9755491.95 5135545.14 203.52
-9755487.55 5135543.96 203.58
-9755487.82 5135540.95 203.58
-9755483.39 5135543.06 203.63
-9755486.06 5135542.43 203.60
-9755493.11 5135543.09 203.50
-9755486.69 5135543.02 203.59
-9755485.74 5135544.24 203.61
-9755491.91 5135543.05 203.52
-9755487.82 5135541.56 203.57
-9755488.38 5135544.52 203.58
-9755491.94 5135541.86 203.52
-9755486.30 5135544.20 203.59
-9755488.66 5135546.02 203.55
-9755492.53 5135543.63 203.51
-9755484.90 5135540.64 203.61
-9755493.66 5135544.33 203.49
-9755486.93 5135542.42 203.59
-9755489.55 5135546.00 203.55
-9755492.22 5135544.20 203.52
-9755485.68 5135545.10 203.62
-9755492.21 5135541.87 203.51
-9755493.09 5135546.01 203.49
-9755488.69 5135542.50 203.55
-9755485.18 5135541.22 203.61
-9755488.98 5135544.21 203.57
-9755487.52 5135543.59 203.57
-9755489.61 5135541.87 203.55
-9755486.66 5135541.29 203.59
-9755480.14 5135546.60 220.76
-9755479.20 5135542.25 220.78
-9755479.18 5135545.75 220.71
-9755479.01 5135542.70 220.78
-9755478.84 5135541.88 220.74
-9755479.67 5135544.88 220.76
-9755472.57 5135539.71 220.67
-9755472.90 5135539.51 220.67
-9755474.36 5135539.42 220.65
-9755477.67 5135543.72 220.63
-9755476.78 5135540.07 220.61
-9755478.20 5135545.73 220.59
-9755476.83 5135541.54 220.60
-9755477.68 5135545.46 220.61
-9755473.75 5135543.24 220.63
-9755474.06 5135541.04 220.64
-9755474.96 5135545.13 220.65
-9755477.95 5135545.10 220.63
-9755474.66 5135546.33 220.62
-9755477.37 5135541.80 220.63
-9755475.02 5135542.43 220.65
-9755477.93 5135544.87 220.63
-9755474.24 5135545.13 220.68
-9755473.44 5135543.38 220.67
-9755473.50 5135542.10 220.66
-9755472.60 5135543.87 220.65
-9755473.45 5135544.78 220.67
-9755499.43 5135524.48 203.56
-9755498.24 5135526.23 203.54
-9755499.67 5135524.16 203.56
-9755499.14 5135523.28 203.59
-9755497.64 5135524.76 203.57
-9755497.95 5135525.34 203.56
-9755497.61 5135524.12 203.58
-9755499.13 5135525.92 203.55
-9755480.89 5135524.80 207.12
-9755499.63 5135537.77 203.42
-9755494.33 5135535.34 203.48
-9755498.51 5135530.66 203.58
-9755498.43 5135533.64 204.45
-9755496.40 5135535.71 203.46
-9755498.15 5135535.10 203.44
-9755495.80 5135534.27 200.08
-9755495.50 5135537.71 203.45
-9755497.86 5135537.74 203.45
-9755497.65 5135527.29 203.61
-9755497.56 5135534.05 203.68
-9755498.17 5135535.69 203.44
-9755498.12 5135538.06 203.44
-9755496.41 5135536.54 203.46
-9755495.26 5135534.47 204.46
-9755498.22 5135534.01 199.88
-9755496.38 5135535.98 203.45
-9755494.38 5135534.58 200.07
-9755497.59 5135534.78 203.45
-9755496.96 5135538.34 203.45
-9755494.87 5135537.80 203.46
-9755496.08 5135538.65 203.45
-9755498.12 5135538.93 203.45
-9755497.37 5135533.97 203.37
-9755499.30 5135536.89 203.43
-9755495.19 5135535.99 203.47
-9755499.34 5135533.28 204.24
-9755498.21 5135533.85 199.94
-9755499.11 5135533.62 204.45
-9755495.51 5135535.97 203.46
-9755495.48 5135537.49 203.45
-9755499.12 5135533.65 203.50
-9755495.52 5135536.58 203.46
-9755494.90 5135534.47 203.38
-9755498.19 5135533.67 202.42
-9755497.98 5135533.88 202.32
-9755495.37 5135534.28 203.47
-9755496.64 5135533.93 199.92
-9755497.06 5135534.01 202.23
-9755498.17 5135536.33 203.44
-9755495.57 5135534.46 203.47
-9755495.23 5135535.43 203.46
-9755497.92 5135533.66 202.97
-9755494.97 5135535.36 203.47
-9755498.11 5135538.71 203.43
-9755489.32 5135538.91 203.53
-9755481.65 5135535.46 207.04
-9755487.82 5135539.19 203.55
-9755493.21 5135534.74 204.44
-9755493.41 5135534.91 200.21
-9755486.14 5135538.54 203.73
-9755494.06 5135534.76 202.69
-9755493.36 5135534.86 200.62
-9755491.01 5135537.71 203.63
-9755488.97 5135538.61 203.54
-9755481.41 5135528.62 207.11
-9755482.33 5135532.15 207.13
-9755486.93 5135538.88 203.59
-9755481.76 5135530.39 207.13
-9755482.56 5135535.45 207.10
-9755481.69 5135529.50 207.14
-9755490.48 5135537.69 199.93
-9755493.26 5135534.74 203.73
-9755482.87 5135537.20 207.12
-9755491.97 5135539.18 203.49
-9755484.94 5135539.20 203.60
-9755481.99 5135533.67 207.08
-9755487.50 5135538.89 203.57
-9755493.13 5135538.33 203.48
-9755481.75 5135529.16 207.15
-9755492.58 5135537.38 203.52
-9755487.46 5135538.32 203.45
-9755493.36 5135534.91 202.63
-9755491.14 5135537.65 199.96
-9755481.12 5135527.74 207.12
-9755481.70 5135532.21 207.08
-9755492.57 5135538.04 203.49
-9755492.02 5135538.63 203.50
-9755482.27 5135531.03 207.14
-9755493.42 5135536.42 199.93
-9755493.51 5135535.69 203.52
-9755491.98 5135538.05 203.50
-9755493.44 5135534.73 204.44
-9755480.26 5135528.01 207.03
-9755479.98 5135527.14 207.04
-9755480.48 5135531.54 207.04
-9755480.82 5135532.47 207.04
-9755471.60 5135524.31 220.63
-9755472.52 5135522.94 220.61
-9755475.12 5135525.33 220.68
-9755470.30 5135523.47 220.64
-9755471.02 5135524.60 220.64
-9755474.83 5135524.41 220.71
-9755473.28 5135523.46 220.61
-9755473.66 5135525.29 220.62
-9755471.27 5135522.78 220.63
-9755471.58 5135522.81 220.64
-9755472.37 5135524.30 220.60
-9755478.46 5135524.77 207.04
-9755474.47 5135528.86 220.62
-9755476.75 5135537.30 220.62
-9755473.05 5135529.10 220.61
-9755472.81 5135530.92 220.64
-9755476.77 5135531.78 220.75
-9755476.21 5135537.47 220.61
-9755473.53 5135535.06 220.62
-9755474.97 5135533.22 220.59
-9755473.58 5135531.99 220.61
-9755471.87 5135528.51 221.04
-9755477.67 5135537.69 220.66
-9755474.45 5135531.16 220.59
-9755472.42 5135529.51 220.68
-9755473.78 5135531.79 220.62
-9755476.17 5135536.45 220.61
-9755471.89 5135533.49 220.63
-9755471.79 5135528.78 221.04
-9755475.99 5135527.92 220.75
-9755477.98 5135535.30 220.77
-9755471.57 5135526.98 220.66
-9755476.19 5135536.23 220.59
-9755473.55 5135529.97 220.68
-9755476.78 5135536.92 220.62
-9755475.61 5135534.45 220.59
-9755476.18 5135538.05 220.60
-9755475.17 5135528.03 220.64
-9755470.88 5135535.31 220.67
-9755474.17 5135539.17 220.65
-9755474.47 5135528.27 220.61
-9755477.94 5135537.75 220.71
-9755477.46 5135536.53 220.67
-9755474.12 5135526.95 220.63
-9755473.52 5135537.59 220.60
-9755473.29 5135535.28 220.61
-9755475.33 5135528.59 220.63
-9755475.83 5135530.34 220.67
-9755476.04 5135529.19 220.73
-9755471.24 5135532.68 220.62
-9755474.38 5135537.92 220.61
-9755475.28 5135530.22 220.61
-9755474.23 5135530.30 220.58
-9755471.47 5135528.77 220.70
-9755472.32 5135532.93 222.06
-9755473.58 5135529.11 220.59
-9755475.53 5135534.16 220.58
-9755472.45 5135528.54 221.04
-9755472.17 5135528.77 221.04
-9755475.65 5135535.27 220.58
-9755472.07 5135532.58 220.63
-9755471.76 5135530.20 220.97
-9755470.36 5135530.86 220.66
-9755476.25 5135528.83 220.77
-9755475.63 5135529.48 220.66
-9755470.37 5135528.77 220.69
-9755470.95 5135526.66 220.64
-9755475.37 5135534.70 220.58
-9755473.50 5135534.10 220.62
-9755472.99 5135529.26 221.00
-9755474.45 5135537.63 220.62
-9755475.07 5135527.30 220.67
-9755473.00 5135538.55 220.65
-9755477.36 5135537.51 220.66
-9755474.52 5135536.21 220.59
-9755471.38 5135528.45 221.03
-9755467.18 5135539.49 233.05
-9755460.57 5135539.41 220.91
-9755458.44 5135539.40 207.96
-9755457.21 5135539.46 206.85
-9755454.94 5135539.44 206.27
-9755458.84 5135539.38 220.92
-9755461.70 5135539.40 220.92
-9755466.72 5135539.44 220.73
-9755464.05 5135539.37 220.80
-9755454.53 5135539.45 205.71
-9755467.27 5135539.97 220.77
-9755465.17 5135539.36 220.84
-9755461.98 5135539.03 220.85
-9755460.39 5135539.47 208.49
-9755454.83 5135539.52 205.72
-9755456.88 5135539.13 206.83
-9755464.69 5135539.73 220.81
-9755457.54 5135539.12 207.38
-9755455.98 5135539.14 206.28
-9755457.18 5135538.89 206.83
-9755458.66 5135539.99 207.94
-9755453.13 5135539.24 205.15
-9755452.70 5135539.30 204.60
-9755468.35 5135546.53 233.36
-9755468.65 5135539.40 233.33
-9755468.79 5135545.91 220.79
-9755469.78 5135545.95 220.74
-9755467.95 5135545.98 233.29
-9755468.58 5135541.79 230.99
-9755467.07 5135546.63 220.81
-9755468.56 5135543.85 220.78
-9755468.54 5135544.82 233.06
-9755469.67 5135543.43 230.99
-9755468.57 5135542.20 233.35
-9755467.92 5135543.62 220.78
-9755467.63 5135544.26 233.68
-9755468.82 5135543.98 231.01
-9755467.64 5135545.72 220.80
-9755468.82 5135543.03 230.98
-9755467.63 5135543.84 220.75
-9755467.68 5135540.29 220.78
-9755468.79 5135543.43 230.95
-9755467.81 5135544.66 231.26
-9755468.00 5135542.40 233.36
-9755469.93 5135544.87 230.97
-9755467.60 5135545.93 220.80
-9755456.20 5135546.04 205.73
-9755459.45 5135544.38 207.36
-9755461.71 5135545.91 220.92
-9755455.13 5135540.09 205.72
-9755467.03 5135541.27 220.79
-9755459.97 5135540.33 220.92
-9755466.42 5135541.67 220.81
-9755458.63 5135544.49 207.36
-9755457.75 5135540.12 206.85
-9755457.99 5135543.88 206.85
-9755459.84 5135540.85 208.46
-9755455.68 5135542.43 205.72
-9755460.19 5135540.90 207.97
-9755458.69 5135543.58 207.37
-9755458.21 5135539.98 207.69
-9755458.63 5135546.31 206.83
-9755458.57 5135542.12 207.38
-9755456.28 5135543.58 206.26
-9755457.21 5135544.22 206.83
-9755459.23 5135545.91 207.40
-9755454.21 5135540.69 205.17
-9755461.11 5135544.34 220.94
-9755459.26 5135540.31 207.94
-9755459.50 5135545.65 207.42
-9755464.69 5135542.01 220.84
-9755455.12 5135543.96 205.70
-9755455.14 5135545.83 205.59
-9755455.35 5135542.47 205.71
-9755464.59 5135540.48 220.85
-9755455.96 5135545.70 205.71
-9755460.60 5135543.27 220.93
-9755455.34 5135545.77 205.18
-9755459.40 5135542.11 220.97
-9755454.44 5135543.71 205.14
-9755459.17 5135543.52 207.97
-9755459.06 5135542.69 221.00
-9755462.30 5135542.62 220.88
-9755459.63 5135544.61 220.96
-9755459.54 5135543.74 207.53
-9755460.45 5135543.85 207.97
-9755459.23 5135543.79 207.40
-9755466.13 5135543.90 220.79
-9755457.12 5135545.13 206.28
-9755457.77 5135543.89 206.84
-9755455.62 5135541.54 205.71
-9755463.44 5135541.32 220.88
-9755459.24 5135542.99 207.96
-9755458.74 5135545.32 221.10
-9755459.81 5135545.56 207.95
-9755456.87 5135545.10 206.27
-9755466.14 5135543.08 220.81
-9755458.67 5135544.73 207.37
-9755456.25 5135540.61 206.27
-9755455.44 5135541.50 205.71
-9755460.26 5135543.54 220.93
-9755457.79 5135543.25 206.82
-9755454.25 5135541.94 205.14
-9755461.66 5135543.55 220.91
-9755461.74 5135540.33 220.90
-9755457.38 5135545.97 206.29
-9755457.50 5135539.99 206.83
-9755460.51 5135544.75 220.96
-9755455.74 5135542.80 205.72
-9755467.15 5135541.49 220.79
-9755456.05 5135539.73 206.30
-9755459.30 5135540.56 207.94
-9755457.17 5135540.66 206.83
-9755466.77 5135540.56 220.80
-9755466.71 5135540.93 220.77
-9755460.76 5135545.62 208.53
-9755461.36 5135545.32 220.94
-9755460.11 5135545.84 207.95
-9755455.91 5135545.16 205.72
-9755457.77 5135544.80 206.83
-9755458.85 5135541.56 207.38
-9755464.05 5135543.55 220.84
-9755458.73 5135542.38 221.00
-9755457.63 5135540.17 221.11
-9755458.51 5135540.34 220.97
-9755459.90 5135545.60 207.42
-9755460.45 5135544.74 208.56
-9755460.45 5135540.55 208.51
-9755455.41 5135544.50 205.72
-9755459.11 5135541.16 207.36
-9755465.95 5135544.82 220.84
-9755457.77 5135540.65 206.83
-9755465.30 5135545.34 220.85
-9755456.57 5135541.55 206.27
-9755457.72 5135541.56 206.84
-9755456.85 5135544.78 206.27
-9755453.89 5135546.31 204.58
-9755456.89 5135542.22 206.30
-9755466.46 5135540.11 232.58
-9755466.92 5135542.63 220.77
-9755456.60 5135541.03 206.28
-9755459.76 5135541.15 207.95
-9755455.38 5135543.34 205.70
-9755459.45 5135542.71 207.40
-9755453.90 5135540.94 205.17
-9755460.25 5135544.34 220.93
-9755456.87 5135545.74 206.28
-9755459.53 5135541.78 207.94
-9755461.81 5135543.85 220.90
-9755455.66 5135544.83 205.72
-9755454.83 5135543.05 205.66
-9755454.46 5135544.83 205.14
-9755467.32 5135542.75 231.15
-9755459.64 5135544.10 207.36
-9755456.23 5135542.63 205.85
-9755463.83 5135543.77 220.86
-9755458.72 5135541.92 220.97
-9755462.58 5135539.99 220.85
-9755456.90 5135541.22 206.82
-9755455.43 5135542.09 205.61
-9755455.82 5135542.50 206.21
-9755454.85 5135540.39 205.71
-9755465.89 5135541.09 220.83
-9755458.06 5135545.67 206.83
-9755466.52 5135543.21 220.81
-9755459.24 5135542.77 207.92
-9755455.71 5135545.39 205.70
-9755458.98 5135540.23 207.58
-9755463.46 5135543.02 220.88
-9755458.75 5135545.35 206.84
-9755458.79 5135545.80 206.81
-9755465.57 5135542.61 220.81
-9755458.03 5135541.80 206.84
-9755460.58 5135543.85 220.91
-9755459.90 5135543.55 207.95
-9755459.32 5135539.97 220.96
-9755460.64 5135545.67 207.98
-9755455.93 5135544.23 205.71
-9755459.87 5135546.23 207.92
-9755466.77 5135544.96 220.82
-9755454.51 5135543.96 205.14
-9755456.33 5135540.38 206.28
-9755459.32 5135543.12 220.96
-9755454.80 5135544.84 205.13
-9755458.16 5135543.56 218.94
-9755460.19 5135542.42 208.47
-9755456.58 5135545.71 206.28
-9755461.31 5135544.35 208.53
-9755459.04 5135543.49 220.98
-9755459.55 5135544.10 207.95
-9755460.58 5135545.01 207.98
-9755454.44 5135542.49 205.70
-9755459.67 5135545.31 220.99
-9755458.09 5135542.69 206.85
-9755458.95 5135542.06 207.38
-9755455.08 5135540.99 205.73
-9755460.03 5135545.93 207.42
-9755455.85 5135543.11 205.72
-9755452.42 5135541.90 204.64
-9755452.76 5135541.97 204.57
-9755453.26 5135544.26 204.59
-9755453.95 5135543.07 205.13
-9755453.97 5135544.30 204.59
-9755453.13 5135540.54 205.04
-9755453.89 5135542.77 205.13
-9755452.18 5135541.48 204.58
-9755452.71 5135542.73 204.59
-9755453.40 5135542.34 205.16
-9755453.66 5135540.33 205.16
-9755453.68 5135542.19 204.61
-9755452.76 5135541.00 204.61
-9755452.67 5135543.74 204.00
-9755453.28 5135546.00 204.05
-9755453.57 5135540.85 204.65
-9755453.00 5135540.41 204.60
-9755450.96 5135539.30 203.47
-9755452.10 5135539.92 204.04
-9755450.63 5135539.21 204.05
-9755452.11 5135545.16 204.03
-9755451.89 5135540.15 204.05
-9755451.21 5135545.47 203.45
-9755450.95 5135544.51 203.94
-9755450.65 5135541.05 203.45
-9755451.51 5135544.30 203.43
-9755451.51 5135544.94 203.45
-9755451.86 5135544.89 204.04
-9755451.88 5135540.17 204.54
-9755451.27 5135541.03 204.03
-9755451.30 5135541.86 203.45
-9755451.53 5135542.58 203.98
-9755451.59 5135541.33 204.02
-9755451.30 5135540.45 204.03
-9755451.18 5135540.72 203.56
-9755450.65 5135545.25 203.41
-9755450.67 5135540.75 203.45
-9755451.28 5135539.25 204.04
-9755450.66 5135543.12 203.47
-9755451.56 5135539.91 204.03
-9755451.62 5135540.74 204.02
-9755451.05 5135545.73 204.02
-9755451.85 5135541.61 204.02
-9755451.83 5135543.38 204.01
-9755470.02 5135522.88 220.65
-9755469.66 5135524.40 220.63
-9755467.51 5135522.91 220.68
-9755465.05 5135523.80 220.77
-9755460.43 5135523.00 220.88
-9755456.53 5135525.36 220.92
-9755457.68 5135525.53 220.92
-9755456.06 5135522.81 207.97
-9755457.09 5135523.78 208.53
-9755455.51 5135523.71 207.95
-9755454.62 5135524.62 207.38
-9755457.16 5135525.27 220.93
-9755458.90 5135522.96 220.90
-9755464.13 5135524.37 220.76
-9755456.76 5135525.20 220.92
-9755456.20 5135525.05 220.91
-9755455.50 5135524.97 207.40
-9755455.23 5135523.45 207.96
-9755462.13 5135525.48 220.81
-9755458.27 5135525.42 220.91
-9755466.03 5135524.07 220.71
-9755459.18 5135523.61 220.86
-9755466.23 5135525.78 220.72
-9755464.77 5135523.06 220.77
-9755459.43 5135524.40 220.88
-9755454.95 5135523.37 207.40
-9755465.65 5135523.43 220.74
-9755463.05 5135524.28 220.80
-9755456.08 5135525.46 207.94
-9755459.77 5135522.84 220.87
-9755458.07 5135523.88 220.88
-9755458.85 5135525.19 220.84
-9755464.82 5135523.96 220.79
-9755455.85 5135522.82 207.97
-9755455.82 5135526.03 207.95
-9755456.26 5135524.51 220.92
-9755455.43 5135524.68 207.42
-9755454.90 5135524.94 207.36
-9755465.93 5135523.48 220.72
-9755454.87 5135525.44 207.36
-9755467.45 5135525.14 220.69
-9755458.92 5135523.92 220.88
-9755457.00 5135525.87 207.95
-9755454.94 5135522.81 207.40
-9755458.29 5135524.62 220.91
-9755456.79 5135525.51 208.51
-9755456.18 5135522.76 208.54
-9755454.94 5135523.75 207.41
-9755464.76 5135525.92 220.77
-9755457.75 5135523.38 220.92
-9755466.82 5135524.64 220.74
-9755458.64 5135524.30 220.88
-9755466.25 5135524.05 220.71
-9755456.15 5135523.36 220.93
-9755460.95 5135524.28 220.85
-9755465.14 5135525.87 220.76
-9755455.29 5135524.34 207.93
-9755455.37 5135524.80 220.94
-9755460.67 5135523.41 220.85
-9755465.54 5135525.80 220.75
-9755457.07 5135526.41 220.93
-9755455.52 5135523.40 207.96
-9755456.11 5135526.32 207.96
-9755460.39 5135525.45 220.86
-9755455.83 5135524.55 207.95
-9755455.30 5135524.56 207.93
-9755455.23 5135525.10 207.93
-9755454.62 5135526.14 206.83
-9755463.91 5135524.59 220.79
-9755457.25 5135525.78 208.51
-9755461.58 5135526.02 220.86
-9755464.78 5135526.15 220.76
-9755454.52 5135524.67 206.86
-9755456.53 5135524.53 208.52
-9755454.04 5135526.20 206.82
-9755453.43 5135524.34 206.83
-9755454.09 5135524.91 206.83
-9755452.22 5135522.92 206.81
-9755453.11 5135525.23 206.27
-9755452.90 5135522.85 206.81
-9755452.86 5135524.34 206.26
-9755452.86 5135526.15 206.25
-9755452.25 5135525.25 206.25
-9755453.97 5135523.27 220.57
-9755452.29 5135524.95 206.26
-9755453.77 5135522.85 206.85
-9755453.74 5135524.93 206.83
-9755452.24 5135523.58 206.88
-9755453.76 5135523.71 206.84
-9755452.92 5135524.22 206.79
-9755452.86 5135523.80 206.30
-9755452.90 5135524.63 206.27
-9755452.19 5135525.37 205.70
-9755452.85 5135524.71 206.75
-9755453.22 5135523.42 206.46
-9755454.34 5135524.22 206.90
-9755453.17 5135524.93 206.86
-9755468.54 5135539.02 231.01
-9755470.05 5135529.37 220.71
-9755468.09 5135537.36 233.29
-9755469.79 5135529.54 220.72
-9755468.80 5135529.93 220.71
-9755469.78 5135528.28 220.65
-9755468.50 5135532.55 220.69
-9755467.67 5135539.06 230.97
-9755468.60 5135538.34 231.02
-9755469.84 5135530.21 220.67
-9755467.77 5135538.12 220.86
-9755459.25 5135539.07 207.97
-9755455.17 5135526.67 207.37
-9755467.73 5135527.52 220.66
-9755456.68 5135532.58 207.41
-9755462.10 5135527.56 220.81
-9755457.24 5135531.65 207.96
-9755458.88 5135526.93 220.91
-9755457.52 5135531.09 207.97
-9755467.68 5135529.90 220.77
-9755458.72 5135532.81 208.55
-9755455.79 5135526.58 207.38
-9755458.11 5135532.89 208.35
-9755462.96 5135539.09 220.84
-9755456.63 5135534.40 207.42
-9755463.84 5135534.05 220.81
-9755460.17 5135537.83 208.53
-9755459.59 5135537.70 208.19
-9755454.82 5135536.81 206.26
-9755457.10 5135526.64 220.92
-9755455.76 5135531.69 206.86
-9755458.65 5135531.90 208.53
-9755465.68 5135531.94 220.86
-9755462.98 5135537.43 220.88
-9755463.53 5135536.05 220.77
-9755457.21 5135534.70 207.44
-9755454.85 5135533.59 206.64
-9755456.06 5135534.08 207.17
-9755467.07 5135529.65 220.77
-9755457.91 5135534.96 207.95
-9755457.01 5135532.29 207.92
-9755457.35 5135527.87 208.53
-9755466.59 5135532.61 231.00
-9755462.39 5135528.45 220.81
-9755458.75 5135533.45 208.53
-9755456.11 5135526.93 207.94
-9755459.96 5135538.47 220.93
-9755467.11 5135528.43 220.72
-9755459.34 5135534.18 208.49
-9755458.53 5135538.44 220.95
-9755461.17 5135534.12 220.90
-9755462.69 5135531.99 220.84
-9755456.21 5135530.11 207.79
-9755463.82 5135535.48 220.84
-9755456.62 5135535.22 207.36
-9755456.09 5135527.90 207.42
-9755458.69 5135533.80 208.52
-9755456.31 5135536.77 206.85
-9755465.92 5135532.95 220.78
-9755458.03 5135532.66 220.96
-9755463.82 5135534.84 220.83
-9755456.95 5135529.96 207.96
-9755463.19 5135531.00 220.83
-9755454.87 5135530.31 206.85
-9755461.45 5135531.07 220.87
-9755466.31 5135530.63 220.77
-9755456.05 5135530.95 206.87
-9755456.60 5135532.91 207.42
-9755459.31 5135533.16 208.90
-9755455.73 5135535.00 206.86
-9755459.77 5135532.54 220.91
-9755465.95 5135537.90 229.60
-9755454.52 5135538.89 205.73
-9755456.21 5135530.45 221.01
-9755456.97 5135536.20 206.87
-9755455.79 5135529.36 207.40
-9755456.32 5135536.45 206.85
-9755463.27 5135537.85 220.85
-9755462.28 5135534.97 220.84
-9755454.55 5135536.15 206.21
-9755460.69 5135529.40 220.88
-9755459.41 5135533.66 220.91
-9755466.54 5135526.90 220.71
-9755455.46 5135528.16 207.37
-9755454.68 5135527.82 221.06
-9755453.97 5135538.30 205.71
-9755456.88 5135527.83 207.97
-9755459.69 5135537.82 220.94
-9755454.28 5135537.38 205.74
-9755458.35 5135534.31 208.29
-9755465.67 5135529.89 220.76
-9755457.90 5135530.78 207.97
-9755462.35 5135532.53 220.86
-9755457.88 5135531.04 220.95
-9755465.28 5135535.74 220.81
-9755456.13 5135532.50 207.68
-9755458.01 5135534.24 220.96
-9755464.78 5135535.27 220.82
-9755455.70 5135533.48 207.04
-9755466.18 5135531.56 220.84
-9755460.27 5135536.67 220.92
-9755459.32 5135531.94 220.91
-9755456.42 5135529.91 207.82
-9755456.69 5135535.86 206.85
-9755459.60 5135537.32 208.54
-9755457.21 5135538.47 207.36
-9755457.21 5135538.60 206.85
-9755467.51 5135532.97 230.98
-9755462.76 5135527.25 220.82
-9755456.07 5135527.46 207.40
-9755455.11 5135529.40 207.38
-9755462.99 5135533.09 220.82
-9755460.60 5135537.79 220.90
-9755462.60 5135530.87 220.84
-9755466.19 5135530.68 233.35
-9755466.41 5135534.71 233.44
-9755456.60 5135537.65 206.84
-9755454.90 5135527.05 206.81
-9755455.46 5135532.64 206.84
-9755456.16 5135527.12 220.93
-9755455.52 5135529.05 207.39
-9755455.14 5135536.54 206.29
-9755465.98 5135534.10 233.39
-9755454.23 5135529.47 206.31
-9755456.04 5135534.87 207.07
-9755466.56 5135538.37 231.12
-9755459.49 5135530.40 220.90
-9755457.30 5135533.17 207.92
-9755455.73 5135527.60 207.40
-9755455.18 5135529.11 206.84
-9755460.20 5135531.04 220.92
-9755455.55 5135527.56 221.07
-9755454.32 5135528.77 206.82
-9755455.79 5135528.76 207.40
-9755455.67 5135533.32 207.04
-9755459.73 5135527.51 220.87
-9755457.38 5135528.72 208.50
-9755458.13 5135531.67 208.51
-9755458.17 5135530.73 220.93
-9755466.09 5135536.24 233.42
-9755464.23 5135533.58 220.82
-9755456.33 5135535.28 206.86
-9755457.62 5135530.23 220.95
-9755456.34 5135536.17 206.85
-9755459.30 5135533.77 208.89
-9755455.18 5135528.50 206.84
-9755464.53 5135531.72 232.61
-9755465.07 5135527.30 220.72
-9755457.23 5135529.60 207.98
-9755457.01 5135529.61 207.96
-9755460.63 5135533.49 220.85
-9755457.23 5135532.91 207.88
-9755459.00 5135534.30 208.51
-9755465.19 5135532.87 227.08
-9755456.94 5135528.71 207.96
-9755460.11 5135536.76 208.54
-9755457.82 5135531.00 208.51
-9755454.88 5135535.04 206.47
-9755459.60 5135537.93 208.53
-9755457.79 5135535.26 207.94
-9755463.62 5135531.96 220.85
-9755457.59 5135538.48 221.08
-9755458.62 5135534.63 220.96
-9755460.90 5135531.03 220.86
-9755461.59 5135532.04 220.87
-9755455.76 5135531.09 206.85
-9755466.15 5135536.08 220.81
-9755458.44 5135533.15 208.44
-9755457.26 5135530.46 207.96
-9755463.16 5135532.58 220.83
-9755466.48 5135537.62 220.79
-9755466.78 5135529.93 220.75
-9755456.99 5135531.40 207.40
-9755459.13 5135531.74 220.92
-9755454.81 5135537.42 205.75
-9755459.27 5135537.67 208.50
-9755461.87 5135527.17 220.86
-9755456.70 5135536.07 207.35
-9755454.84 5135537.72 206.26
-9755456.40 5135527.81 207.95
-9755456.68 5135531.16 207.97
-9755454.97 5135527.87 220.57
-9755460.68 5135527.76 220.87
-9755457.89 5135534.06 208.14
-9755457.09 5135532.86 220.94
-9755454.84 5135538.35 206.26
-9755461.42 5135533.74 220.89
-9755454.31 5135533.50 206.32
-9755454.26 5135527.90 206.83
-9755455.59 5135529.93 207.39
-9755464.50 5135535.24 220.81
-9755456.63 5135536.50 207.34
-9755458.87 5135536.05 220.93
-9755458.95 5135534.90 208.51
-9755462.59 5135537.66 220.80
-9755463.84 5135530.04 220.79
-9755456.95 5135537.33 206.84
-9755459.33 5135532.57 208.90
-9755464.72 5135526.95 220.76
-9755457.33 5135537.93 207.36
-9755461.45 5135538.16 220.89
-9755455.41 5135537.06 206.28
-9755458.09 5135537.00 207.96
-9755457.41 5135527.85 220.93
-9755457.59 5135529.89 207.98
-9755457.30 5135527.21 208.53
-9755456.29 5135531.74 221.06
-9755456.58 5135534.13 207.41
-9755455.74 5135538.53 206.27
-9755456.10 5135528.78 207.84
-9755455.21 5135526.99 207.38
-9755456.43 5135527.23 207.95
-9755464.69 5135529.01 220.78
-9755456.16 5135527.61 207.94
-9755465.71 5135533.45 233.38
-9755467.07 5135537.30 220.79
-9755454.72 5135527.23 220.52
-9755459.33 5135526.98 220.86
-9755466.90 5135531.98 233.38
-9755455.57 5135527.78 221.05
-9755456.96 5135532.83 207.43
-9755458.91 5135536.25 207.96
-9755457.08 5135534.01 207.75
-9755455.41 5135535.88 206.30
-9755466.07 5135533.17 233.37
-9755455.52 5135531.72 207.40
-9755461.60 5135526.72 220.85
-9755465.97 5135536.54 220.76
-9755458.16 5135531.90 208.51
-9755457.50 5135529.25 208.52
-9755458.97 5135533.44 208.56
-9755459.55 5135534.58 208.49
-9755467.13 5135537.44 233.42
-9755454.23 5135538.58 205.73
-9755465.03 5135536.75 220.82
-9755454.64 5135526.99 206.83
-9755456.87 5135536.69 207.33
-9755458.66 5135534.73 207.97
-9755458.68 5135537.31 207.97
-9755461.86 5135532.69 220.88
-9755463.14 5135537.38 220.85
-9755465.54 5135534.65 220.78
-9755457.07 5135531.68 207.38
-9755460.32 5135538.19 220.91
-9755454.61 5135529.65 206.83
-9755466.76 5135539.07 220.73
-9755463.85 5135531.78 220.81
-9755466.81 5135527.55 220.71
-9755455.13 5135538.53 205.73
-9755462.37 5135527.93 220.82
-9755466.45 5135531.13 220.80
-9755464.19 5135532.90 220.83
-9755456.88 5135537.69 206.85
-9755459.56 5135537.04 208.52
-9755462.88 5135535.85 220.87
-9755459.32 5135531.30 220.92
-9755462.06 5135530.82 220.84
-9755465.27 5135532.59 220.80
-9755460.51 5135537.32 220.91
-9755456.94 5135537.11 206.85
-9755466.78 5135538.51 220.79
-9755460.97 5135535.85 220.88
-9755465.81 5135532.48 233.36
-9755454.81 5135532.33 206.80
-9755460.78 5135533.23 220.87
-9755459.46 5135529.58 220.90
-9755465.36 5135531.04 233.32
-9755460.32 5135534.05 220.89
-9755466.20 5135537.36 220.80
-9755464.74 5135531.10 220.81
-9755463.66 5135527.00 220.81
-9755460.28 5135531.93 220.86
-9755459.39 5135534.66 208.52
-9755459.09 5135534.85 220.94
-9755459.54 5135536.43 208.53
-9755455.87 5135530.78 221.09
-9755465.76 5135530.00 230.99
-9755456.06 5135533.23 207.26
-9755456.53 5135530.70 221.00
-9755456.57 5135535.58 207.37
-9755456.41 5135529.02 207.40
-9755457.02 5135536.13 221.13
-9755456.96 5135526.64 207.96
-9755466.30 5135531.61 231.02
-9755461.96 5135536.97 220.90
-9755455.07 5135528.64 221.11
-9755455.48 5135527.80 207.39
-9755465.35 5135531.47 233.36
-9755456.68 5135531.72 207.90
-9755465.54 5135534.09 220.81
-9755463.55 5135534.80 220.84
-9755455.70 5135535.83 206.83
-9755455.19 5135532.04 206.82
-9755463.91 5135531.14 220.82
-9755459.36 5135537.54 220.94
-9755466.87 5135530.57 233.32
-9755458.65 5135537.08 207.97
-9755463.10 5135527.89 220.78
-9755458.67 5135535.20 207.97
-9755455.43 5135533.51 206.91
-9755462.07 5135538.24 220.88
-9755462.31 5135533.49 220.86
-9755456.97 5135534.07 207.60
-9755458.51 5135533.70 220.95
-9755465.86 5135537.29 220.78
-9755458.68 5135530.67 208.54
-9755459.01 5135538.21 207.97
-9755455.63 5135526.62 220.93
-9755466.74 5135538.24 220.80
-9755459.21 5135536.26 208.03
-9755456.03 5135533.00 206.84
-9755460.28 5135535.87 220.91
-9755460.51 5135536.71 220.92
-9755457.23 5135538.20 206.88
-9755461.85 5135535.20 220.81
-9755464.53 5135534.66 220.79
-9755452.13 5135538.75 204.17
-9755454.32 5135534.14 206.32
-9755452.83 5135527.27 206.25
-9755452.60 5135527.65 205.72
-9755453.75 5135526.41 206.80
-9755452.23 5135536.06 205.00
-9755452.98 5135536.20 205.40
-9755454.03 5135534.48 206.28
-9755453.97 5135530.87 206.29
-9755453.63 5135538.93 205.16
-9755452.23 5135533.47 203.55
-9755453.91 5135536.44 205.91
-9755452.82 5135531.17 205.71
-9755453.36 5135534.51 203.59
-9755452.79 5135537.69 205.14
-9755452.76 5135534.55 203.56
-9755453.11 5135530.42 206.17
-9755452.27 5135527.06 205.71
-9755453.70 5135537.71 205.16
-9755452.43 5135531.80 205.66
-9755453.27 5135528.58 205.73
-9755452.91 5135536.54 205.35
-9755453.05 5135530.90 205.72
-9755453.02 5135527.81 205.72
-9755452.46 5135534.52 203.57
-9755453.10 5135530.78 206.25
-9755452.84 5135527.58 206.26
-9755452.55 5135530.86 205.70
-9755453.34 5135537.73 205.16
-9755452.49 5135533.65 203.57
-9755452.49 5135530.97 205.18
-9755453.95 5135535.65 203.59
-9755453.14 5135529.46 205.72
-9755453.17 5135535.79 203.60
-9755453.90 5135536.21 205.89
-9755452.26 5135532.67 205.44
-9755453.65 5135534.54 203.60
-9755452.55 5135532.09 205.62
-9755452.30 5135526.69 205.70
-9755452.74 5135538.66 205.14
-9755453.70 5135532.93 206.15
-9755452.48 5135528.79 205.70
-9755452.77 5135535.67 203.57
-9755452.54 5135530.29 205.69
-9755453.32 5135538.63 205.15
-9755453.60 5135536.52 205.71
-9755453.47 5135530.80 205.70
-9755452.49 5135529.96 205.71
-9755452.99 5135537.13 205.30
-9755452.25 5135531.83 205.51
-9755452.95 5135529.59 206.24
-9755454.03 5135531.80 206.28
-9755452.22 5135533.52 205.98
-9755452.92 5135538.99 204.59
-9755453.18 5135530.00 206.26
-9755452.46 5135538.60 204.59
-9755453.15 5135528.80 206.27
-9755453.10 5135531.76 205.93
-9755453.08 5135533.64 203.59
-9755453.28 5135533.20 205.94
-9755453.93 5135535.26 206.70
-9755452.20 5135533.02 205.98
-9755451.95 5135525.00 205.71
-9755451.61 5135522.84 205.74
-9755450.71 5135525.91 205.55
-9755451.34 5135525.86 205.68
-9755450.77 5135525.28 205.16
-9755452.04 5135525.55 206.26
-9755452.01 5135524.61 206.27
-9755450.59 5135523.99 205.58
-9755451.13 5135525.52 205.66
-9755451.95 5135524.01 206.25
-9755451.69 5135523.69 205.72
-9755451.98 5135525.58 205.71
-9755451.38 5135525.55 205.69
-9755451.92 5135524.71 205.72
-9755451.24 5135525.37 205.20
-9755451.03 5135524.30 205.69
-9755451.95 5135523.71 206.26
-9755450.75 5135524.50 205.13
-9755451.85 5135523.36 205.76
-9755452.16 5135537.71 204.60
-9755450.97 5135533.58 205.28
-9755451.06 5135532.97 204.77
-9755451.63 5135538.69 204.05
-9755451.32 5135532.42 204.98
-9755451.07 5135529.11 205.16
-9755451.65 5135530.88 205.15
-9755451.88 5135536.56 204.78
-9755451.90 5135534.00 203.54
-9755450.53 5135529.67 205.52
-9755450.57 5135528.86 205.10
-9755451.26 5135536.11 204.83
-9755451.86 5135532.72 205.29
-9755451.23 5135538.08 204.04
-9755451.60 5135536.88 204.63
-9755451.96 5135528.53 205.70
-9755450.55 5135530.27 204.79
-9755450.72 5135530.03 203.46
-9755450.69 5135533.25 204.58
-9755451.97 5135538.16 204.68
-9755451.96 5135527.93 205.70
-9755451.89 5135535.08 203.55
-9755451.29 5135530.32 205.14
-9755451.08 5135527.01 205.14
-9755451.93 5135529.18 205.19
-9755450.79 5135530.83 205.65
-9755451.92 5135530.93 205.65
-9755451.24 5135534.84 203.53
-9755450.72 5135535.08 203.52
-9755450.76 5135537.45 204.21
-9755451.57 5135533.31 205.61
-9755451.78 5135533.52 205.75
-9755451.92 5135528.25 205.14
-9755450.81 5135531.57 205.44
-9755450.75 5135527.69 203.54
-9755450.67 5135536.55 204.20
-9755451.57 5135534.88 203.54
-9755450.84 5135531.32 205.41
-9755451.07 5135531.79 205.64
-9755450.71 5135529.98 204.84
-9755451.62 5135535.70 203.52
-9755450.97 5135537.43 204.27
-9755450.78 5135532.75 204.60
-9755450.76 5135531.28 203.45
-9755450.97 5135533.52 204.66
-9755451.33 5135530.01 205.14
-9755501.63 5135548.74 203.48
-9755499.55 5135548.15 203.47
-9755485.42 5135549.09 207.13
-9755479.67 5135547.79 220.73
-9755479.58 5135548.69 220.67
-9755477.66 5135547.50 220.61
-9755501.64 5135539.59 203.43
-9755503.16 5135540.45 203.46
-9755500.76 5135540.45 203.45
-9755500.76 5135541.06 203.45
-9755501.38 5135543.67 203.44
-9755501.96 5135542.53 203.45
-9755501.19 5135526.85 203.52
-9755501.44 5135523.60 203.57
-9755501.20 5135523.58 203.58
-9755502.03 5135532.75 203.46
-9755500.31 5135527.10 203.53
-9755502.02 5135531.87 203.45
-9755503.22 5135529.80 203.47
-9755503.23 5135530.08 203.48
-9755502.91 5135528.57 203.51
-9755503.17 5135537.19 203.44
-9755500.01 5135529.47 203.49
-9755502.30 5135537.20 203.42
-9755497.87 5135539.78 203.45
-9755496.66 5135546.61 203.48
-9755499.93 5135540.15 203.44
-9755499.60 5135542.55 203.45
-9755497.84 5135542.47 203.46
-9755499.00 5135545.79 203.47
-9755496.66 5135540.41 203.45
-9755495.15 5135546.60 203.52
-9755494.31 5135542.47 203.47
-9755497.50 5135540.47 203.45
-9755494.25 5135545.49 203.49
-9755498.14 5135540.44 203.45
-9755494.86 5135541.31 203.46
-9755497.84 5135541.04 203.45
-9755493.40 5135543.97 203.50
-9755493.14 5135540.40 203.49
-9755491.70 5135540.39 203.52
-9755493.72 5135540.10 203.48
-9755488.41 5135540.35 203.55
-9755490.17 5135540.07 203.53
-9755490.51 5135542.48 203.54
-9755488.44 5135541.24 203.55
-9755486.29 5135542.43 203.59
-9755489.28 5135541.30 203.55
-9755484.23 5135542.96 203.63
-9755491.35 5135545.71 203.53
-9755490.46 5135543.40 203.54
-9755485.09 5135545.40 203.63
-9755489.28 5135544.52 203.57
-9755487.18 5135545.98 203.59
-9755489.89 5135543.35 203.55
-9755486.32 5135542.72 203.59
-9755487.20 5135543.94 203.58
-9755488.39 5135542.44 203.56
-9755492.56 5135544.22 203.51
-9755488.36 5135545.11 203.57
-9755479.35 5135545.44 220.73
-9755479.33 5135542.29 220.78
-9755477.66 5135540.39 220.62
-9755477.33 5135545.79 220.61
-9755478.52 5135543.25 220.68
-9755477.39 5135543.89 220.63
-9755477.03 5135540.06 220.62
-9755498.29 5135524.45 203.55
-9755498.22 5135526.51 203.53
-9755499.92 5135537.76 203.42
-9755498.76 5135537.49 203.44
-9755496.32 5135538.34 203.45
-9755497.89 5135535.68 203.44
-9755495.80 5135537.46 203.46
-9755496.64 5135533.93 204.44
-9755499.11 5135529.17 203.48
-9755496.68 5135538.34 203.45
-9755494.67 5135538.63 203.46
-9755482.05 5135531.86 207.13
-9755494.65 5135534.47 203.38
-9755486.32 5135539.16 203.59
-9755483.43 5135536.01 207.19
-9755486.31 5135538.48 203.72
-9755486.01 5135538.63 203.69
-9755480.85 5135529.79 207.05
-9755480.53 5135528.57 207.03
-9755477.94 5135537.98 220.72
-9755475.21 5135548.04 220.65
-9755456.42 5135547.60 205.95
-9755455.94 5135548.40 205.69
-9755454.73 5135547.51 205.12
-9755455.39 5135548.10 205.47
-9755467.80 5135546.91 220.82
-9755455.13 5135547.84 205.25
-9755455.06 5135547.45 205.14
-9755457.13 5135548.97 206.26
-9755461.58 5135547.39 208.52
-9755459.15 5135547.43 207.37
-9755457.15 5135546.89 206.28
-9755456.27 5135546.93 205.73
-9755462.40 5135547.56 208.55
-9755462.83 5135547.04 220.92
-9755455.05 5135546.64 205.17
-9755460.40 5135547.12 207.94
-9755458.99 5135548.93 207.22
-9755461.92 5135548.31 208.54
-9755456.25 5135547.45 205.74
-9755454.17 5135547.47 204.59
-9755453.39 5135548.18 204.16
-9755452.39 5135548.44 203.85
-9755452.19 5135548.96 203.77
-9755476.45 5135540.03 220.62
-9755475.26 5135545.42 220.66
-9755475.20 5135546.58 220.64
-9755476.74 5135545.05 220.63
-9755476.16 5135540.96 220.64
-9755475.17 5135543.60 220.65
-9755476.81 5135542.13 220.62
-9755475.27 5135546.04 220.65
-9755471.23 5135525.23 220.64
-9755472.76 5135523.16 220.60
-9755475.16 5135523.20 220.76
-9755474.39 5135524.37 220.64
-9755473.58 5135525.58 220.65
-9755472.71 5135526.06 220.62
-9755474.50 5135526.39 220.64
-9755471.23 5135524.37 220.63
-9755476.78 5135529.69 220.74
-9755472.77 5135526.51 220.63
-9755473.61 5135532.69 220.59
-9755471.48 5135534.17 220.63
-9755476.43 5135538.29 220.61
-9755473.53 5135538.83 220.68
-9755475.97 5135530.59 220.68
-9755474.97 5135531.77 220.59
-9755471.58 5135528.80 221.04
-9755473.86 5135535.55 220.57
-9755473.56 5135529.68 220.64
-9755455.05 5135539.51 205.73
-9755466.15 5135539.39 220.79
-9755458.33 5135539.45 207.40
-9755457.43 5135539.25 206.86
-9755459.58 5135539.39 207.96
-9755467.93 5135541.24 220.80
-9755457.48 5135539.45 206.86
-9755465.26 5135539.64 220.82
-9755463.48 5135539.95 220.87
-9755458.14 5135539.59 221.03
-9755457.16 5135546.61 206.28
-9755459.26 5135544.20 207.38
-9755456.08 5135543.35 206.25
-9755459.57 5135542.74 220.96
-9755461.97 5135545.68 220.93
-9755455.95 5135546.01 205.72
-9755464.97 5135546.03 220.86
-9755459.60 5135545.98 207.94
-9755467.33 5135540.86 220.81
-9755459.54 5135546.22 207.41
-9755465.01 5135543.37 220.82
-9755460.87 5135544.11 220.94
-9755459.60 5135542.67 207.94
-9755467.42 5135543.27 220.78
-9755460.07 5135546.20 207.95
-9755455.41 5135540.43 205.74
-9755457.16 5135540.02 206.83
-9755466.14 5135544.61 220.79
-9755464.49 5135545.82 220.88
-9755458.60 5135545.06 207.36
-9755456.96 5135540.89 206.82
-9755454.50 5135544.60 205.15
-9755456.27 5135541.48 206.27
-9755461.70 5135541.49 220.89
-9755459.37 5135541.70 220.96
-9755455.06 5135541.58 205.71
-9755458.92 5135543.28 207.39
-9755464.40 5135541.17 220.84
-9755460.28 5135545.00 220.96
-9755458.70 5135543.29 207.37
-9755457.15 5135545.37 206.29
-9755457.11 5135545.95 206.28
-9755456.89 5135539.99 206.83
-9755466.16 5135540.42 220.80
-9755458.96 5135540.89 207.93
-9755458.32 5135545.70 206.84
-9755455.08 5135545.72 205.17
-9755459.54 5135545.31 207.95
-9755464.11 5135544.19 220.83
-9755455.50 5135542.45 206.00
-9755458.03 5135546.21 206.83
-9755454.20 5135541.01 205.17
-9755454.18 5135541.61 205.15
-9755453.94 5135544.57 204.60
-9755452.72 5135540.07 204.60
-9755453.03 5135544.26 204.58
-9755452.17 5135540.81 204.04
-9755451.33 5135542.82 203.97
-9755450.94 5135540.97 204.05
-9755451.71 5135543.43 203.50
-9755452.13 5135540.35 204.06
-9755467.15 5135524.01 220.70
-9755464.54 5135523.70 220.78
-9755455.21 5135522.82 207.95
-9755458.84 5135522.82 220.88
-9755466.86 5135523.13 220.72
-9755456.47 5135523.99 208.52
-9755465.13 5135525.06 220.77
-9755458.19 5135523.90 220.88
-9755457.02 5135526.00 220.95
-9755455.52 5135525.20 207.39
-9755457.74 5135523.94 220.93
-9755461.15 5135524.04 220.87
-9755459.20 5135524.55 220.89
-9755456.70 5135526.00 207.96
-9755459.98 5135526.12 220.87
-9755461.59 5135523.58 220.82
-9755458.06 5135526.05 220.91
-9755463.64 5135523.18 220.78
-9755454.95 5135526.08 207.36
-9755452.89 5135525.24 206.27
-9755453.84 5135524.05 207.45
-9755452.53 5135525.90 206.23
-9755467.73 5135526.10 220.68
-9755468.59 5135530.15 220.72
-9755467.50 5135529.39 220.74
-9755456.35 5135534.37 207.29
-9755454.87 5135535.96 206.28
-9755454.75 5135533.86 206.50
-9755462.45 5135527.62 220.81
-9755456.03 5135527.24 207.94
-9755466.59 5135530.81 220.81
-9755464.04 5135536.05 220.80
-9755456.65 5135534.62 207.40
-9755465.32 5135533.47 220.80
-9755455.48 5135526.70 207.38
-9755456.66 5135528.37 220.94
-9755459.93 5135534.10 220.90
-9755457.52 5135535.24 207.82
-9755458.73 5135532.19 208.53
-9755466.25 5135534.70 220.77
-9755460.15 5135537.60 208.54
-9755462.04 5135531.42 220.86
-9755457.24 5135530.18 207.97
-9755458.55 5135535.56 220.93
-9755459.55 5135535.23 208.50
-9755457.52 5135534.35 207.90
-9755456.44 5135534.65 207.36
-9755466.83 5135530.22 220.79
-9755456.27 5135534.08 207.24
-9755454.93 5135534.07 206.65
-9755458.02 5135532.58 208.18
-9755456.70 5135534.07 207.54
-9755466.15 5135530.92 220.75
-9755457.53 5135536.23 207.40
-9755455.89 5135526.94 207.93
-9755466.23 5135538.21 220.78
-9755456.61 5135531.06 207.42
-9755457.16 5135532.63 207.89
-9755456.93 5135531.39 207.96
-9755455.80 5135536.87 206.83
-9755465.37 5135530.41 220.81
-9755455.78 5135533.21 207.18
-9755460.38 5135529.26 220.87
-9755458.07 5135532.42 208.10
-9755454.54 5135532.67 206.29
-9755456.32 5135534.07 207.32
-9755460.85 5135536.14 220.93
-9755457.16 5135537.66 207.36
-9755464.13 5135537.59 220.83
-9755455.53 5135528.46 207.40
-9755457.18 5135534.75 208.01
-9755454.50 5135536.77 206.14
-9755462.70 5135530.58 220.84
-9755458.70 5135536.72 207.97
-9755463.46 5135537.61 220.85
-9755456.98 5135533.79 207.72
-9755455.06 5135534.40 206.65
-9755466.11 5135536.44 220.76
-9755466.19 5135531.29 220.80
-9755456.00 5135536.24 206.45
-9755458.99 5135538.81 207.97
-9755464.16 5135536.78 220.82
-9755459.40 5135528.51 220.89
-9755458.82 5135532.28 220.94
-9755457.54 5135534.64 207.90
-9755456.92 5135534.89 207.58
-9755454.32 5135532.68 206.28
-9755456.81 5135532.93 207.59
-9755462.90 5135532.53 220.82
-9755454.86 5135533.82 206.65
-9755454.62 5135526.74 206.83
-9755455.45 5135537.41 206.29
-9755456.30 5135532.00 207.39
-9755461.24 5135528.19 220.88
-9755467.35 5135528.57 220.73
-9755460.60 5135535.54 220.89
-9755463.29 5135533.16 220.82
-9755454.85 5135533.79 206.62
-9755454.25 5135535.05 206.25
