-9755499.37 5135467.72 183.09
-9755498.76 5135463.60 184.26
-9755497.02 5135460.33 186.65
-9755499.84 5135467.84 184.82
-9755499.07 5135467.23 199.78
-9755499.28 5135469.67 185.18
-9755497.69 5135460.89 195.58
-9755498.14 5135462.30 183.27
-9755497.78 5135461.96 189.11
-9755497.59 5135461.11 188.91
-9755498.47 5135463.55 195.85
-9755498.27 5135463.11 196.69
-9755498.52 5135462.58 186.09
-9755498.72 5135463.98 186.71
-9755497.97 5135461.57 199.10
-9755498.26 5135462.61 190.08
-9755497.80 5135463.37 181.67
-9755498.31 5135463.29 194.58
-9755498.55 5135463.93 192.93
-9755499.00 5135468.16 185.21
-9755497.99 5135461.54 195.07
-9755499.03 5135465.32 196.29
-9755497.72 5135461.45 199.22
-9755498.14 5135462.45 182.01
-9755499.09 5135468.21 196.16
-9755498.38 5135464.87 192.62
-9755498.18 5135462.54 199.54
-9755498.97 5135466.50 196.44
-9755498.54 5135467.16 192.48
-9755500.47 5135465.68 181.63
-9755497.79 5135461.10 198.76
-9755499.42 5135467.70 199.78
-9755498.12 5135461.46 186.13
-9755498.75 5135465.97 192.60
-9755498.35 5135464.95 183.54
-9755498.91 5135463.73 185.38
-9755498.46 5135463.36 190.12
-9755499.30 5135467.75 182.15
-9755500.45 5135466.89 181.63
-9755498.75 5135463.99 192.54
-9755497.65 5135465.16 196.14
-9755498.51 5135463.80 185.79
-9755497.63 5135465.05 199.83
-9755498.51 5135463.52 194.59
-9755497.94 5135461.64 192.26
-9755497.64 5135461.18 197.89
-9755498.13 5135462.39 182.36
-9755498.34 5135463.02 198.93
-9755500.15 5135469.25 181.65
-9755497.28 5135460.67 192.55
-9755500.44 5135462.78 181.62
-9755498.42 5135462.97 193.24
-9755498.24 5135463.16 192.33
-9755498.28 5135463.32 188.11
-9755499.85 5135465.40 181.62
-9755497.98 5135461.33 199.19
-9755497.92 5135464.38 185.19
-9755499.14 5135468.97 199.80
-9755497.97 5135461.90 187.49
-9755498.48 5135463.35 196.81
-9755498.43 5135463.47 192.39
-9755499.83 5135468.52 182.23
-9755498.14 5135461.59 187.20
-9755496.49 5135460.78 199.74
-9755497.83 5135461.53 188.07
-9755497.92 5135462.52 181.67
-9755499.15 5135469.62 181.78
-9755498.48 5135463.53 187.68
-9755497.32 5135460.39 192.54
-9755497.72 5135461.18 193.32
-9755497.70 5135461.45 198.88
-9755498.55 5135463.57 188.53
-9755499.87 5135468.27 184.88
-9755498.21 5135466.57 188.83
-9755498.54 5135466.11 196.17
-9755496.39 5135460.88 188.78
-9755497.89 5135461.92 192.34
-9755498.29 5135462.63 197.68
-9755497.95 5135461.70 190.95
-9755500.09 5135469.47 183.01
-9755498.25 5135465.72 199.83
-9755498.17 5135467.36 188.81
-9755498.19 5135464.63 199.79
-9755499.13 5135469.90 199.81
-9755498.25 5135466.55 199.80
-9755498.31 5135463.28 199.34
-9755496.14 5135460.20 192.38
-9755498.66 5135467.48 188.81
-9755497.67 5135464.83 196.13
-9755498.06 5135465.97 188.84
-9755498.52 5135463.82 184.81
-9755499.86 5135468.79 183.08
-9755497.97 5135462.00 191.81
-9755499.04 5135466.24 182.52
-9755498.50 5135465.04 182.64
-9755498.03 5135466.78 199.80
-9755499.87 5135465.70 181.63
-9755498.25 5135462.25 196.93
-9755498.51 5135463.88 191.95
-9755498.41 5135463.00 182.62
-9755497.75 5135461.03 191.13
-9755498.21 5135466.83 188.82
-9755498.79 5135463.72 183.51
-9755498.43 5135462.91 188.48
-9755499.71 5135468.91 196.29
-9755498.40 5135463.46 182.28
-9755498.22 5135462.94 191.71
-9755498.50 5135462.65 190.08
-9755499.38 5135469.73 188.84
-9755497.95 5135461.76 183.53
-9755498.55 5135463.63 193.83
-9755498.71 5135463.61 190.11
-9755498.16 5135462.40 196.40
-9755498.40 5135462.96 196.63
-9755499.34 5135469.08 196.15
-9755499.18 5135467.12 182.21
-9755497.86 5135461.54 184.93
-9755499.86 5135461.31 181.59
-9755499.07 5135467.90 185.22
-9755497.67 5135461.71 186.57
-9755499.58 5135468.13 185.26
-9755498.04 5135462.91 196.62
-9755497.93 5135461.63 190.09
-9755499.06 5135467.76 188.80
-9755499.01 5135465.12 184.82
-9755498.30 5135463.27 193.55
-9755499.06 5135468.49 185.20
-9755499.98 5135469.30 184.83
-9755498.82 5135464.17 184.15
-9755498.60 5135463.53 196.56
-9755498.68 5135465.98 183.25
-9755497.87 5135461.04 193.05
-9755498.58 5135467.63 196.16
-9755499.34 5135467.73 188.98
-9755498.74 5135463.86 190.07
-9755497.78 5135461.46 185.18
-9755498.47 5135467.70 188.80
-9755499.55 5135468.10 182.07
-9755500.18 5135466.60 181.63
-9755498.58 5135464.07 195.46
-9755498.28 5135463.05 191.71
-9755498.18 5135466.67 185.17
-9755500.14 5135463.61 181.63
-9755499.95 5135469.90 192.59
-9755498.13 5135464.87 188.86
-9755499.05 5135466.69 185.33
-9755498.24 5135462.98 182.53
-9755497.91 5135461.20 195.40
-9755498.61 5135464.08 183.82
-9755497.86 5135461.28 186.53
-9755499.55 5135467.74 182.92
-9755498.17 5135462.87 192.30
-9755498.41 5135464.20 188.99
-9755498.29 5135463.54 188.69
-9755498.57 5135465.25 185.32
-9755499.78 5135469.78 185.23
-9755498.75 5135464.00 185.82
-9755498.39 5135464.80 184.55
-9755497.80 5135466.56 199.81
-9755498.21 5135461.42 188.91
-9755497.89 5135461.19 188.73
-9755498.62 5135466.01 181.69
-9755497.88 5135461.83 191.46
-9755498.07 5135462.16 195.30
-9755499.40 5135468.23 182.04
-9755498.42 5135462.73 192.30
-9755500.03 5135469.88 182.60
-9755498.86 5135467.95 196.15
-9755498.69 5135463.39 188.22
-9755499.02 5135461.81 181.60
-9755497.68 5135461.59 196.06
-9755499.26 5135464.52 181.63
-9755498.17 5135462.03 190.73
-9755500.20 5135460.93 181.59
-9755498.12 5135462.69 183.23
-9755497.57 5135460.87 184.58
-9755499.82 5135468.03 181.64
-9755498.84 5135464.14 198.82
-9755497.90 5135461.52 182.52
-9755498.63 5135464.14 198.82
-9755496.39 5135459.47 181.64
-9755476.73 5135468.52 199.84
-9755496.53 5135459.16 199.76
-9755496.42 5135459.19 188.70
-9755496.99 5135458.63 186.52
-9755497.47 5135458.65 181.60
-9755496.71 5135457.78 186.44
-9755495.95 5135459.22 199.64
-9755496.66 5135458.09 185.91
-9755496.43 5135458.24 188.64
-9755496.50 5135457.82 185.18
-9755496.37 5135458.26 188.90
-9755497.02 5135459.89 188.60
-9755495.83 5135457.96 181.61
-9755496.84 5135458.69 184.89
-9755496.82 5135458.57 185.32
-9755496.96 5135458.57 181.62
-9755496.82 5135458.66 186.16
-9755496.45 5135457.96 188.74
-9755496.78 5135458.44 185.73
-9755495.78 5135457.40 181.62
-9755496.09 5135457.62 192.99
-9755496.36 5135458.59 181.62
-9755496.04 5135459.81 185.09
-9755496.49 5135457.53 184.72
-9755498.11 5135457.73 181.60
-9755495.70 5135458.27 195.92
-9755495.75 5135457.84 188.56
-9755496.45 5135458.72 188.84
-9755496.37 5135458.30 192.42
-9755495.63 5135458.32 192.26
-9755499.29 5135458.59 181.58
-9755495.27 5135457.57 195.82
-9755497.21 5135457.66 181.60
-9755496.18 5135458.26 188.74
-9755495.92 5135459.12 195.96
-9755496.40 5135457.68 185.73
-9755496.45 5135457.55 188.65
-9755495.62 5135457.47 192.24
-9755496.45 5135457.43 192.31
-9755496.45 5135458.74 196.05
-9755495.70 5135458.54 188.60
-9755458.16 5135459.00 192.63
-9755460.37 5135458.80 184.90
-9755466.87 5135459.04 186.62
-9755460.63 5135459.51 181.99
-9755460.45 5135459.37 184.94
-9755460.45 5135459.70 189.56
-9755461.00 5135460.04 185.93
-9755460.74 5135459.58 183.42
-9755461.83 5135459.58 181.61
-9755460.58 5135460.05 190.26
-9755459.06 5135459.27 192.65
-9755460.49 5135459.29 188.54
-9755467.21 5135459.33 186.66
-9755460.46 5135459.55 193.27
-9755464.00 5135459.33 185.88
-9755459.28 5135458.74 192.65
-9755458.18 5135459.53 192.63
-9755459.88 5135459.91 192.64
-9755466.90 5135459.62 186.57
-9755461.86 5135459.28 181.61
-9755460.51 5135459.52 187.32
-9755459.31 5135459.90 192.65
-9755460.55 5135459.43 190.39
-9755461.05 5135459.85 193.30
-9755460.17 5135458.64 189.97
-9755460.21 5135459.24 183.81
-9755466.32 5135459.67 186.44
-9755460.54 5135458.98 193.30
-9755460.55 5135459.61 185.97
-9755465.45 5135459.62 186.25
-9755460.72 5135459.92 184.08
-9755462.19 5135459.91 181.59
-9755464.26 5135459.97 185.96
-9755465.09 5135459.32 186.16
-9755465.73 5135459.95 186.31
-9755459.60 5135459.05 192.64
-9755465.14 5135459.92 186.13
-9755468.55 5135469.38 181.65
-9755468.06 5135469.97 181.65
-9755468.29 5135469.96 181.66
-9755469.41 5135468.90 181.62
-9755468.02 5135468.86 181.64
-9755468.30 5135467.32 181.60
-9755468.02 5135467.21 181.58
-9755468.58 5135468.12 181.59
-9755468.01 5135466.33 181.58
-9755468.67 5135463.73 186.67
-9755469.38 5135469.40 181.62
-9755468.86 5135469.42 181.63
-9755469.22 5135469.80 181.63
-9755468.48 5135466.42 181.50
-9755468.21 5135466.11 181.57
-9755468.02 5135466.99 181.58
-9755465.21 5135469.35 193.28
-9755461.12 5135461.64 189.13
-9755464.00 5135467.00 193.27
-9755465.10 5135469.68 193.30
-9755460.51 5135465.26 192.61
-9755462.23 5135463.89 188.97
-9755465.91 5135466.68 181.59
-9755461.58 5135460.08 181.62
-9755462.26 5135464.39 189.31
-9755466.90 5135461.05 186.47
-9755465.61 5135469.87 182.78
-9755461.57 5135462.26 186.64
-9755464.19 5135468.95 185.19
-9755461.86 5135461.95 182.07
-9755463.90 5135469.08 185.17
-9755465.34 5135469.49 186.49
-9755463.58 5135465.81 181.62
-9755462.99 5135460.11 181.56
-9755463.11 5135466.45 187.26
-9755460.79 5135460.10 188.54
-9755464.13 5135468.66 190.22
-9755462.14 5135463.65 189.78
-9755461.85 5135462.43 182.48
-9755464.01 5135468.71 190.25
-9755461.94 5135463.31 183.41
-9755458.95 5135460.48 192.61
-9755461.76 5135463.18 190.11
-9755465.23 5135469.71 189.86
-9755460.48 5135464.33 192.58
-9755461.34 5135465.26 192.63
-9755461.01 5135460.47 187.37
-9755463.61 5135469.08 193.16
-9755462.77 5135469.92 192.65
-9755461.83 5135469.98 192.65
-9755466.53 5135466.68 181.60
-9755462.23 5135464.43 183.31
-9755463.03 5135466.09 188.28
-9755467.19 5135469.96 181.67
-9755462.98 5135466.08 183.19
-9755463.01 5135466.31 189.71
-9755462.26 5135463.99 187.69
-9755462.16 5135464.03 181.66
-9755463.58 5135463.70 181.57
-9755466.92 5135460.51 186.51
-9755460.20 5135462.56 192.60
-9755463.33 5135466.49 187.90
-9755463.11 5135466.92 189.08
-9755462.61 5135465.60 183.40
-9755459.59 5135462.02 192.60
-9755461.31 5135461.22 189.66
-9755467.11 5135463.65 186.50
-9755460.75 5135467.34 192.63
-9755460.18 5135464.30 192.59
-9755462.02 5135463.26 189.78
-9755463.31 5135466.94 184.80
-9755464.57 5135469.39 193.28
-9755462.23 5135464.32 193.29
-9755465.61 5135465.85 181.59
-9755462.79 5135466.63 181.62
-9755462.16 5135463.45 181.62
-9755464.52 5135468.68 181.66
-9755461.74 5135462.10 186.58
-9755463.53 5135467.23 181.98
-9755463.04 5135466.40 186.00
-9755464.06 5135468.92 190.32
-9755461.69 5135463.04 189.15
-9755459.30 5135462.83 192.60
-9755466.27 5135461.99 186.29
-9755461.05 5135461.09 181.65
-9755462.15 5135464.81 184.28
-9755463.99 5135468.72 186.61
-9755461.92 5135463.25 190.61
-9755465.60 5135469.47 184.22
-9755460.49 5135461.96 192.62
-9755462.17 5135469.42 192.64
-9755462.21 5135463.99 189.69
-9755461.31 5135461.34 182.12
-9755466.55 5135464.38 186.15
-9755465.90 5135469.82 186.91
-9755463.33 5135466.14 193.29
-9755462.19 5135463.95 186.64
-9755463.20 5135466.72 184.20
-9755463.63 5135463.16 181.56
-9755463.22 5135465.94 186.56
-9755464.01 5135468.99 185.93
-9755463.06 5135466.91 184.50
-9755461.48 5135461.87 182.06
-9755465.35 5135469.01 181.66
-9755464.04 5135469.17 189.23
-9755461.05 5135468.11 192.62
-9755460.18 5135461.68 192.62
-9755460.71 5135460.06 183.40
-9755461.88 5135461.67 182.07
-9755461.39 5135467.03 192.61
-9755461.35 5135461.35 186.56
-9755467.49 5135463.46 186.43
-9755463.82 5135468.58 184.45
-9755467.65 5135465.18 181.53
-9755461.87 5135467.66 192.64
-9755467.69 5135469.89 181.63
-9755461.23 5135460.19 181.62
-9755462.44 5135464.83 189.43
-9755468.13 5135462.64 186.63
-9755461.97 5135463.53 182.53
-9755462.22 5135464.32 186.62
-9755467.91 5135468.22 181.60
-9755461.37 5135464.91 192.62
-9755461.36 5135461.29 188.24
-9755465.60 5135469.50 185.05
-9755461.86 5135469.38 192.62
-9755465.33 5135469.95 188.68
-9755461.09 5135461.58 183.96
-9755463.30 5135467.69 183.37
-9755463.12 5135466.66 193.27
-9755466.91 5135461.72 186.41
-9755461.43 5135461.88 186.02
-9755462.08 5135464.41 184.11
-9755460.99 5135460.29 186.56
-9755465.70 5135466.69 181.59
-9755466.05 5135460.25 186.33
-9755462.66 5135465.48 185.99
-9755461.69 5135462.19 187.57
-9755462.84 5135465.91 189.86
-9755461.04 5135460.36 183.39
-9755461.04 5135467.89 192.62
-9755462.83 5135464.63 193.28
-9755461.06 5135460.79 186.92
-9755465.03 5135466.71 181.61
-9755461.35 5135465.55 192.62
-9755462.61 5135465.63 189.05
-9755464.89 5135460.24 186.06
-9755466.30 5135463.50 186.15
-9755460.91 5135460.70 182.46
-9755464.72 5135466.63 181.62
-9755463.71 5135468.48 186.14
-9755462.80 5135466.26 183.87
-9755461.97 5135467.32 192.65
-9755461.84 5135462.91 187.22
-9755462.51 5135464.87 187.65
-9755461.90 5135460.97 182.06
-9755463.24 5135467.50 182.92
-9755461.34 5135462.07 189.06
-9755461.60 5135462.55 183.17
-9755460.72 5135460.11 181.64
-9755462.51 5135466.96 192.65
-9755463.29 5135467.39 182.21
-9755459.85 5135463.42 192.59
-9755463.17 5135466.89 189.84
-9755460.99 5135460.69 183.36
-9755462.47 5135464.30 187.26
-9755462.13 5135464.34 189.66
-9755462.27 5135469.96 192.64
-9755463.07 5135469.36 192.63
-9755464.24 5135469.08 193.27
-9755463.48 5135467.42 182.92
-9755462.23 5135464.16 187.30
-9755465.37 5135469.79 189.90
-9755463.99 5135468.21 193.30
-9755464.35 5135460.22 185.88
-9755463.05 5135469.15 192.65
-9755462.51 5135464.04 193.29
-9755464.20 5135469.53 186.59
-9755466.51 5135466.02 181.59
-9755460.44 5135463.73 192.55
-9755463.43 5135469.11 192.64
-9755460.50 5135462.85 192.59
-9755463.03 5135465.98 188.96
-9755459.58 5135463.99 192.60
-9755460.98 5135460.90 189.37
-9755462.50 5135464.84 190.09
-9755461.91 5135464.34 192.62
-9755465.42 5135463.56 185.89
-9755461.35 5135461.27 190.61
-9755463.68 5135468.03 190.80
-9755461.60 5135463.11 184.13
-9755462.75 5135465.40 189.32
-9755465.98 5135469.43 181.97
-9755460.55 5135460.55 183.89
-9755461.37 5135460.71 189.93
-9755461.16 5135461.46 188.24
-9755464.45 5135469.06 188.71
-9755461.41 5135461.97 184.36
-9755461.92 5135462.55 193.30
-9755464.02 5135468.48 193.28
-9755460.76 5135460.25 183.40
-9755465.48 5135461.17 186.16
-9755461.52 5135461.69 187.20
-9755463.66 5135468.07 187.88
-9755463.67 5135467.56 193.28
-9755465.15 5135469.27 189.07
-9755463.07 5135466.63 189.06
-9755463.73 5135468.06 190.62
-9755458.66 5135461.06 192.61
-9755466.23 5135468.75 181.65
-9755462.97 5135463.19 181.60
-9755460.58 5135460.51 189.91
-9755461.06 5135460.73 190.70
-9755461.49 5135462.78 186.78
-9755458.41 5135460.19 192.61
-9755463.89 5135468.97 181.70
-9755460.77 5135461.70 192.62
-9755461.01 5135460.41 189.04
-9755462.70 5135461.65 181.61
-9755459.61 5135464.87 192.62
-9755462.85 5135468.16 192.64
-9755462.63 5135466.04 193.25
-9755461.34 5135463.45 192.61
-9755463.55 5135467.92 186.19
-9755466.32 5135460.77 186.37
-9755462.46 5135465.29 187.41
-9755460.44 5135466.19 192.61
-9755463.63 5135468.05 183.43
-9755463.07 5135466.94 182.65
-9755462.47 5135464.09 187.31
-9755458.70 5135461.65 192.62
-9755462.49 5135465.11 190.47
-9755464.22 5135469.21 183.58
-9755461.04 5135460.69 188.20
-9755462.50 5135467.61 192.65
-9755461.89 5135460.17 181.59
-9755459.29 5135461.96 192.60
-9755462.55 5135465.83 182.50
-9755463.87 5135468.71 181.66
-9755462.25 5135467.58 192.65
-9755463.63 5135464.29 181.59
-9755463.07 5135466.99 193.28
-9755461.92 5135461.05 181.60
-9755466.94 5135462.30 186.39
-9755462.74 5135465.18 189.04
-9755461.36 5135460.45 193.30
-9755463.61 5135468.13 186.61
-9755461.66 5135462.88 183.97
-9755459.83 5135462.54 192.61
-9755462.34 5135464.66 182.69
-9755462.27 5135468.47 192.64
-9755467.76 5135460.78 186.67
-9755461.61 5135463.36 181.97
-9755460.73 5135464.97 192.60
-9755464.52 5135469.56 190.25
-9755466.81 5135468.74 181.63
-9755462.17 5135464.17 190.61
-9755462.85 5135463.41 193.26
-9755463.31 5135466.21 186.63
-9755461.51 5135462.76 183.97
-9755463.12 5135468.58 192.65
-9755461.85 5135461.61 181.61
-9755463.87 5135468.68 187.76
-9755459.87 5135461.09 192.62
-9755461.40 5135461.04 193.29
-9755460.73 5135460.41 184.39
-9755460.83 5135460.81 183.40
-9755459.01 5135461.73 192.62
-9755460.66 5135460.44 182.15
-9755464.13 5135469.09 185.93
-9755463.38 5135465.81 193.28
-9755463.97 5135469.07 189.87
-9755461.31 5135464.66 192.61
-9755461.68 5135462.79 189.85
-9755463.11 5135467.26 184.01
-9755460.79 5135460.42 189.37
-9755463.94 5135468.95 182.58
-9755460.97 5135461.65 182.92
-9755461.92 5135462.54 182.11
-9755461.02 5135460.99 188.42
-9755462.72 5135465.85 186.64
-9755466.87 5135466.12 181.57
-9755466.87 5135466.39 181.59
-9755463.52 5135461.95 181.58
-9755461.20 5135460.11 188.07
-9755462.26 5135466.38 192.62
-9755466.86 5135463.86 186.26
-9755465.71 5135462.05 186.11
-9755461.93 5135462.75 182.11
-9755462.80 5135465.77 188.10
-9755463.06 5135470.02 192.65
-9755463.56 5135467.89 182.00
-9755462.49 5135464.39 190.07
-9755467.68 5135465.62 181.58
-9755461.87 5135462.50 189.47
-9755462.26 5135462.88 193.29
-9755461.91 5135463.22 186.64
-9755463.96 5135468.45 188.13
-9755460.46 5135461.10 192.63
-9755461.45 5135462.01 183.41
-9755461.08 5135460.73 193.30
-9755461.96 5135462.79 193.30
-9755464.74 5135469.35 190.19
-9755461.84 5135462.38 188.95
-9755461.01 5135460.08 190.61
-9755464.52 5135470.00 193.92
-9755463.37 5135467.32 190.17
-9755461.60 5135462.53 182.70
-9755464.44 5135467.84 193.26
-9755461.39 5135467.90 192.62
-9755465.98 5135462.89 186.13
-9755461.68 5135466.74 192.62
-9755461.35 5135460.22 182.07
-9755459.88 5135464.31 192.60
-9755463.44 5135465.26 193.27
-9755464.68 5135469.96 194.75
-9755461.38 5135461.53 189.04
-9755463.57 5135468.29 187.35
-9755462.52 5135469.12 192.63
-9755465.42 5135462.65 186.03
-9755461.02 5135464.61 192.59
-9755461.85 5135463.11 182.43
-9755467.67 5135468.23 181.60
-9755464.25 5135469.30 181.67
-9755463.36 5135467.00 182.72
-9755463.94 5135464.03 181.56
-9755463.14 5135465.23 193.29
-9755463.42 5135469.67 192.63
-9755462.26 5135464.27 186.03
-9755463.35 5135461.62 181.57
-9755466.51 5135464.87 181.55
-9755462.74 5135465.70 189.51
-9755465.21 5135469.84 191.00
-9755461.09 5135463.17 192.60
-9755463.29 5135467.34 186.69
-9755462.55 5135464.85 186.66
-9755466.28 5135462.90 186.21
-9755467.34 5135466.76 181.59
-9755461.56 5135463.03 184.36
-9755466.93 5135465.56 181.56
-9755460.21 5135460.52 192.64
-9755461.32 5135468.47 192.62
-9755463.65 5135468.33 188.99
-9755463.07 5135460.79 181.59
-9755466.00 5135465.23 181.56
-9755465.40 5135460.78 186.15
-9755465.09 5135469.36 187.09
-9755461.07 5135460.48 185.98
-9755460.20 5135462.86 192.59
-9755464.07 5135468.96 188.08
-9755460.18 5135461.97 192.61
-9755461.06 5135460.69 182.11
-9755464.50 5135469.25 188.99
-9755466.32 5135460.54 186.37
-9755461.88 5135463.10 187.35
-9755460.11 5135466.10 192.64
-9755467.53 5135464.27 181.53
-9755462.76 5135465.61 190.49
-9755461.52 5135461.56 182.08
-9755463.09 5135465.77 193.28
-9755466.54 5135469.01 181.63
-9755464.52 5135469.93 193.36
-9755465.65 5135469.29 181.65
-9755461.37 5135466.43 192.61
-9755461.15 5135461.06 186.53
-9755461.98 5135461.64 193.28
-9755465.96 5135469.66 181.66
-9755464.18 5135469.83 195.98
-9755466.91 5135467.28 181.61
-9755461.84 5135469.10 192.64
-9755464.46 5135466.69 181.62
-9755468.04 5135469.30 181.66
-9755461.92 5135463.35 189.02
-9755464.61 5135469.87 195.34
-9755464.32 5135460.75 185.98
-9755466.07 5135464.42 186.02
-9755461.03 5135461.02 182.33
-9755459.88 5135460.80 192.63
-9755465.23 5135469.35 188.45
-9755467.16 5135461.15 186.51
-9755465.63 5135469.82 181.67
-9755463.19 5135466.95 190.17
-9755461.91 5135463.04 188.13
-9755466.04 5135463.15 186.13
-9755462.72 5135460.21 181.56
-9755464.44 5135469.96 197.81
-9755463.83 5135467.85 190.55
-9755461.04 5135460.69 190.24
-9755460.22 5135463.75 192.57
-9755463.65 5135465.47 181.62
-9755461.98 5135463.84 183.39
-9755460.23 5135458.85 184.24
-9755459.34 5135457.52 193.17
-9755465.99 5135458.77 186.41
-9755459.69 5135457.40 188.82
-9755458.44 5135457.56 192.66
-9755459.70 5135457.23 193.28
-9755459.86 5135457.12 185.89
-9755460.18 5135459.12 181.66
-9755459.70 5135457.45 193.28
-9755459.84 5135457.72 182.23
-9755460.36 5135458.00 181.64
-9755459.65 5135457.09 183.43
-9755459.71 5135457.16 182.34
-9755461.59 5135457.73 181.61
-9755464.57 5135458.70 186.11
-9755461.52 5135458.31 181.61
-9755460.16 5135458.35 183.09
-9755459.82 5135457.54 184.73
-9755465.42 5135457.59 186.42
-9755461.89 5135457.49 181.59
-9755459.87 5135457.45 189.37
-9755457.80 5135458.46 192.63
-9755459.90 5135457.48 187.73
-9755459.72 5135457.05 184.38
-9755458.98 5135457.86 192.65
-9755460.19 5135457.79 193.30
-9755460.09 5135457.96 183.47
-9755458.14 5135458.43 192.64
-9755459.79 5135457.64 183.41
-9755465.20 5135457.85 186.34
-9755459.96 5135458.32 193.30
-9755460.49 5135458.39 193.29
-9755459.95 5135457.68 187.92
-9755460.16 5135458.20 189.94
-9755465.47 5135458.18 186.37
-9755464.60 5135457.25 186.21
-9755458.47 5135458.41 192.64
-9755459.73 5135457.83 184.29
-9755460.50 5135457.87 193.29
-9755460.10 5135458.19 183.49
-9755464.27 5135458.76 186.02
-9755459.03 5135458.38 192.64
-9755460.13 5135458.29 188.65
-9755460.41 5135457.22 181.62
-9755460.15 5135458.41 187.93
-9755459.85 5135457.81 181.65
-9755463.62 5135457.81 185.92
-9755458.76 5135457.86 192.66
-9755464.33 5135457.57 186.17
-9755459.93 5135458.45 182.00
-9755459.80 5135457.06 185.02
-9755459.96 5135458.30 186.71
-9755459.62 5135456.96 190.52
-9755459.31 5135457.81 192.64
-9755503.00 5135433.48 181.31
-9755502.10 5135433.19 181.33
-9755501.75 5135444.65 181.43
-9755501.50 5135441.11 181.40
-9755502.08 5135438.77 181.38
-9755502.90 5135446.81 181.44
-9755501.12 5135445.58 181.45
-9755502.06 5135444.38 181.42
-9755501.49 5135437.89 181.37
-9755500.65 5135439.38 181.40
-9755502.98 5135440.54 181.39
-9755501.50 5135442.62 181.41
-9755503.24 5135445.59 181.40
-9755501.49 5135436.42 181.36
-9755500.91 5135433.78 181.36
-9755502.49 5135435.69 184.95
-9755500.90 5135437.02 181.37
-9755501.51 5135434.03 181.34
-9755502.67 5135442.58 181.40
-9755502.40 5135434.03 181.33
-9755501.17 5135443.50 181.42
-9755501.81 5135437.32 181.37
-9755502.69 5135437.26 181.36
-9755502.94 5135439.65 181.37
-9755503.22 5135445.87 181.40
-9755502.15 5135434.65 181.34
-9755501.46 5135447.07 181.46
-9755500.48 5135452.05 181.51
-9755502.35 5135450.62 181.50
-9755501.04 5135455.33 181.54
-9755501.67 5135456.52 181.52
-9755502.30 5135451.83 181.48
-9755500.51 5135455.37 181.55
-9755501.11 5135450.02 181.50
-9755500.84 5135452.03 181.51
-9755501.74 5135452.42 181.50
-9755501.45 5135452.99 181.50
-9755501.68 5135455.90 181.52
-9755502.06 5135449.41 181.48
-9755502.93 5135454.47 181.49
-9755502.89 5135452.70 181.48
-9755500.76 5135455.06 181.54
-9755501.74 5135453.32 181.51
-9755500.47 5135454.49 181.54
-9755502.27 5135453.84 181.50
-9755502.06 5135447.96 181.47
-9755500.55 5135450.28 181.51
-9755503.00 5135429.01 181.19
-9755500.94 5135428.69 181.31
-9755502.16 5135429.89 181.24
-9755501.83 5135429.58 181.26
-9755501.88 5135432.55 181.83
-9755502.11 5135431.35 181.30
-9755501.52 5135430.79 181.31
-9755501.24 5135429.03 181.29
-9755498.87 5135433.74 181.40
-9755499.44 5135433.70 181.39
-9755495.66 5135433.11 181.45
-9755487.85 5135432.41 187.28
-9755488.43 5135433.09 185.02
-9755488.58 5135433.19 185.59
-9755488.30 5135432.37 183.28
-9755487.47 5135432.58 190.81
-9755488.63 5135433.33 183.30
-9755488.10 5135432.99 194.67
-9755490.86 5135433.41 181.55
-9755490.59 5135433.08 181.55
-9755488.59 5135432.92 183.00
-9755488.32 5135433.10 186.65
-9755488.28 5135432.54 182.60
-9755487.54 5135433.44 198.21
-9755489.06 5135433.54 183.21
-9755491.83 5135433.06 181.49
-9755488.49 5135433.16 184.79
-9755493.58 5135432.84 181.48
-9755487.74 5135433.21 190.91
-9755488.29 5135432.88 183.72
-9755488.57 5135433.03 183.68
-9755487.69 5135432.53 190.86
-9755487.48 5135432.47 194.47
-9755488.03 5135433.63 194.62
-9755492.71 5135432.79 181.48
-9755491.79 5135433.40 181.51
-9755487.86 5135433.46 198.25
-9755487.66 5135433.36 194.54
-9755492.40 5135433.10 181.48
-9755488.85 5135433.07 181.56
-9755486.85 5135432.60 198.16
-9755487.24 5135432.28 198.12
-9755492.98 5135433.03 181.48
-9755487.68 5135433.42 187.21
-9755488.59 5135433.03 184.00
-9755488.17 5135432.88 198.30
-9755488.06 5135432.24 186.61
-9755489.73 5135432.82 181.55
-9755486.96 5135432.30 190.79
-9755499.70 5135443.45 181.45
-9755495.87 5135445.83 181.55
-9755500.27 5135444.70 181.45
-9755496.74 5135444.37 181.51
-9755495.94 5135434.86 181.47
-9755497.65 5135437.83 181.45
-9755495.87 5135440.49 181.51
-9755500.06 5135434.93 181.38
-9755496.18 5135436.93 181.48
-9755496.80 5135441.68 181.49
-9755496.14 5135445.54 181.55
-9755497.68 5135435.48 181.44
-9755499.73 5135436.96 181.40
-9755497.35 5135440.23 181.45
-9755495.30 5135444.58 181.55
-9755495.01 5135439.60 181.52
-9755499.16 5135435.49 181.42
-9755498.24 5135441.74 181.45
-9755498.76 5135446.12 181.48
-9755500.63 5135434.35 181.36
-9755495.60 5135435.47 181.48
-9755497.35 5135438.78 181.47
-9755495.25 5135442.80 181.53
-9755498.56 5135444.37 181.46
-9755495.32 5135437.87 181.48
-9755500.56 5135447.04 181.47
-9755495.91 5135438.72 181.48
-9755499.99 5135443.53 181.44
-9755495.04 5135435.80 181.50
-9755496.47 5135444.39 181.53
-9755498.22 5135441.16 181.45
-9755495.54 5135446.39 181.56
-9755495.01 5135434.87 181.48
-9755498.26 5135444.95 181.48
-9755497.96 5135436.97 181.44
-9755495.05 5135439.03 181.50
-9755495.03 5135437.26 181.50
-9755498.19 5135442.61 181.46
-9755499.75 5135434.34 181.38
-9755495.56 5135445.23 181.55
-9755495.90 5135442.55 181.51
-9755496.44 5135443.73 181.51
-9755495.82 5135442.31 181.51
-9755496.51 5135442.58 181.50
-9755497.34 5135446.68 181.52
-9755498.26 5135444.38 181.47
-9755495.29 5135436.94 181.50
-9755495.81 5135443.77 181.54
-9755497.36 5135436.08 181.45
-9755498.22 5135443.49 181.47
-9755499.74 5135438.77 181.41
-9755496.74 5135443.14 181.50
-9755499.10 5135443.81 181.44
-9755497.29 5135445.85 181.51
-9755495.91 5135439.04 181.49
-9755496.52 5135440.23 181.48
-9755496.46 5135438.47 181.47
-9755495.87 5135443.50 181.54
-9755496.44 5135441.17 181.48
-9755495.28 5135443.70 181.55
-9755495.00 5135437.88 181.49
-9755487.44 5135433.60 194.54
-9755494.18 5135433.72 181.48
-9755487.71 5135433.79 190.91
-9755495.00 5135441.11 181.53
-9755494.97 5135445.79 181.58
-9755491.19 5135436.99 181.56
-9755488.22 5135434.48 194.65
-9755488.08 5135434.72 194.64
-9755488.06 5135435.34 194.65
-9755488.74 5135436.23 194.71
-9755489.06 5135434.10 183.74
-9755488.67 5135433.94 186.61
-9755489.71 5135438.08 187.72
-9755491.71 5135442.65 184.12
-9755491.88 5135445.16 191.67
-9755490.31 5135435.47 181.57
-9755492.01 5135443.53 181.62
-9755490.68 5135440.46 186.65
-9755488.99 5135436.85 198.49
-9755489.43 5135436.38 198.53
-9755491.81 5135446.48 198.91
-9755490.24 5135439.89 198.75
-9755491.65 5135442.17 183.08
-9755489.74 5135437.10 182.80
-9755491.47 5135441.93 183.29
-9755492.33 5135445.28 187.99
-9755488.88 5135437.80 187.52
-9755492.57 5135445.35 184.71
-9755489.71 5135436.97 186.61
-9755488.48 5135433.80 181.62
-9755493.21 5135437.86 181.54
-9755489.78 5135436.86 182.37
-9755489.31 5135439.88 187.60
-9755489.75 5135436.08 185.89
-9755489.06 5135434.03 185.60
-9755489.45 5135433.67 181.56
-9755490.12 5135437.88 183.27
-9755490.43 5135438.85 182.66
-9755492.31 5135443.94 185.06
-9755491.05 5135440.62 184.44
-9755493.56 5135438.09 181.53
-9755491.76 5135434.57 181.53
-9755490.22 5135438.62 181.98
-9755488.62 5135434.24 186.63
-9755489.03 5135434.54 183.84
-9755491.71 5135440.44 181.58
-9755492.65 5135445.99 184.78
-9755490.61 5135439.05 184.09
-9755490.97 5135440.13 184.49
-9755489.60 5135435.34 183.37
-9755494.47 5135435.48 181.49
-9755494.45 5135441.05 181.53
-9755489.80 5135436.88 185.47
-9755489.77 5135437.37 183.31
-9755490.89 5135440.13 185.17
-9755491.72 5135442.70 181.98
-9755488.98 5135434.72 181.98
-9755493.83 5135437.85 181.52
-9755493.76 5135442.85 181.57
-9755490.18 5135442.03 198.62
-9755489.42 5135436.44 183.75
-9755490.67 5135441.36 191.71
-9755488.96 5135435.51 198.49
-9755489.39 5135436.01 183.12
-9755489.33 5135435.48 184.00
-9755488.61 5135437.37 191.13
-9755487.78 5135434.02 194.59
-9755489.14 5135435.43 194.79
-9755494.96 5135442.89 181.54
-9755488.88 5135434.55 181.59
-9755491.81 5135445.40 198.89
-9755488.71 5135434.82 198.41
-9755492.37 5135446.46 188.08
-9755492.59 5135445.50 181.62
-9755493.53 5135441.67 181.56
-9755491.55 5135441.69 186.05
-9755490.39 5135443.13 195.04
-9755491.20 5135437.75 181.57
-9755489.54 5135437.02 198.55
-9755490.66 5135438.82 185.75
-9755493.50 5135439.33 181.53
-9755493.56 5135441.11 181.55
-9755493.52 5135435.43 181.51
-9755490.72 5135441.89 195.02
-9755488.65 5135436.58 194.73
-9755490.05 5135439.20 187.74
-9755493.18 5135446.87 185.90
-9755490.72 5135440.46 198.68
-9755490.31 5135438.98 181.58
-9755492.28 5135445.44 188.02
-9755489.40 5135435.56 184.22
-9755490.60 5135436.05 181.57
-9755490.71 5135443.67 187.74
-9755491.44 5135444.67 187.84
-9755489.95 5135440.01 191.29
-9755493.51 5135445.52 181.60
-9755489.90 5135438.81 198.64
-9755489.65 5135436.87 183.73
-9755488.89 5135436.23 191.20
-9755490.62 5135439.06 185.18
-9755494.94 5135443.80 181.55
-9755493.53 5135440.49 181.56
-9755489.40 5135435.68 182.32
-9755494.68 5135445.50 181.58
-9755488.85 5135434.14 182.07
-9755490.44 5135438.55 183.93
-9755489.41 5135437.78 186.61
-9755488.97 5135435.15 183.94
-9755493.49 5135442.30 181.57
-9755490.33 5135437.94 183.63
-9755489.75 5135438.62 195.07
-9755490.66 5135434.84 181.56
-9755489.15 5135435.86 198.50
-9755490.20 5135442.58 191.36
-9755489.17 5135436.48 194.87
-9755491.98 5135446.37 181.63
-9755490.28 5135437.87 181.58
-9755491.19 5135435.43 181.55
-9755489.45 5135436.17 185.16
-9755488.74 5135434.51 182.76
-9755490.43 5135442.78 187.69
-9755492.24 5135444.40 185.70
-9755488.29 5135435.16 187.35
-9755490.66 5135440.24 186.63
-9755488.53 5135434.23 198.41
-9755490.64 5135438.70 186.59
-9755494.15 5135434.29 181.49
-9755490.64 5135438.62 182.64
-9755491.53 5135442.80 186.62
-9755489.53 5135439.34 198.60
-9755492.03 5135446.97 181.63
-9755491.55 5135446.08 187.92
-9755491.84 5135443.80 185.65
-9755491.80 5135444.70 191.62
-9755491.03 5135441.19 183.53
-9755492.63 5135442.61 181.58
-9755491.24 5135444.63 195.14
-9755490.30 5135438.23 186.59
-9755491.56 5135443.70 195.20
-9755489.19 5135436.47 191.25
-9755489.74 5135439.35 198.60
-9755490.91 5135435.45 181.56
-9755491.16 5135441.33 183.93
-9755491.21 5135441.79 191.38
-9755491.39 5135442.10 185.15
-9755491.72 5135442.93 185.34
-9755491.07 5135440.55 182.65
-9755491.59 5135443.71 198.88
-9755491.42 5135441.89 184.92
-9755491.51 5135442.10 185.96
-9755488.24 5135434.49 190.96
-9755491.58 5135444.18 195.08
-9755490.95 5135443.63 195.09
-9755491.00 5135443.26 191.36
-9755491.45 5135444.44 198.81
-9755489.07 5135434.74 183.15
-9755494.69 5135438.70 181.51
-9755492.73 5135446.66 184.77
-9755488.82 5135434.75 182.78
-9755490.60 5135439.47 183.14
-9755489.21 5135434.50 186.54
-9755490.27 5135438.02 183.22
-9755491.48 5135442.61 185.81
-9755491.77 5135437.84 181.57
-9755492.33 5135444.73 186.59
-9755490.23 5135438.10 184.07
-9755489.57 5135437.95 191.30
-9755490.74 5135443.44 198.72
-9755491.76 5135445.77 187.90
-9755489.73 5135436.73 184.91
-9755488.65 5135435.61 194.77
-9755489.94 5135437.88 198.64
-9755494.08 5135440.14 181.55
-9755489.12 5135435.66 185.42
-9755490.06 5135439.01 191.38
-9755489.78 5135439.77 198.62
-9755490.58 5135439.73 182.68
-9755492.33 5135444.84 184.34
-9755490.71 5135439.33 182.65
-9755491.55 5135441.71 182.82
-9755489.12 5135435.26 184.26
-9755491.19 5135438.71 181.56
-9755489.56 5135437.29 186.62
-9755491.28 5135445.33 198.85
-9755490.96 5135440.19 186.28
-9755492.12 5135446.48 191.61
-9755493.12 5135446.65 184.35
-9755488.70 5135433.92 184.54
-9755493.22 5135441.08 181.57
-9755491.70 5135442.05 186.58
-9755492.58 5135445.63 185.53
-9755492.15 5135445.29 191.68
-9755488.36 5135435.48 187.37
-9755488.56 5135434.09 198.41
-9755491.79 5135443.88 187.95
-9755491.92 5135446.95 198.93
-9755488.80 5135434.39 185.64
-9755490.59 5135436.32 181.57
-9755492.41 5135445.50 195.35
-9755491.95 5135443.82 184.42
-9755493.47 5135444.64 181.59
-9755488.66 5135436.11 191.04
-9755491.42 5135441.48 183.22
-9755492.60 5135444.91 181.61
-9755492.35 5135436.96 181.53
-9755489.75 5135439.63 187.63
-9755490.66 5135443.78 198.73
-9755490.35 5135438.75 182.22
-9755492.64 5135437.26 181.52
-9755489.28 5135436.64 183.79
-9755489.22 5135435.94 194.87
-9755490.69 5135439.46 185.38
-9755489.48 5135437.10 195.25
-9755489.09 5135438.62 187.57
-9755493.16 5135446.69 181.61
-9755491.73 5135441.33 181.59
-9755490.45 5135439.97 184.22
-9755491.65 5135443.79 181.62
-9755491.52 5135445.40 191.53
-9755489.76 5135437.20 181.60
-9755490.68 5135442.04 187.60
-9755490.35 5135438.54 183.19
-9755490.35 5135438.45 182.45
-9755488.12 5135435.58 198.38
-9755491.78 5135446.28 184.34
-9755490.69 5135442.34 198.52
-9755490.70 5135440.78 199.32
-9755490.32 5135439.90 186.66
-9755491.86 5135445.29 198.98
-9755491.56 5135446.94 187.93
-9755491.93 5135444.74 198.96
-9755488.35 5135434.42 198.25
-9755489.32 5135436.45 183.33
-9755491.88 5135446.33 195.23
-9755489.98 5135438.36 183.33
-9755493.22 5135444.00 181.61
-9755492.31 5135444.30 186.56
-9755489.72 5135437.19 182.50
-9755491.81 5135443.62 183.58
-9755492.26 5135446.89 191.63
-9755491.23 5135440.54 182.21
-9755490.74 5135443.07 195.01
-9755491.31 5135442.87 187.85
-9755490.61 5135438.69 184.16
-9755489.88 5135438.01 194.99
-9755489.00 5135436.17 198.76
-9755488.87 5135434.62 184.25
-9755492.67 5135435.45 181.51
-9755491.10 5135441.24 184.57
-9755492.59 5135444.65 184.22
-9755491.46 5135445.47 195.18
-9755491.81 5135446.89 184.33
-9755494.11 5135446.74 181.60
-9755487.14 5135433.10 198.21
-9755490.03 5135441.38 187.64
-9755491.44 5135442.16 182.65
-9755490.71 5135443.22 191.35
-9755490.06 5135438.00 183.45
-9755491.85 5135443.80 183.20
-9755492.64 5135438.71 181.55
-9755489.81 5135437.26 184.26
-9755490.94 5135440.68 185.70
-9755490.46 5135440.40 191.40
-9755490.65 5135441.03 198.66
-9755492.06 5135442.29 181.60
-9755491.88 5135443.86 185.10
-9755492.37 5135435.45 181.53
-9755490.38 5135441.07 191.32
-9755488.20 5135434.70 187.30
-9755492.63 5135444.06 181.60
-9755494.40 5135443.23 181.56
-9755488.63 5135435.84 198.41
-9755490.53 5135441.84 191.27
-9755488.81 5135435.06 198.31
-9755490.37 5135438.90 185.75
-9755488.79 5135435.74 186.67
-9755488.99 5135437.66 194.81
-9755489.15 5135435.32 181.60
-9755488.73 5135434.66 185.95
-9755489.37 5135438.05 187.53
-9755491.61 5135442.90 198.80
-9755489.10 5135435.09 187.39
-9755490.56 5135439.46 184.03
-9755492.14 5135446.77 198.93
-9755488.83 5135434.48 183.06
-9755491.83 5135443.23 183.56
-9755491.75 5135435.75 181.54
-9755492.20 5135443.26 183.21
-9755490.30 5135434.57 181.56
-9755492.43 5135445.88 191.70
-9755490.50 5135440.25 198.68
-9755489.69 5135437.75 195.00
-9755491.31 5135443.44 198.86
-9755492.61 5135436.65 181.53
-9755492.60 5135445.79 181.61
-9755489.12 5135437.53 198.50
-9755488.43 5135436.74 198.43
-9755491.74 5135436.37 181.56
-9755490.51 5135439.59 181.58
-9755490.62 5135433.97 181.55
-9755493.22 5135438.07 181.54
-9755490.03 5135437.72 191.28
-9755490.40 5135439.23 185.80
-9755491.81 5135442.42 185.83
-9755491.41 5135444.28 187.84
-9755491.07 5135444.98 198.83
-9755490.46 5135442.88 198.70
-9755492.32 5135445.94 186.63
-9755489.84 5135437.12 184.02
-9755488.41 5135434.03 187.35
-9755490.71 5135443.18 198.70
-9755490.42 5135439.34 184.61
-9755489.44 5135436.08 184.53
-9755491.01 5135443.47 191.34
-9755490.91 5135439.96 184.08
-9755489.90 5135438.18 195.64
-9755491.21 5135441.31 181.63
-9755492.45 5135444.98 184.74
-9755490.10 5135438.15 185.23
-9755488.57 5135436.29 187.40
-9755489.42 5135437.16 191.29
-9755490.95 5135440.14 183.75
-9755490.94 5135442.06 195.08
-9755490.61 5135443.33 184.13
-9755490.04 5135437.65 184.30
-9755489.44 5135436.96 187.62
-9755490.56 5135439.05 186.60
-9755488.46 5135434.03 190.99
-9755492.66 5135446.77 188.11
-9755488.59 5135435.73 187.37
-9755489.22 5135435.30 182.31
-9755492.50 5135446.95 195.40
-9755490.61 5135439.92 186.62
-9755489.23 5135438.45 198.55
-9755490.05 5135437.90 185.68
-9755489.56 5135438.85 191.23
-9755491.28 5135443.02 195.15
-9755491.82 5135446.94 187.94
-9755490.12 5135438.26 185.68
-9755490.64 5135440.96 187.78
-9755494.08 5135443.15 181.56
-9755489.85 5135437.75 184.80
-9755489.95 5135438.44 198.63
-9755489.66 5135439.33 191.25
-9755491.73 5135443.88 191.58
-9755489.21 5135438.19 198.49
-9755490.09 5135437.64 184.26
-9755490.95 5135442.15 187.82
-9755491.84 5135444.55 195.28
-9755489.85 5135437.35 183.57
-9755491.75 5135440.19 181.58
-9755489.19 5135435.94 187.53
-9755491.04 5135441.05 184.38
-9755491.74 5135442.30 186.60
-9755491.52 5135443.64 187.89
-9755492.67 5135445.23 186.11
-9755492.68 5135446.78 191.75
-9755493.15 5135442.01 181.57
-9755494.04 5135446.41 181.60
-9755488.82 5135434.18 185.95
-9755491.26 5135441.81 185.70
-9755492.69 5135441.37 181.57
-9755489.19 5135435.28 184.88
-9755492.20 5135444.68 198.95
-9755491.76 5135434.84 181.53
-9755490.23 5135439.34 198.69
-9755489.34 5135437.96 198.49
-9755491.52 5135441.75 184.43
-9755496.04 5135457.27 185.78
-9755495.87 5135457.20 192.30
-9755495.14 5135457.46 184.91
-9755497.91 5135450.87 181.56
-9755498.25 5135447.29 181.51
-9755497.30 5135456.43 181.60
-9755496.66 5135457.36 181.59
-9755495.72 5135457.09 195.95
-9755496.11 5135457.03 188.60
-9755495.55 5135455.77 188.57
-9755499.02 5135454.79 181.56
-9755498.46 5135455.37 181.58
-9755495.58 5135447.00 181.56
-9755496.03 5135455.86 184.95
-9755495.19 5135452.65 186.58
-9755495.03 5135457.13 195.80
-9755496.69 5135455.38 181.61
-9755496.07 5135456.74 181.61
-9755495.22 5135453.47 184.27
-9755497.30 5135456.81 181.61
-9755497.48 5135457.42 181.60
-9755496.49 5135457.15 184.99
-9755495.06 5135453.39 186.14
-9755495.23 5135453.64 185.86
-9755496.68 5135456.81 181.60
-9755499.33 5135450.58 181.51
-9755498.18 5135453.83 181.58
-9755495.55 5135454.73 186.61
-9755497.55 5135453.55 181.58
-9755495.71 5135454.61 185.25
-9755495.50 5135455.12 185.56
-9755495.11 5135452.10 183.11
-9755495.23 5135456.75 188.49
-9755499.94 5135454.18 181.54
-9755497.30 5135447.91 181.54
-9755494.87 5135451.88 186.04
-9755495.52 5135457.63 188.55
-9755500.26 5135452.07 181.52
-9755498.17 5135452.95 181.56
-9755495.29 5135456.04 192.14
-9755497.64 5135447.02 181.52
-9755495.02 5135456.18 199.43
-9755495.54 5135455.38 186.65
-9755495.50 5135456.13 199.56
-9755499.95 5135451.18 181.51
-9755495.41 5135453.64 185.18
-9755495.62 5135455.02 186.16
-9755499.62 5135454.44 181.54
-9755496.22 5135457.11 184.28
-9755498.97 5135456.79 181.57
-9755498.21 5135449.98 181.53
-9755498.12 5135454.39 181.58
-9755496.73 5135449.71 181.55
-9755496.35 5135456.65 185.67
-9755495.57 5135456.22 188.58
-9755494.89 5135451.93 185.69
-9755497.26 5135451.80 181.56
-9755494.94 5135452.64 185.69
-9755496.39 5135456.20 181.61
-9755495.26 5135453.20 186.58
-9755495.92 5135457.66 199.64
-9755495.99 5135457.49 196.03
-9755495.66 5135456.71 195.95
-9755499.96 5135451.55 181.53
-9755494.83 5135451.38 182.23
-9755496.66 5135450.85 181.57
-9755495.55 5135454.98 185.10
-9755495.53 5135455.10 199.50
-9755495.68 5135454.88 184.36
-9755495.80 5135451.76 181.60
-9755496.41 5135451.18 181.59
-9755494.95 5135450.24 181.60
-9755496.09 5135455.07 181.61
-9755499.06 5135451.45 181.53
-9755496.08 5135456.84 184.39
-9755496.70 5135453.49 181.59
-9755495.46 5135453.70 185.49
-9755498.22 5135451.19 181.55
-9755498.46 5135449.39 181.51
-9755494.79 5135452.24 185.15
-9755498.24 5135449.41 181.52
-9755495.29 5135454.73 186.62
-9755497.52 5135454.09 181.58
-9755496.07 5135456.61 184.95
-9755495.27 5135447.86 181.57
-9755496.43 5135456.14 186.43
-9755494.81 5135455.86 199.41
-9755495.90 5135448.45 181.57
-9755495.63 5135455.29 184.79
-9755495.79 5135450.53 181.61
-9755495.60 5135455.95 199.57
-9755496.95 5135452.68 181.59
-9755494.89 5135452.27 183.62
-9755495.78 5135455.73 185.87
-9755495.79 5135454.99 181.61
-9755495.86 5135455.42 185.71
-9755499.93 5135455.63 181.54
-9755494.72 5135455.36 188.41
-9755499.37 5135452.11 181.54
-9755495.14 5135454.89 195.76
-9755494.84 5135451.94 184.49
-9755495.20 5135456.21 188.45
-9755494.92 5135453.80 181.63
-9755496.95 5135451.81 181.58
-9755494.94 5135449.36 181.59
-9755495.77 5135455.22 186.24
-9755495.88 5135456.71 195.97
-9755495.35 5135455.31 199.55
-9755494.86 5135452.06 182.64
-9755495.16 5135455.32 195.85
-9755495.01 5135452.71 183.52
-9755496.48 5135457.15 184.26
-9755495.82 5135455.87 181.63
-9755499.63 5135455.31 181.55
-9755494.85 5135451.81 186.35
-9755498.15 5135451.52 181.55
-9755496.11 5135456.23 186.64
-9755495.97 5135455.65 185.15
-9755494.92 5135455.80 195.73
-9755496.32 5135456.39 184.29
-9755498.18 5135453.52 181.57
-9755495.86 5135447.34 181.57
-9755498.41 5135456.15 181.58
-9755500.19 5135452.74 181.51
-9755499.08 5135451.81 181.54
-9755495.53 5135450.23 181.60
-9755495.82 5135455.52 184.38
-9755499.34 5135448.24 181.49
-9755494.89 5135453.48 189.09
-9755495.11 5135456.51 199.43
-9755495.75 5135456.52 181.61
-9755498.20 5135449.75 181.52
-9755498.71 5135454.47 181.56
-9755495.22 5135454.11 181.62
-9755494.89 5135452.09 186.06
-9755494.99 5135452.52 184.76
-9755497.86 5135452.65 181.55
-9755495.84 5135455.23 184.78
-9755494.98 5135452.41 182.69
-9755496.67 5135454.71 181.60
-9755495.83 5135455.97 184.44
-9755497.86 5135448.86 181.53
-9755494.67 5135449.66 181.61
-9755496.41 5135457.15 186.64
-9755494.80 5135451.82 182.92
-9755498.15 5135452.64 181.56
-9755499.35 5135453.56 181.54
-9755496.70 5135452.04 181.59
-9755498.48 5135452.07 181.55
-9755499.66 5135450.34 181.51
-9755495.32 5135456.81 192.16
-9755494.64 5135455.11 192.02
-9755495.24 5135454.29 185.21
-9755495.06 5135453.75 184.70
-9755495.69 5135455.40 185.11
-9755496.12 5135456.56 185.93
-9755495.82 5135451.42 181.60
-9755495.51 5135453.53 181.61
-9755496.72 5135454.38 181.59
-9755494.85 5135454.94 188.36
-9755494.68 5135453.54 199.78
-9755495.22 5135457.09 188.55
-9755495.17 5135452.85 185.69
-9755496.76 5135449.15 181.55
-9755495.30 5135457.16 181.62
-9755495.19 5135455.99 188.45
-9755494.86 5135453.21 199.37
-9755493.32 5135448.95 195.58
-9755494.52 5135452.67 186.66
-9755493.54 5135448.62 184.61
-9755493.29 5135448.27 199.17
-9755494.68 5135454.30 195.62
-9755493.74 5135447.89 181.59
-9755492.15 5135446.99 198.95
-9755492.67 5135446.98 188.17
-9755494.62 5135451.71 182.40
-9755494.47 5135451.36 182.47
-9755494.34 5135447.31 181.60
-9755493.95 5135449.30 185.43
-9755493.45 5135446.99 181.61
-9755494.10 5135449.75 186.56
-9755492.77 5135447.05 199.11
-9755493.39 5135448.87 184.26
-9755492.60 5135448.57 181.62
-9755493.68 5135448.95 185.65
-9755493.63 5135450.35 191.81
-9755494.38 5135454.19 191.95
-9755494.35 5135452.04 181.65
-9755493.27 5135450.05 199.15
-9755494.90 5135450.60 181.61
-9755492.67 5135449.48 184.54
-9755494.25 5135450.13 185.89
-9755493.28 5135448.35 195.49
-9755493.06 5135447.48 185.16
-9755494.07 5135447.30 181.60
-9755494.19 5135453.69 184.65
-9755493.95 5135450.24 183.18
-9755493.59 5135449.14 186.61
-9755493.52 5135450.02 192.35
-9755491.84 5135447.30 187.99
-9755492.73 5135448.75 195.41
-9755492.73 5135449.26 195.44
-9755493.95 5135452.58 195.53
-9755494.19 5135451.83 192.01
-9755493.56 5135449.63 186.61
-9755494.08 5135450.03 184.70
-9755494.02 5135453.00 188.24
-9755494.59 5135453.30 195.70
-9755494.40 5135450.35 183.35
-9755494.37 5135454.52 199.30
-9755494.74 5135454.21 199.45
-9755493.93 5135452.02 195.58
-9755494.16 5135452.30 199.20
-9755493.79 5135452.09 191.90
-9755493.53 5135448.04 186.57
-9755492.44 5135448.50 195.40
-9755493.21 5135446.98 181.61
-9755494.39 5135450.53 183.94
-9755492.39 5135448.46 188.08
-9755493.37 5135449.69 192.37
-9755492.74 5135447.66 199.13
-9755492.48 5135447.35 188.02
-9755491.81 5135447.48 191.67
-9755494.06 5135452.62 191.88
-9755493.19 5135448.49 188.22
-9755494.36 5135453.01 192.07
-9755493.83 5135450.14 191.88
-9755494.62 5135452.92 188.39
-9755494.38 5135455.13 192.02
-9755493.49 5135448.38 185.44
-9755493.43 5135449.11 181.60
-9755491.83 5135447.91 191.67
-9755491.82 5135447.26 198.95
-9755493.26 5135448.34 191.84
-9755494.11 5135449.73 185.78
-9755493.56 5135452.59 188.23
-9755493.50 5135451.11 195.51
-9755494.03 5135452.97 191.85
-9755494.03 5135450.27 182.60
-9755494.35 5135450.51 183.73
-9755493.24 5135447.86 188.20
-9755494.66 5135453.37 188.40
-9755492.73 5135447.89 186.63
-9755494.10 5135453.53 188.30
-9755493.86 5135451.12 195.64
-9755493.44 5135449.39 188.25
-9755493.60 5135450.25 195.65
-9755493.50 5135450.82 188.24
-9755492.58 5135449.65 199.13
-9755493.15 5135449.17 199.12
-9755493.35 5135449.83 195.60
-9755493.72 5135448.53 186.59
-9755493.98 5135451.00 191.75
-9755492.36 5135447.51 195.34
-9755493.59 5135449.77 199.27
-9755494.37 5135448.47 181.58
-9755493.08 5135450.11 184.53
-9755494.42 5135451.33 184.15
-9755492.20 5135447.80 199.02
-9755494.75 5135455.13 181.65
-9755492.62 5135449.19 191.77
-9755493.68 5135448.98 185.86
-9755493.18 5135448.07 191.84
-9755493.62 5135452.42 191.88
-9755493.52 5135449.64 188.27
-9755493.20 5135447.57 181.61
-9755493.45 5135449.68 181.61
-9755494.07 5135450.62 199.30
-9755493.75 5135449.14 185.86
-9755492.68 5135450.07 199.17
-9755494.37 5135451.81 186.65
-9755493.32 5135447.75 195.47
-9755494.40 5135454.47 192.00
-9755494.40 5135452.78 195.58
-9755493.46 5135449.99 181.62
-9755493.83 5135450.46 195.64
-9755493.08 5135446.98 188.04
-9755494.27 5135450.24 182.60
-9755494.05 5135453.71 191.94
-9755493.27 5135448.78 188.23
-9755492.57 5135448.57 188.07
-9755494.46 5135451.28 199.29
-9755493.42 5135448.89 185.09
-9755494.29 5135454.06 181.63
-9755494.12 5135449.73 185.17
-9755494.39 5135454.96 199.31
-9755492.58 5135447.25 181.63
-9755490.00 5135437.88 181.61
-9755495.62 5135432.22 181.43
-9755497.94 5135429.88 181.38
-9755499.47 5135428.70 181.34
-9755500.67 5135428.98 181.31
-9755497.39 5135430.49 181.38
-9755496.23 5135428.09 181.37
-9755496.55 5135428.41 181.38
-9755500.38 5135430.46 181.33
-9755499.19 5135431.05 181.37
-9755496.22 5135432.25 181.43
-9755500.37 5135428.15 181.29
-9755500.37 5135431.38 181.34
-9755497.41 5135430.73 181.39
-9755499.79 5135431.34 181.34
-9755487.29 5135430.86 187.23
-9755487.80 5135431.09 185.40
-9755487.49 5135431.58 194.60
-9755491.76 5135432.75 181.50
-9755487.46 5135429.54 186.61
-9755488.54 5135427.96 181.53
-9755488.01 5135431.25 183.70
-9755488.29 5135431.90 185.89
-9755486.86 5135428.70 186.64
-9755487.73 5135429.89 186.55
-9755486.35 5135428.05 187.12
-9755487.75 5135430.04 182.48
-9755486.88 5135429.24 186.70
-9755487.46 5135429.11 183.85
-9755487.46 5135430.98 187.22
-9755487.95 5135430.39 183.58
-9755487.69 5135430.23 185.56
-9755486.88 5135428.18 183.65
-9755488.23 5135431.96 185.23
-9755488.35 5135432.24 185.58
-9755487.51 5135431.33 186.78
-9755487.17 5135429.37 182.62
-9755490.05 5135430.46 181.52
-9755488.54 5135430.44 181.56
-9755486.24 5135429.03 190.72
-9755487.75 5135430.66 185.39
-9755488.32 5135431.68 186.51
-9755487.85 5135430.52 185.00
-9755488.28 5135432.38 185.15
-9755492.45 5135431.93 181.47
-9755493.29 5135431.31 181.46
-9755487.44 5135430.96 194.54
-9755492.73 5135429.83 181.43
-9755487.73 5135431.29 187.18
-9755488.17 5135431.49 182.29
-9755494.18 5135430.11 181.44
-9755487.99 5135431.44 184.22
-9755487.52 5135430.65 194.54
-9755486.94 5135431.92 194.42
-9755487.25 5135430.37 194.54
-9755491.88 5135430.09 181.46
-9755490.34 5135432.21 181.54
-9755485.98 5135428.34 197.97
-9755490.67 5135428.87 181.49
-9755487.42 5135429.11 183.38
-9755487.71 5135430.76 185.56
-9755486.94 5135431.45 198.06
-9755487.84 5135431.10 184.31
-9755486.87 5135429.66 188.24
-9755487.83 5135431.08 183.51
-9755486.64 5135430.58 190.69
-9755487.19 5135428.74 185.21
-9755486.80 5135427.95 184.69
-9755486.54 5135427.85 190.80
-9755485.75 5135428.13 197.99
-9755488.17 5135431.50 182.83
-9755487.15 5135428.12 184.18
-9755486.84 5135428.23 181.57
-9755487.25 5135430.43 187.17
-9755487.45 5135429.01 186.07
-9755486.69 5135428.96 198.13
-9755487.36 5135429.31 182.62
-9755487.81 5135430.65 185.90
-9755485.68 5135427.76 187.03
-9755493.29 5135432.22 181.47
-9755486.83 5135427.78 184.22
-9755487.89 5135430.63 184.53
-9755486.61 5135428.18 190.78
-9755486.52 5135427.76 187.14
