-9755398.53 5135548.94 181.52
-9755397.97 5135548.30 181.51
-9755397.94 5135546.83 181.51
-9755398.49 5135561.89 181.53
-9755397.84 5135561.05 181.52
-9755398.17 5135553.94 181.53
-9755398.14 5135559.83 181.52
-9755397.90 5135558.65 181.51
-9755397.87 5135564.28 181.52
-9755398.40 5135564.91 181.53
-9755398.19 5135555.11 181.52
-9755397.90 5135557.78 181.51
-9755442.10 5135539.54 186.62
-9755445.60 5135539.31 196.60
-9755444.09 5135539.21 187.48
-9755447.08 5135539.25 197.48
-9755444.50 5135538.98 196.49
-9755447.91 5135539.57 197.47
-9755443.21 5135538.86 186.86
-9755445.83 5135539.19 197.27
-9755448.24 5135539.50 197.92
-9755444.95 5135539.43 187.12
-9755444.60 5135539.30 196.13
-9755444.11 5135538.70 196.31
-9755447.40 5135539.55 197.48
-9755443.72 5135539.74 186.88
-9755444.65 5135539.12 187.09
-9755446.76 5135539.20 197.69
-9755444.16 5135539.24 196.15
-9755447.95 5135539.20 197.84
-9755444.97 5135538.98 196.59
-9755444.98 5135539.73 187.12
-9755440.91 5135539.73 186.40
-9755440.91 5135539.11 186.45
-9755440.77 5135539.32 186.42
-9755441.11 5135539.13 186.46
-9755442.19 5135547.51 186.82
-9755444.61 5135539.73 187.09
-9755441.90 5135539.93 186.52
-9755441.61 5135539.79 186.44
-9755442.48 5135545.95 186.46
-9755442.89 5135539.69 186.68
-9755450.04 5135546.40 197.93
-9755448.55 5135542.26 197.89
-9755444.62 5135545.95 186.88
-9755446.45 5135544.36 196.60
-9755446.93 5135545.96 187.31
-9755444.43 5135539.90 196.11
-9755440.70 5135545.23 186.07
-9755441.05 5135545.96 186.18
-9755444.93 5135543.10 187.01
-9755449.39 5135540.91 197.93
-9755442.20 5135545.08 186.41
-9755446.40 5135545.97 187.21
-9755447.17 5135545.31 187.32
-9755444.70 5135544.21 196.74
-9755442.78 5135545.64 186.52
-9755444.44 5135540.76 196.10
-9755448.07 5135540.19 197.91
-9755449.13 5135544.89 197.50
-9755449.10 5135541.90 197.93
-9755445.00 5135544.67 196.13
-9755444.25 5135545.63 186.81
-9755446.70 5135543.20 196.63
-9755445.47 5135545.67 187.04
-9755441.98 5135543.26 186.42
-9755443.13 5135544.82 186.60
-9755449.10 5135545.46 197.49
-9755444.09 5135539.97 187.31
-9755442.19 5135540.94 186.53
-9755446.74 5135545.54 196.61
-9755445.43 5135544.45 187.07
-9755450.31 5135544.14 197.95
-9755449.59 5135542.18 197.93
-9755442.03 5135540.31 186.62
-9755447.32 5135542.24 197.04
-9755444.06 5135540.95 186.88
-9755445.02 5135541.90 196.14
-9755449.70 5135544.85 197.92
-9755445.91 5135540.42 196.61
-9755444.35 5135542.43 186.86
-9755444.91 5135545.73 196.72
-9755442.25 5135544.73 186.40
-9755448.47 5135542.78 197.48
-9755444.17 5135543.45 196.38
-9755446.93 5135544.06 187.35
-9755444.70 5135545.75 196.72
-9755444.36 5135541.48 187.49
-9755445.72 5135543.53 187.08
-9755447.43 5135542.70 197.49
-9755449.19 5135542.45 197.93
-9755446.18 5135543.14 196.61
-9755444.26 5135544.23 186.87
-9755444.69 5135542.23 196.13
-9755449.10 5135544.29 197.53
-9755444.73 5135543.60 196.58
-9755446.71 5135544.08 187.31
-9755448.79 5135545.79 197.48
-9755444.29 5135541.52 186.89
-9755444.86 5135543.53 186.90
-9755449.97 5135542.52 198.71
-9755448.98 5135543.69 197.45
-9755447.01 5135544.16 196.61
-9755446.18 5135541.08 196.61
-9755446.42 5135545.35 187.25
-9755445.31 5135543.08 196.68
-9755441.69 5135540.66 186.45
-9755448.60 5135542.74 198.00
-9755445.77 5135544.12 187.09
-9755443.43 5135542.64 187.06
-9755441.94 5135541.48 186.44
-9755447.97 5135542.78 197.48
-9755443.39 5135541.82 186.67
-9755444.73 5135539.79 196.60
-9755443.44 5135542.41 186.68
-9755444.58 5135542.04 186.89
-9755448.18 5135541.05 197.49
-9755443.71 5135542.45 186.82
-9755443.32 5135540.61 186.68
-9755445.80 5135544.78 187.14
-9755446.13 5135545.07 187.17
-9755443.74 5135543.59 186.66
-9755450.04 5135543.35 197.93
-9755443.70 5135543.94 186.65
-9755444.81 5135544.74 186.95
-9755448.19 5135545.61 197.05
-9755445.26 5135540.90 187.08
-9755444.56 5135545.33 186.90
-9755441.76 5135542.47 186.42
-9755442.12 5135540.67 186.48
-9755447.06 5135545.46 197.03
-9755441.66 5135545.67 186.29
-9755445.33 5135541.06 196.60
-9755447.05 5135543.40 197.04
-9755441.24 5135542.14 186.27
-9755446.19 5135546.10 196.60
-9755450.47 5135544.26 198.65
-9755441.16 5135543.51 186.74
-9755441.37 5135545.36 186.21
-9755443.32 5135540.52 196.42
-9755440.75 5135541.51 186.22
-9755447.95 5135545.18 197.03
-9755444.79 5135542.41 187.48
-9755450.27 5135545.94 198.55
-9755446.78 5135545.20 197.14
-9755446.41 5135542.15 187.32
-9755444.69 5135541.38 196.12
-9755447.17 5135540.14 197.07
-9755449.45 5135541.87 197.94
-9755446.59 5135545.70 187.27
-9755442.18 5135545.66 186.40
-9755445.93 5135542.65 187.66
-9755443.36 5135540.91 196.75
-9755441.41 5135539.77 186.44
-9755444.56 5135543.08 186.87
-9755444.86 5135545.40 186.96
-9755446.16 5135541.95 196.61
-9755449.40 5135545.71 197.90
-9755450.00 5135545.74 197.91
-9755449.09 5135542.76 197.93
-9755444.99 5135545.22 196.13
-9755443.18 5135544.45 186.62
-9755449.60 5135540.67 197.91
-9755443.90 5135544.50 186.67
-9755446.33 5135544.78 187.26
-9755444.09 5135540.77 196.68
-9755441.70 5135545.06 186.21
-9755448.29 5135541.58 197.48
-9755442.25 5135543.93 186.42
-9755447.34 5135546.05 197.04
-9755444.64 5135543.11 196.66
-9755447.11 5135541.95 197.03
-9755444.62 5135542.27 187.48
-9755444.37 5135543.18 196.14
-9755441.61 5135540.37 186.45
-9755445.72 5135540.16 197.10
-9755447.47 5135545.00 197.48
-9755447.05 5135540.73 197.61
-9755449.45 5135541.61 197.93
-9755448.59 5135545.75 197.03
-9755443.78 5135540.96 186.87
-9755444.59 5135542.08 187.48
-9755444.95 5135542.84 196.13
-9755442.81 5135542.98 186.61
-9755445.19 5135545.94 186.97
-9755446.12 5135539.90 196.68
-9755449.65 5135543.08 198.37
-9755442.81 5135541.85 186.64
-9755445.34 5135543.91 187.06
-9755450.02 5135543.58 198.31
-9755444.15 5135542.24 196.13
-9755441.65 5135543.64 186.83
-9755447.33 5135545.72 197.03
-9755443.73 5135540.28 186.87
-9755442.55 5135540.60 186.65
-9755441.36 5135542.66 186.86
-9755442.84 5135540.98 186.67
-9755444.37 5135542.60 196.70
-9755445.78 5135543.89 187.07
-9755443.69 5135541.89 186.84
-9755449.67 5135542.51 198.60
-9755446.79 5135541.94 197.04
-9755442.86 5135542.74 186.64
-9755445.09 5135543.42 196.50
-9755445.29 5135543.43 196.14
-9755446.24 5135541.63 197.05
-9755447.74 5135541.92 197.47
-9755449.70 5135542.69 198.40
-9755443.16 5135540.95 186.67
-9755449.95 5135544.36 198.50
-9755445.22 5135541.76 187.11
-9755441.34 5135542.45 186.25
-9755449.43 5135541.03 198.58
-9755445.85 5135541.92 197.23
-9755448.82 5135541.66 197.49
-9755447.92 5135546.06 197.04
-9755447.72 5135539.84 197.48
-9755449.70 5135543.10 197.93
-9755447.32 5135540.86 197.02
-9755441.69 5135541.48 186.44
-9755444.75 5135546.41 196.71
-9755445.19 5135545.05 187.02
-9755449.09 5135540.09 197.90
-9755442.50 5135540.96 186.65
-9755447.31 5135544.62 197.04
-9755447.04 5135543.10 197.04
-9755447.07 5135542.53 197.04
-9755441.38 5135541.54 186.43
-9755446.65 5135544.79 187.28
-9755440.73 5135542.35 186.24
-9755440.78 5135540.90 186.25
-9755440.75 5135544.61 186.04
-9755440.50 5135543.59 186.52
-9755445.31 5135523.22 198.47
-9755444.50 5135524.38 197.48
-9755444.18 5135522.87 197.81
-9755443.01 5135523.85 197.03
-9755442.40 5135525.61 197.08
-9755445.07 5135525.59 197.49
-9755444.19 5135525.88 197.48
-9755441.53 5135525.48 187.08
-9755445.07 5135526.19 197.49
-9755441.74 5135525.85 187.11
-9755445.14 5135525.00 197.91
-9755443.71 5135524.48 197.05
-9755444.54 5135524.73 197.48
-9755442.16 5135525.38 196.58
-9755446.38 5135525.48 199.80
-9755441.23 5135525.21 187.07
-9755444.52 5135523.97 198.14
-9755444.33 5135524.19 198.11
-9755441.51 5135525.16 187.08
-9755443.90 5135525.00 197.47
-9755444.93 5135525.88 197.91
-9755443.64 5135524.44 197.59
-9755442.39 5135525.76 187.30
-9755441.44 5135524.88 187.10
-9755444.31 5135523.60 198.07
-9755442.16 5135524.50 196.58
-9755444.48 5135523.85 197.48
-9755441.98 5135526.07 187.09
-9755444.59 5135523.50 197.93
-9755442.11 5135525.11 187.73
-9755444.88 5135525.58 198.10
-9755441.17 5135524.62 187.09
-9755445.68 5135524.66 198.46
-9755442.08 5135524.26 187.32
-9755445.11 5135522.92 198.47
-9755443.35 5135524.32 197.63
-9755445.40 5135524.99 197.93
-9755441.31 5135524.98 196.59
-9755441.23 5135524.32 187.09
-9755445.65 5135524.35 198.46
-9755443.38 5135522.96 197.47
-9755445.98 5135525.44 199.73
-9755444.51 5135524.25 198.11
-9755442.10 5135525.36 187.28
-9755444.82 5135525.05 197.48
-9755442.34 5135524.90 187.32
-9755441.73 5135523.44 187.24
-9755441.88 5135524.14 196.58
-9755445.95 5135525.37 198.20
-9755445.39 5135523.17 197.94
-9755442.69 5135526.27 196.59
-9755440.86 5135525.80 186.90
-9755440.85 5135525.47 186.92
-9755440.88 5135523.74 187.09
-9755440.86 5135523.11 187.09
-9755440.65 5135524.18 196.11
-9755440.67 5135525.91 196.14
-9755440.97 5135523.63 196.15
-9755440.95 5135526.14 187.42
-9755440.84 5135524.98 187.00
-9755440.78 5135524.71 186.93
-9755440.74 5135523.51 196.36
-9755440.31 5135524.28 186.89
-9755446.39 5135526.49 198.66
-9755443.29 5135538.68 196.13
-9755442.51 5135535.74 196.49
-9755444.45 5135532.46 197.04
-9755442.05 5135526.30 196.15
-9755446.73 5135538.76 197.43
-9755444.10 5135534.49 187.13
-9755440.74 5135526.19 196.70
-9755444.70 5135537.64 187.25
-9755443.88 5135531.30 196.61
-9755447.05 5135535.15 196.29
-9755442.66 5135535.29 186.86
-9755445.79 5135528.58 197.91
-9755441.20 5135529.23 196.14
-9755441.96 5135537.70 186.72
-9755442.74 5135532.20 196.61
-9755449.08 5135538.98 197.94
-9755444.55 5135535.84 187.30
-9755441.20 5135532.66 186.66
-9755441.02 5135529.49 196.69
-9755444.73 5135529.47 197.05
-9755441.51 5135528.03 196.14
-9755448.59 5135538.33 197.93
-9755441.04 5135530.04 196.69
-9755442.38 5135530.42 196.15
-9755443.83 5135530.72 196.61
-9755445.91 5135535.77 196.24
-9755444.16 5135534.79 196.73
-9755444.07 5135537.70 187.10
-9755446.31 5135526.41 197.95
-9755443.86 5135532.00 187.30
-9755441.71 5135534.14 186.68
-9755442.62 5135526.63 187.29
-9755443.23 5135536.46 187.02
-9755442.65 5135530.90 187.12
-9755442.21 5135535.60 186.70
-9755442.08 5135532.79 196.17
-9755447.92 5135532.89 199.74
-9755443.53 5135534.22 196.50
-9755449.02 5135538.33 197.94
-9755446.46 5135531.01 197.55
-9755443.85 5135537.53 196.19
-9755441.42 5135531.45 186.85
-9755441.82 5135528.57 196.15
-9755446.51 5135535.44 196.26
-9755441.64 5135538.56 186.60
-9755445.92 5135531.79 197.49
-9755444.53 5135527.09 197.47
-9755441.36 5135537.42 186.60
-9755444.06 5135536.53 187.17
-9755444.45 5135529.19 197.05
-9755442.08 5135531.42 186.88
-9755449.17 5135534.38 196.36
-9755445.16 5135526.69 198.09
-9755446.22 5135534.54 197.55
-9755444.16 5135532.17 196.62
-9755442.28 5135538.25 186.70
-9755442.59 5135534.40 186.87
-9755447.42 5135536.33 196.30
-9755443.91 5135531.83 196.61
-9755442.05 5135534.73 186.83
-9755444.88 5135528.79 197.70
-9755445.42 5135527.65 197.49
-9755444.36 5135531.84 196.64
-9755442.96 5135536.04 196.19
-9755446.54 5135530.01 197.93
-9755445.36 5135531.89 197.07
-9755442.88 5135526.41 187.31
-9755442.38 5135529.67 187.11
-9755441.82 5135527.10 196.58
-9755442.00 5135531.58 196.71
-9755447.39 5135537.80 197.64
-9755442.91 5135532.86 187.08
-9755441.14 5135529.07 186.88
-9755446.50 5135538.09 197.30
-9755442.89 5135535.02 186.87
-9755448.54 5135537.66 197.94
-9755442.83 5135535.33 186.86
-9755447.97 5135536.36 196.31
-9755441.20 5135526.57 187.45
-9755443.80 5135530.39 196.60
-9755443.44 5135534.44 187.10
-9755441.74 5135529.15 186.87
-9755446.28 5135535.94 196.26
-9755447.13 5135533.90 197.94
-9755441.21 5135527.04 186.89
-9755442.97 5135532.54 196.17
-9755443.26 5135528.68 187.27
-9755444.59 5135538.21 187.11
-9755442.58 5135529.09 187.11
-9755446.26 5135529.13 197.92
-9755444.15 5135535.41 197.33
-9755446.52 5135529.19 197.93
-9755441.70 5135537.07 186.68
-9755445.69 5135528.30 198.14
-9755441.97 5135531.20 186.89
-9755447.12 5135536.89 196.27
-9755443.36 5135530.41 196.60
-9755446.66 5135532.47 197.91
-9755442.24 5135526.68 187.74
-9755448.60 5135538.65 197.91
-9755442.20 5135535.23 187.33
-9755442.67 5135530.08 196.64
-9755444.94 5135538.61 187.12
-9755445.01 5135527.12 198.00
-9755441.39 5135530.25 186.88
-9755447.05 5135537.46 196.30
-9755442.13 5135529.51 196.70
-9755444.08 5135531.05 196.61
-9755443.26 5135535.04 187.03
-9755449.06 5135538.39 198.64
-9755441.25 5135528.50 186.87
-9755444.00 5135535.60 187.10
-9755442.68 5135533.64 196.15
-9755441.75 5135528.76 186.89
-9755441.51 5135532.37 196.52
-9755442.42 5135526.52 196.58
-9755442.95 5135530.81 187.16
-9755442.06 5135526.96 187.09
-9755445.30 5135535.71 196.24
-9755446.01 5135528.57 197.91
-9755441.72 5135531.75 186.85
-9755445.72 5135527.07 197.92
-9755442.08 5135526.52 196.16
-9755447.33 5135538.65 197.48
-9755443.27 5135533.64 196.18
-9755443.75 5135529.19 196.66
-9755441.33 5135538.24 186.56
-9755444.03 5135537.36 187.11
-9755447.81 5135538.21 197.85
-9755448.56 5135535.80 196.33
-9755446.83 5135526.69 199.82
-9755442.52 5135533.49 186.86
-9755446.51 5135529.48 197.93
-9755442.11 5135530.11 196.15
-9755442.53 5135536.16 186.86
-9755444.18 5135538.96 196.25
-9755447.71 5135533.55 197.93
-9755442.81 5135538.54 186.76
-9755445.95 5135532.46 197.49
-9755442.08 5135527.81 187.09
-9755443.26 5135532.32 187.10
-9755441.97 5135535.53 187.28
-9755442.01 5135530.24 187.02
-9755443.77 5135533.54 187.10
-9755445.44 5135527.06 197.91
-9755441.36 5135531.97 186.68
-9755445.40 5135527.17 197.50
-9755442.99 5135532.76 196.16
-9755445.61 5135533.35 197.17
-9755447.17 5135533.02 197.95
-9755449.46 5135534.79 196.47
-9755443.25 5135535.91 187.55
-9755445.69 5135531.23 197.48
-9755442.06 5135527.59 187.09
-9755443.58 5135530.06 196.62
-9755444.42 5135528.36 197.03
-9755445.42 5135528.26 197.48
-9755442.94 5135533.40 196.15
-9755443.25 5135529.07 187.30
-9755445.01 5135530.14 197.02
-9755445.33 5135533.91 197.18
-9755447.43 5135533.58 198.43
-9755448.89 5135538.67 198.60
-9755447.94 5135532.76 198.49
-9755447.44 5135534.19 197.95
-9755447.38 5135533.30 197.94
-9755442.99 5135537.54 196.72
-9755447.43 5135532.75 198.48
-9755447.78 5135534.09 198.61
-9755446.57 5135530.34 197.93
-9755448.88 5135538.34 199.82
-9755444.54 5135527.45 197.45
-9755444.51 5135535.06 196.82
-9755445.68 5135528.67 197.48
-9755447.25 5135537.23 196.31
-9755445.10 5135532.45 197.06
-9755444.51 5135528.32 197.49
-9755446.21 5135531.81 198.01
-9755448.34 5135537.35 198.55
-9755441.49 5135531.01 196.16
-9755443.12 5135532.95 187.09
-9755442.63 5135530.99 196.16
-9755444.68 5135537.76 196.57
-9755442.91 5135537.37 186.89
-9755442.61 5135531.73 186.97
-9755442.05 5135532.37 196.70
-9755444.68 5135537.24 196.21
-9755448.12 5135537.18 198.62
-9755443.82 5135535.17 187.69
-9755442.01 5135532.61 186.87
-9755441.75 5135534.07 196.68
-9755442.15 5135534.20 196.73
-9755445.02 5135533.30 197.06
-9755443.16 5135532.77 196.17
-9755447.17 5135532.10 197.94
-9755442.92 5135536.99 196.21
-9755449.11 5135536.58 196.35
-9755445.50 5135526.82 197.91
-9755441.65 5135532.88 196.08
-9755443.29 5135529.48 196.61
-9755448.58 5135536.02 196.32
-9755443.41 5135538.29 186.89
-9755441.56 5135527.37 196.73
-9755445.61 5135527.87 197.89
-9755447.64 5135534.41 198.64
-9755446.52 5135537.19 196.26
-9755441.51 5135526.59 196.13
-9755442.53 5135533.23 186.88
-9755442.14 5135530.42 196.14
-9755441.30 5135527.73 196.73
-9755443.08 5135526.83 196.61
-9755445.66 5135537.53 196.99
-9755443.43 5135537.38 187.00
-9755445.66 5135532.78 197.10
-9755444.18 5135527.70 197.05
-9755442.35 5135532.77 196.70
-9755445.39 5135532.73 197.06
-9755445.23 5135537.35 187.31
-9755443.82 5135534.22 196.64
-9755442.10 5135528.18 187.08
-9755441.20 5135536.46 186.57
-9755445.42 5135528.60 197.48
-9755443.84 5135531.21 187.32
-9755448.85 5135536.88 198.62
-9755441.68 5135528.48 186.90
-9755444.77 5135533.65 197.04
-9755441.14 5135535.90 186.53
-9755442.93 5135536.20 186.89
-9755442.12 5135529.50 196.14
-9755445.39 5135531.53 197.47
-9755443.73 5135529.95 187.33
-9755441.41 5135533.25 186.66
-9755443.23 5135533.07 196.14
-9755443.04 5135531.20 196.17
-9755442.00 5135532.03 186.88
-9755442.93 5135533.48 187.02
-9755448.63 5135537.46 197.94
-9755445.97 5135529.68 197.51
-9755441.24 5135526.81 196.12
-9755444.06 5135534.77 187.10
-9755444.05 5135538.19 187.08
-9755444.45 5135533.05 196.64
-9755442.03 5135529.58 187.06
-9755446.25 5135538.63 197.07
-9755442.30 5135530.86 187.04
-9755442.58 5135537.09 186.83
-9755444.44 5135533.64 196.66
-9755449.44 5135535.75 196.37
-9755444.44 5135534.38 187.32
-9755441.31 5135530.78 196.15
-9755443.27 5135529.65 187.29
-9755446.80 5135537.73 197.48
-9755442.99 5135534.89 196.21
-9755445.34 5135531.24 197.47
-9755442.06 5135534.12 186.85
-9755446.32 5135538.36 197.20
-9755444.35 5135537.41 187.18
-9755444.71 5135536.48 187.28
-9755444.17 5135527.43 197.04
-9755447.49 5135534.53 198.61
-9755447.02 5135534.72 198.50
-9755441.25 5135530.39 196.15
-9755442.51 5135537.23 196.72
-9755441.11 5135536.16 186.49
-9755442.34 5135535.00 186.88
-9755443.50 5135530.23 187.32
-9755443.28 5135527.74 197.02
-9755445.23 5135535.69 187.33
-9755446.02 5135533.36 197.51
-9755441.40 5135530.87 186.87
-9755441.12 5135534.96 187.11
-9755440.82 5135528.47 186.87
-9755440.88 5135529.66 196.39
-9755440.73 5135528.22 196.70
-9755440.78 5135529.04 196.66
-9755441.24 5135527.42 196.14
-9755440.90 5135530.10 196.40
-9755441.12 5135532.36 186.66
-9755440.90 5135528.77 186.87
-9755440.72 5135535.33 186.46
-9755440.75 5135533.55 186.61
-9755440.80 5135527.52 186.87
-9755440.79 5135536.49 186.44
-9755440.52 5135537.36 186.43
-9755440.51 5135537.72 186.42
-9755440.47 5135540.94 186.24
-9755440.51 5135539.77 186.24
-9755430.13 5135539.17 184.38
-9755440.55 5135536.51 186.43
-9755438.96 5135539.26 186.39
-9755439.64 5135539.45 186.18
-9755429.01 5135538.58 184.17
-9755428.34 5135538.66 184.61
-9755438.73 5135539.45 186.00
-9755437.86 5135539.38 185.82
-9755428.15 5135539.47 184.02
-9755431.33 5135539.21 184.64
-9755434.57 5135539.19 185.23
-9755436.34 5135539.18 185.55
-9755440.42 5135538.87 186.29
-9755426.59 5135538.92 183.76
-9755426.02 5135538.61 183.72
-9755426.90 5135539.20 183.77
-9755426.05 5135539.48 183.61
-9755440.45 5135543.93 186.02
-9755427.67 5135545.99 184.19
-9755439.97 5135543.63 186.60
-9755436.33 5135542.75 185.37
-9755434.26 5135546.07 184.85
-9755431.83 5135545.14 184.94
-9755429.35 5135539.47 184.87
-9755439.97 5135544.19 186.00
-9755431.31 5135542.45 184.87
-9755435.75 5135543.00 185.23
-9755430.43 5135544.23 184.18
-9755428.37 5135545.76 183.74
-9755440.07 5135541.73 186.63
-9755435.81 5135539.75 185.42
-9755427.79 5135543.05 184.38
-9755439.88 5135543.88 185.99
-9755428.47 5135543.81 184.41
-9755435.18 5135540.67 185.18
-9755428.36 5135546.00 183.74
-9755438.14 5135539.72 185.80
-9755429.28 5135542.43 184.74
-9755429.77 5135545.78 184.39
-9755434.88 5135543.06 185.14
-9755432.52 5135543.63 184.58
-9755436.05 5135541.85 185.36
-9755435.50 5135541.54 185.20
-9755432.77 5135545.95 184.56
-9755438.42 5135546.00 185.67
-9755438.09 5135544.74 185.56
-9755428.39 5135540.38 184.06
-9755436.78 5135542.46 185.49
-9755430.83 5135544.47 184.80
-9755431.56 5135544.49 184.90
-9755439.89 5135542.42 186.01
-9755432.46 5135544.85 184.55
-9755429.83 5135542.96 184.81
-9755432.20 5135539.76 184.77
-9755437.29 5135545.13 186.01
-9755432.24 5135542.39 184.57
-9755438.43 5135544.40 186.24
-9755438.50 5135545.08 186.21
-9755428.88 5135545.91 184.47
-9755436.95 5135546.00 185.35
-9755429.87 5135539.77 184.37
-9755427.80 5135544.21 183.77
-9755428.90 5135542.45 183.96
-9755435.27 5135539.93 185.70
-9755438.11 5135542.34 186.24
-9755431.06 5135541.54 184.50
-9755428.08 5135540.36 184.02
-9755433.94 5135542.48 184.95
-9755429.31 5135540.41 184.26
-9755434.25 5135540.99 185.06
-9755439.66 5135541.24 186.02
-9755431.03 5135543.62 184.35
-9755438.42 5135540.62 185.80
-9755428.32 5135544.83 183.78
-9755434.60 5135541.03 185.68
-9755432.59 5135542.56 185.18
-9755430.93 5135545.65 184.88
-9755429.29 5135543.03 184.14
-9755437.91 5135542.94 185.66
-9755437.19 5135539.72 185.63
-9755434.27 5135541.50 185.53
-9755435.70 5135545.07 185.14
-9755429.23 5135540.94 184.19
-9755435.48 5135541.85 185.78
-9755428.06 5135545.11 183.76
-9755436.33 5135541.23 185.38
-9755432.50 5135539.47 184.85
-9755439.92 5135541.20 186.11
-9755437.54 5135541.53 185.60
-9755435.13 5135546.00 184.98
-9755432.50 5135540.65 184.76
-9755437.56 5135540.09 186.32
-9755431.88 5135543.89 184.54
-9755431.25 5135543.95 184.36
-9755437.74 5135542.52 186.21
-9755436.56 5135546.01 185.34
-9755436.07 5135545.04 185.76
-9755428.13 5135543.01 183.94
-9755435.56 5135542.69 185.18
-9755429.28 5135544.75 184.55
-9755430.32 5135541.64 184.71
-9755438.09 5135543.89 185.59
-9755439.59 5135545.67 185.86
-9755431.01 5135544.80 184.35
-9755434.55 5135544.82 184.93
-9755428.15 5135543.91 184.34
-9755433.86 5135545.39 185.30
-9755439.58 5135542.13 186.00
-9755440.18 5135544.78 186.00
-9755435.46 5135543.91 185.63
-9755433.73 5135540.97 184.96
-9755427.79 5135540.09 183.97
-9755438.10 5135544.51 185.56
-9755428.28 5135543.62 184.25
-9755429.74 5135545.16 184.58
-9755432.23 5135543.59 184.54
-9755437.52 5135542.73 185.57
-9755432.51 5135541.62 185.32
-9755432.50 5135544.49 184.56
-9755434.85 5135543.29 185.13
-9755428.47 5135541.59 184.54
-9755432.14 5135542.70 184.54
-9755430.41 5135545.08 184.16
-9755438.29 5135544.26 185.61
-9755433.14 5135541.99 185.22
-9755438.07 5135543.67 185.59
-9755430.09 5135539.77 184.40
-9755431.64 5135540.71 184.60
-9755438.40 5135543.32 185.79
-9755433.38 5135542.39 184.79
-9755428.43 5135542.70 184.59
-9755427.73 5135545.16 183.75
-9755435.68 5135540.49 185.73
-9755430.47 5135543.99 184.72
-9755435.46 5135544.25 185.14
-9755439.88 5135542.40 186.64
-9755433.97 5135544.76 185.37
-9755434.25 5135543.93 184.94
-9755434.62 5135541.97 185.58
-9755435.35 5135540.18 185.79
-9755428.29 5135544.27 184.40
-9755440.18 5135544.20 186.60
-9755429.26 5135542.45 184.15
-9755437.17 5135542.09 186.18
-9755439.03 5135544.75 185.79
-9755434.84 5135545.62 185.57
-9755433.67 5135543.27 185.39
-9755438.93 5135544.92 186.30
-9755433.11 5135540.36 184.92
-9755439.02 5135540.33 186.01
-9755435.42 5135541.91 185.17
-9755438.12 5135540.33 185.79
-9755433.70 5135544.10 185.30
-9755433.15 5135545.27 185.15
-9755428.92 5135544.80 183.94
-9755428.61 5135543.09 184.43
-9755436.03 5135540.95 185.36
-9755435.77 5135541.29 185.36
-9755428.48 5135541.81 184.54
-9755429.28 5135541.86 184.16
-9755437.18 5135543.70 185.58
-9755430.79 5135539.78 184.52
-9755429.49 5135544.53 184.13
-9755439.24 5135544.24 185.80
-9755435.16 5135542.68 185.15
-9755429.21 5135545.43 183.95
-9755427.80 5135543.95 183.76
-9755432.50 5135543.02 184.72
-9755428.07 5135545.96 183.75
-9755429.87 5135540.87 184.87
-9755439.35 5135543.99 185.90
-9755438.76 5135541.20 186.12
-9755436.64 5135544.20 185.36
-9755436.33 5135541.55 185.37
-9755433.09 5135540.66 185.46
-9755433.43 5135540.31 184.97
-9755435.16 5135545.08 185.54
-9755430.65 5135542.63 184.84
-9755433.69 5135541.56 184.96
-9755428.11 5135544.51 184.38
-9755439.56 5135539.76 186.05
-9755437.52 5135545.97 185.50
-9755433.10 5135541.25 184.80
-9755433.16 5135545.97 185.10
-9755428.10 5135540.95 183.99
-9755429.13 5135541.91 184.57
-9755430.44 5135540.72 184.41
-9755439.33 5135543.36 186.50
-9755438.59 5135542.29 186.33
-9755428.92 5135541.25 184.15
-9755430.16 5135539.52 184.41
-9755434.27 5135545.96 185.42
-9755434.62 5135543.01 185.00
-9755431.94 5135540.65 184.70
-9755435.47 5135542.42 185.18
-9755438.28 5135542.59 186.25
-9755433.88 5135542.82 185.40
-9755426.30 5135540.95 183.69
-9755426.91 5135545.15 183.57
-9755425.99 5135544.63 183.38
-9755425.72 5135544.22 183.38
-9755425.69 5135544.82 183.38
-9755426.64 5135544.82 183.57
-9755426.89 5135545.73 184.13
-9755427.45 5135543.95 183.76
-9755426.83 5135545.41 183.57
-9755426.62 5135542.68 183.58
-9755425.78 5135543.07 183.56
-9755427.23 5135540.96 183.85
-9755425.78 5135544.29 183.97
-9755426.53 5135545.62 184.05
-9755427.49 5135545.06 184.10
-9755425.81 5135543.98 183.97
-9755425.79 5135540.97 183.60
-9755426.30 5135545.10 183.52
-9755426.43 5135545.40 184.15
-9755427.20 5135539.74 183.86
-9755426.93 5135544.51 183.58
-9755425.66 5135542.72 183.49
-9755427.22 5135541.85 183.77
-9755426.44 5135544.50 184.17
-9755427.23 5135543.10 184.34
-9755422.19 5135539.16 182.98
-9755417.79 5135539.20 183.08
-9755420.37 5135538.96 182.71
-9755417.75 5135546.07 180.43
-9755414.46 5135538.98 180.42
-9755416.56 5135539.16 183.09
-9755424.83 5135539.47 183.40
-9755419.54 5135538.64 182.61
-9755422.23 5135539.00 183.39
-9755419.29 5135538.82 182.60
-9755421.05 5135538.93 182.80
-9755416.92 5135538.63 183.08
-9755419.78 5135539.13 183.19
-9755418.07 5135539.26 183.08
-9755418.95 5135539.15 182.42
-9755420.50 5135539.45 183.28
-9755421.88 5135538.63 182.98
-9755416.90 5135538.93 183.08
-9755421.94 5135538.93 182.99
-9755416.59 5135539.42 183.10
-9755412.34 5135539.07 182.31
-9755412.43 5135538.91 181.26
-9755412.08 5135538.71 182.30
-9755413.02 5135538.62 181.01
-9755418.60 5135539.23 182.41
-9755421.95 5135539.25 182.98
-9755418.94 5135539.52 182.41
-9755422.83 5135539.57 183.53
-9755423.98 5135541.57 183.27
-9755425.09 5135544.31 183.70
-9755421.57 5135539.51 182.84
-9755421.88 5135542.46 182.86
-9755418.28 5135545.71 183.09
-9755417.42 5135543.45 180.43
-9755421.02 5135541.23 183.23
-9755416.58 5135544.41 180.40
-9755414.47 5135543.69 181.41
-9755414.90 5135542.57 180.47
-9755425.13 5135545.14 183.31
-9755417.47 5135539.74 183.09
-9755421.35 5135543.96 182.63
-9755414.84 5135545.71 181.96
-9755420.99 5135543.99 182.62
-9755420.39 5135543.97 182.47
-9755415.91 5135545.47 180.39
-9755421.63 5135540.69 182.82
-9755421.21 5135543.66 182.63
-9755418.92 5135544.23 183.07
-9755421.58 5135545.49 183.19
-9755418.66 5135542.48 183.08
-9755423.93 5135542.80 183.18
-9755415.12 5135542.26 180.41
-9755418.29 5135540.68 183.08
-9755421.50 5135544.05 183.22
-9755421.83 5135540.68 182.87
-9755419.42 5135540.18 182.47
-9755416.00 5135540.15 180.42
-9755419.76 5135542.78 182.53
-9755416.56 5135540.21 180.44
-9755422.49 5135542.74 182.97
-9755414.72 5135541.08 180.40
-9755415.90 5135541.71 180.41
-9755424.76 5135539.40 183.96
-9755415.96 5135541.37 180.41
-9755414.67 5135545.10 181.68
-9755418.63 5135543.31 183.08
-9755419.84 5135539.77 182.62
-9755418.30 5135543.01 183.08
-9755414.46 5135544.88 180.99
-9755421.60 5135540.53 183.34
-9755417.13 5135541.84 183.09
-9755416.33 5135540.80 180.40
-9755416.48 5135539.30 180.43
-9755415.96 5135540.10 183.08
-9755425.43 5135543.34 183.37
-9755423.58 5135544.85 182.99
-9755419.22 5135541.27 182.43
-9755417.48 5135540.66 183.10
-9755422.75 5135540.70 183.00
-9755423.64 5135539.81 183.19
-9755421.60 5135544.28 182.73
-9755425.09 5135544.13 183.93
-9755417.76 5135544.83 183.09
-9755422.42 5135545.70 182.79
-9755419.48 5135545.11 182.43
-9755415.72 5135540.14 180.42
-9755416.55 5135539.99 180.43
-9755424.84 5135540.66 183.44
-9755419.81 5135541.87 182.54
-9755420.90 5135543.33 183.24
-9755417.44 5135545.07 183.09
-9755416.59 5135540.67 183.09
-9755420.09 5135540.63 182.61
-9755417.09 5135545.79 180.42
-9755419.85 5135543.68 182.44
-9755421.80 5135544.94 183.20
-9755415.39 5135541.05 180.41
-9755416.24 5135544.95 180.41
-9755421.29 5135545.10 182.63
-9755420.41 5135542.43 182.64
-9755420.71 5135540.68 182.64
-9755425.16 5135544.79 183.35
-9755425.41 5135545.64 183.78
-9755425.13 5135543.00 183.37
-9755425.16 5135540.13 183.53
-9755423.95 5135543.32 183.17
-9755425.07 5135543.36 183.37
-9755418.34 5135542.44 183.08
-9755420.95 5135544.59 182.62
-9755414.49 5135543.95 181.42
-9755425.14 5135544.56 183.36
-9755425.14 5135541.27 183.47
-9755421.57 5135541.91 182.83
-9755418.31 5135540.15 183.08
-9755417.10 5135540.92 180.53
-9755424.85 5135545.62 183.75
-9755422.21 5135541.86 182.95
-9755417.74 5135542.72 183.09
-9755422.18 5135543.91 182.81
-9755422.02 5135540.65 182.98
-9755425.69 5135539.79 183.58
-9755417.43 5135542.74 183.09
-9755420.36 5135545.16 182.42
-9755420.39 5135542.78 182.63
-9755417.31 5135542.10 180.48
-9755421.59 5135541.31 182.84
-9755421.89 5135541.88 182.88
-9755424.29 5135541.56 183.30
-9755421.90 5135545.14 182.76
-9755420.49 5135540.42 182.63
-9755424.60 5135544.52 183.61
-9755415.64 5135543.20 180.41
-9755425.06 5135540.60 184.06
-9755422.07 5135545.13 183.44
-9755425.14 5135542.41 183.37
-9755421.84 5135544.51 182.76
-9755414.82 5135542.71 181.31
-9755421.29 5135544.85 182.63
-9755423.94 5135545.96 183.43
-9755416.58 5135541.27 183.09
-9755420.10 5135541.90 182.59
-9755417.10 5135543.39 180.41
-9755424.00 5135541.02 183.29
-9755420.96 5135544.30 182.63
-9755413.25 5135539.53 181.64
-9755413.58 5135544.75 181.67
-9755412.43 5135539.81 182.31
-9755413.89 5135542.12 181.67
-9755413.94 5135541.53 181.67
-9755413.32 5135540.75 181.16
-9755413.25 5135544.92 181.73
-9755411.56 5135540.10 181.35
-9755413.60 5135544.21 181.34
-9755414.23 5135540.98 182.05
-9755412.47 5135540.93 182.30
-9755414.07 5135544.32 181.31
-9755413.50 5135540.51 181.68
-9755412.48 5135543.36 181.35
-9755412.43 5135545.17 181.34
-9755411.21 5135544.28 181.38
-9755413.23 5135543.88 182.33
-9755414.19 5135541.36 180.72
-9755411.83 5135540.42 181.35
-9755412.42 5135542.47 181.34
-9755413.00 5135544.70 181.77
-9755412.17 5135540.05 182.30
-9755412.45 5135541.03 181.36
-9755412.72 5135543.09 181.36
-9755413.27 5135543.66 181.37
-9755413.03 5135541.62 181.34
-9755412.44 5135540.42 181.83
-9755412.43 5135545.43 181.34
-9755413.33 5135540.27 181.08
-9755413.90 5135539.31 180.69
-9755413.53 5135540.11 181.75
-9755413.95 5135540.08 182.03
-9755435.83 5135524.65 186.01
-9755437.66 5135523.43 186.47
-9755438.60 5135524.64 186.61
-9755428.77 5135525.26 184.75
-9755436.40 5135525.81 186.03
-9755438.18 5135524.32 186.45
-9755432.67 5135524.94 185.41
-9755437.89 5135522.85 186.57
-9755434.97 5135525.79 186.31
-9755433.53 5135522.86 185.71
-9755437.61 5135525.49 186.40
-9755432.31 5135525.87 185.35
-9755435.78 5135523.80 186.12
-9755439.90 5135525.20 196.64
-9755440.30 5135527.03 186.82
-9755430.88 5135525.88 185.09
-9755438.26 5135525.54 186.43
-9755430.22 5135524.08 185.04
-9755437.64 5135522.82 186.53
-9755435.60 5135524.89 186.02
-9755439.34 5135522.81 186.87
-9755434.87 5135525.31 186.32
-9755433.51 5135524.66 185.59
-9755432.88 5135525.19 185.39
-9755433.18 5135525.82 186.01
-9755440.00 5135525.93 196.63
-9755436.22 5135523.42 186.22
-9755435.97 5135525.11 186.61
-9755433.99 5135525.56 185.60
-9755436.78 5135522.85 186.36
-9755440.33 5135525.39 196.71
-9755438.58 5135523.79 186.63
-9755428.14 5135524.04 184.68
-9755434.64 5135525.87 185.76
-9755440.27 5135526.12 186.83
-9755439.71 5135524.07 186.86
-9755430.27 5135525.26 184.97
-9755434.71 5135524.35 185.81
-9755437.29 5135523.75 186.42
-9755431.48 5135524.36 185.26
-9755432.65 5135522.80 185.56
-9755434.66 5135523.45 185.95
-9755439.53 5135523.54 196.71
-9755428.21 5135524.90 184.65
-9755439.74 5135525.31 186.77
-9755438.67 5135524.82 187.24
-9755434.70 5135524.52 186.22
-9755427.89 5135525.31 184.56
-9755435.91 5135522.85 186.21
-9755428.16 5135525.85 184.58
-9755437.02 5135526.12 186.21
-9755436.42 5135526.42 186.00
-9755438.00 5135525.18 186.44
-9755434.40 5135523.45 185.88
-9755429.36 5135523.46 184.94
-9755437.39 5135524.99 186.24
-9755431.74 5135524.31 185.32
-9755430.27 5135523.44 185.06
-9755440.31 5135525.33 196.13
-9755431.49 5135522.94 185.83
-9755431.43 5135523.79 185.29
-9755436.72 5135524.89 186.22
-9755434.79 5135525.86 186.31
-9755435.73 5135525.73 186.66
-9755432.29 5135524.63 185.38
-9755437.29 5135525.24 186.77
-9755432.06 5135523.75 185.42
-9755440.28 5135523.44 186.90
-9755429.96 5135523.18 184.95
-9755428.18 5135525.51 184.62
-9755432.13 5135526.23 185.80
-9755438.79 5135523.43 186.64
-9755439.10 5135525.48 186.65
-9755439.97 5135524.90 186.87
-9755428.09 5135526.35 184.99
-9755428.77 5135523.35 185.17
-9755440.38 5135524.15 196.11
-9755433.81 5135523.46 185.77
-9755438.23 5135523.94 187.04
-9755427.90 5135524.63 184.58
-9755435.89 5135524.92 186.01
-9755437.95 5135523.70 186.46
-9755432.31 5135523.76 185.47
-9755435.60 5135524.03 186.01
-9755431.44 5135525.51 185.14
-9755436.59 5135526.20 186.04
-9755439.90 5135523.28 196.15
-9755439.31 5135522.84 196.73
-9755433.80 5135523.73 185.75
-9755439.49 5135523.44 196.20
-9755432.91 5135525.85 185.38
-9755437.96 5135524.33 186.44
-9755427.62 5135523.76 184.54
-9755427.61 5135524.32 184.55
-9755427.65 5135523.62 185.13
-9755427.58 5135523.47 184.54
-9755426.75 5135524.06 184.37
-9755427.59 5135525.22 184.53
-9755426.66 5135525.87 184.34
-9755427.31 5135523.94 185.08
-9755427.30 5135524.93 184.51
-9755425.64 5135523.21 184.21
-9755426.44 5135524.34 184.35
-9755425.82 5135524.67 184.23
-9755428.47 5135526.17 184.58
-9755437.29 5135526.65 186.22
-9755440.52 5135534.97 186.45
-9755433.28 5135526.41 185.95
-9755440.23 5135531.71 186.61
-9755433.06 5135529.49 185.69
-9755437.28 5135528.68 186.65
-9755440.57 5135535.90 186.43
-9755439.10 5135528.45 186.45
-9755438.81 5135534.91 186.63
-9755432.56 5135529.69 185.12
-9755440.44 5135533.86 186.44
-9755430.45 5135536.52 184.54
-9755427.92 5135537.63 184.08
-9755435.86 5135538.11 185.97
-9755432.90 5135534.17 185.13
-9755439.61 5135529.45 186.44
-9755439.57 5135538.54 186.22
-9755435.05 5135533.16 186.01
-9755432.46 5135528.03 185.15
-9755435.82 5135533.48 185.60
-9755439.06 5135529.61 186.41
-9755430.31 5135536.29 185.01
-9755437.36 5135527.99 186.82
-9755438.46 5135536.52 186.03
-9755433.11 5135529.13 185.75
-9755439.72 5135531.10 186.54
-9755437.53 5135532.96 186.00
-9755436.53 5135527.27 186.61
-9755429.19 5135535.46 184.80
-9755427.52 5135537.69 183.95
-9755440.58 5135530.87 186.71
-9755429.32 5135538.59 184.72
-9755431.07 5135526.69 185.04
-9755430.57 5135534.42 184.60
-9755440.48 5135533.21 186.93
-9755437.04 5135528.49 186.04
-9755432.34 5135529.09 185.65
-9755434.98 5135526.09 186.37
-9755440.50 5135535.25 186.45
-9755432.68 5135530.03 185.70
-9755439.66 5135529.94 186.56
-9755435.51 5135528.78 185.78
-9755439.71 5135533.85 186.38
-9755433.08 5135537.71 184.94
-9755436.73 5135537.64 185.68
-9755433.24 5135531.14 185.22
-9755439.92 5135529.21 186.55
-9755434.26 5135534.04 185.82
-9755429.06 5135531.77 184.47
-9755430.86 5135527.09 184.95
-9755430.85 5135535.67 185.21
-9755427.92 5135527.04 185.01
-9755437.23 5135538.25 185.78
-9755438.43 5135536.20 186.02
-9755434.86 5135528.77 185.59
-9755428.48 5135535.00 184.20
-9755430.81 5135529.40 184.92
-9755428.02 5135538.31 183.98
-9755435.81 5135532.88 185.70
-9755435.56 5135532.66 185.62
-9755434.86 5135536.23 185.36
-9755428.41 5135534.44 184.27
-9755433.18 5135529.63 185.33
-9755429.71 5135535.99 184.87
-9755433.13 5135531.18 185.15
-9755428.45 5135534.57 184.79
-9755430.93 5135526.54 185.51
-9755438.21 5135530.87 186.22
-9755428.14 5135530.27 184.92
-9755438.78 5135529.03 186.44
-9755433.47 5135533.19 185.17
-9755435.49 5135536.73 185.39
-9755436.58 5135528.49 186.51
-9755431.72 5135527.04 185.12
-9755433.09 5135535.39 185.07
-9755430.81 5135534.39 185.19
-9755430.79 5135529.98 184.91
-9755439.06 5135526.71 186.52
-9755438.48 5135527.85 186.41
-9755429.31 5135536.88 184.36
-9755434.63 5135536.79 185.34
-9755438.49 5135531.78 186.25
-9755433.18 5135531.10 185.73
-9755436.72 5135527.94 186.00
-9755432.53 5135534.47 184.95
-9755431.68 5135534.44 184.77
-9755437.81 5135533.51 186.02
-9755438.62 5135535.36 186.03
-9755428.16 5135534.13 184.25
-9755436.75 5135527.62 185.99
-9755434.89 5135534.42 185.37
-9755438.41 5135535.88 186.01
-9755439.90 5135526.63 186.69
-9755438.15 5135532.33 186.15
-9755437.37 5135532.32 186.39
-9755429.55 5135534.72 184.90
-9755433.26 5135535.36 185.61
-9755434.31 5135537.80 185.67
-9755435.30 5135526.12 185.82
-9755431.12 5135530.26 184.91
-9755437.54 5135537.39 185.81
-9755432.85 5135530.83 185.58
-9755428.21 5135535.60 184.15
-9755430.90 5135535.93 184.69
-9755428.33 5135529.38 184.35
-9755440.53 5135536.18 186.42
-9755433.76 5135527.60 185.94
-9755431.03 5135537.68 184.55
-9755434.92 5135535.59 185.35
-9755430.49 5135535.98 184.55
-9755434.36 5135533.57 185.35
-9755431.95 5135537.36 184.75
-9755433.20 5135528.79 185.34
-9755437.86 5135534.43 186.00
-9755436.43 5135532.35 185.80
-9755435.84 5135530.49 185.78
-9755439.70 5135527.27 186.65
-9755438.20 5135532.89 186.10
-9755429.06 5135526.77 184.74
-9755433.73 5135534.10 185.15
-9755437.27 5135535.59 185.78
-9755439.08 5135532.95 186.23
-9755429.83 5135536.19 184.40
-9755440.55 5135529.92 186.72
-9755429.93 5135529.13 184.74
-9755429.53 5135536.81 185.01
-9755428.48 5135528.90 184.95
-9755440.54 5135533.21 186.58
-9755427.80 5135527.34 184.92
-9755429.31 5135533.25 184.48
-9755434.61 5135536.55 185.35
-9755438.49 5135534.13 186.18
-9755433.16 5135534.43 185.74
-9755428.76 5135530.88 184.46
-9755434.64 5135534.12 185.34
-9755432.25 5135536.53 185.45
-9755428.88 5135536.70 184.73
-9755427.85 5135535.97 184.57
-9755429.65 5135532.09 184.55
-9755439.01 5135536.97 186.54
-9755438.53 5135529.37 186.32
-9755433.96 5135536.18 185.15
-9755435.98 5135537.39 186.13
-9755431.39 5135537.47 185.35
-9755438.16 5135527.58 186.39
-9755434.63 5135534.44 185.35
-9755433.49 5135527.57 185.39
-9755428.77 5135530.27 184.98
-9755438.20 5135533.27 186.07
-9755428.46 5135527.05 184.53
-9755434.23 5135537.29 185.69
-9755438.96 5135537.31 186.61
-9755434.01 5135537.10 185.14
-9755438.78 5135529.65 186.39
-9755436.45 5135529.97 185.97
-9755431.02 5135536.84 184.57
-9755431.69 5135532.64 184.92
-9755428.07 5135533.24 184.28
-9755436.00 5135536.79 185.59
-9755436.41 5135537.36 186.19
-9755436.73 5135530.86 185.96
-9755439.96 5135533.83 186.42
-9755437.77 5135537.38 185.84
-9755435.24 5135528.74 185.78
-9755439.84 5135536.54 186.24
-9755433.42 5135532.35 185.24
-9755429.27 5135538.05 184.81
-9755428.39 5135538.28 184.60
-9755433.50 5135527.94 185.38
-9755432.85 5135530.28 185.12
-9755436.89 5135535.95 186.21
-9755429.87 5135538.56 184.36
-9755437.51 5135537.72 185.82
-9755437.59 5135532.95 186.58
-9755428.15 5135529.69 184.33
-9755432.55 5135537.99 184.90
-9755427.85 5135537.44 184.03
-9755433.24 5135534.11 185.77
-9755429.63 5135527.61 184.74
-9755429.17 5135527.08 185.26
-9755436.38 5135528.76 185.99
-9755430.94 5135528.48 185.54
-9755427.86 5135534.43 184.15
-9755429.00 5135527.98 184.56
-9755435.20 5135537.94 185.84
-9755435.84 5135527.57 185.97
-9755439.05 5135530.23 186.41
-9755439.94 5135536.22 186.25
-9755428.96 5135532.52 184.94
-9755432.57 5135526.79 185.34
-9755433.53 5135537.71 185.59
-9755434.38 5135530.88 185.52
-9755438.71 5135531.47 186.31
-9755431.67 5135536.23 184.75
-9755439.68 5135532.93 186.39
-9755437.28 5135529.47 186.03
-9755430.53 5135529.11 184.79
-9755434.37 5135527.57 185.58
-9755432.55 5135528.19 185.71
-9755433.23 5135526.97 185.36
-9755436.64 5135535.29 186.22
-9755432.83 5135535.95 184.93
-9755435.19 5135533.50 185.56
-9755433.41 5135528.78 185.34
-9755439.09 5135527.81 186.46
-9755429.27 5135535.30 184.33
-9755434.05 5135532.67 185.36
-9755432.63 5135538.31 184.93
-9755435.85 5135530.88 185.77
-9755438.78 5135526.48 186.45
-9755431.90 5135538.30 184.74
-9755439.18 5135535.09 186.71
-9755429.33 5135528.84 185.10
-9755438.47 5135535.03 186.02
-9755440.58 5135528.08 186.80
-9755429.30 5135528.57 184.58
-9755434.63 5135529.64 185.96
-9755436.35 5135533.75 186.25
-9755433.75 5135531.18 185.35
-9755439.07 5135538.28 186.14
-9755431.91 5135531.75 184.97
-9755435.85 5135530.30 186.33
-9755439.93 5135534.06 186.43
-9755432.59 5135533.25 185.08
-9755437.28 5135532.89 186.00
-9755432.02 5135530.65 184.98
-9755434.27 5135535.60 185.31
-9755432.26 5135530.74 185.67
-9755438.81 5135529.04 186.94
-9755428.09 5135536.55 184.15
-9755437.93 5135531.42 185.96
-9755432.24 5135538.26 184.75
-9755428.16 5135528.79 184.46
-9755429.02 5135533.82 184.40
-9755436.37 5135534.99 185.77
-9755435.70 5135537.34 185.43
-9755439.05 5135532.61 186.22
-9755440.22 5135534.95 186.43
-9755437.29 5135534.59 186.34
-9755432.27 5135534.41 184.92
-9755438.83 5135527.00 186.44
-9755434.69 5135532.36 185.52
-9755428.17 5135531.18 184.32
-9755435.63 5135532.81 186.20
-9755428.72 5135531.91 184.92
-9755434.07 5135535.27 185.70
-9755439.98 5135534.39 186.43
-9755435.35 5135528.45 186.21
-9755431.93 5135535.36 184.79
-9755430.56 5135528.49 185.46
-9755439.11 5135534.09 186.23
-9755439.89 5135532.66 186.43
-9755429.33 5135534.72 184.36
-9755433.95 5135530.33 185.89
-9755428.20 5135534.40 184.79
-9755431.74 5135529.99 184.93
-9755438.77 5135532.32 186.23
-9755438.56 5135526.71 186.43
-9755437.62 5135535.03 185.99
-9755430.10 5135530.64 185.34
-9755432.13 5135528.49 185.62
-9755436.68 5135530.28 185.98
-9755439.63 5135535.58 186.21
-9755434.34 5135527.89 185.57
-9755428.48 5135529.61 184.99
-9755440.28 5135529.32 186.64
-9755428.17 5135529.07 184.35
-9755432.30 5135527.84 185.77
-9755436.87 5135537.55 186.17
-9755435.54 5135529.98 185.78
-9755436.44 5135526.71 186.01
-9755435.51 5135531.73 185.70
-9755430.23 5135535.32 184.54
-9755439.08 5135532.90 186.79
-9755432.56 5135532.63 185.10
-9755429.32 5135529.09 184.55
-9755431.79 5135528.55 185.12
-9755438.56 5135528.58 186.72
-9755431.30 5135536.19 185.10
-9755439.48 5135527.55 186.64
-9755440.18 5135536.74 186.37
-9755429.63 5135528.49 184.74
-9755440.21 5135531.11 186.61
-9755434.16 5135530.85 185.41
-9755430.45 5135538.26 184.54
-9755436.53 5135529.72 186.36
-9755434.10 5135529.96 185.43
-9755435.58 5135529.07 185.77
-9755432.68 5135536.10 185.58
-9755432.03 5135531.15 184.96
-9755438.97 5135538.55 186.11
-9755431.94 5135536.84 184.75
-9755435.81 5135533.26 185.61
-9755431.51 5135535.66 185.12
-9755432.24 5135530.28 185.67
-9755428.22 5135526.39 184.53
-9755434.68 5135527.88 186.16
-9755435.48 5135536.28 185.41
-9755434.04 5135532.34 185.37
-9755434.93 5135534.09 185.91
-9755431.34 5135528.19 184.98
-9755439.02 5135533.23 186.24
-9755434.99 5135527.95 185.77
-9755428.39 5135529.88 184.92
-9755429.33 5135529.64 184.55
-9755435.44 5135530.59 185.71
-9755434.98 5135526.67 185.78
-9755434.87 5135535.31 185.36
-9755430.16 5135537.99 184.40
-9755435.14 5135534.94 185.41
-9755439.69 5135530.54 186.53
-9755437.90 5135528.44 186.20
-9755437.20 5135527.63 186.62
-9755434.40 5135533.24 185.82
-9755436.86 5135532.46 185.88
-9755438.80 5135527.31 186.43
-9755435.25 5135535.27 185.53
-9755438.14 5135537.44 186.00
-9755435.40 5135537.68 185.37
-9755434.66 5135533.23 185.36
-9755440.20 5135538.26 186.33
-9755439.08 5135533.53 186.25
-9755431.66 5135532.07 184.93
-9755435.87 5135527.89 185.96
-9755429.87 5135535.61 184.53
-9755435.48 5135537.14 185.38
-9755435.41 5135538.58 185.42
-9755434.70 5135526.40 185.77
-9755432.82 5135535.35 184.95
-9755430.17 5135533.79 184.59
-9755434.71 5135527.02 185.76
-9755430.83 5135526.70 184.95
-9755435.80 5135529.05 185.78
-9755431.40 5135534.73 184.73
-9755429.37 5135531.17 184.53
-9755439.61 5135537.67 186.24
-9755432.16 5135536.56 185.36
-9755434.64 5135532.08 185.52
-9755435.84 5135532.67 186.22
-9755440.25 5135534.34 187.10
-9755432.63 5135533.57 185.07
-9755433.47 5135530.28 185.32
-9755427.55 5135530.63 184.27
-9755439.62 5135533.80 186.85
-9755426.97 5135530.28 184.12
-9755427.26 5135531.77 184.14
-9755427.33 5135527.92 184.81
-9755427.08 5135538.48 184.56
-9755426.34 5135538.36 183.76
-9755427.03 5135527.58 184.32
-9755427.21 5135536.54 183.95
-9755425.49 5135537.71 183.57
-9755426.82 5135537.72 183.87
-9755426.87 5135537.49 183.86
-9755426.77 5135526.75 184.33
-9755427.60 5135529.64 184.35
-9755427.56 5135532.06 184.12
-9755426.94 5135535.92 183.95
-9755427.29 5135527.61 184.33
-9755426.57 5135532.42 183.93
-9755427.36 5135526.45 184.36
-9755425.80 5135532.37 183.87
-9755426.89 5135535.96 184.35
-9755426.03 5135536.54 183.74
-9755427.54 5135534.15 184.13
-9755427.58 5135531.49 184.75
-9755425.46 5135536.62 183.62
-9755426.92 5135535.29 183.93
-9755427.53 5135538.28 183.95
-9755426.36 5135530.29 184.07
-9755426.30 5135529.11 184.52
-9755425.81 5135530.30 183.94
-9755426.32 5135537.42 183.76
-9755427.58 5135531.80 184.14
-9755426.11 5135527.00 184.15
-9755427.25 5135533.88 184.09
-9755425.82 5135528.18 184.09
-9755427.62 5135526.74 184.39
-9755426.42 5135528.26 184.13
-9755427.27 5135529.68 184.18
-9755425.58 5135536.85 184.19
-9755426.09 5135528.83 184.11
-9755426.89 5135531.09 184.66
-9755426.55 5135536.49 184.47
-9755427.36 5135537.78 184.33
-9755427.19 5135538.29 183.94
-9755427.60 5135530.00 184.32
-9755426.39 5135527.03 184.16
-9755425.75 5135533.51 183.84
-9755425.83 5135526.76 184.14
-9755426.93 5135528.19 184.21
-9755426.31 5135535.95 183.77
-9755427.23 5135537.72 183.94
-9755425.48 5135536.86 183.60
-9755426.32 5135536.56 183.76
-9755427.04 5135527.50 184.78
-9755425.79 5135534.43 183.81
-9755426.37 5135526.80 184.17
-9755426.38 5135536.84 183.76
-9755426.40 5135527.64 184.14
-9755425.86 5135529.11 183.97
-9755427.26 5135535.37 184.47
-9755425.79 5135532.36 184.29
-9755426.63 5135534.14 183.97
-9755427.25 5135533.53 184.10
-9755427.27 5135530.32 184.12
-9755427.26 5135531.17 184.13
-9755426.05 5135532.04 183.92
-9755426.07 5135531.17 183.93
-9755427.55 5135532.92 184.16
-9755425.52 5135524.36 184.14
-9755425.48 5135527.10 183.98
-9755424.05 5135525.83 183.87
-9755419.39 5135523.76 183.16
-9755420.49 5135525.26 183.21
-9755423.54 5135523.17 183.90
-9755424.04 5135523.69 184.37
-9755418.45 5135525.81 182.87
-9755421.95 5135523.21 183.55
-9755419.90 5135524.72 183.18
-9755419.33 5135524.62 183.16
-9755422.34 5135523.81 184.19
-9755417.84 5135524.69 182.79
-9755423.17 5135523.75 183.76
-9755422.54 5135524.16 183.63
-9755416.39 5135523.51 182.60
-9755416.92 5135524.09 182.64
-9755417.51 5135524.76 183.18
-9755417.29 5135523.80 182.78
-9755423.85 5135523.53 184.39
-9755415.97 5135523.22 183.06
-9755420.21 5135524.42 183.19
-9755414.98 5135524.72 183.12
-9755424.61 5135523.76 183.98
-9755422.62 5135525.75 184.18
-9755423.71 5135524.37 183.90
-9755416.61 5135524.36 182.60
-9755416.66 5135524.07 183.20
-9755419.06 5135523.78 183.04
-9755423.47 5135525.85 183.79
-9755416.41 5135522.85 182.60
-9755422.23 5135524.09 183.56
-9755417.53 5135523.49 182.79
-9755415.77 5135525.88 182.43
-9755415.54 5135523.50 182.45
-9755417.77 5135524.17 183.30
-9755423.16 5135523.47 183.75
-9755415.43 5135524.43 182.84
-9755425.55 5135523.75 184.15
-9755415.79 5135523.72 182.58
-9755416.97 5135523.44 183.12
-9755420.25 5135523.46 183.35
-9755420.54 5135523.46 183.36
-9755423.50 5135523.50 184.36
-9755418.15 5135526.19 183.29
-9755419.05 5135522.77 183.57
-9755420.24 5135523.77 183.31
-9755421.48 5135523.70 184.06
-9755418.76 5135523.52 182.98
-9755425.22 5135523.46 184.15
-9755419.05 5135524.97 182.99
-9755420.18 5135526.12 183.20
-9755415.27 5135522.80 183.03
-9755425.75 5135523.12 184.79
-9755419.02 5135525.87 182.99
-9755421.99 5135524.05 183.55
-9755422.32 5135525.30 183.57
-9755421.98 5135523.74 183.56
-9755419.15 5135524.15 183.63
-9755415.80 5135524.08 183.07
-9755419.00 5135525.57 182.99
-9755414.50 5135523.70 183.07
-9755415.16 5135524.97 182.40
-9755417.30 5135526.15 182.65
-9755414.94 5135524.69 182.40
-9755415.19 5135524.65 182.40
-9755418.26 5135525.01 183.33
-9755415.75 5135524.03 182.52
-9755416.16 5135525.53 182.57
-9755423.02 5135524.51 184.30
-9755424.54 5135522.88 184.60
-9755419.30 5135523.41 183.75
-9755416.96 5135524.99 182.63
-9755414.59 5135525.21 183.07
-9755416.64 5135526.12 182.60
-9755423.21 5135524.12 183.75
-9755416.12 5135525.27 182.52
-9755411.06 5135522.95 180.83
-9755412.54 5135523.91 180.36
-9755414.34 5135525.52 183.08
-9755411.09 5135524.71 180.85
-9755414.07 5135525.53 183.08
-9755411.97 5135522.98 180.51
-9755412.46 5135524.71 181.10
-9755414.03 5135524.32 183.08
-9755412.48 5135525.53 181.17
-9755412.31 5135522.84 183.10
-9755411.14 5135524.63 181.66
-9755411.34 5135525.31 181.18
-9755413.27 5135525.91 180.82
-9755414.32 5135524.38 183.08
-9755412.36 5135525.98 183.05
-9755411.59 5135525.90 181.19
-9755413.69 5135526.16 183.08
-9755412.50 5135524.11 180.47
-9755411.62 5135525.00 181.67
-9755412.49 5135525.88 181.17
-9755411.87 5135524.67 181.23
-9755412.83 5135525.76 183.10
-9755413.11 5135523.50 183.10
-9755414.07 5135523.79 183.07
-9755412.61 5135523.73 183.09
-9755412.80 5135525.49 183.10
