-9755264.88 5135398.35 193.41
-9755261.85 5135399.80 186.72
-9755258.05 5135401.88 193.31
-9755268.59 5135396.28 186.87
-9755257.78 5135402.07 189.05
-9755256.82 5135402.41 192.46
-9755266.28 5135396.99 189.78
-9755257.09 5135402.57 186.56
-9755268.33 5135397.20 192.37
-9755262.40 5135399.31 182.58
-9755265.91 5135401.02 192.36
-9755256.83 5135402.49 189.01
-9755259.97 5135400.12 181.54
-9755267.77 5135396.15 186.22
-9755264.49 5135397.74 189.00
-9755269.22 5135395.62 188.92
-9755262.93 5135399.14 188.25
-9755266.39 5135396.77 193.31
-9755263.11 5135399.04 190.82
-9755256.11 5135403.02 192.12
-9755265.40 5135400.14 192.35
-9755265.02 5135397.60 183.97
-9755267.66 5135396.34 184.27
-9755257.15 5135402.69 191.62
-9755268.11 5135396.51 188.96
-9755259.59 5135401.08 192.42
-9755266.87 5135397.04 182.66
-9755255.55 5135400.07 181.30
-9755260.82 5135400.57 188.41
-9755268.53 5135396.23 188.36
-9755265.36 5135397.54 188.63
-9755268.30 5135396.46 181.71
-9755256.77 5135399.76 181.34
-9755265.31 5135398.04 181.57
-9755257.02 5135402.52 191.44
-9755268.62 5135397.53 192.36
-9755257.91 5135401.62 193.24
-9755263.02 5135399.12 190.41
-9755259.24 5135400.89 192.73
-9755261.53 5135399.98 191.74
-9755267.66 5135396.21 189.00
-9755256.99 5135402.68 181.59
-9755261.17 5135399.76 181.60
-9755260.65 5135400.60 186.42
-9755265.06 5135398.68 192.36
-9755265.62 5135397.52 182.32
-9755264.22 5135398.64 193.41
-9755267.47 5135396.67 189.00
-9755268.70 5135395.84 183.80
-9755257.71 5135402.11 190.72
-9755266.80 5135399.86 192.36
-9755260.35 5135395.63 181.37
-9755260.89 5135397.66 181.42
-9755257.53 5135402.19 191.07
-9755258.55 5135395.93 181.33
-9755262.26 5135399.27 192.65
-9755259.16 5135397.68 181.34
-9755263.03 5135399.17 185.76
-9755268.60 5135401.06 193.37
-9755258.83 5135401.61 191.73
-9755268.00 5135401.90 193.98
-9755261.86 5135399.68 189.40
-9755261.54 5135400.48 192.52
-9755264.72 5135397.78 182.32
-9755257.96 5135402.33 183.20
-9755267.97 5135396.08 193.32
-9755267.40 5135396.68 191.66
-9755262.57 5135397.98 181.49
-9755256.75 5135400.97 181.47
-9755265.13 5135401.90 192.33
-9755263.55 5135398.71 188.10
-9755256.12 5135402.58 192.44
-9755267.32 5135396.66 191.22
-9755264.42 5135398.18 183.91
-9755270.59 5135405.81 192.68
-9755269.78 5135405.53 192.39
-9755270.10 5135406.93 192.50
-9755270.39 5135404.62 192.40
-9755270.88 5135405.24 192.44
-9755270.91 5135406.33 192.59
-9755270.63 5135405.50 192.57
-9755270.42 5135405.20 192.41
-9755269.55 5135405.19 192.38
-9755270.02 5135405.24 192.39
-9755270.35 5135405.31 192.69
-9755270.33 5135403.77 192.40
-9755270.44 5135405.45 193.11
-9755270.54 5135407.32 192.63
-9755270.74 5135406.73 192.66
-9755270.92 5135405.31 193.12
-9755268.84 5135405.77 192.42
-9755261.83 5135407.18 193.97
-9755255.95 5135402.98 189.91
-9755262.05 5135406.38 193.31
-9755262.13 5135407.30 192.37
-9755268.59 5135404.63 192.38
-9755260.61 5135407.30 192.37
-9755259.70 5135406.68 192.35
-9755266.25 5135407.27 192.39
-9755268.28 5135407.01 192.41
-9755266.52 5135407.25 192.40
-9755265.84 5135404.69 192.37
-9755263.80 5135407.29 192.37
-9755261.79 5135406.84 193.36
-9755260.35 5135403.93 193.96
-9755258.83 5135405.99 193.03
-9755256.12 5135403.18 187.96
-9755261.83 5135406.86 193.97
-9755262.67 5135406.13 194.00
-9755255.89 5135402.98 193.31
-9755263.29 5135404.91 192.36
-9755267.74 5135403.45 192.37
-9755259.78 5135404.25 193.96
-9755258.91 5135404.26 192.94
-9755260.35 5135406.25 193.97
-9755255.80 5135403.34 187.86
-9755256.12 5135402.70 181.55
-9755268.39 5135405.79 192.41
-9755256.21 5135405.44 192.35
-9755267.37 5135406.71 192.41
-9755259.79 5135405.07 193.96
-9755256.31 5135403.24 181.57
-9755255.51 5135403.85 187.39
-9755263.25 5135403.41 192.34
-9755266.79 5135405.48 192.38
-9755256.02 5135403.99 192.52
-9755266.31 5135404.88 192.38
-9755265.93 5135403.40 193.07
-9755259.13 5135405.64 193.97
-9755259.45 5135404.76 192.40
-9755258.31 5135404.26 192.34
-9755260.87 5135403.38 193.99
-9755256.21 5135404.25 192.37
-9755255.76 5135403.45 185.95
-9755255.36 5135403.74 186.81
-9755265.35 5135404.61 192.37
-9755261.54 5135404.33 192.33
-9755256.53 5135406.86 193.19
-9755260.91 5135404.45 193.98
-9755255.60 5135403.42 185.62
-9755259.35 5135404.26 192.34
-9755258.87 5135406.62 192.34
-9755255.65 5135403.42 192.29
-9755262.44 5135404.29 192.34
-9755255.96 5135404.86 192.36
-9755258.82 5135405.04 192.74
-9755260.02 5135406.35 192.34
-9755257.97 5135404.57 192.35
-9755257.68 5135406.07 192.35
-9755261.23 5135405.08 193.97
-9755260.93 5135405.66 193.39
-9755267.69 5135405.18 192.38
-9755260.11 5135403.57 193.95
-9755259.51 5135406.00 192.34
-9755258.23 5135406.63 192.35
-9755256.11 5135402.97 183.56
-9755265.95 5135406.09 192.39
-9755258.03 5135403.96 192.35
-9755255.57 5135403.34 186.71
-9755263.86 5135406.39 192.38
-9755259.12 5135405.77 192.36
-9755256.81 5135406.28 192.35
-9755260.90 5135403.39 192.32
-9755255.43 5135403.00 193.31
-9755262.11 5135404.59 192.34
-9755265.60 5135404.32 192.36
-9755268.68 5135406.36 192.43
-9755258.25 5135405.48 192.50
-9755265.83 5135403.41 192.68
-9755255.63 5135404.28 192.38
-9755256.78 5135406.32 193.18
-9755262.71 5135405.50 192.35
-9755262.40 5135406.52 194.00
-9755261.51 5135404.17 193.98
-9755264.46 5135404.88 192.37
-9755266.84 5135403.71 192.37
-9755262.74 5135403.45 192.35
-9755263.22 5135405.74 192.36
-9755260.92 5135405.10 193.97
-9755257.05 5135403.67 192.37
-9755267.71 5135405.51 192.39
-9755265.08 5135403.65 193.05
-9755255.89 5135405.70 192.35
-9755264.77 5135406.35 192.39
-9755264.47 5135405.16 192.37
-9755262.98 5135406.67 192.35
-9755259.46 5135406.24 193.97
-9755266.53 5135404.89 192.37
-9755264.18 5135406.37 192.38
-9755259.47 5135405.94 193.11
-9755263.29 5135406.64 192.37
-9755256.78 5135403.93 192.36
-9755259.06 5135406.05 193.04
-9755255.53 5135403.37 187.58
-9755261.47 5135405.97 193.98
-9755255.86 5135403.30 181.57
-9755264.12 5135406.11 192.38
-9755265.36 5135407.26 192.39
-9755257.40 5135405.77 192.34
-9755257.96 5135406.66 192.35
-9755255.45 5135403.45 187.21
-9755268.07 5135405.19 192.55
-9755263.29 5135404.29 192.36
-9755260.07 5135405.95 193.97
-9755259.42 5135406.01 193.98
-9755255.33 5135403.66 191.22
-9755265.95 5135406.38 192.38
-9755256.26 5135404.56 192.37
-9755255.80 5135403.45 187.21
-9755262.63 5135403.97 192.34
-9755259.12 5135403.98 192.34
-9755265.04 5135406.38 192.39
-9755259.53 5135406.78 193.96
-9755256.03 5135403.25 182.77
-9755261.19 5135405.93 193.37
-9755267.13 5135403.99 192.37
-9755259.34 5135406.59 193.83
-9755255.94 5135403.41 190.04
-9755259.52 5135405.10 192.35
-9755258.90 5135404.61 192.65
-9755260.03 5135405.36 193.97
-9755258.00 5135404.22 192.43
-9755262.41 5135405.74 193.96
-9755260.06 5135404.18 192.32
-9755263.87 5135405.74 192.38
-9755257.10 5135404.81 192.35
-9755265.95 5135403.94 193.06
-9755263.27 5135403.97 192.35
-9755263.58 5135405.80 192.37
-9755268.39 5135405.21 192.39
-9755256.84 5135406.31 192.81
-9755264.80 5135403.40 192.36
-9755258.59 5135404.54 193.96
-9755256.37 5135403.31 186.41
-9755262.12 5135403.96 192.34
-9755258.99 5135406.58 193.06
-9755260.04 5135403.95 192.34
-9755264.25 5135405.48 192.38
-9755266.44 5135406.67 192.40
-9755256.20 5135405.16 192.35
-9755281.00 5135395.24 192.71
-9755281.08 5135392.83 192.33
-9755281.36 5135395.22 192.71
-9755281.62 5135393.71 192.31
-9755281.95 5135394.32 192.31
-9755280.74 5135394.42 192.38
-9755280.72 5135394.59 192.72
-9755281.05 5135393.75 192.72
-9755280.76 5135393.41 192.73
-9755282.20 5135395.23 192.32
-9755275.80 5135395.18 192.31
-9755272.02 5135394.27 190.95
-9755271.26 5135394.92 182.05
-9755275.93 5135392.48 185.19
-9755271.64 5135394.43 188.95
-9755275.72 5135393.34 193.30
-9755272.48 5135394.19 181.63
-9755275.28 5135392.74 191.79
-9755275.72 5135392.77 193.31
-9755272.77 5135394.10 190.94
-9755274.72 5135392.71 181.52
-9755274.36 5135393.06 192.00
-9755271.90 5135394.57 188.82
-9755273.09 5135393.53 192.28
-9755274.48 5135393.28 182.81
-9755272.90 5135393.74 192.37
-9755275.13 5135392.70 192.77
-9755271.68 5135394.41 183.40
-9755280.16 5135394.03 192.71
-9755276.34 5135394.30 192.32
-9755274.48 5135393.18 186.29
-9755273.11 5135393.95 192.33
-9755276.61 5135392.49 184.40
-9755272.24 5135394.50 189.08
-9755275.67 5135392.76 181.96
-9755276.54 5135392.39 181.57
-9755275.69 5135395.08 193.96
-9755271.12 5135395.30 193.34
-9755274.89 5135395.23 192.30
-9755278.13 5135392.83 192.33
-9755275.66 5135392.75 186.10
-9755271.66 5135394.32 189.44
-9755271.21 5135395.05 189.72
-9755274.29 5135393.45 192.33
-9755278.97 5135392.83 192.35
-9755275.19 5135392.77 193.32
-9755271.81 5135393.87 181.60
-9755273.31 5135394.08 189.92
-9755275.80 5135392.90 185.16
-9755275.13 5135392.81 188.29
-9755276.94 5135393.11 192.33
-9755274.25 5135393.23 185.71
-9755273.38 5135393.71 192.87
-9755275.07 5135392.79 185.69
-9755272.83 5135394.09 189.92
-9755271.84 5135394.28 192.75
-9755276.32 5135392.57 185.29
-9755274.57 5135393.20 189.94
-9755273.30 5135393.49 189.84
-9755275.39 5135392.46 181.54
-9755273.71 5135394.09 193.34
-9755279.87 5135395.24 192.33
-9755275.56 5135392.59 192.36
-9755275.14 5135393.00 189.71
-9755271.60 5135394.67 191.51
-9755272.49 5135394.37 189.70
-9755272.90 5135394.10 182.57
-9755278.36 5135393.77 192.32
-9755278.13 5135393.15 192.33
-9755275.59 5135392.75 182.27
-9755276.27 5135392.46 185.75
-9755274.80 5135393.25 183.51
-9755273.98 5135393.48 191.80
-9755272.93 5135394.10 183.71
-9755276.70 5135392.36 185.66
-9755271.58 5135394.73 188.44
-9755273.57 5135392.76 181.52
-9755273.33 5135393.94 183.19
-9755279.26 5135393.14 192.34
-9755276.91 5135394.33 192.31
-9755273.36 5135393.93 185.77
-9755280.51 5135394.07 192.37
-9755275.83 5135392.89 189.57
-9755273.73 5135393.51 185.78
-9755271.42 5135394.89 189.57
-9755273.86 5135393.54 188.29
-9755274.08 5135393.38 190.78
-9755275.35 5135392.63 190.96
-9755277.08 5135392.27 186.50
-9755275.74 5135392.76 187.84
-9755273.70 5135393.46 191.92
-9755277.51 5135393.40 192.33
-9755274.60 5135393.61 193.31
-9755279.25 5135395.23 192.32
-9755276.93 5135394.91 192.31
-9755272.99 5135394.20 186.90
-9755272.46 5135394.28 191.22
-9755272.96 5135393.98 184.80
-9755280.19 5135393.70 192.72
-9755272.45 5135394.27 190.94
-9755276.58 5135394.61 193.94
-9755274.70 5135393.11 185.03
-9755276.62 5135394.02 192.32
-9755273.40 5135394.88 192.32
-9755274.83 5135394.87 192.30
-9755272.58 5135394.24 182.87
-9755279.24 5135392.56 192.35
-9755271.25 5135394.94 182.65
-9755275.09 5135392.97 181.93
-9755273.45 5135393.80 191.34
-9755271.69 5135394.62 192.14
-9755271.85 5135394.48 181.66
-9755272.67 5135394.17 188.98
-9755272.45 5135394.08 185.69
-9755272.78 5135394.28 192.30
-9755275.65 5135392.73 186.84
-9755275.64 5135392.79 191.38
-9755273.39 5135394.62 192.32
-9755279.84 5135393.75 192.33
-9755275.08 5135392.86 182.76
-9755274.98 5135392.99 186.83
-9755271.64 5135395.14 192.31
-9755278.73 5135392.58 192.35
-9755272.76 5135393.72 183.65
-9755276.00 5135392.61 185.72
-9755275.97 5135395.14 192.90
-9755273.59 5135393.66 186.44
-9755275.94 5135392.58 182.64
-9755274.77 5135393.40 187.01
-9755276.20 5135392.55 188.97
-9755273.96 5135394.17 193.35
-9755277.80 5135394.05 192.31
-9755276.10 5135392.37 188.02
-9755277.55 5135394.31 192.30
-9755271.74 5135394.67 186.72
-9755273.45 5135393.83 184.93
-9755271.51 5135394.57 182.65
-9755272.97 5135392.75 181.55
-9755277.49 5135392.23 186.69
-9755275.73 5135392.80 190.61
-9755276.02 5135393.15 192.34
-9755274.79 5135393.08 189.94
-9755272.27 5135394.42 181.63
-9755279.87 5135394.92 192.32
-9755274.27 5135393.48 186.25
-9755273.31 5135393.94 184.77
-9755272.84 5135394.01 193.32
-9755276.01 5135395.17 192.31
-9755271.64 5135394.38 183.14
-9755272.77 5135394.00 192.81
-9755272.08 5135394.37 183.61
-9755276.08 5135392.44 190.80
-9755275.65 5135393.30 181.50
-9755272.67 5135393.03 181.54
-9755274.07 5135393.88 181.57
-9755274.31 5135393.05 190.72
-9755271.32 5135394.83 191.09
-9755270.46 5135394.90 190.22
-9755269.23 5135395.44 193.30
-9755270.94 5135394.84 181.65
-9755270.38 5135395.08 192.72
-9755270.63 5135394.97 191.77
-9755270.97 5135394.86 184.22
-9755270.49 5135394.97 189.69
-9755270.90 5135394.49 181.62
-9755271.07 5135394.52 193.29
-9755271.62 5135394.82 185.00
-9755271.40 5135394.74 188.95
-9755270.19 5135395.09 191.74
-9755270.94 5135394.76 188.98
-9755270.19 5135395.31 189.31
-9755271.22 5135394.16 181.60
-9755269.77 5135394.19 181.58
-9755271.16 5135394.94 185.70
-9755270.00 5135394.48 181.60
-9755271.03 5135394.66 188.75
-9755270.50 5135395.18 186.21
-9755270.87 5135395.16 189.96
-9755269.40 5135395.06 181.61
-9755271.36 5135394.39 183.40
-9755269.76 5135392.67 181.51
-9755270.78 5135395.03 182.05
-9755270.25 5135394.98 185.68
-9755270.97 5135394.72 188.21
-9755270.93 5135394.97 183.73
-9755270.19 5135395.04 183.98
-9755271.14 5135395.05 188.61
-9755268.82 5135393.56 181.53
-9755256.81 5135395.36 181.31
-9755260.95 5135395.04 181.37
-9755267.08 5135395.07 181.54
-9755269.22 5135392.71 181.49
-9755268.30 5135394.17 181.55
-9755259.70 5135393.55 181.33
-9755258.50 5135394.43 181.32
-9755267.68 5135394.49 181.52
-9755264.72 5135395.03 181.41
-9755262.38 5135393.64 181.37
-9755265.30 5135395.40 181.45
-9755264.44 5135393.54 181.37
-9755257.62 5135393.57 181.34
-9755266.20 5135394.78 181.47
-9755262.06 5135392.72 181.36
-9755262.41 5135393.26 181.35
-9755266.26 5135392.63 181.39
-9755262.07 5135393.93 181.37
-9755262.69 5135395.00 181.38
-9755266.51 5135394.15 181.48
-9755268.55 5135393.01 181.48
-9755259.68 5135392.69 181.35
-9755267.42 5135393.28 181.45
-9755265.85 5135393.33 181.39
-9755262.94 5135394.43 181.38
-9755257.67 5135394.44 181.33
-9755260.10 5135392.09 181.35
-9755261.44 5135392.70 181.34
-9755256.75 5135394.41 181.33
-9755267.65 5135393.88 181.49
-9755266.49 5135393.27 181.41
-9755269.15 5135392.42 181.47
-9755258.26 5135393.28 181.33
-9755259.76 5135394.43 181.34
-9755261.27 5135394.75 181.35
-9755265.58 5135392.74 181.39
-9755262.35 5135392.66 181.37
-9755259.41 5135393.24 181.34
-9755257.07 5135392.30 181.34
-9755263.83 5135393.57 181.37
-9755265.91 5135394.47 181.46
-9755257.35 5135394.48 181.33
-9755254.69 5135414.86 192.41
-9755253.77 5135415.77 192.39
-9755253.45 5135415.76 192.39
-9755253.81 5135415.18 192.39
-9755254.70 5135415.77 192.42
-9755254.98 5135415.52 192.42
-9755252.92 5135415.20 192.38
-9755252.92 5135415.46 192.39
-9755252.62 5135415.81 192.41
-9755252.62 5135414.31 192.37
-9755252.97 5135416.37 192.42
-9755254.72 5135414.57 192.42
-9755252.01 5135415.74 192.39
-9755252.31 5135416.67 192.41
-9755253.21 5135415.77 192.41
-9755252.60 5135415.20 192.39
-9755252.61 5135414.59 192.38
-9755254.36 5135414.61 192.41
-9755253.51 5135414.33 192.38
-9755255.00 5135417.18 192.63
-9755253.48 5135416.99 192.41
-9755251.77 5135416.36 192.42
-9755252.32 5135414.54 192.38
-9755251.79 5135416.03 192.40
-9755252.00 5135416.93 192.42
-9755251.44 5135417.19 192.42
-9755249.35 5135416.62 192.37
-9755244.53 5135414.26 192.50
-9755241.41 5135416.71 196.52
-9755242.90 5135415.16 192.30
-9755246.72 5135414.88 192.34
-9755241.75 5135416.40 196.52
-9755245.23 5135416.36 192.71
-9755244.66 5135415.15 192.35
-9755249.68 5135414.57 192.39
-9755250.88 5135415.77 192.39
-9755246.72 5135416.30 192.35
-9755241.38 5135416.31 193.48
-9755249.69 5135415.18 192.37
-9755251.10 5135415.20 192.40
-9755250.54 5135415.45 192.39
-9755249.41 5135415.73 192.37
-9755247.02 5135414.26 192.33
-9755248.46 5135415.12 192.36
-9755242.31 5135415.44 192.31
-9755243.16 5135415.74 192.31
-9755241.33 5135415.89 194.22
-9755246.38 5135416.33 192.35
-9755248.47 5135416.64 192.37
-9755244.05 5135415.74 192.70
-9755244.06 5135416.31 192.34
-9755241.90 5135415.81 192.66
-9755244.35 5135416.62 192.34
-9755242.02 5135415.56 196.50
-9755242.55 5135415.43 192.31
-9755249.39 5135414.29 192.38
-9755245.56 5135416.29 192.71
-9755239.67 5135415.52 189.74
-9755240.50 5135414.61 191.81
-9755240.08 5135414.93 184.59
-9755240.83 5135416.19 193.46
-9755241.20 5135415.61 192.51
-9755240.21 5135415.63 193.31
-9755239.91 5135415.17 191.66
-9755240.64 5135414.62 182.34
-9755240.65 5135414.20 186.01
-9755240.50 5135414.61 184.42
-9755240.86 5135415.88 193.76
-9755239.79 5135414.68 193.25
-9755239.95 5135414.97 187.44
-9755240.56 5135414.56 187.65
-9755239.79 5135415.42 184.63
-9755240.25 5135415.05 186.54
-9755240.39 5135414.65 185.54
-9755240.02 5135414.76 186.70
-9755240.32 5135414.52 185.08
-9755239.73 5135415.32 186.97
-9755240.12 5135415.24 189.95
-9755240.50 5135415.96 192.36
-9755240.70 5135414.69 187.18
-9755239.94 5135415.13 184.19
-9755239.87 5135415.42 188.99
-9755239.79 5135415.46 185.29
-9755240.47 5135414.97 188.92
-9755240.88 5135414.34 186.53
-9755239.74 5135415.43 187.39
-9755239.96 5135414.76 187.44
-9755239.78 5135415.54 186.39
-9755240.48 5135414.67 188.14
-9755240.76 5135416.65 193.04
-9755240.81 5135416.27 194.18
-9755241.09 5135416.04 192.37
-9755239.88 5135415.03 192.34
-9755239.83 5135415.14 187.81
-9755240.91 5135416.38 195.62
-9755240.17 5135414.79 192.12
-9755240.78 5135414.30 183.65
-9755239.84 5135415.04 188.75
-9755239.67 5135415.45 183.66
-9755239.71 5135415.52 182.91
-9755239.72 5135415.09 186.20
-9755240.18 5135415.13 188.52
-9755241.05 5135414.25 187.44
-9755240.99 5135414.64 186.91
-9755240.11 5135414.90 183.15
-9755240.64 5135414.28 188.67
-9755240.82 5135416.31 192.38
-9755240.19 5135414.86 185.13
-9755241.00 5135416.17 194.16
-9755240.15 5135415.15 186.79
-9755240.25 5135414.94 183.99
-9755240.44 5135414.69 187.27
-9755240.71 5135414.64 186.10
-9755240.67 5135414.59 183.33
-9755240.51 5135414.56 192.29
-9755239.82 5135414.78 181.42
-9755241.08 5135414.49 187.28
-9755240.21 5135416.57 192.38
-9755240.88 5135414.34 182.22
-9755240.61 5135416.24 193.70
-9755241.07 5135416.24 192.37
-9755240.05 5135415.14 184.90
-9755240.36 5135414.86 183.44
-9755240.32 5135414.92 182.28
-9755240.67 5135414.58 188.51
-9755240.70 5135414.27 183.89
-9755239.70 5135415.50 185.83
-9755240.61 5135414.50 189.02
-9755240.56 5135414.62 192.92
-9755240.15 5135414.88 185.63
-9755239.75 5135415.44 182.10
-9755240.20 5135415.14 187.92
-9755240.18 5135414.73 188.76
-9755239.77 5135415.34 185.96
-9755239.76 5135415.35 192.68
-9755239.86 5135415.26 181.43
-9755239.66 5135415.43 189.31
-9755240.98 5135414.28 189.03
-9755240.82 5135414.29 184.23
-9755240.72 5135414.08 182.65
-9755240.42 5135416.61 193.07
-9755249.61 5135417.24 192.37
-9755250.30 5135417.21 192.37
-9755250.54 5135417.23 192.39
-9755247.01 5135417.19 192.36
-9755245.50 5135417.16 192.69
-9755251.11 5135417.20 192.40
-9755246.09 5135417.14 192.72
-9755240.82 5135416.89 192.47
-9755239.85 5135417.26 193.04
-9755239.93 5135416.98 194.25
-9755240.32 5135417.02 194.74
-9755239.83 5135417.15 192.40
-9755239.94 5135416.58 192.38
-9755240.39 5135416.76 194.74
-9755239.88 5135417.20 192.76
-9755240.20 5135416.80 194.33
-9755240.00 5135416.71 192.95
-9755240.11 5135416.97 194.97
-9755240.01 5135417.06 193.28
-9755239.74 5135416.76 196.47
-9755240.30 5135417.04 193.48
-9755240.12 5135417.16 194.01
-9755239.91 5135416.88 193.27
-9755254.13 5135407.52 192.35
-9755254.60 5135412.17 194.01
-9755253.56 5135408.97 192.35
-9755253.56 5135412.81 193.37
-9755254.16 5135408.09 192.34
-9755252.35 5135414.01 192.38
-9755254.67 5135409.82 192.36
-9755252.94 5135409.81 192.33
-9755252.36 5135412.46 193.99
-9755254.08 5135412.46 193.97
-9755254.41 5135411.09 192.36
-9755252.94 5135407.24 192.35
-9755255.25 5135409.56 192.35
-9755253.51 5135412.47 193.96
-9755252.95 5135410.94 193.96
-9755254.40 5135413.41 192.36
-9755252.58 5135409.16 193.97
-9755252.64 5135411.25 193.96
-9755252.98 5135407.77 192.35
-9755252.60 5135411.30 193.36
-9755254.39 5135413.70 192.38
-9755253.60 5135410.68 193.98
-9755253.82 5135408.96 192.35
-9755254.68 5135412.57 192.37
-9755254.15 5135408.95 192.34
-9755252.93 5135409.23 192.32
-9755255.02 5135411.37 192.37
-9755252.10 5135411.26 193.95
-9755252.93 5135411.27 193.39
-9755254.39 5135410.43 192.36
-9755252.94 5135410.70 193.97
-9755253.56 5135413.35 193.97
-9755254.71 5135411.96 192.36
-9755253.22 5135411.72 193.37
-9755252.40 5135409.76 193.97
-9755252.54 5135411.57 193.35
-9755254.58 5135411.88 194.01
-9755254.17 5135412.14 193.98
-9755252.35 5135408.39 192.33
-9755253.56 5135411.92 193.38
-9755253.70 5135412.56 193.38
-9755252.55 5135412.42 192.51
-9755252.02 5135412.82 192.37
-9755252.64 5135408.09 192.35
-9755253.75 5135414.29 192.38
-9755252.65 5135408.99 192.33
-9755253.25 5135412.18 193.97
-9755254.71 5135411.37 192.36
-9755253.54 5135407.17 192.35
-9755254.69 5135414.29 192.40
-9755253.03 5135412.80 193.41
-9755253.99 5135413.03 193.97
-9755255.32 5135399.13 181.33
-9755255.25 5135402.39 181.47
-9755252.88 5135399.14 181.29
-9755252.91 5135397.66 181.31
-9755254.68 5135402.41 181.44
-9755253.80 5135395.85 181.34
-9755254.67 5135400.96 181.34
-9755255.29 5135400.61 181.32
-9755252.90 5135400.96 181.29
-9755252.62 5135396.80 181.33
-9755252.96 5135396.21 181.33
-9755255.27 5135395.32 181.31
-9755252.87 5135401.56 181.29
-9755254.95 5135399.13 181.30
-9755254.71 5135396.74 181.32
-9755254.41 5135397.41 181.30
-9755254.67 5135397.63 181.30
-9755253.17 5135402.41 181.35
-9755255.00 5135403.49 189.63
-9755252.63 5135407.22 192.35
-9755255.26 5135403.95 186.79
-9755252.67 5135406.89 192.35
-9755254.69 5135403.87 192.34
-9755254.79 5135404.07 189.61
-9755255.05 5135405.11 192.38
-9755254.16 5135404.35 184.16
-9755255.21 5135403.93 186.53
-9755252.45 5135405.65 188.96
-9755254.67 5135404.12 191.88
-9755253.23 5135404.82 183.93
-9755253.82 5135404.53 184.17
-9755254.66 5135403.98 187.20
-9755252.84 5135403.28 181.41
-9755253.22 5135404.75 185.60
-9755253.12 5135405.16 190.84
-9755253.91 5135404.84 192.38
-9755252.93 5135405.19 191.33
-9755254.74 5135404.06 185.88
-9755253.47 5135404.15 181.48
-9755253.16 5135405.09 191.83
-9755253.82 5135404.46 186.56
-9755255.23 5135403.80 181.51
-9755253.77 5135404.44 186.01
-9755254.46 5135404.39 189.09
-9755254.71 5135404.02 189.13
-9755252.15 5135405.57 189.80
-9755254.90 5135403.57 183.58
-9755255.15 5135403.66 191.77
-9755255.25 5135403.37 192.12
-9755252.85 5135405.05 182.85
-9755254.34 5135404.25 186.32
-9755252.25 5135405.65 192.04
-9755254.71 5135406.35 192.37
-9755252.33 5135405.75 186.44
-9755252.99 5135405.13 190.44
-9755252.90 5135405.06 187.64
-9755254.38 5135404.03 185.02
-9755254.77 5135403.70 183.58
-9755253.82 5135404.85 183.93
-9755252.09 5135405.62 193.31
-9755252.01 5135404.44 181.43
-9755252.90 5135405.39 190.71
-9755253.87 5135404.33 187.77
-9755253.11 5135404.55 191.51
-9755252.96 5135405.12 193.31
-9755253.45 5135404.65 183.61
-9755253.11 5135405.28 190.09
-9755252.71 5135405.22 189.31
-9755252.80 5135405.44 186.09
-9755253.72 5135404.18 188.11
-9755254.77 5135403.62 189.00
-9755253.46 5135404.94 189.64
-9755252.64 5135406.02 192.37
-9755255.19 5135403.88 189.61
-9755252.70 5135405.50 191.46
-9755253.54 5135404.22 193.31
-9755252.98 5135404.76 193.30
-9755254.93 5135403.93 183.72
-9755252.37 5135405.76 187.57
-9755253.65 5135404.64 191.73
-9755254.35 5135403.23 181.48
-9755255.29 5135403.40 191.20
-9755253.82 5135404.42 181.91
-9755254.75 5135404.02 186.36
-9755253.91 5135404.43 189.07
-9755253.89 5135404.22 189.54
-9755253.47 5135404.81 191.52
-9755252.03 5135405.98 188.06
-9755253.84 5135404.54 191.73
-9755252.70 5135405.39 192.15
-9755253.03 5135404.95 191.80
-9755252.55 5135405.38 186.72
-9755252.36 5135405.80 191.19
-9755253.53 5135404.65 184.96
-9755255.09 5135403.66 189.24
-9755253.84 5135406.27 192.35
-9755252.25 5135405.63 181.50
-9755254.75 5135404.01 185.06
-9755252.27 5135405.75 192.49
-9755254.36 5135403.89 181.49
-9755253.88 5135404.59 189.83
-9755254.17 5135404.19 183.50
-9755252.30 5135405.57 184.23
-9755252.52 5135404.16 181.44
-9755254.13 5135404.24 191.78
-9755252.91 5135405.40 192.62
-9755252.35 5135405.47 191.82
-9755253.75 5135404.50 181.48
-9755252.73 5135405.30 187.81
-9755253.53 5135404.76 189.39
-9755254.45 5135404.86 192.38
-9755253.45 5135403.28 181.42
-9755252.96 5135406.28 192.36
-9755253.70 5135404.40 184.98
-9755253.76 5135404.66 188.39
-9755254.48 5135403.79 192.43
-9755253.94 5135404.64 182.11
-9755255.08 5135405.70 192.37
-9755253.78 5135404.37 182.63
-9755254.66 5135404.02 182.59
-9755252.82 5135405.06 190.10
-9755252.88 5135404.73 181.48
-9755252.80 5135405.51 187.68
-9755253.85 5135406.02 192.36
-9755252.01 5135412.54 192.38
-9755251.38 5135411.55 193.37
-9755251.50 5135407.48 192.35
-9755251.48 5135410.08 193.98
-9755252.02 5135409.25 192.33
-9755252.00 5135413.44 192.37
-9755251.40 5135412.15 193.30
-9755251.43 5135413.98 192.37
-9755251.77 5135411.23 193.36
-9755251.70 5135414.02 192.38
-9755251.73 5135411.95 192.37
-9755251.75 5135408.97 192.34
-9755252.25 5135405.65 183.33
-9755241.01 5135414.32 183.86
-9755249.38 5135408.41 192.35
-9755242.90 5135408.35 181.23
-9755242.27 5135408.85 181.21
-9755248.20 5135413.07 192.35
-9755245.09 5135410.85 181.84
-9755241.49 5135413.87 186.97
-9755245.67 5135413.23 193.05
-9755241.55 5135410.10 181.24
-9755250.87 5135410.73 192.34
-9755244.67 5135413.69 192.36
-9755244.99 5135410.57 183.44
-9755246.50 5135409.70 192.41
-9755247.60 5135409.24 182.63
-9755242.83 5135412.87 191.23
-9755246.71 5135409.40 191.78
-9755244.63 5135410.98 188.98
-9755245.59 5135410.68 186.37
-9755242.91 5135412.61 186.85
-9755246.83 5135409.73 183.11
-9755246.38 5135409.72 188.99
-9755242.86 5135412.52 187.24
-9755242.64 5135412.58 191.79
-9755242.35 5135412.95 191.26
-9755248.49 5135413.95 192.36
-9755243.45 5135412.07 190.70
-9755250.96 5135411.32 193.08
-9755248.23 5135413.98 192.35
-9755250.61 5135407.75 192.35
-9755243.53 5135412.44 191.67
-9755250.80 5135411.63 193.08
-9755250.24 5135410.16 192.34
-9755247.78 5135409.34 181.44
-9755245.24 5135410.74 189.77
-9755243.58 5135412.31 181.49
-9755242.66 5135412.53 192.30
-9755244.29 5135411.63 190.61
-9755242.02 5135413.43 184.34
-9755241.87 5135413.36 188.46
-9755244.43 5135411.42 190.38
-9755243.72 5135411.78 183.25
-9755249.16 5135407.91 190.61
-9755245.22 5135410.66 183.94
-9755241.47 5135413.72 185.29
-9755247.03 5135409.29 189.68
-9755244.88 5135410.87 184.20
-9755248.23 5135408.53 183.28
-9755243.05 5135412.26 184.83
-9755248.60 5135408.51 183.28
-9755248.19 5135408.26 192.57
-9755248.81 5135412.46 192.34
-9755250.34 5135407.70 193.30
-9755241.57 5135413.72 185.68
-9755242.02 5135413.24 183.41
-9755249.69 5135411.61 192.34
-9755242.25 5135413.77 193.31
-9755242.87 5135412.81 188.98
-9755241.49 5135413.56 182.98
-9755246.22 5135410.14 186.11
-9755242.22 5135413.09 191.01
-9755248.53 5135408.50 182.34
-9755243.21 5135412.27 191.60
-9755244.85 5135409.72 181.36
-9755242.55 5135412.91 188.33
-9755251.12 5135409.51 192.33
-9755249.38 5135414.01 192.38
-9755250.39 5135407.27 182.76
-9755251.20 5135411.00 192.35
-9755247.78 5135409.01 186.30
-9755241.93 5135413.49 189.17
-9755248.12 5135408.41 185.11
-9755246.07 5135410.06 182.65
-9755242.65 5135412.62 188.92
-9755242.17 5135412.69 181.46
-9755249.28 5135408.18 188.60
-9755243.13 5135408.04 181.21
-9755241.49 5135413.71 191.07
-9755247.63 5135408.82 192.33
-9755243.78 5135411.25 192.15
-9755244.25 5135411.54 181.49
-9755247.84 5135407.35 181.39
-9755248.83 5135408.07 192.28
-9755248.16 5135408.30 181.45
-9755244.76 5135410.97 186.71
-9755243.18 5135412.37 191.00
-9755242.15 5135413.08 186.70
-9755249.40 5135407.69 190.20
-9755247.46 5135409.08 190.95
-9755249.27 5135407.49 182.21
-9755248.88 5135407.60 186.25
-9755251.15 5135411.79 193.34
-9755246.14 5135410.28 188.24
-9755247.05 5135409.32 192.12
-9755250.82 5135410.81 192.79
-9755249.08 5135413.12 192.36
-9755246.90 5135409.75 184.82
-9755248.23 5135412.20 192.34
-9755243.18 5135412.33 188.23
-9755246.03 5135409.98 186.81
-9755243.11 5135409.79 181.30
-9755249.38 5135407.97 181.49
-9755246.02 5135410.66 185.30
-9755242.84 5135411.24 181.40
-9755248.80 5135411.93 192.34
-9755242.56 5135412.92 191.01
-9755245.59 5135411.89 192.36
-9755250.00 5135413.08 192.35
-9755246.03 5135410.50 186.60
-9755247.74 5135408.77 191.31
-9755242.89 5135414.22 192.32
-9755242.87 5135412.27 191.71
-9755242.27 5135412.58 192.12
-9755249.08 5135407.88 181.92
-9755242.05 5135413.76 188.95
-9755242.21 5135412.95 185.90
-9755244.71 5135411.31 191.59
-9755250.30 5135407.21 186.39
-9755245.43 5135410.86 188.45
-9755245.86 5135410.54 188.18
-9755245.17 5135410.99 186.55
-9755249.33 5135407.55 186.49
-9755246.42 5135409.86 186.84
-9755247.40 5135409.20 191.41
-9755248.15 5135408.75 190.68
-9755250.88 5135412.22 192.36
-9755247.20 5135409.35 182.70
-9755243.54 5135412.18 190.26
-9755244.38 5135413.96 192.37
-9755250.85 5135407.33 193.28
-9755242.01 5135413.38 186.94
-9755247.95 5135410.47 192.34
-9755243.75 5135412.09 183.83
-9755248.09 5135408.77 185.05
-9755247.27 5135409.26 182.07
-9755249.07 5135408.05 186.47
-9755243.12 5135412.35 185.11
-9755243.20 5135412.26 185.50
-9755247.39 5135409.09 189.00
-9755248.15 5135408.71 183.58
-9755249.16 5135408.07 189.63
-9755244.72 5135410.96 192.70
-9755248.60 5135408.29 190.65
-9755243.63 5135408.01 181.21
-9755250.25 5135407.19 190.83
-9755244.85 5135410.99 190.83
-9755241.97 5135413.44 191.10
-9755249.46 5135407.47 192.76
-9755244.82 5135410.95 192.30
-9755247.90 5135409.04 189.58
-9755243.79 5135411.75 190.16
-9755242.89 5135412.85 183.61
-9755247.77 5135408.84 186.05
-9755244.77 5135411.29 190.54
-9755241.45 5135413.44 185.68
-9755249.92 5135407.32 182.60
-9755250.33 5135408.65 192.34
-9755244.97 5135407.38 181.21
-9755250.32 5135407.01 190.66
-9755241.91 5135413.87 181.52
-9755244.07 5135411.80 188.96
-9755246.12 5135410.09 187.60
-9755244.69 5135410.98 193.32
-9755244.23 5135411.36 190.26
-9755242.48 5135412.57 183.58
-9755243.02 5135412.54 192.91
-9755244.61 5135411.14 188.00
-9755243.76 5135411.88 186.61
-9755242.77 5135412.45 185.03
-9755246.11 5135410.18 190.07
-9755241.94 5135410.89 181.31
-9755247.16 5135409.66 190.17
-9755246.01 5135410.55 184.39
-9755247.30 5135409.01 191.96
-9755245.11 5135411.29 181.91
-9755248.46 5135408.44 185.12
-9755250.87 5135412.50 192.36
-9755248.14 5135408.86 185.66
-9755246.87 5135409.66 189.23
-9755242.82 5135412.37 181.46
-9755247.45 5135409.28 184.86
-9755249.70 5135407.23 189.32
-9755246.07 5135407.97 181.32
-9755250.17 5135407.28 188.60
-9755249.83 5135407.51 184.96
-9755242.71 5135413.06 186.61
-9755243.38 5135408.27 181.22
-9755241.63 5135413.42 186.39
-9755242.65 5135412.54 190.94
-9755244.70 5135411.09 190.78
-9755244.31 5135411.43 189.24
-9755246.44 5135413.66 192.33
-9755248.27 5135408.36 189.85
-9755243.28 5135412.22 191.73
-9755246.08 5135410.37 182.45
-9755242.36 5135412.87 188.91
-9755250.55 5135411.58 193.07
-9755242.34 5135413.30 193.31
-9755247.67 5135408.92 185.67
-9755244.50 5135411.62 186.25
-9755244.44 5135411.65 182.44
-9755246.81 5135409.43 189.01
-9755241.54 5135413.25 189.22
-9755247.94 5135408.59 193.33
-9755250.48 5135406.95 191.71
-9755246.49 5135409.69 183.51
-9755250.22 5135407.40 190.59
-9755245.52 5135410.61 187.84
-9755245.90 5135410.04 186.48
-9755246.99 5135408.86 181.42
-9755247.03 5135409.32 190.82
-9755246.11 5135410.18 183.31
-9755246.29 5135410.15 190.07
-9755249.40 5135409.83 192.33
-9755243.12 5135412.38 186.93
-9755244.67 5135411.10 184.17
-9755242.29 5135413.09 190.09
-9755249.08 5135408.17 183.94
-9755243.11 5135407.34 181.22
-9755245.78 5135409.75 181.42
-9755241.40 5135413.70 184.32
-9755250.45 5135407.27 183.96
-9755249.74 5135412.36 193.04
-9755243.74 5135411.94 188.23
-9755243.26 5135412.29 187.86
-9755245.23 5135410.78 190.55
-9755245.58 5135410.33 184.08
-9755241.93 5135413.52 182.70
-9755248.52 5135413.08 192.36
-9755243.91 5135411.89 186.74
-9755248.10 5135408.39 186.49
-9755244.64 5135411.13 187.66
-9755248.89 5135410.91 192.50
-9755251.16 5135413.40 192.37
-9755241.38 5135413.90 187.64
-9755246.17 5135411.29 192.36
-9755246.07 5135408.57 181.37
-9755242.32 5135413.19 184.42
-9755244.57 5135411.35 184.15
-9755249.32 5135407.67 188.98
-9755249.63 5135407.60 191.49
-9755246.45 5135413.10 192.34
-9755241.90 5135413.33 185.25
-9755244.69 5135411.12 191.37
-9755251.19 5135411.51 193.98
-9755249.06 5135408.11 192.56
-9755250.35 5135407.17 192.60
-9755243.48 5135412.39 187.13
-9755245.74 5135410.69 182.43
-9755250.97 5135407.01 182.70
-9755247.72 5135409.19 193.32
-9755245.79 5135410.57 182.65
-9755248.87 5135408.04 185.18
-9755250.50 5135413.36 192.37
-9755245.00 5135411.05 188.00
-9755247.29 5135409.17 186.82
-9755242.34 5135412.67 184.15
-9755250.53 5135411.03 192.34
-9755245.48 5135408.89 181.36
-9755249.03 5135407.87 182.64
-9755245.26 5135410.78 191.73
-9755247.79 5135409.10 190.59
-9755249.10 5135408.29 193.31
-9755246.46 5135409.68 190.77
-9755249.26 5135408.11 185.33
-9755250.89 5135407.19 192.36
-9755245.60 5135412.81 192.35
-9755242.83 5135412.52 189.49
-9755243.99 5135410.31 181.37
-9755245.54 5135410.43 186.94
-9755243.22 5135411.83 193.25
-9755244.45 5135411.42 186.55
-9755244.55 5135411.86 181.48
-9755249.91 5135407.25 186.60
-9755245.76 5135410.34 188.19
-9755249.30 5135407.73 185.39
-9755244.59 5135408.30 181.25
-9755242.32 5135412.75 184.92
-9755246.46 5135409.88 191.38
-9755245.59 5135413.65 192.36
-9755249.89 5135407.47 181.47
-9755241.46 5135413.45 192.37
-9755245.22 5135410.71 192.38
-9755249.67 5135413.41 192.37
-9755244.55 5135410.96 181.44
-9755250.28 5135407.19 191.71
-9755244.90 5135410.62 181.42
-9755250.32 5135407.40 193.30
-9755248.53 5135408.39 187.69
-9755241.95 5135413.30 191.47
-9755241.96 5135413.41 184.87
-9755247.33 5135413.70 192.34
-9755244.46 5135411.34 191.68
-9755251.17 5135408.08 192.34
-9755247.04 5135409.32 186.79
-9755248.88 5135408.01 188.42
-9755242.22 5135412.97 183.30
-9755248.94 5135407.84 192.28
-9755247.95 5135408.79 189.32
-9755246.72 5135409.85 189.06
-9755249.70 5135407.72 182.51
-9755241.57 5135413.62 191.37
-9755248.25 5135408.56 189.18
-9755244.18 5135411.53 186.29
-9755246.78 5135409.83 187.59
-9755248.85 5135407.83 183.79
-9755246.08 5135410.03 185.32
-9755249.64 5135407.55 190.78
-9755241.70 5135413.71 188.95
-9755247.57 5135409.24 191.85
-9755243.44 5135412.18 185.89
-9755249.05 5135407.35 181.45
-9755244.47 5135411.39 192.37
-9755242.06 5135413.16 182.56
-9755242.55 5135412.62 184.94
-9755243.78 5135411.78 192.82
-9755248.13 5135407.44 181.41
-9755247.12 5135408.98 189.68
-9755246.11 5135409.76 192.26
-9755244.04 5135411.54 188.34
-9755246.36 5135409.78 181.45
-9755247.25 5135408.03 181.39
-9755241.94 5135413.42 183.28
-9755241.70 5135413.66 182.70
-9755250.91 5135409.75 193.98
-9755247.91 5135409.81 192.36
-9755245.58 5135410.42 191.71
-9755246.40 5135409.78 182.71
-9755248.73 5135407.99 190.27
-9755246.86 5135409.27 192.48
-9755243.64 5135408.91 181.25
-9755243.05 5135412.19 187.24
-9755242.90 5135412.51 191.55
-9755241.83 5135413.80 184.35
-9755246.04 5135410.22 190.59
-9755244.12 5135411.36 184.19
-9755241.60 5135408.23 181.17
-9755247.20 5135409.76 185.00
-9755242.27 5135413.01 192.21
-9755243.71 5135412.21 186.46
-9755242.50 5135413.08 186.60
-9755241.80 5135413.21 185.59
-9755248.90 5135408.01 191.61
-9755242.57 5135408.84 181.20
-9755248.07 5135409.02 182.63
-9755247.64 5135412.49 192.33
-9755246.46 5135409.87 185.48
-9755250.57 5135411.35 192.34
-9755246.88 5135409.72 188.66
-9755249.71 5135407.46 191.17
-9755247.83 5135409.08 183.31
-9755246.87 5135409.58 182.86
-9755244.12 5135411.44 190.18
-9755249.85 5135407.46 192.27
-9755245.25 5135410.78 183.92
-9755243.50 5135412.07 188.11
-9755244.40 5135411.68 184.27
-9755250.01 5135411.55 193.05
-9755250.55 5135408.64 192.34
-9755244.39 5135413.03 192.36
-9755247.06 5135410.95 192.36
-9755246.44 5135409.78 182.99
-9755246.84 5135409.66 183.57
-9755241.59 5135413.41 185.16
-9755249.74 5135407.18 192.14
-9755241.71 5135413.33 186.68
-9755242.85 5135412.80 185.04
-9755245.58 5135410.55 190.64
-9755248.77 5135408.24 189.57
-9755249.63 5135407.12 181.45
-9755249.29 5135407.74 182.60
-9755246.93 5135409.55 181.75
-9755243.61 5135412.33 187.38
-9755250.13 5135406.99 189.34
-9755243.37 5135412.42 186.99
-9755245.24 5135411.18 188.38
-9755250.24 5135407.41 185.51
-9755244.29 5135411.59 191.68
-9755248.17 5135408.77 190.82
-9755247.05 5135409.51 186.85
-9755246.93 5135410.42 193.27
-9755241.65 5135413.31 181.47
-9755243.17 5135412.36 181.75
-9755249.16 5135407.79 184.21
-9755251.21 5135409.79 193.98
-9755249.33 5135407.82 183.86
-9755242.53 5135411.81 181.41
-9755248.04 5135408.49 189.11
-9755250.16 5135410.76 192.73
-9755249.92 5135407.29 188.78
-9755250.25 5135407.30 189.60
-9755243.65 5135412.15 183.65
-9755247.98 5135408.79 191.91
-9755247.45 5135409.12 190.24
-9755244.03 5135409.42 181.29
-9755246.30 5135409.92 187.70
-9755246.11 5135410.19 192.37
-9755249.18 5135408.32 191.65
-9755247.01 5135411.35 192.36
-9755248.20 5135408.31 187.42
-9755241.96 5135413.24 185.99
-9755242.14 5135413.15 182.31
-9755244.59 5135411.34 189.70
-9755245.09 5135411.48 181.51
-9755242.31 5135413.14 189.57
-9755249.36 5135412.52 192.36
-9755246.95 5135409.49 181.46
-9755247.50 5135408.92 191.72
-9755250.57 5135411.63 192.34
-9755248.22 5135408.84 186.54
-9755245.60 5135410.40 185.29
-9755243.41 5135412.03 186.86
-9755247.17 5135409.33 183.54
-9755247.01 5135409.25 184.50
-9755248.69 5135408.66 187.91
-9755245.12 5135410.97 182.28
-9755250.02 5135407.13 184.93
-9755250.34 5135411.88 193.07
-9755243.98 5135410.66 181.42
-9755247.65 5135411.02 192.34
-9755242.01 5135413.44 190.32
-9755247.74 5135409.06 190.76
-9755247.36 5135409.05 186.76
-9755244.72 5135411.34 185.96
-9755247.26 5135409.09 192.73
-9755246.16 5135411.00 192.37
-9755245.83 5135409.98 193.24
-9755248.12 5135408.60 185.47
-9755241.80 5135413.32 192.31
-9755246.52 5135409.34 193.29
-9755249.36 5135413.41 192.36
-9755250.34 5135407.38 188.24
-9755250.34 5135407.09 186.24
-9755246.94 5135409.61 190.50
-9755244.57 5135410.98 182.48
-9755246.91 5135409.37 183.35
-9755241.69 5135407.67 181.18
-9755245.14 5135410.69 182.81
-9755249.38 5135407.86 188.98
-9755246.15 5135409.86 185.07
-9755249.51 5135407.64 182.03
-9755249.27 5135408.09 182.64
-9755248.49 5135411.35 192.35
-9755247.45 5135409.02 189.49
-9755248.19 5135408.71 189.02
-9755246.12 5135410.12 191.65
-9755250.38 5135407.21 189.05
-9755246.94 5135407.97 181.35
-9755241.41 5135414.17 193.32
-9755241.19 5135414.08 182.30
-9755241.34 5135408.58 181.19
-9755241.26 5135414.18 185.71
-9755241.35 5135413.46 191.94
-9755241.06 5135414.08 184.89
-9755240.81 5135414.09 188.88
-9755241.10 5135414.12 188.46
-9755240.21 5135410.06 181.18
-9755240.17 5135407.35 181.17
-9755241.06 5135414.04 183.32
-9755241.91 5135412.42 181.42
-9755240.99 5135414.07 183.71
-9755240.21 5135408.86 181.20
-9755241.06 5135407.07 181.19
-9755240.15 5135412.96 181.34
-9755240.66 5135414.15 190.56
-9755240.86 5135414.17 193.32
-9755241.31 5135413.68 183.44
-9755240.21 5135410.93 181.19
-9755241.15 5135414.00 191.77
-9755240.41 5135414.15 181.44
-9755241.33 5135413.75 186.47
-9755240.16 5135413.86 181.39
-9755240.97 5135409.14 181.21
-9755240.50 5135411.83 181.27
-9755240.80 5135410.62 181.23
-9755239.84 5135411.21 181.16
-9755241.25 5135414.04 186.13
-9755240.81 5135414.10 190.80
-9755241.01 5135409.71 181.20
-9755241.01 5135414.20 191.79
-9755241.39 5135413.64 190.24
-9755239.89 5135412.09 181.22
-9755241.02 5135414.15 181.46
-9755241.03 5135410.71 181.25
-9755240.69 5135411.15 181.26
-9755240.98 5135414.03 184.32
-9755240.92 5135413.99 186.48
-9755252.25 5135402.43 181.31
-9755252.02 5135399.09 181.29
-9755252.08 5135397.06 181.33
-9755251.43 5135398.54 181.29
-9755252.03 5135400.30 181.30
-9755251.93 5135401.88 181.29
-9755251.32 5135401.83 181.27
-9755252.69 5135405.89 181.50
-9755252.35 5135405.81 189.93
-9755252.25 5135403.28 181.37
-9755252.02 5135405.81 189.04
-9755251.50 5135406.10 183.97
-9755252.07 5135405.72 191.43
-9755251.98 5135406.08 183.70
-9755251.42 5135406.38 190.72
-9755251.27 5135406.43 189.14
-9755251.89 5135406.15 190.68
-9755251.27 5135406.19 192.70
-9755251.58 5135406.11 183.42
-9755251.73 5135405.82 184.35
-9755251.44 5135406.49 189.94
-9755251.92 5135406.02 189.97
-9755251.29 5135406.52 192.37
-9755251.78 5135405.97 191.56
-9755251.28 5135406.17 189.80
-9755251.96 5135405.70 185.71
-9755251.93 5135405.63 183.70
-9755251.67 5135405.91 185.70
-9755251.73 5135406.23 191.58
-9755251.40 5135406.16 192.16
-9755252.09 5135405.87 187.56
-9755251.49 5135406.21 189.06
-9755251.44 5135406.14 191.81
-9755251.93 5135405.76 185.31
-9755251.36 5135406.37 184.18
-9755251.64 5135406.43 184.69
-9755251.43 5135406.25 191.24
-9755251.83 5135405.83 189.74
-9755252.00 5135405.78 192.10
-9755251.56 5135406.03 190.30
-9755251.58 5135405.92 182.01
-9755251.82 5135405.66 193.29
-9755251.70 5135405.90 191.19
-9755251.31 5135406.13 191.12
-9755251.81 5135405.87 186.32
-9755251.41 5135406.55 186.15
-9755245.61 5135399.24 184.97
-9755242.55 5135400.04 185.07
-9755242.68 5135398.92 185.07
-9755246.04 5135398.19 185.74
-9755242.26 5135398.91 185.25
-9755244.70 5135396.25 185.57
-9755246.99 5135395.99 184.76
-9755249.62 5135399.41 181.28
-9755245.58 5135399.82 184.97
-9755243.17 5135397.05 186.45
-9755242.79 5135399.48 185.04
-9755242.32 5135397.03 186.23
-9755244.08 5135398.88 185.94
-9755244.71 5135397.99 186.04
-9755241.76 5135396.21 185.92
-9755246.12 5135395.58 185.74
-9755247.59 5135401.51 181.25
-9755245.55 5135398.07 184.68
-9755242.36 5135395.32 186.39
-9755242.75 5135397.55 185.26
-9755244.69 5135397.61 185.65
-9755243.88 5135396.15 185.80
-9755245.58 5135400.15 184.95
-9755243.79 5135400.56 185.52
-9755244.71 5135398.61 185.74
-9755243.16 5135398.22 185.61
-9755244.15 5135398.59 185.95
-9755243.25 5135396.15 186.34
-9755245.02 5135398.03 186.13
-9755242.11 5135400.31 185.61
-9755243.77 5135395.56 185.28
-9755242.32 5135400.72 183.35
-9755243.36 5135400.70 185.61
-9755243.19 5135395.85 186.36
-9755244.67 5135400.46 184.59
-9755249.40 5135402.37 181.27
-9755243.57 5135397.04 185.96
-9755245.23 5135400.09 184.79
-9755246.69 5135395.27 185.61
-9755249.68 5135397.59 181.31
-9755243.53 5135398.92 185.32
-9755242.66 5135397.00 185.83
-9755242.33 5135400.02 185.25
-9755241.50 5135399.85 184.61
-9755242.01 5135399.12 184.41
-9755250.48 5135400.85 181.27
-9755242.89 5135397.32 181.49
-9755246.18 5135398.88 185.02
-9755241.81 5135395.10 185.39
-9755241.95 5135400.71 183.47
-9755242.70 5135397.06 186.41
-9755242.05 5135399.39 181.38
-9755251.13 5135398.22 181.29
-9755243.16 5135398.00 185.10
-9755243.52 5135398.55 185.44
-9755245.59 5135396.77 185.64
-9755243.52 5135397.41 186.29
-9755244.34 5135399.82 185.24
-9755243.26 5135399.53 185.14
-9755246.77 5135396.81 185.80
-9755242.31 5135397.32 181.47
-9755243.47 5135399.12 185.53
-9755243.83 5135395.57 186.06
-9755244.43 5135400.30 185.10
-9755242.32 5135399.73 185.08
-9755241.77 5135395.31 185.96
-9755241.41 5135398.53 181.40
-9755242.77 5135395.81 181.57
-9755247.32 5135395.26 185.02
-9755244.06 5135401.23 185.05
-9755250.55 5135397.67 181.31
-9755248.19 5135400.93 181.25
-9755248.72 5135399.12 181.30
-9755244.29 5135400.35 184.92
-9755246.38 5135397.71 185.26
-9755242.01 5135395.53 181.62
-9755242.29 5135400.18 181.34
-9755246.54 5135395.68 185.30
-9755245.57 5135400.72 185.00
-9755246.42 5135395.22 181.53
-9755244.12 5135395.30 186.05
-9755242.03 5135400.17 183.28
-9755247.74 5135397.41 184.72
-9755245.18 5135397.35 186.18
-9755245.59 5135397.41 185.76
-9755243.81 5135398.14 185.19
-9755249.05 5135400.06 181.28
-9755243.15 5135398.88 181.40
-9755244.46 5135399.51 185.01
-9755243.53 5135400.68 184.47
-9755246.20 5135396.83 185.71
-9755241.58 5135398.30 184.31
-9755243.00 5135396.51 186.32
-9755243.49 5135400.74 183.49
-9755246.88 5135396.89 184.75
-9755243.49 5135400.61 185.50
-9755244.07 5135399.18 185.21
-9755245.22 5135397.79 186.15
-9755241.96 5135397.82 184.31
-9755249.67 5135399.09 181.29
-9755242.34 5135398.58 185.55
-9755242.05 5135397.36 186.44
-9755244.41 5135397.66 185.88
-9755249.69 5135401.45 181.26
-9755241.76 5135397.63 181.49
-9755241.58 5135399.25 184.75
-9755245.35 5135396.74 185.13
-9755242.41 5135396.17 186.24
-9755244.13 5135397.70 185.81
-9755245.31 5135397.06 186.07
-9755244.33 5135401.56 181.26
-9755242.27 5135396.43 186.12
-9755244.44 5135396.23 185.62
-9755245.28 5135397.67 185.76
-9755244.35 5135398.91 185.96
-9755245.70 5135397.51 184.70
-9755242.84 5135397.89 186.28
-9755242.83 5135396.08 181.52
-9755243.23 5135399.82 185.59
-9755250.63 5135396.79 181.33
-9755242.85 5135402.63 181.22
-9755250.57 5135399.10 181.30
-9755243.26 5135395.27 186.44
-9755242.29 5135397.72 185.52
-9755243.45 5135401.55 184.67
-9755248.21 5135401.76 181.26
-9755243.13 5135395.71 185.79
-9755249.37 5135399.41 181.29
-9755244.35 5135401.80 181.25
-9755242.37 5135398.94 184.91
-9755242.23 5135400.16 183.76
-9755241.49 5135397.34 186.42
-9755241.53 5135398.33 184.85
-9755250.55 5135395.89 181.36
-9755247.60 5135396.07 184.82
-9755244.39 5135395.59 185.71
-9755244.93 5135402.34 181.23
-9755241.93 5135401.10 181.29
-9755244.71 5135400.66 185.32
-9755245.16 5135398.55 186.36
-9755245.98 5135397.57 185.89
-9755242.36 5135397.71 186.26
-9755242.22 5135401.41 181.30
-9755249.65 5135395.24 181.38
-9755242.34 5135396.06 181.59
-9755245.24 5135401.02 185.04
-9755243.53 5135398.05 185.18
-9755243.19 5135398.55 181.43
-9755246.19 5135397.34 185.92
-9755241.90 5135400.30 181.32
-9755241.72 5135397.63 186.25
-9755241.36 5135400.55 181.32
-9755241.13 5135398.61 184.49
-9755241.42 5135395.31 185.68
-9755239.67 5135395.96 185.25
-9755241.41 5135398.95 185.06
-9755239.76 5135399.02 183.86
-9755240.78 5135395.63 185.07
-9755240.61 5135397.44 185.75
-9755240.27 5135397.38 185.65
-9755240.22 5135402.37 181.27
-9755240.88 5135399.49 184.66
-9755242.09 5135396.25 185.65
-9755241.40 5135395.30 185.05
-9755240.50 5135396.11 181.48
-9755240.27 5135398.54 183.51
-9755240.52 5135400.56 181.36
-9755239.75 5135398.65 183.54
-9755240.91 5135395.13 185.33
-9755239.84 5135395.71 185.38
-9755240.28 5135402.64 182.57
-9755239.81 5135395.38 185.76
-9755241.35 5135398.29 184.10
-9755241.98 5135402.33 181.25
-9755239.66 5135398.76 181.44
-9755241.43 5135400.20 183.37
-9755241.15 5135398.24 183.47
-9755240.00 5135398.32 185.39
-9755240.61 5135397.00 185.47
-9755241.23 5135396.87 184.93
-9755241.52 5135395.58 185.78
-9755240.22 5135396.67 181.48
-9755241.20 5135396.17 186.14
-9755240.33 5135395.95 184.05
-9755239.96 5135395.86 185.67
-9755241.39 5135399.44 184.38
-9755241.22 5135397.67 185.92
-9755240.65 5135397.85 184.10
-9755240.59 5135396.46 186.26
-9755239.68 5135395.98 184.20
-9755241.41 5135397.37 185.91
-9755241.08 5135402.60 181.26
-9755240.58 5135398.62 183.42
-9755240.67 5135395.36 185.39
-9755240.30 5135395.76 181.47
-9755239.83 5135395.18 183.56
-9755240.16 5135395.67 184.95
-9755239.96 5135395.77 181.44
-9755240.17 5135401.72 181.29
-9755240.24 5135397.60 181.46
-9755241.21 5135398.01 184.10
-9755240.32 5135395.66 183.78
-9755239.72 5135395.31 183.97
-9755241.06 5135400.12 185.01
-9755240.38 5135395.91 185.06
-9755241.86 5135395.95 185.36
-9755241.18 5135398.96 185.07
-9755241.16 5135397.19 185.01
-9755241.48 5135400.05 184.82
-9755241.39 5135397.02 186.40
-9755239.86 5135402.71 181.57
-9755241.15 5135400.24 181.34
-9755241.05 5135398.92 184.15
-9755241.09 5135399.37 181.38
-9755239.90 5135395.75 184.13
-9755241.50 5135397.15 185.01
-9755240.40 5135395.54 185.06
-9755240.28 5135397.63 185.68
-9755250.57 5135407.14 182.39
-9755245.20 5135407.12 181.22
-9755246.05 5135402.63 181.22
-9755241.95 5135407.43 181.18
-9755251.13 5135406.77 181.51
-9755249.67 5135403.21 181.25
-9755243.17 5135404.11 181.21
-9755247.00 5135405.29 181.25
-9755247.04 5135403.91 181.24
-9755242.20 5135407.06 181.18
-9755250.45 5135407.02 189.05
-9755250.99 5135406.67 184.20
-9755249.61 5135406.58 181.44
-9755246.09 5135407.10 181.27
-9755250.96 5135406.70 191.37
-9755251.15 5135406.60 183.65
-9755250.46 5135406.80 184.98
-9755242.23 5135405.84 181.19
-9755250.48 5135406.20 181.47
-9755243.77 5135403.16 181.23
-9755251.13 5135406.39 182.77
-9755250.62 5135406.54 182.62
-9755249.64 5135405.35 181.38
-9755251.20 5135406.60 185.33
-9755246.75 5135403.27 181.23
-9755245.54 5135406.11 181.23
-9755250.40 5135406.95 187.80
