-9755592.80 5135691.34 180.40
-9755592.51 5135694.88 180.71
-9755591.05 5135690.71 180.47
-9755587.85 5135690.72 180.51
-9755595.82 5135693.41 180.53
-9755591.67 5135690.18 180.45
-9755591.38 5135694.28 180.56
-9755587.81 5135690.10 180.51
-9755592.81 5135693.73 180.56
-9755595.48 5135688.05 180.16
-9755589.72 5135690.71 188.22
-9755590.32 5135690.88 185.29
-9755598.10 5135695.52 180.53
-9755594.96 5135693.13 180.52
-9755591.44 5135688.94 180.27
-9755595.51 5135689.58 180.20
-9755590.83 5135691.88 180.47
-9755589.74 5135690.81 185.60
-9755596.63 5135689.89 180.21
-9755598.49 5135688.41 180.10
-9755597.31 5135691.65 180.34
-9755587.90 5135688.91 180.35
-9755587.52 5135686.00 180.39
-9755586.71 5135680.93 180.48
-9755585.80 5135681.24 180.50
-9755586.69 5135681.54 180.48
-9755586.40 5135682.35 180.49
-9755586.68 5135683.64 180.49
-9755584.06 5135686.55 180.45
-9755585.56 5135683.26 180.52
-9755584.59 5135687.40 180.42
-9755585.17 5135684.20 180.51
-9755585.49 5135685.10 180.47
-9755584.36 5135683.25 180.54
-9755585.18 5135685.05 180.48
-9755586.33 5135689.21 180.52
-9755587.19 5135695.39 180.77
-9755587.19 5135695.07 180.74
-9755586.04 5135694.24 180.61
-9755586.60 5135694.30 180.61
-9755586.95 5135696.30 180.84
-9755586.91 5135693.30 180.55
-9755586.31 5135688.95 180.41
-9755586.38 5135694.54 180.64
-9755586.67 5135693.95 180.58
-9755584.60 5135696.29 180.87
-9755585.53 5135693.36 180.59
-9755584.62 5135692.75 180.60
-9755585.47 5135696.02 180.85
-9755584.84 5135692.72 180.58
-9755584.89 5135687.71 180.41
-9755584.27 5135690.96 180.59
-9755583.99 5135693.64 180.63
-9755575.80 5135684.05 180.74
-9755574.25 5135687.06 180.64
-9755580.50 5135683.60 180.62
-9755576.11 5135685.60 180.68
-9755582.32 5135681.46 180.59
-9755575.75 5135686.78 180.63
-9755580.55 5135680.93 180.64
-9755579.28 5135687.38 180.53
-9755583.74 5135684.18 180.55
-9755583.22 5135681.22 180.56
-9755578.17 5135681.14 180.69
-9755578.13 5135684.66 180.65
-9755573.48 5135681.42 180.78
-9755578.17 5135683.21 180.69
-9755579.02 5135686.49 180.58
-9755581.95 5135685.93 180.52
-9755579.91 5135684.12 180.63
-9755574.89 5135684.72 180.74
-9755582.31 5135682.68 180.59
-9755573.12 5135685.86 180.71
-9755577.01 5135682.62 180.71
-9755582.91 5135681.76 180.55
-9755584.64 5135685.36 180.48
-9755580.79 5135683.85 180.63
-9755581.40 5135681.24 180.62
-9755582.54 5135684.78 180.55
-9755575.24 5135681.68 180.75
-9755575.77 5135684.64 180.72
-9755578.48 5135684.11 180.66
-9755575.16 5135685.58 180.70
-9755576.74 5135684.66 180.69
-9755573.71 5135681.76 180.78
-9755578.13 5135682.35 180.70
-9755564.87 5135683.17 180.93
-9755560.15 5135685.74 180.88
-9755568.41 5135684.06 180.86
-9755561.65 5135685.56 180.88
-9755559.32 5135684.31 180.96
-9755566.11 5135683.48 180.90
-9755564.59 5135684.02 180.92
-9755569.85 5135687.02 180.72
-9755571.38 5135681.39 180.82
-9755569.34 5135681.69 180.87
-9755563.10 5135685.79 180.85
-9755569.02 5135683.13 180.86
-9755569.04 5135685.25 180.81
-9755569.56 5135681.67 180.87
-9755561.31 5135683.41 180.97
-9755560.74 5135686.68 180.83
-9755559.26 5135685.79 180.90
-9755568.43 5135684.66 180.84
-9755564.65 5135682.55 180.93
-9755562.50 5135684.06 180.94
-9755569.03 5135681.41 180.87
-9755566.92 5135684.61 180.88
-9755560.80 5135683.69 180.97
-9755565.48 5135681.67 180.92
-9755559.92 5135685.75 180.89
-9755563.37 5135686.09 180.84
-9755563.45 5135684.05 180.93
-9755562.48 5135686.08 180.85
-9755570.76 5135684.68 180.80
-9755566.03 5135681.06 180.92
-9755567.28 5135684.05 180.88
-9755570.14 5135682.59 180.86
-9755561.04 5135683.12 180.97
-9755569.59 5135684.05 180.85
-9755570.15 5135685.55 180.79
-9755562.80 5135685.17 180.89
-9755559.24 5135685.51 180.91
-9755559.25 5135686.14 180.87
-9755583.09 5135693.90 180.65
-9755572.53 5135688.26 180.62
-9755577.19 5135696.19 185.12
-9755577.20 5135693.92 180.76
-9755582.27 5135687.70 180.45
-9755577.47 5135693.31 180.75
-9755580.80 5135691.86 180.66
-9755579.34 5135694.96 185.02
-9755578.71 5135693.92 183.74
-9755580.83 5135689.78 180.64
-9755577.50 5135690.61 180.72
-9755576.05 5135694.77 180.82
-9755578.45 5135689.14 180.66
-9755578.98 5135688.34 180.51
-9755573.41 5135687.36 180.65
-9755580.15 5135689.17 180.64
-9755580.46 5135695.97 180.91
-9755573.68 5135688.24 180.59
-9755583.40 5135695.68 180.83
-9755573.99 5135690.03 180.76
-9755575.70 5135693.00 180.77
-9755579.53 5135695.55 185.01
-9755575.51 5135688.85 180.58
-9755578.99 5135694.23 180.74
-9755578.98 5135691.51 180.69
-9755572.51 5135693.53 180.80
-9755575.72 5135694.50 180.80
-9755576.07 5135687.66 180.58
-9755577.48 5135695.01 180.85
-9755572.48 5135691.20 180.77
-9755576.22 5135695.71 184.39
-9755578.72 5135694.96 183.27
-9755580.17 5135694.86 180.78
-9755573.14 5135687.97 180.62
-9755580.51 5135694.90 184.44
-9755572.84 5135689.18 180.67
-9755578.95 5135694.57 184.22
-9755580.37 5135695.46 184.86
-9755579.54 5135692.41 180.70
-9755582.21 5135694.82 180.78
-9755577.87 5135692.40 180.72
-9755583.12 5135695.40 180.82
-9755580.22 5135696.00 185.81
-9755573.07 5135694.43 180.81
-9755575.10 5135694.78 180.82
-9755573.08 5135689.17 180.69
-9755580.01 5135695.88 183.13
-9755583.39 5135694.82 180.77
-9755582.21 5135695.64 180.85
-9755582.54 5135690.67 180.62
-9755574.30 5135687.97 180.62
-9755561.64 5135689.11 180.72
-9755562.48 5135691.12 180.84
-9755568.46 5135687.00 180.74
-9755568.92 5135693.88 180.84
-9755571.02 5135687.35 180.68
-9755566.01 5135689.42 180.70
-9755567.79 5135695.78 184.29
-9755559.57 5135695.03 186.82
-9755568.38 5135691.12 180.80
-9755568.69 5135688.20 180.68
-9755565.72 5135688.79 180.69
-9755561.01 5135693.23 180.88
-9755564.61 5135691.66 188.61
-9755569.56 5135691.75 180.81
-9755566.90 5135689.63 180.79
-9755564.83 5135691.74 180.83
-9755561.33 5135691.41 180.84
-9755567.47 5135693.86 180.84
-9755565.70 5135693.53 180.85
-9755563.41 5135688.79 180.71
-9755565.98 5135691.47 180.82
-9755564.44 5135691.28 189.17
-9755570.11 5135688.86 180.64
-9755563.94 5135689.69 180.81
-9755564.62 5135691.51 188.11
-9755567.87 5135695.79 183.18
-9755559.84 5135690.24 180.84
-9755568.39 5135690.26 180.80
-9755559.84 5135692.60 180.87
-9755565.72 5135692.33 180.84
-9755561.04 5135687.32 180.80
-9755565.71 5135694.41 180.87
-9755568.96 5135692.05 180.82
-9755564.83 5135694.68 180.88
-9755564.22 5135690.19 180.81
-9755564.29 5135690.25 187.79
-9755570.45 5135693.80 180.83
-9755564.52 5135688.17 180.73
-9755565.15 5135692.62 180.84
-9755570.11 5135695.60 180.98
-9755565.15 5135690.56 180.81
-9755560.10 5135689.62 180.81
-9755571.60 5135693.56 180.80
-9755570.98 5135691.75 180.80
-9755564.86 5135692.62 180.85
-9755560.41 5135688.43 180.76
-9755570.69 5135694.43 180.84
-9755559.23 5135693.52 180.89
-9755558.07 5135695.62 184.50
-9755557.73 5135695.92 187.09
-9755557.74 5135693.25 185.89
-9755558.66 5135691.97 180.87
-9755558.03 5135694.92 184.52
-9755557.74 5135694.67 180.92
-9755558.08 5135693.92 185.93
-9755556.84 5135695.83 181.06
-9755557.74 5135691.99 180.87
-9755557.44 5135694.04 180.90
-9755557.16 5135695.65 185.27
-9755556.99 5135681.04 181.01
-9755556.93 5135683.73 181.00
-9755557.32 5135692.37 184.69
-9755556.43 5135694.11 185.23
-9755555.99 5135689.33 180.77
-9755556.94 5135687.87 180.82
-9755557.14 5135695.01 185.28
-9755556.88 5135692.01 180.85
-9755556.59 5135694.23 184.79
-9755556.01 5135687.24 180.85
-9755556.34 5135688.43 180.79
-9755556.88 5135692.86 180.89
-9755556.37 5135694.24 184.86
-9755556.00 5135690.24 180.85
-9755592.56 5135700.48 186.39
-9755592.23 5135700.53 186.27
-9755592.60 5135700.53 186.09
-9755593.95 5135700.73 186.74
-9755595.23 5135700.30 186.58
-9755593.09 5135700.55 185.94
-9755595.49 5135700.31 186.60
-9755592.53 5135700.66 185.60
-9755597.09 5135700.30 187.53
-9755598.85 5135704.01 185.91
-9755604.90 5135702.37 180.68
-9755598.99 5135702.31 184.94
-9755599.37 5135702.68 184.80
-9755599.63 5135705.67 180.86
-9755600.38 5135703.17 180.76
-9755599.25 5135704.70 185.99
-9755605.77 5135702.38 180.66
-9755606.66 5135704.14 180.71
-9755598.82 5135704.12 186.41
-9755601.35 5135701.09 180.67
-9755607.21 5135706.85 180.84
-9755603.96 5135706.47 180.85
-9755599.23 5135705.60 186.13
-9755599.59 5135704.44 186.05
-9755598.99 5135702.35 185.39
-9755598.41 5135703.21 186.54
-9755591.06 5135701.54 185.10
-9755593.84 5135706.31 189.12
-9755593.42 5135705.04 187.96
-9755593.72 5135701.38 187.09
-9755592.23 5135701.44 186.33
-9755593.77 5135704.56 189.11
-9755594.21 5135703.04 188.65
-9755589.28 5135703.96 183.92
-9755594.05 5135702.55 188.78
-9755590.08 5135704.76 184.97
-9755598.74 5135704.68 185.95
-9755593.84 5135702.29 187.19
-9755593.64 5135704.30 189.11
-9755596.97 5135702.74 187.79
-9755590.50 5135703.63 185.10
-9755590.82 5135702.50 185.82
-9755591.62 5135706.41 186.25
-9755594.19 5135705.43 189.36
-9755591.86 5135706.99 186.09
-9755594.91 5135703.94 188.55
-9755595.62 5135701.95 187.73
-9755590.08 5135703.85 184.95
-9755590.21 5135701.49 184.36
-9755597.96 5135704.30 187.65
-9755598.46 5135702.35 185.40
-9755592.79 5135701.11 186.61
-9755593.43 5135705.69 188.21
-9755593.41 5135703.88 189.20
-9755593.98 5135703.10 188.64
-9755598.74 5135706.45 186.10
-9755594.26 5135706.69 186.72
-9755597.08 5135705.99 186.61
-9755598.49 5135703.86 185.56
-9755593.79 5135705.18 188.52
-9755592.54 5135702.30 187.20
-9755594.73 5135705.69 187.99
-9755593.20 5135704.54 189.14
-9755595.45 5135701.38 187.78
-9755590.79 5135706.19 184.91
-9755594.74 5135701.43 186.67
-9755597.96 5135705.36 186.91
-9755594.82 5135702.77 188.00
-9755591.01 5135707.25 185.20
-9755593.16 5135705.82 186.72
-9755595.31 5135701.88 187.71
-9755595.01 5135701.04 187.38
-9755598.75 5135702.61 186.98
-9755596.38 5135706.02 188.31
-9755592.15 5135706.39 185.40
-9755591.97 5135701.08 186.69
-9755588.90 5135704.07 184.45
-9755591.86 5135705.52 185.30
-9755595.80 5135701.34 188.04
-9755592.19 5135703.24 186.30
-9755596.61 5135705.25 187.62
-9755590.72 5135701.03 185.34
-9755590.95 5135703.16 185.87
-9755593.16 5135703.33 187.51
-9755596.68 5135701.36 186.36
-9755593.49 5135702.48 189.00
-9755594.62 5135701.10 187.26
-9755592.23 5135701.04 186.88
-9755590.17 5135705.00 185.83
-9755596.66 5135703.17 187.70
-9755594.02 5135701.89 188.80
-9755593.99 5135702.72 188.90
-9755592.55 5135701.04 185.11
-9755593.48 5135704.27 188.51
-9755593.79 5135706.48 186.71
-9755596.68 5135705.71 187.62
-9755593.88 5135701.38 186.30
-9755594.28 5135706.19 187.06
-9755593.16 5135703.97 187.95
-9755594.27 5135705.82 188.37
-9755595.47 5135705.24 188.91
-9755598.72 5135703.83 186.64
-9755589.03 5135705.81 184.69
-9755590.98 5135704.92 185.35
-9755592.90 5135705.74 189.22
-9755596.07 5135702.17 188.37
-9755594.40 5135701.07 186.50
-9755596.67 5135706.52 187.38
-9755597.25 5135703.62 187.73
-9755593.74 5135703.35 188.19
-9755594.32 5135703.86 189.00
-9755595.53 5135701.66 187.53
-9755595.80 5135705.79 188.33
-9755593.15 5135705.16 186.74
-9755597.01 5135703.07 188.01
-9755596.14 5135706.94 188.22
-9755596.09 5135703.98 189.37
-9755595.58 5135704.76 189.11
-9755592.20 5135706.45 185.19
-9755596.03 5135703.05 188.42
-9755593.04 5135703.91 188.83
-9755598.60 5135703.67 185.65
-9755593.42 5135703.34 187.68
-9755596.51 5135701.91 186.50
-9755592.51 5135701.08 186.75
-9755594.28 5135704.21 188.64
-9755598.44 5135706.50 186.00
-9755595.48 5135703.23 181.04
-9755590.20 5135706.77 184.96
-9755589.89 5135704.08 185.19
-9755597.48 5135700.78 180.71
-9755589.25 5135706.48 184.79
-9755593.85 5135705.75 188.74
-9755595.79 5135705.17 189.13
-9755595.69 5135703.57 188.31
-9755588.76 5135703.90 184.97
-9755595.49 5135703.12 188.21
-9755591.61 5135701.03 186.02
-9755595.54 5135707.22 188.16
-9755592.56 5135703.62 187.54
-9755592.93 5135701.89 187.04
-9755598.15 5135703.57 185.99
-9755594.48 5135705.28 189.56
-9755593.10 5135705.22 187.62
-9755591.34 5135703.13 186.82
-9755595.50 5135704.06 188.94
-9755598.02 5135705.38 185.91
-9755591.89 5135706.43 186.20
-9755593.00 5135704.27 188.40
-9755590.48 5135704.06 184.95
-9755593.47 5135702.74 187.37
-9755595.78 5135704.77 189.65
-9755590.92 5135705.72 184.74
-9755598.46 5135705.59 186.99
-9755593.09 5135700.76 185.85
-9755597.81 5135704.99 186.71
-9755595.45 5135703.35 188.31
-9755589.27 5135704.75 184.35
-9755595.80 5135703.47 188.35
-9755591.37 5135704.61 186.46
-9755590.44 5135705.15 187.19
-9755594.72 5135704.19 188.36
-9755589.76 5135704.38 184.82
-9755589.93 5135701.09 183.24
-9755588.07 5135702.51 181.27
-9755593.71 5135707.00 186.77
-9755589.59 5135704.93 185.49
-9755591.60 5135706.53 185.29
-9755593.92 5135701.75 187.30
-9755594.16 5135701.91 187.83
-9755592.78 5135703.93 188.73
-9755597.85 5135706.90 186.50
-9755592.21 5135702.22 186.71
-9755592.21 5135704.59 186.52
-9755589.90 5135704.43 185.44
-9755593.42 5135706.28 187.64
-9755595.49 5135704.38 181.07
-9755592.71 5135706.76 186.57
-9755594.37 5135701.47 186.55
-9755591.74 5135701.42 185.39
-9755594.22 5135707.02 186.62
-9755592.22 5135704.93 185.93
-9755594.96 5135705.51 188.68
-9755593.94 5135706.93 186.78
-9755590.09 5135706.45 185.66
-9755591.76 5135701.17 186.53
-9755600.43 5135700.25 180.65
-9755594.04 5135699.83 185.99
-9755594.17 5135699.83 185.89
-9755595.33 5135700.26 186.63
-9755594.04 5135699.86 186.73
-9755593.42 5135700.62 180.98
-9755595.17 5135698.26 184.86
-9755591.38 5135698.27 183.41
-9755591.62 5135700.26 185.55
-9755590.66 5135699.69 184.33
-9755593.62 5135699.17 185.87
-9755590.47 5135700.04 184.57
-9755590.46 5135699.74 184.98
-9755593.80 5135698.51 184.79
-9755594.19 5135699.61 185.94
-9755592.88 5135698.65 185.26
-9755590.48 5135699.95 184.23
-9755592.20 5135699.08 185.47
-9755594.31 5135699.68 186.55
-9755591.84 5135698.74 184.97
-9755594.36 5135699.40 186.64
-9755593.04 5135698.81 185.47
-9755593.65 5135697.88 185.54
-9755594.93 5135698.62 183.39
-9755593.68 5135698.68 183.95
-9755592.54 5135699.95 185.38
-9755591.12 5135699.82 185.54
-9755594.30 5135698.78 185.25
-9755593.78 5135698.72 184.86
-9755592.24 5135699.37 186.22
-9755595.18 5135698.80 185.26
-9755592.23 5135699.05 180.97
-9755595.37 5135698.38 183.29
-9755591.60 5135699.03 183.72
-9755595.41 5135697.74 185.00
-9755587.23 5135701.00 181.19
-9755583.62 5135707.26 181.26
-9755583.09 5135700.67 181.25
-9755583.10 5135697.73 181.00
-9755607.59 5135683.48 180.05
-9755603.78 5135687.25 180.02
-9755604.98 5135683.39 180.09
-9755590.54 5135680.99 180.39
-9755591.45 5135682.19 180.36
-9755598.81 5135684.27 180.18
-9755596.15 5135682.18 180.27
-9755596.66 5135685.73 180.20
-9755607.00 5135693.19 180.28
-9755605.83 5135692.56 180.26
-9755605.19 5135695.26 180.43
-9755606.68 5135689.96 180.05
-9755606.99 5135692.93 180.28
-9755599.61 5135690.75 180.22
-9755593.45 5135689.84 180.30
-9755598.16 5135693.68 180.46
-9755597.27 5135690.77 180.25
-9755592.24 5135695.12 180.70
-9755589.97 5135689.91 188.66
-9755593.40 5135693.99 180.59
-9755587.82 5135690.36 180.51
-9755594.88 5135693.71 180.59
-9755589.93 5135689.45 188.72
-9755589.99 5135689.26 187.93
-9755589.87 5135689.97 187.58
-9755590.07 5135690.02 189.13
-9755598.19 5135687.53 180.12
-9755585.79 5135680.95 180.50
-9755585.56 5135681.81 180.51
-9755584.02 5135691.60 180.59
-9755585.53 5135688.29 180.37
-9755575.78 5135700.33 188.34
-9755578.13 5135700.08 187.67
-9755581.01 5135700.60 183.61
-9755574.91 5135700.43 188.88
-9755578.93 5135699.91 186.48
-9755573.57 5135700.62 187.17
-9755579.88 5135700.11 186.39
-9755572.80 5135700.12 186.79
-9755573.81 5135700.63 187.12
-9755580.54 5135700.58 183.37
-9755573.97 5135700.34 187.12
-9755572.74 5135700.09 186.62
-9755574.80 5135700.55 189.34
-9755578.64 5135700.49 186.28
-9755577.83 5135700.05 188.13
-9755574.12 5135700.64 181.22
-9755572.50 5135699.86 186.51
-9755572.26 5135700.22 185.38
-9755564.20 5135700.10 186.25
-9755570.81 5135700.01 186.63
-9755572.13 5135699.89 185.55
-9755559.73 5135700.48 189.12
-9755569.03 5135700.21 189.31
-9755568.87 5135700.24 188.38
-9755569.38 5135700.23 188.74
-9755566.68 5135700.36 187.69
-9755570.70 5135700.35 186.76
-9755565.80 5135700.57 187.85
-9755560.80 5135700.25 187.09
-9755565.69 5135700.56 188.39
-9755567.89 5135699.96 189.07
-9755564.79 5135700.32 186.73
-9755561.68 5135700.05 186.31
-9755565.99 5135699.94 187.76
-9755564.27 5135699.83 185.97
-9755568.98 5135700.57 189.14
-9755570.19 5135700.28 186.15
-9755566.09 5135700.22 188.32
-9755561.67 5135700.03 186.45
-9755560.07 5135699.97 181.26
-9755568.37 5135700.36 188.36
-9755565.13 5135700.57 187.86
-9755562.08 5135700.15 185.00
-9755569.93 5135700.31 187.39
-9755559.24 5135699.99 186.99
-9755574.81 5135703.18 189.89
-9755579.96 5135700.81 186.19
-9755576.70 5135701.79 188.69
-9755579.01 5135703.65 186.41
-9755574.88 5135703.55 189.56
-9755572.85 5135701.64 187.05
-9755575.39 5135701.89 188.99
-9755578.71 5135702.21 186.31
-9755573.39 5135703.86 188.20
-9755574.33 5135706.09 186.39
-9755579.04 5135704.68 185.08
-9755575.91 5135705.64 185.46
-9755579.46 5135701.42 186.09
-9755579.47 5135702.85 185.02
-9755575.73 5135704.48 188.14
-9755573.03 5135702.42 186.69
-9755579.38 5135705.20 185.65
-9755578.92 5135700.74 186.25
-9755576.90 5135705.69 185.11
-9755579.00 5135702.92 186.61
-9755576.92 5135702.96 189.74
-9755577.26 5135702.02 189.61
-9755576.34 5135702.32 189.32
-9755573.28 5135703.57 181.38
-9755574.18 5135705.96 186.63
-9755576.35 5135701.11 189.43
-9755579.88 5135701.38 186.71
-9755578.26 5135701.27 187.54
-9755574.84 5135705.68 185.59
-9755575.77 5135705.51 186.73
-9755577.29 5135702.36 189.60
-9755578.14 5135704.95 186.13
-9755573.70 5135702.93 189.54
-9755579.11 5135702.02 185.91
-9755576.02 5135703.20 189.70
-9755575.45 5135705.07 188.33
-9755572.71 5135703.30 187.11
-9755575.75 5135703.71 189.20
-9755579.78 5135705.56 185.14
-9755578.94 5135702.93 185.73
-9755578.63 5135704.29 185.04
-9755575.22 5135703.78 190.28
-9755574.73 5135705.18 185.85
-9755572.82 5135704.77 186.84
-9755574.26 5135703.22 189.61
-9755574.57 5135700.70 187.79
-9755573.73 5135701.48 189.00
-9755574.61 5135704.88 186.61
-9755577.25 5135704.76 187.58
-9755581.03 5135703.49 185.01
-9755573.77 5135700.84 188.35
-9755575.70 5135704.61 187.10
-9755578.67 5135705.06 187.23
-9755574.03 5135703.54 189.59
-9755576.25 5135704.73 188.32
-9755574.00 5135705.41 187.38
-9755579.89 5135701.99 186.02
-9755574.27 5135703.57 187.86
-9755575.75 5135701.47 188.66
-9755575.83 5135702.61 189.37
-9755574.59 5135703.20 189.86
-9755574.25 5135701.18 189.10
-9755574.13 5135701.82 188.92
-9755574.26 5135705.41 186.30
-9755576.42 5135702.64 189.72
-9755574.42 5135703.25 189.77
-9755578.53 5135706.11 184.92
-9755576.60 5135704.12 188.75
-9755577.26 5135701.53 188.99
-9755580.13 5135703.60 184.25
-9755576.85 5135706.40 184.75
-9755580.18 5135702.88 185.67
-9755576.94 5135701.80 188.69
-9755574.42 5135703.87 181.37
-9755574.48 5135701.27 188.24
-9755577.69 5135701.53 181.26
-9755579.78 5135705.29 184.49
-9755574.61 5135705.09 186.61
-9755573.69 5135703.54 189.37
-9755573.13 5135701.89 186.78
-9755575.21 5135702.62 190.07
-9755579.64 5135700.71 185.33
-9755575.21 5135702.02 189.11
-9755573.62 5135701.15 188.98
-9755580.67 5135703.13 181.37
-9755576.96 5135701.35 187.68
-9755578.32 5135706.13 184.81
-9755574.81 5135705.46 186.13
-9755573.67 5135703.89 187.79
-9755579.10 5135702.33 185.72
-9755574.01 5135706.06 185.77
-9755572.81 5135702.34 189.33
-9755578.07 5135704.37 185.96
-9755573.25 5135701.82 187.70
-9755574.87 5135705.10 186.61
-9755574.00 5135706.02 186.63
-9755579.27 5135701.89 186.57
-9755574.64 5135705.51 185.88
-9755576.69 5135701.19 189.24
-9755577.03 5135703.29 187.57
-9755578.17 5135702.20 187.35
-9755577.31 5135703.17 188.60
-9755573.91 5135706.63 185.41
-9755577.17 5135705.67 185.80
-9755575.74 5135701.20 189.27
-9755575.14 5135706.02 187.42
-9755580.45 5135703.02 185.89
-9755566.50 5135704.80 186.70
-9755563.02 5135705.61 185.30
-9755565.40 5135701.14 188.30
-9755566.83 5135705.57 186.08
-9755572.13 5135704.08 185.12
-9755565.18 5135701.45 187.92
-9755571.68 5135701.87 187.02
-9755570.32 5135705.22 184.12
-9755572.43 5135703.99 186.64
-9755568.66 5135705.68 187.00
-9755566.57 5135704.31 189.02
-9755564.98 5135705.01 184.82
-9755565.93 5135703.14 188.99
-9755571.55 5135701.30 186.33
-9755560.18 5135702.38 189.61
-9755560.71 5135706.45 184.98
-9755571.86 5135702.46 187.06
-9755567.50 5135703.48 189.54
-9755570.38 5135703.69 185.87
-9755565.45 5135701.40 188.64
-9755568.34 5135702.31 188.76
-9755559.21 5135704.28 188.95
-9755571.69 5135704.39 184.67
-9755561.02 5135706.09 184.61
-9755567.50 5135705.91 187.03
-9755560.11 5135701.66 188.91
-9755561.31 5135702.04 186.65
-9755564.86 5135705.67 185.00
-9755561.35 5135703.94 186.07
-9755565.31 5135701.39 188.27
-9755571.59 5135701.57 186.39
-9755565.14 5135702.46 187.91
-9755565.54 5135700.60 187.67
-9755569.54 5135703.23 187.84
-9755564.22 5135705.22 185.29
-9755566.80 5135703.97 181.42
-9755570.45 5135700.72 186.17
-9755559.80 5135700.73 188.27
-9755567.51 5135702.15 187.47
-9755566.96 5135703.20 188.98
-9755568.65 5135701.61 188.13
-9755565.42 5135702.96 188.59
-9755559.29 5135703.62 187.56
-9755560.98 5135700.28 186.45
-9755559.33 5135701.41 188.56
-9755566.32 5135704.08 188.71
-9755570.53 5135705.16 184.28
-9755565.43 5135703.81 188.78
-9755562.04 5135704.78 186.99
-9755571.00 5135702.74 187.40
-9755571.92 5135702.69 186.71
-9755565.09 5135704.48 186.97
-9755560.92 5135702.97 187.25
-9755571.68 5135702.53 185.90
-9755565.71 5135702.15 187.89
-9755566.87 5135701.54 181.53
-9755568.65 5135705.27 185.19
-9755567.50 5135702.94 189.28
-9755569.16 5135706.04 184.52
-9755568.11 5135702.31 188.76
-9755568.77 5135702.97 188.07
-9755567.17 5135706.48 185.09
-9755571.52 5135701.04 185.74
-9755566.27 5135702.34 188.33
-9755559.80 5135702.96 188.43
-9755562.58 5135704.57 185.16
-9755564.26 5135702.09 186.88
-9755561.73 5135704.36 186.17
-9755565.83 5135702.28 188.59
-9755568.75 5135702.43 188.15
-9755561.87 5135703.89 185.96
-9755566.55 5135705.66 186.47
-9755560.73 5135703.57 187.36
-9755559.46 5135703.53 188.97
-9755571.27 5135705.59 184.26
-9755564.95 5135705.93 181.47
-9755560.13 5135702.31 189.02
-9755569.13 5135701.49 187.31
-9755565.94 5135704.06 188.71
-9755560.07 5135700.98 188.12
-9755561.62 5135706.10 184.63
-9755563.34 5135704.00 184.94
-9755566.21 5135703.75 188.78
-9755571.29 5135701.52 186.53
-9755560.13 5135700.91 186.35
-9755561.90 5135707.25 185.43
-9755570.08 5135706.22 184.65
-9755566.84 5135703.19 188.95
-9755566.29 5135701.14 189.13
-9755559.81 5135705.32 186.99
-9755568.72 5135701.81 188.37
-9755564.79 5135704.92 183.56
-9755567.11 5135703.13 189.31
-9755566.69 5135702.08 188.50
-9755568.75 5135702.96 188.96
-9755565.52 5135703.16 188.86
-9755563.06 5135703.37 186.11
-9755570.75 5135702.40 187.35
-9755559.63 5135700.75 186.75
-9755565.14 5135702.32 187.41
-9755561.21 5135705.70 186.13
-9755569.17 5135702.97 187.00
-9755566.18 5135704.62 181.46
-9755571.23 5135704.53 184.76
-9755559.99 5135706.88 185.18
-9755559.44 5135706.62 185.42
-9755560.22 5135705.64 185.67
-9755565.67 5135704.54 186.70
-9755566.94 5135704.43 189.30
-9755565.78 5135703.50 189.05
-9755567.83 5135700.65 187.20
-9755567.27 5135700.63 188.35
-9755571.82 5135701.08 185.34
-9755561.44 5135705.69 186.16
-9755565.76 5135704.74 186.21
-9755571.50 5135706.40 183.74
-9755563.04 5135703.31 185.45
-9755561.52 5135706.08 183.71
-9755570.72 5135701.50 186.41
-9755564.62 5135703.10 186.46
-9755564.76 5135704.72 186.84
-9755571.49 5135705.40 185.02
-9755559.30 5135704.44 186.98
-9755569.18 5135702.93 188.17
-9755566.10 5135702.33 187.25
-9755566.91 5135703.90 187.04
-9755567.83 5135701.99 189.09
-9755566.21 5135706.04 185.08
-9755564.52 5135704.78 186.83
-9755563.31 5135703.38 185.50
-9755562.99 5135702.77 185.99
-9755571.35 5135701.32 186.30
-9755560.96 5135703.31 181.42
-9755559.51 5135706.57 184.91
-9755559.80 5135700.79 189.17
-9755566.67 5135705.64 186.64
-9755565.12 5135700.64 187.24
-9755570.40 5135703.04 187.26
-9755568.28 5135703.86 181.44
-9755559.27 5135706.41 184.44
-9755568.03 5135701.51 188.63
-9755565.55 5135706.02 186.03
-9755564.02 5135702.76 186.58
-9755564.47 5135703.26 186.22
-9755569.32 5135702.69 187.09
-9755564.19 5135701.22 185.86
-9755568.68 5135705.12 186.71
-9755568.39 5135701.83 189.04
-9755560.99 5135704.44 185.89
-9755565.10 5135706.07 184.28
-9755562.20 5135704.02 185.46
-9755560.99 5135704.86 185.99
-9755565.73 5135701.66 189.04
-9755565.07 5135700.82 187.85
-9755563.63 5135701.50 186.21
-9755567.51 5135703.74 188.79
-9755565.22 5135704.08 187.05
-9755561.07 5135704.76 187.17
-9755572.36 5135703.61 186.81
-9755568.41 5135705.70 187.02
-9755570.42 5135701.48 187.42
-9755557.96 5135706.35 185.82
-9755558.80 5135706.47 186.06
-9755558.08 5135701.36 189.52
-9755558.96 5135701.09 189.56
-9755558.68 5135703.66 189.34
-9755558.05 5135704.43 188.11
-9755557.94 5135706.56 187.07
-9755557.64 5135706.96 184.47
-9755558.02 5135704.55 188.78
-9755557.87 5135705.56 186.44
-9755558.36 5135702.31 188.51
-9755558.03 5135700.72 189.70
-9755557.98 5135700.78 188.99
-9755557.82 5135701.95 189.04
-9755559.12 5135704.45 188.03
-9755558.32 5135701.89 189.35
-9755558.74 5135702.14 189.06
-9755558.07 5135705.59 188.11
-9755557.75 5135704.37 188.37
-9755558.25 5135704.36 181.41
-9755573.54 5135698.20 185.19
-9755578.34 5135698.95 185.90
-9755580.21 5135698.19 183.78
-9755576.33 5135698.65 186.74
-9755572.86 5135699.76 186.82
-9755572.46 5135697.47 185.05
-9755575.23 5135697.44 186.66
-9755576.59 5135698.08 187.75
-9755576.57 5135696.89 185.12
-9755580.86 5135696.97 185.15
-9755577.85 5135698.33 186.90
-9755572.66 5135698.21 184.27
-9755573.18 5135696.99 184.37
-9755576.91 5135698.06 185.08
-9755580.13 5135699.84 184.70
-9755579.02 5135696.27 182.91
-9755577.85 5135696.57 185.31
-9755574.86 5135699.50 188.18
-9755572.48 5135698.10 185.34
-9755573.62 5135699.80 186.72
-9755578.14 5135699.84 186.78
-9755579.01 5135698.64 184.42
-9755576.25 5135699.24 187.12
-9755577.85 5135698.96 186.70
-9755578.32 5135700.05 187.37
-9755574.19 5135696.92 185.20
-9755576.98 5135699.03 187.00
-9755577.82 5135697.85 185.96
-9755573.63 5135699.19 186.55
-9755572.72 5135698.97 185.93
-9755576.30 5135699.34 189.04
-9755574.89 5135697.75 185.84
-9755573.01 5135699.03 186.21
-9755575.64 5135697.39 186.39
-9755573.16 5135697.87 185.40
-9755572.44 5135699.13 185.95
-9755577.26 5135696.91 185.16
-9755572.81 5135697.35 181.00
-9755576.37 5135698.95 187.99
-9755581.01 5135698.90 183.90
-9755572.39 5135699.68 184.75
-9755574.61 5135697.48 185.60
-9755578.62 5135699.60 185.92
-9755572.61 5135697.79 185.11
-9755574.31 5135696.97 184.48
-9755576.10 5135697.41 186.90
-9755579.58 5135698.50 184.56
-9755579.56 5135699.83 186.58
-9755574.07 5135698.71 186.31
-9755579.58 5135697.02 184.19
-9755577.20 5135698.65 188.38
-9755578.13 5135698.56 181.09
-9755576.66 5135699.39 187.21
-9755579.25 5135699.12 185.80
-9755579.76 5135696.71 183.42
-9755578.33 5135699.79 186.43
-9755575.79 5135696.63 185.42
-9755576.23 5135698.97 186.09
-9755573.66 5135698.54 185.68
-9755572.46 5135698.72 185.64
-9755573.98 5135698.02 186.21
-9755573.57 5135699.09 185.98
-9755573.73 5135698.03 185.95
-9755574.01 5135697.16 186.21
-9755580.51 5135697.39 183.43
-9755577.04 5135697.55 185.54
-9755577.40 5135697.45 185.56
-9755579.81 5135699.87 186.63
-9755578.85 5135698.06 184.15
-9755578.13 5135698.13 186.21
-9755575.22 5135698.76 188.20
-9755576.66 5135699.42 188.20
-9755572.96 5135696.97 183.52
-9755576.91 5135697.49 186.49
-9755576.93 5135699.46 188.54
-9755574.78 5135696.62 185.33
-9755580.49 5135698.23 183.81
-9755579.00 5135699.74 186.12
-9755572.72 5135697.40 183.52
-9755574.94 5135697.81 186.33
-9755572.81 5135696.63 183.84
-9755579.90 5135697.90 183.69
-9755573.17 5135697.83 184.71
-9755569.59 5135700.59 181.26
-9755565.68 5135698.90 186.40
-9755560.92 5135699.73 186.51
-9755571.68 5135699.63 185.45
-9755560.03 5135699.82 186.37
-9755560.13 5135698.83 185.13
-9755559.31 5135699.17 188.03
-9755561.91 5135699.77 184.80
-9755561.34 5135697.48 184.46
-9755561.44 5135699.14 184.62
-9755564.27 5135699.43 186.67
-9755565.80 5135696.10 184.18
-9755565.85 5135696.41 184.79
-9755565.74 5135696.61 184.73
-9755565.34 5135698.60 185.82
-9755566.65 5135698.81 186.19
-9755570.62 5135698.32 185.44
-9755562.80 5135699.40 185.88
-9755566.07 5135697.37 186.09
-9755559.31 5135695.84 184.18
-9755568.12 5135698.23 186.23
-9755567.85 5135697.98 186.07
-9755560.48 5135698.57 185.89
-9755561.86 5135698.89 184.63
-9755560.38 5135698.90 185.78
-9755559.73 5135699.00 185.05
-9755560.42 5135699.54 185.85
-9755566.92 5135699.10 188.28
-9755565.73 5135699.67 187.84
-9755567.19 5135698.24 187.92
-9755568.37 5135699.77 187.90
-9755558.97 5135699.32 188.41
-9755566.62 5135697.71 185.98
-9755561.23 5135698.30 184.36
-9755567.50 5135699.68 188.82
-9755567.53 5135697.69 186.29
-9755565.74 5135699.11 187.82
-9755563.70 5135698.95 185.85
-9755565.99 5135698.70 185.27
-9755571.64 5135699.12 184.70
-9755567.71 5135696.15 184.55
-9755564.19 5135698.21 181.16
-9755559.29 5135699.65 188.10
-9755566.21 5135697.53 185.00
-9755563.00 5135698.94 185.90
-9755564.47 5135699.05 185.00
-9755563.35 5135699.77 185.92
-9755563.35 5135699.12 181.21
-9755572.16 5135697.52 183.22
-9755570.40 5135696.49 181.01
-9755561.50 5135699.46 186.05
-9755567.11 5135697.24 184.12
-9755572.01 5135699.17 185.93
-9755567.40 5135697.28 183.79
-9755560.38 5135699.00 181.22
-9755566.27 5135699.15 187.61
-9755571.30 5135699.20 185.59
-9755564.62 5135699.73 186.42
-9755564.56 5135698.29 185.39
-9755563.51 5135699.12 185.41
-9755568.31 5135697.94 185.20
-9755567.47 5135697.41 185.21
-9755569.83 5135699.41 187.82
-9755571.28 5135698.18 184.80
-9755568.44 5135697.39 186.52
-9755571.66 5135698.57 183.44
-9755567.22 5135696.57 184.87
-9755571.90 5135699.59 185.45
-9755567.68 5135699.44 181.20
-9755560.12 5135698.58 184.33
-9755571.96 5135698.18 184.81
-9755567.76 5135698.56 185.87
-9755562.08 5135699.72 186.41
-9755560.18 5135699.36 186.69
-9755568.31 5135699.47 189.13
-9755565.75 5135697.43 184.98
-9755567.49 5135698.02 186.09
-9755567.17 5135698.31 185.83
-9755560.65 5135699.35 185.60
-9755559.18 5135699.14 186.52
-9755559.16 5135699.10 181.18
-9755558.68 5135699.39 186.32
-9755557.66 5135697.90 184.42
-9755557.69 5135697.79 184.94
-9755558.38 5135700.30 189.18
-9755558.26 5135697.40 184.59
-9755558.07 5135696.14 185.15
-9755558.63 5135699.42 186.60
-9755558.62 5135699.14 186.40
-9755558.04 5135699.08 187.65
-9755557.70 5135696.61 185.77
-9755557.35 5135703.34 189.97
-9755557.44 5135703.76 188.24
-9755557.16 5135701.15 188.78
-9755557.46 5135702.52 189.81
-9755557.27 5135703.72 190.29
-9755556.86 5135700.26 189.01
-9755556.38 5135699.95 186.57
-9755556.69 5135699.86 187.98
-9755556.00 5135700.21 186.29
-9755555.96 5135700.46 188.79
-9755556.64 5135701.97 189.35
-9755556.09 5135705.37 187.32
-9755557.11 5135703.35 189.97
-9755557.19 5135703.86 187.85
-9755557.12 5135704.34 188.71
-9755557.14 5135702.55 189.24
-9755555.98 5135702.38 188.45
-9755556.72 5135705.67 186.02
-9755556.79 5135703.59 190.06
-9755556.64 5135703.55 187.39
-9755557.13 5135704.83 181.43
-9755556.32 5135700.42 189.06
-9755556.61 5135703.49 188.65
-9755556.66 5135704.34 188.77
-9755556.02 5135704.93 187.65
-9755556.48 5135701.79 188.33
-9755556.78 5135705.32 186.42
-9755555.98 5135705.01 185.97
-9755556.65 5135705.71 186.02
-9755556.83 5135705.17 189.08
-9755556.43 5135702.28 188.93
-9755555.96 5135706.89 185.78
-9755556.72 5135706.11 186.08
-9755556.20 5135701.13 188.90
-9755556.63 5135701.73 189.18
-9755557.17 5135699.38 187.58
-9755557.22 5135699.14 186.60
-9755557.22 5135699.20 185.99
-9755557.26 5135697.66 185.57
-9755556.33 5135697.48 183.81
-9755557.12 5135699.61 187.93
-9755556.00 5135697.07 185.25
-9755556.27 5135699.11 186.18
-9755556.88 5135698.20 185.89
-9755556.94 5135697.82 185.58
-9755556.68 5135697.76 184.97
-9755556.76 5135697.63 184.66
-9755556.71 5135698.23 185.78
-9755556.03 5135697.15 185.02
-9755556.37 5135698.09 184.62
-9755556.94 5135697.07 185.11
-9755556.34 5135696.59 184.50
-9755556.58 5135696.78 184.57
-9755556.23 5135699.35 187.67
-9755576.69 5135683.80 180.72
-9755576.11 5135684.11 180.73
-9755577.92 5135680.92 180.69
-9755560.50 5135681.63 180.95
-9755573.73 5135695.75 183.62
-9755579.93 5135696.07 184.26
-9755579.88 5135692.88 184.30
-9755575.83 5135696.19 184.26
-9755572.82 5135690.04 180.78
-9755577.69 5135695.35 184.22
-9755575.77 5135688.23 180.57
-9755581.03 5135693.95 180.69
-9755579.64 5135692.87 184.24
-9755580.93 5135695.76 184.76
-9755579.07 5135693.63 184.04
-9755579.88 5135692.90 184.47
-9755579.87 5135695.66 185.11
-9755579.94 5135695.50 184.89
-9755574.52 5135695.88 183.89
-9755578.36 5135692.42 180.72
-9755577.50 5135695.17 183.81
-9755579.89 5135689.17 180.63
-9755564.55 5135691.58 187.92
-9755568.39 5135687.94 180.70
-9755559.50 5135695.11 187.07
-9755568.41 5135695.72 184.43
-9755564.60 5135691.29 189.17
-9755564.24 5135691.53 188.96
-9755569.60 5135689.68 180.79
-9755558.11 5135694.37 185.90
-9755557.39 5135694.08 184.40
-9755557.19 5135690.82 180.86
-9755556.93 5135690.80 180.85
-9755556.41 5135695.76 185.16
-9755602.04 5135727.18 187.08
-9755599.29 5135727.07 188.70
-9755601.01 5135727.06 190.75
-9755600.64 5135727.13 187.13
-9755592.07 5135727.38 191.61
-9755597.15 5135727.24 192.27
-9755587.89 5135727.01 188.98
-9755595.93 5135727.12 193.11
-9755591.58 5135726.89 191.72
-9755601.58 5135731.57 190.85
-9755599.21 5135731.30 190.77
-9755601.24 5135730.51 190.73
-9755608.56 5135730.78 181.43
-9755600.51 5135730.04 187.58
-9755599.23 5135731.77 191.24
-9755599.03 5135729.01 191.57
-9755599.21 5135728.65 192.67
-9755603.31 5135727.93 186.91
-9755599.25 5135731.38 192.20
-9755600.05 5135728.73 191.54
-9755602.79 5135730.39 189.17
-9755600.79 5135731.30 192.04
-9755599.52 5135733.09 191.40
-9755600.40 5135731.51 190.64
-9755601.55 5135732.38 190.97
-9755600.78 5135728.89 191.77
-9755602.38 5135732.89 190.09
-9755599.30 5135727.11 190.93
-9755599.46 5135728.65 192.79
-9755600.58 5135731.69 190.21
-9755602.06 5135730.93 190.69
-9755599.99 5135732.01 191.41
-9755601.71 5135728.35 188.54
-9755599.75 5135730.78 190.50
-9755598.74 5135733.46 191.50
-9755600.46 5135731.13 189.96
-9755598.69 5135728.60 193.44
-9755598.17 5135727.40 192.70
-9755588.96 5135727.21 186.04
-9755589.35 5135730.97 187.92
-9755594.52 5135730.34 192.73
-9755594.72 5135731.55 193.12
-9755592.56 5135730.37 193.25
-9755595.85 5135729.33 190.90
-9755591.29 5135728.33 190.69
-9755596.31 5135732.33 192.45
-9755590.06 5135733.57 193.10
-9755592.21 5135727.74 192.08
-9755589.91 5135732.63 187.86
-9755588.24 5135730.28 181.39
-9755588.86 5135730.87 190.49
-9755590.71 5135730.25 191.85
-9755597.97 5135731.70 192.05
-9755589.42 5135733.61 181.41
-9755592.41 5135731.95 191.66
-9755592.44 5135730.99 193.66
-9755589.73 5135730.72 190.38
-9755598.30 5135728.09 193.19
-9755587.62 5135728.78 189.38
-9755590.04 5135728.31 188.92
-9755590.74 5135729.92 191.48
-9755594.79 5135732.04 192.88
-9755588.10 5135730.14 190.46
-9755588.85 5135733.18 191.10
-9755590.32 5135729.53 191.23
-9755588.81 5135731.44 191.53
-9755597.38 5135732.04 191.93
-9755596.83 5135731.61 192.92
-9755592.29 5135733.57 181.54
-9755595.07 5135730.28 193.94
-9755590.38 5135729.16 190.89
-9755591.38 5135732.54 193.03
-9755595.43 5135728.38 192.93
-9755596.18 5135731.58 192.62
-9755594.44 5135730.23 191.41
-9755596.93 5135728.97 193.55
-9755588.75 5135728.19 187.05
-9755595.43 5135728.76 192.96
-9755587.39 5135733.22 185.11
-9755588.63 5135731.90 190.59
-9755590.46 5135732.64 187.84
-9755597.59 5135728.71 191.12
-9755590.01 5135731.18 191.91
-9755597.26 5135731.27 191.65
-9755593.29 5135732.96 192.03
-9755591.60 5135730.68 193.55
-9755592.57 5135732.50 191.28
-9755591.86 5135730.14 191.53
-9755594.37 5135727.82 191.73
-9755597.18 5135733.38 188.37
-9755594.78 5135730.33 192.46
-9755594.45 5135728.60 192.51
-9755594.83 5135732.16 193.72
-9755596.50 5135732.37 181.54
-9755597.01 5135729.80 193.99
-9755591.20 5135733.48 193.28
-9755589.77 5135733.29 193.39
-9755587.43 5135729.98 188.04
-9755590.52 5135732.41 190.44
-9755597.47 5135727.55 191.93
-9755591.68 5135727.56 191.64
-9755592.75 5135732.95 193.28
-9755587.68 5135729.05 189.22
-9755598.01 5135728.35 187.16
-9755597.09 5135729.86 194.62
-9755594.69 5135729.66 193.34
-9755587.72 5135729.70 190.74
-9755597.57 5135730.75 193.16
-9755597.32 5135729.64 192.19
-9755588.91 5135731.97 189.65
-9755590.54 5135732.19 191.27
-9755590.32 5135732.78 190.44
-9755591.28 5135731.91 189.27
-9755596.11 5135730.70 191.29
-9755591.44 5135730.62 181.50
-9755592.58 5135731.13 193.31
-9755592.96 5135732.73 193.23
-9755590.89 5135728.76 190.63
-9755592.84 5135728.76 193.32
-9755596.35 5135728.01 192.93
-9755591.80 5135729.66 190.77
-9755596.64 5135729.78 193.92
-9755588.62 5135732.43 187.62
-9755594.75 5135728.66 181.50
-9755587.42 5135733.48 188.27
-9755593.55 5135732.84 192.09
-9755596.85 5135732.01 193.59
-9755593.60 5135729.96 192.67
-9755598.03 5135730.43 192.31
-9755594.53 5135731.58 192.90
-9755591.79 5135729.44 181.50
-9755594.86 5135727.54 191.68
-9755592.35 5135732.80 191.45
-9755588.19 5135728.01 188.79
-9755593.65 5135729.50 192.28
-9755590.00 5135732.95 191.59
-9755587.64 5135728.50 189.42
-9755590.93 5135731.06 189.41
-9755597.89 5135729.56 193.28
-9755588.31 5135732.87 187.95
-9755596.82 5135730.32 194.08
-9755595.88 5135729.72 190.89
-9755587.66 5135732.67 188.06
-9755600.15 5135727.01 188.78
-9755599.99 5135726.99 192.40
-9755600.83 5135727.02 189.48
-9755599.92 5135726.74 188.73
-9755601.88 5135726.32 186.73
-9755600.27 5135726.58 181.28
-9755593.91 5135726.90 191.70
-9755591.51 5135726.98 190.45
-9755591.49 5135726.84 192.74
-9755594.63 5135726.65 192.22
-9755595.34 5135726.66 190.59
-9755596.37 5135726.78 190.80
-9755588.51 5135726.99 185.17
-9755598.32 5135727.02 190.52
-9755594.54 5135726.28 192.99
-9755595.91 5135726.23 181.45
-9755591.27 5135726.61 191.91
-9755597.74 5135726.58 192.30
-9755595.44 5135726.62 190.04
-9755593.27 5135726.68 191.48
-9755586.68 5135727.29 189.13
-9755585.49 5135733.58 181.44
-9755587.15 5135729.11 188.74
-9755583.81 5135729.10 181.44
-9755583.55 5135731.83 181.43
-9755582.32 5135727.07 181.41
-9755602.44 5135709.73 180.96
-9755604.18 5135713.01 181.03
-9755600.41 5135713.84 181.06
-9755600.09 5135709.73 180.94
-9755593.40 5135707.66 185.74
-9755593.74 5135712.92 186.30
-9755598.60 5135713.62 185.00
-9755593.72 5135707.65 186.71
-9755595.74 5135707.63 185.54
-9755588.89 5135712.59 181.30
-9755592.12 5135709.35 181.20
-9755598.44 5135713.67 184.89
-9755595.07 5135712.95 187.15
-9755595.39 5135713.16 187.26
-9755594.01 5135707.28 187.03
-9755597.16 5135711.74 181.01
-9755594.22 5135713.77 181.38
-9755595.02 5135713.23 187.24
-9755588.88 5135713.42 181.30
-9755596.27 5135712.62 181.21
-9755590.90 5135713.50 186.13
-9755593.70 5135713.28 186.20
-9755594.10 5135713.47 186.74
-9755594.30 5135707.92 181.10
-9755594.82 5135713.81 188.19
-9755600.32 5135726.27 188.74
-9755603.33 5135716.25 181.11
-9755600.33 5135717.98 181.12
-9755602.15 5135718.57 181.15
-9755598.77 5135723.79 188.09
-9755598.86 5135719.18 181.13
-9755599.27 5135724.53 188.28
-9755596.82 5135718.76 190.09
-9755589.64 5135716.83 187.16
-9755596.39 5135718.51 188.53
-9755595.46 5135719.91 189.16
-9755588.27 5135723.57 192.06
-9755589.89 5135720.78 189.10
-9755598.28 5135718.87 186.79
-9755590.93 5135722.16 191.94
-9755595.53 5135718.40 189.15
-9755589.78 5135723.05 188.36
-9755589.67 5135724.10 181.36
-9755594.66 5135719.15 190.75
-9755593.05 5135713.96 186.30
-9755596.22 5135717.08 188.02
-9755593.87 5135716.36 185.75
-9755595.20 5135719.04 189.16
-9755593.41 5135721.17 190.06
-9755591.63 5135719.16 190.09
-9755592.32 5135720.48 189.91
-9755590.21 5135721.28 190.98
-9755588.84 5135723.80 187.21
-9755593.23 5135721.66 190.88
-9755594.14 5135721.35 191.71
-9755596.32 5135716.14 188.44
-9755592.63 5135721.26 186.93
-9755588.10 5135722.98 191.75
-9755595.76 5135715.62 188.48
-9755592.10 5135718.84 181.46
-9755597.53 5135723.55 188.29
-9755597.39 5135714.69 181.05
-9755588.74 5135714.71 185.75
-9755596.34 5135715.07 187.79
-9755589.83 5135722.40 191.07
-9755588.85 5135723.28 181.36
-9755596.87 5135718.90 186.85
-9755590.38 5135725.82 190.02
-9755593.96 5135723.74 191.35
-9755597.16 5135718.80 189.08
-9755597.49 5135714.72 184.93
-9755596.31 5135715.29 188.57
-9755588.90 5135720.17 189.85
-9755593.86 5135715.34 187.02
-9755592.02 5135724.37 191.09
-9755597.17 5135715.56 186.64
-9755596.90 5135721.66 190.19
-9755592.40 5135714.20 185.82
-9755591.47 5135716.40 185.64
-9755592.16 5135715.93 186.89
-9755595.60 5135717.97 187.25
-9755590.99 5135720.25 190.40
-9755591.84 5135720.56 181.51
-9755591.88 5135720.74 189.98
-9755597.13 5135720.73 190.51
-9755593.31 5135715.89 186.69
-9755595.54 5135721.28 190.07
-9755595.44 5135725.92 189.84
-9755596.82 5135719.89 186.69
-9755590.66 5135721.06 190.95
-9755593.74 5135720.97 191.53
-9755597.21 5135725.31 189.10
-9755595.93 5135714.91 187.46
-9755592.74 5135715.98 185.90
-9755592.16 5135721.09 189.64
-9755590.05 5135714.72 186.10
-9755589.76 5135723.72 190.19
-9755592.81 5135715.72 186.27
-9755592.21 5135714.70 186.19
-9755593.65 5135720.41 190.17
-9755588.23 5135723.00 186.76
-9755594.29 5135725.69 188.26
-9755587.96 5135719.55 190.65
-9755590.50 5135719.59 187.39
-9755589.55 5135725.47 191.27
-9755597.86 5135715.83 188.24
-9755589.76 5135719.29 188.14
-9755587.99 5135720.34 188.40
-9755595.11 5135724.20 187.55
-9755593.06 5135720.72 192.04
-9755593.08 5135719.61 190.02
-9755596.86 5135715.48 186.48
-9755593.31 5135719.60 190.00
-9755591.01 5135719.51 189.55
-9755593.91 5135718.67 189.92
-9755598.30 5135726.09 185.77
-9755593.29 5135721.19 191.63
-9755596.57 5135721.75 189.85
-9755595.13 5135724.96 189.99
-9755596.42 5135721.22 186.82
-9755594.61 5135725.53 189.57
-9755596.34 5135720.74 190.27
-9755595.67 5135715.91 181.26
-9755590.91 5135722.45 192.22
-9755591.37 5135719.19 189.73
-9755594.86 5135715.66 187.93
-9755593.86 5135715.78 187.12
-9755592.37 5135719.39 190.02
-9755594.28 5135724.65 190.58
-9755587.97 5135720.13 189.15
-9755594.29 5135721.60 189.81
-9755590.60 5135717.08 187.81
-9755595.69 5135721.63 190.48
-9755594.87 5135722.43 191.80
-9755595.59 5135716.29 187.54
-9755590.34 5135722.68 189.58
-9755590.10 5135715.76 186.85
-9755596.43 5135720.11 189.10
-9755597.56 5135714.83 186.19
-9755589.24 5135720.45 189.68
-9755594.73 5135724.63 191.22
-9755589.83 5135720.55 190.02
-9755594.56 5135718.40 190.18
-9755590.10 5135721.24 189.99
-9755591.80 5135717.93 181.46
-9755591.86 5135725.35 187.25
-9755595.17 5135721.09 189.03
-9755597.24 5135715.05 188.15
-9755591.41 5135722.99 191.26
-9755589.04 5135718.74 188.25
-9755596.34 5135725.70 190.59
-9755593.26 5135714.62 186.81
-9755595.10 5135714.62 188.35
-9755597.99 5135725.72 185.02
-9755590.16 5135715.24 185.85
-9755593.50 5135718.47 189.13
-9755591.97 5135720.65 192.05
-9755596.99 5135717.06 186.14
-9755593.14 5135718.80 189.57
-9755588.89 5135717.92 186.98
-9755590.30 5135716.71 188.04
-9755592.85 5135716.23 187.01
-9755593.83 5135725.41 192.21
-9755593.52 5135725.02 189.23
-9755588.11 5135718.97 190.60
-9755595.44 5135714.76 184.94
-9755591.19 5135718.55 189.95
-9755594.26 5135718.00 191.76
-9755596.26 5135715.88 188.32
-9755597.95 5135724.03 189.58
-9755598.29 5135717.28 188.68
-9755587.93 5135722.95 187.04
-9755597.53 5135723.33 188.30
-9755597.22 5135724.14 189.60
-9755597.81 5135720.02 188.79
-9755591.33 5135715.98 185.78
-9755595.12 5135723.12 190.26
-9755589.30 5135715.23 185.86
-9755588.88 5135720.58 181.34
-9755594.79 5135722.17 191.20
-9755590.28 5135721.38 189.49
-9755587.73 5135722.17 190.48
-9755597.38 5135721.30 186.14
-9755587.41 5135724.61 189.81
-9755588.89 5135718.27 181.35
-9755598.42 5135714.55 185.47
-9755596.90 5135716.63 187.78
-9755596.25 5135725.77 190.20
-9755598.38 5135717.90 186.27
-9755593.29 5135715.85 186.09
-9755588.55 5135725.35 181.34
-9755594.74 5135715.33 185.83
-9755590.49 5135721.71 190.17
-9755591.68 5135717.10 188.08
-9755597.73 5135715.50 188.55
-9755593.07 5135724.63 191.51
-9755588.10 5135722.66 191.69
-9755596.32 5135721.05 190.07
-9755588.90 5135721.12 190.03
-9755594.17 5135725.00 190.12
-9755588.08 5135720.07 190.27
-9755596.02 5135719.83 190.40
-9755591.26 5135721.39 191.30
-9755594.77 5135718.39 190.20
-9755592.28 5135714.31 185.85
-9755590.07 5135714.68 186.61
-9755594.33 5135723.72 189.46
-9755591.50 5135723.38 191.20
-9755589.96 5135719.55 190.63
-9755593.95 5135724.59 190.93
-9755598.04 5135717.79 185.89
-9755596.21 5135721.62 189.45
-9755592.77 5135721.52 192.45
-9755593.86 5135723.03 181.50
-9755598.00 5135717.97 186.04
-9755597.98 5135723.36 189.83
-9755598.00 5135715.19 185.29
-9755588.92 5135720.71 189.90
-9755594.80 5135724.89 190.34
-9755593.85 5135725.78 190.64
-9755597.49 5135718.74 190.30
-9755595.17 5135715.03 186.70
-9755595.98 5135723.91 191.60
-9755596.83 5135718.34 190.12
-9755591.01 5135719.02 189.93
-9755597.33 5135725.05 188.64
-9755592.14 5135717.88 188.98
-9755596.30 5135719.16 188.45
-9755597.23 5135722.51 190.66
-9755597.79 5135714.78 185.04
-9755594.31 5135716.80 186.56
-9755594.96 5135721.33 191.15
-9755595.50 5135718.06 189.30
-9755594.01 5135720.81 188.74
-9755590.40 5135722.50 191.36
-9755588.00 5135717.55 186.84
-9755590.46 5135719.56 189.72
-9755586.89 5135712.89 181.33
-9755586.86 5135707.83 181.26
-9755587.07 5135726.20 181.38
-9755587.11 5135722.92 188.92
-9755586.95 5135724.29 189.83
-9755586.85 5135719.65 188.86
-9755586.50 5135723.77 188.83
-9755584.70 5135718.81 181.37
-9755585.57 5135724.99 181.37
-9755561.66 5135726.94 181.35
-9755563.74 5135727.84 181.37
-9755567.55 5135730.51 181.39
-9755567.51 5135732.59 181.39
-9755570.83 5135731.74 181.41
-9755581.17 5135726.18 181.41
-9755566.41 5135726.66 181.37
-9755559.36 5135726.98 181.35
-9755564.92 5135726.67 181.38
-9755556.09 5135728.68 181.34
-9755557.60 5135726.02 181.35
-9755573.67 5135707.27 184.77
-9755575.77 5135707.28 184.11
-9755577.79 5135707.32 184.82
-9755573.82 5135708.03 185.80
-9755575.99 5135707.29 184.85
-9755577.41 5135711.03 181.32
-9755559.81 5135708.08 185.08
-9755570.00 5135711.85 181.38
-9755560.79 5135707.32 185.35
-9755561.15 5135707.29 185.25
-9755569.73 5135707.58 184.60
-9755557.97 5135710.61 181.41
-9755558.82 5135713.05 181.42
-9755557.69 5135707.30 185.04
-9755574.10 5135726.05 181.38
-9755574.03 5135724.94 181.36
-9755574.13 5135720.51 181.37
-9755581.54 5135716.72 181.34
-9755580.63 5135719.70 181.38
-9755581.48 5135721.42 181.39
-9755578.26 5135720.83 181.37
-9755578.23 5135716.70 181.34
-9755581.41 5135720.51 181.38
-9755569.13 5135716.29 181.38
-9755570.84 5135721.67 181.37
-9755564.64 5135723.70 181.37
-9755563.82 5135718.97 181.39
-9755557.62 5135716.79 181.42
-9755556.80 5135711.85 181.41
-9755556.15 5135717.18 181.40
-9755600.19 5135727.21 192.12
-9755601.84 5135726.88 187.04
-9755601.47 5135727.10 187.07
-9755598.93 5135726.93 191.32
-9755602.31 5135727.16 187.31
-9755601.12 5135727.35 190.76
-9755600.36 5135726.69 192.30
-9755600.48 5135727.07 188.81
-9755601.08 5135727.07 190.86
-9755599.24 5135727.13 191.36
-9755599.90 5135727.00 192.05
-9755599.77 5135727.02 191.98
-9755601.37 5135727.18 190.86
-9755596.65 5135727.14 192.65
-9755588.83 5135727.02 188.91
-9755597.36 5135727.16 192.11
-9755596.80 5135727.27 192.65
-9755596.26 5135727.09 192.50
-9755598.65 5135727.15 193.14
-9755588.84 5135726.85 188.62
-9755595.66 5135727.15 193.13
-9755594.18 5135727.18 192.20
-9755594.66 5135726.95 192.24
-9755587.77 5135726.94 189.03
-9755598.32 5135727.18 193.16
-9755597.75 5135727.23 191.36
-9755597.21 5135727.29 191.83
-9755595.45 5135727.20 189.78
-9755597.44 5135727.20 190.72
-9755590.32 5135726.91 192.01
-9755588.46 5135727.03 189.16
-9755593.44 5135726.97 189.11
-9755591.19 5135727.03 192.68
-9755588.20 5135727.42 188.63
-9755598.62 5135726.70 191.51
-9755596.22 5135727.29 190.61
-9755592.96 5135727.00 190.42
-9755592.71 5135727.24 191.70
-9755593.14 5135727.43 190.62
-9755589.10 5135727.05 188.47
-9755593.11 5135727.23 193.09
-9755592.88 5135727.25 190.46
-9755590.95 5135727.19 192.60
-9755596.80 5135727.35 189.64
-9755593.86 5135727.42 190.52
