-9755194.62 5135428.70 181.49
-9755195.88 5135421.17 184.15
-9755195.89 5135421.02 181.45
-9755195.29 5135421.48 183.77
-9755194.74 5135421.41 183.78
-9755197.62 5135423.40 181.48
-9755197.38 5135425.52 181.51
-9755194.46 5135419.36 185.43
-9755194.77 5135419.06 184.17
-9755198.21 5135423.92 181.48
-9755200.53 5135429.90 181.51
-9755200.83 5135431.67 181.52
-9755195.23 5135433.11 181.82
-9755196.07 5135432.87 181.57
-9755195.25 5135430.78 181.46
-9755199.04 5135433.13 181.55
-9755195.25 5135432.77 189.52
-9755196.75 5135432.82 181.60
-9755196.79 5135432.78 189.46
-9755194.63 5135432.82 188.53
-9755195.02 5135431.89 189.48
-9755195.49 5135431.34 181.50
-9755197.59 5135430.53 181.49
-9755197.05 5135432.78 189.48
-9755194.43 5135432.43 189.47
-9755198.69 5135432.55 181.50
-9755200.26 5135431.70 181.53
-9755194.94 5135430.49 181.44
-9755199.94 5135430.18 181.51
-9755196.99 5135431.38 181.48
-9755195.61 5135433.01 188.48
-9755198.21 5135431.92 181.49
-9755194.64 5135432.92 181.66
-9755196.71 5135432.49 182.36
-9755196.11 5135430.19 181.48
-9755197.31 5135432.79 188.51
-9755194.12 5135419.02 185.58
-9755194.10 5135422.02 185.07
-9755193.80 5135427.17 181.48
-9755193.85 5135419.93 185.55
-9755194.13 5135420.46 185.71
-9755193.48 5135419.30 186.16
-9755194.68 5135423.09 181.47
-9755193.83 5135419.04 185.58
-9755194.06 5135428.98 181.49
-9755192.98 5135419.23 185.65
-9755193.28 5135420.23 185.82
-9755193.30 5135419.59 185.50
-9755194.34 5135428.41 181.49
-9755193.17 5135427.23 181.49
-9755193.53 5135418.71 185.56
-9755194.38 5135420.89 185.00
-9755193.53 5135419.65 186.02
-9755193.09 5135419.60 185.51
-9755192.95 5135420.06 186.06
-9755193.31 5135418.74 185.57
-9755193.09 5135421.71 185.76
-9755194.14 5135419.59 184.80
-9755193.19 5135424.55 181.46
-9755193.75 5135429.87 181.46
-9755193.50 5135431.09 181.55
-9755193.80 5135432.43 189.45
-9755192.90 5135431.97 181.60
-9755194.14 5135431.63 186.04
-9755193.19 5135424.84 181.47
-9755190.04 5135421.76 181.96
-9755188.82 5135419.40 184.14
-9755187.99 5135419.86 183.25
-9755187.07 5135421.17 182.50
-9755188.78 5135423.01 181.43
-9755191.73 5135424.59 181.45
-9755188.82 5135419.96 184.39
-9755190.55 5135424.49 181.44
-9755188.46 5135427.52 181.47
-9755187.95 5135419.42 183.22
-9755187.74 5135419.43 183.20
-9755192.40 5135419.28 186.02
-9755192.40 5135419.79 186.41
-9755192.08 5135419.26 185.97
-9755190.42 5135420.44 185.88
-9755191.27 5135420.14 185.86
-9755187.09 5135418.58 181.82
-9755189.41 5135422.49 181.42
-9755187.06 5135423.02 181.40
-9755191.75 5135420.79 185.15
-9755192.51 5135418.76 185.72
-9755191.16 5135424.54 181.44
-9755188.47 5135420.32 182.32
-9755189.22 5135421.54 182.20
-9755189.36 5135429.28 181.49
-9755187.65 5135419.20 181.63
-9755192.93 5135423.99 181.45
-9755187.61 5135421.26 182.33
-9755192.96 5135421.39 186.67
-9755188.50 5135421.21 182.28
-9755189.39 5135428.66 181.48
-9755189.98 5135419.56 186.07
-9755187.32 5135420.32 182.44
-9755188.81 5135423.90 181.43
-9755187.00 5135425.36 181.45
-9755189.97 5135424.78 181.46
-9755191.13 5135426.93 181.47
-9755192.09 5135419.86 186.14
-9755189.99 5135420.56 185.53
-9755188.22 5135424.50 181.43
-9755189.34 5135424.21 181.44
-9755188.90 5135419.06 184.22
-9755189.64 5135421.80 182.23
-9755191.48 5135419.88 181.41
-9755190.55 5135426.35 181.46
-9755190.45 5135419.63 185.82
-9755191.63 5135419.04 185.45
-9755188.49 5135426.86 181.47
-9755192.28 5135423.07 181.43
-9755188.15 5135424.81 181.44
-9755192.14 5135421.57 186.81
-9755189.71 5135423.92 181.45
-9755190.88 5135420.02 185.38
-9755189.39 5135425.09 181.44
-9755187.90 5135424.26 181.43
-9755191.08 5135428.96 181.47
-9755190.24 5135427.50 181.47
-9755191.22 5135418.94 185.89
-9755190.29 5135423.62 181.44
-9755192.62 5135427.77 181.48
-9755189.89 5135429.88 181.47
-9755190.28 5135418.70 186.02
-9755189.36 5135427.47 181.47
-9755192.90 5135423.64 181.45
-9755187.62 5135421.80 182.32
-9755188.77 5135420.90 182.26
-9755187.87 5135422.13 182.31
-9755186.99 5135429.53 181.50
-9755188.72 5135428.09 181.48
-9755190.82 5135427.12 181.48
-9755187.25 5135428.09 181.48
-9755191.71 5135418.67 186.25
-9755192.61 5135425.47 181.47
-9755187.54 5135429.50 181.50
-9755187.02 5135424.53 181.42
-9755190.94 5135419.58 185.88
-9755190.33 5135419.58 186.07
-9755188.41 5135419.07 183.93
-9755189.13 5135419.37 184.23
-9755187.11 5135418.75 182.65
-9755191.99 5135429.85 181.45
-9755190.84 5135431.91 181.55
-9755188.40 5135430.41 181.48
-9755188.18 5135432.20 181.44
-9755192.58 5135430.17 181.44
-9755191.08 5135431.65 181.55
-9755191.12 5135432.51 181.58
-9755192.01 5135432.53 181.61
-9755189.62 5135431.60 181.47
-9755190.80 5135431.03 181.51
-9755186.98 5135430.13 181.50
-9755238.80 5135417.64 196.51
-9755236.31 5135418.85 193.31
-9755237.29 5135418.68 192.41
-9755236.12 5135418.65 192.43
-9755236.35 5135418.07 192.33
-9755236.96 5135418.37 192.41
-9755237.24 5135418.30 192.41
-9755233.64 5135418.25 181.27
-9755233.90 5135418.87 181.32
-9755236.93 5135418.02 183.82
-9755233.28 5135418.30 181.23
-9755239.38 5135417.56 196.53
-9755237.56 5135418.09 192.40
-9755237.84 5135418.10 192.40
-9755236.12 5135418.30 193.30
-9755232.15 5135418.59 181.20
-9755229.56 5135418.29 181.08
-9755231.22 5135417.77 181.13
-9755224.50 5135418.70 183.41
-9755225.02 5135418.16 183.56
-9755225.10 5135417.50 183.63
-9755223.92 5135418.00 185.38
-9755224.50 5135418.02 183.51
-9755225.68 5135418.72 183.77
-9755225.45 5135418.40 183.63
-9755223.34 5135417.74 186.65
-9755224.19 5135418.68 183.43
-9755224.12 5135418.05 183.26
-9755226.23 5135418.73 183.93
-9755227.20 5135418.46 181.09
-9755223.92 5135417.65 185.58
-9755223.68 5135418.82 185.51
-9755225.37 5135418.68 183.31
-9755226.56 5135418.00 181.11
-9755227.09 5135417.98 181.10
-9755223.87 5135418.70 183.43
-9755222.42 5135418.76 182.39
-9755224.57 5135417.55 183.14
-9755223.45 5135417.35 185.57
-9755227.36 5135417.92 181.07
-9755224.63 5135417.72 183.97
-9755222.80 5135418.22 181.44
-9755217.55 5135418.91 186.01
-9755215.74 5135418.74 182.35
-9755218.91 5135418.88 185.62
-9755217.70 5135418.24 186.17
-9755217.46 5135417.45 185.21
-9755217.61 5135418.05 185.67
-9755218.38 5135418.84 186.16
-9755221.03 5135417.50 183.93
-9755215.69 5135417.58 182.32
-9755215.15 5135418.10 183.68
-9755215.07 5135418.33 182.38
-9755219.97 5135417.74 184.10
-9755214.16 5135418.71 182.79
-9755220.38 5135417.47 184.11
-9755215.42 5135418.93 183.87
-9755219.16 5135417.93 184.53
-9755218.34 5135418.21 186.20
-9755214.78 5135418.11 182.40
-9755216.57 5135417.53 182.28
-9755218.87 5135418.04 184.14
-9755215.66 5135418.31 183.69
-9755215.03 5135418.67 182.75
-9755219.21 5135417.95 185.52
-9755218.95 5135418.81 181.97
-9755218.57 5135418.55 186.41
-9755214.45 5135418.06 182.39
-9755218.30 5135418.61 184.79
-9755218.75 5135418.68 185.96
-9755217.37 5135418.24 184.69
-9755218.33 5135418.02 185.72
-9755216.45 5135417.79 183.72
-9755218.50 5135418.74 185.32
-9755218.04 5135417.48 182.21
-9755219.82 5135417.51 184.47
-9755215.09 5135417.54 182.33
-9755217.98 5135418.10 182.19
-9755218.59 5135418.53 184.90
-9755215.95 5135418.03 183.67
-9755220.52 5135417.93 183.93
-9755217.71 5135417.87 185.28
-9755214.78 5135418.03 182.68
-9755221.78 5135417.47 186.37
-9755219.19 5135417.62 182.05
-9755217.41 5135418.47 185.91
-9755214.82 5135418.33 183.58
-9755213.64 5135418.84 185.72
-9755213.62 5135417.46 183.96
-9755209.80 5135417.59 185.98
-9755202.72 5135417.98 182.93
-9755209.27 5135418.47 186.93
-9755203.96 5135418.70 181.76
-9755209.87 5135418.77 185.70
-9755212.42 5135418.52 185.46
-9755211.85 5135417.63 185.46
-9755209.76 5135418.52 185.77
-9755202.06 5135418.91 182.26
-9755210.09 5135417.96 185.46
-9755210.42 5135418.79 185.70
-9755208.28 5135417.50 187.21
-9755203.22 5135418.30 183.18
-9755212.69 5135418.60 182.81
-9755202.76 5135417.40 184.42
-9755213.04 5135418.67 182.86
-9755211.97 5135418.04 184.15
-9755212.17 5135418.67 182.42
-9755204.16 5135417.45 183.30
-9755212.77 5135417.92 185.69
-9755211.28 5135418.01 185.42
-9755201.79 5135417.64 184.43
-9755213.54 5135418.03 182.86
-9755210.12 5135417.62 185.86
-9755208.17 5135417.78 182.42
-9755209.88 5135417.93 186.02
-9755212.14 5135418.22 186.10
-9755211.63 5135418.05 186.39
-9755212.43 5135417.64 185.62
-9755202.41 5135418.29 183.08
-9755209.03 5135417.52 186.26
-9755210.09 5135417.99 185.97
-9755202.97 5135418.11 182.41
-9755211.00 5135417.61 185.53
-9755202.06 5135417.91 184.28
-9755208.71 5135418.23 185.06
-9755210.93 5135418.23 185.48
-9755213.29 5135418.88 182.40
-9755209.07 5135417.90 184.55
-9755212.90 5135417.37 184.80
-9755210.94 5135417.49 186.43
-9755201.81 5135417.69 184.73
-9755204.15 5135418.35 181.86
-9755201.05 5135417.43 185.21
-9755206.87 5135418.55 185.32
-9755208.66 5135418.26 186.10
-9755201.56 5135417.93 185.15
-9755213.55 5135418.12 182.39
-9755203.63 5135418.39 182.32
-9755212.46 5135417.39 184.87
-9755212.37 5135418.54 184.51
-9755207.35 5135417.39 185.59
-9755210.10 5135418.49 186.16
-9755209.82 5135418.13 185.57
-9755207.70 5135418.52 185.60
-9755203.26 5135417.44 183.29
-9755207.50 5135417.52 187.35
-9755212.19 5135418.01 184.14
-9755208.27 5135417.69 184.48
-9755208.92 5135418.19 186.78
-9755212.73 5135418.34 185.45
-9755204.11 5135417.76 182.32
-9755204.49 5135418.08 181.75
-9755203.32 5135418.51 182.32
-9755208.60 5135417.92 184.47
-9755207.42 5135418.46 185.68
-9755200.82 5135417.82 185.34
-9755196.22 5135418.80 184.01
-9755196.17 5135418.94 181.91
-9755195.87 5135417.66 183.92
-9755195.08 5135418.45 185.31
-9755197.72 5135417.44 183.25
-9755200.31 5135417.89 185.15
-9755195.07 5135417.68 184.08
-9755195.38 5135418.29 184.26
-9755195.10 5135417.54 185.06
-9755197.39 5135418.31 182.10
-9755195.32 5135417.59 184.95
-9755195.36 5135417.86 184.02
-9755197.43 5135418.31 183.12
-9755196.49 5135417.98 183.50
-9755194.96 5135418.19 184.17
-9755196.75 5135418.36 182.04
-9755200.05 5135417.33 184.58
-9755197.67 5135417.38 182.23
-9755196.53 5135417.44 182.19
-9755193.56 5135418.40 185.71
-9755187.40 5135418.86 182.70
-9755192.65 5135418.35 186.23
-9755191.14 5135417.44 186.84
-9755189.09 5135418.25 183.24
-9755187.61 5135417.93 182.89
-9755191.52 5135417.80 186.88
-9755192.36 5135418.09 186.29
-9755190.65 5135418.78 184.91
-9755192.07 5135417.47 186.45
-9755187.68 5135418.58 181.81
-9755191.00 5135418.41 185.50
-9755188.75 5135418.22 183.23
-9755189.40 5135418.51 183.93
-9755190.84 5135417.52 185.70
-9755191.76 5135418.40 185.47
-9755188.61 5135417.54 184.22
-9755187.93 5135418.24 182.99
-9755192.14 5135417.77 185.91
-9755188.96 5135417.47 185.35
-9755190.41 5135417.54 186.11
-9755187.32 5135418.20 182.97
-9755190.02 5135418.11 185.41
-9755192.42 5135417.45 186.79
-9755191.22 5135418.04 187.05
-9755191.55 5135418.09 185.57
-9755187.96 5135417.88 182.88
-9755187.97 5135418.03 181.95
-9755192.95 5135417.84 185.76
-9755234.72 5135443.09 189.04
-9755234.72 5135437.49 189.00
-9755238.88 5135438.38 188.97
-9755237.65 5135443.09 188.99
-9755236.48 5135437.17 189.00
-9755237.63 5135440.43 188.98
-9755235.64 5135438.33 189.00
-9755233.24 5135437.11 189.03
-9755232.68 5135440.11 189.03
-9755233.85 5135441.59 189.02
-9755238.58 5135440.41 188.97
-9755232.67 5135443.61 189.03
-9755235.68 5135437.46 189.01
-9755235.89 5135436.30 189.02
-9755237.94 5135442.84 188.99
-9755235.30 5135443.67 189.02
-9755233.82 5135440.70 189.02
-9755235.56 5135442.53 189.00
-9755239.45 5135441.65 188.96
-9755238.87 5135441.67 188.97
-9755234.76 5135436.85 189.02
-9755234.76 5135439.52 189.02
-9755236.27 5135438.34 188.99
-9755239.45 5135436.30 188.98
-9755237.98 5135440.44 188.97
-9755236.53 5135443.66 189.01
-9755235.96 5135435.39 189.03
-9755239.52 5135435.40 188.99
-9755236.55 5135436.26 189.02
-9755237.14 5135434.18 189.03
-9755233.14 5135435.63 188.95
-9755234.20 5135436.23 189.02
-9755233.88 5135435.06 189.13
-9755236.83 5135435.38 189.03
-9755238.89 5135435.70 189.00
-9755237.41 5135435.10 189.02
-9755233.95 5135435.73 189.02
-9755235.93 5135434.50 189.04
-9755233.00 5135437.82 189.02
-9755233.87 5135435.35 189.04
-9755228.56 5135442.75 189.03
-9755230.61 5135442.44 189.03
-9755230.59 5135441.55 189.03
-9755228.52 5135443.64 189.03
-9755231.22 5135440.37 189.04
-9755230.32 5135440.69 194.54
-9755230.67 5135439.55 189.06
-9755231.74 5135443.01 189.03
-9755232.24 5135437.68 189.06
-9755229.73 5135442.71 189.03
-9755231.78 5135443.66 189.02
-9755233.13 5135422.74 192.45
-9755234.31 5135423.20 196.53
-9755237.23 5135419.04 193.00
-9755237.62 5135420.51 196.52
-9755234.36 5135422.29 196.52
-9755236.68 5135422.31 196.51
-9755233.74 5135421.00 192.41
-9755233.52 5135423.92 196.53
-9755238.17 5135420.22 196.51
-9755236.44 5135420.20 196.51
-9755238.77 5135419.37 196.50
-9755239.30 5135420.68 192.36
-9755233.00 5135424.18 192.44
-9755239.62 5135422.28 192.77
-9755236.37 5135419.52 192.42
-9755236.56 5135433.35 189.06
-9755237.78 5135431.65 192.52
-9755239.59 5135430.90 190.34
-9755237.55 5135432.28 192.73
-9755237.12 5135432.55 189.90
-9755239.60 5135430.80 192.64
-9755236.49 5135432.52 193.31
-9755238.06 5135432.44 189.03
-9755239.23 5135432.13 189.02
-9755239.43 5135430.45 192.44
-9755238.87 5135432.75 189.02
-9755239.62 5135430.73 192.08
-9755239.24 5135430.53 192.22
-9755232.23 5135425.15 192.32
-9755232.25 5135422.40 192.51
-9755231.06 5135426.33 192.32
-9755231.08 5135423.65 192.35
-9755228.96 5135429.82 192.33
-9755228.67 5135427.13 193.66
-9755230.74 5135423.86 193.31
-9755230.17 5135424.18 191.75
-9755230.17 5135426.34 192.31
-9755229.59 5135424.80 192.36
-9755231.59 5135425.13 192.31
-9755229.86 5135425.09 193.31
-9755229.38 5135427.22 192.80
-9755228.18 5135426.25 192.33
-9755222.39 5135437.25 192.34
-9755222.41 5135438.69 192.36
-9755220.65 5135437.56 192.34
-9755219.16 5135437.39 193.32
-9755219.47 5135440.45 192.33
-9755217.40 5135440.46 192.33
-9755218.24 5135442.49 192.32
-9755220.31 5135436.93 192.37
-9755219.43 5135437.20 192.37
-9755219.45 5135438.99 192.34
-9755214.38 5135443.63 192.39
-9755216.51 5135440.75 192.34
-9755218.31 5135441.63 192.32
-9755219.44 5135436.65 192.37
-9755220.37 5135438.70 192.34
-9755217.39 5135440.15 192.33
-9755218.28 5135440.19 192.33
-9755220.05 5135438.74 192.34
-9755215.02 5135442.05 189.64
-9755218.25 5135439.53 192.31
-9755216.56 5135440.94 193.31
-9755221.51 5135437.52 192.35
-9755218.01 5135438.65 192.34
-9755215.33 5135442.21 192.38
-9755214.11 5135443.39 193.31
-9755222.73 5135435.45 192.37
-9755226.00 5135434.64 192.33
-9755223.94 5135434.23 192.67
-9755223.86 5135434.89 194.81
-9755223.60 5135433.97 193.08
-9755225.06 5135435.74 196.72
-9755223.61 5135434.18 193.09
-9755221.55 5135434.24 192.39
-9755214.99 5135434.16 181.61
-9755220.92 5135434.26 193.31
-9755228.07 5135427.15 192.33
-9755227.78 5135427.15 192.33
-9755223.26 5135428.00 181.40
-9755228.08 5135424.78 181.34
-9755228.08 5135430.49 192.34
-9755222.40 5135422.91 181.28
-9755226.55 5135421.84 181.20
-9755222.37 5135423.85 181.28
-9755222.76 5135422.05 181.24
-9755225.16 5135429.78 192.36
-9755223.26 5135427.66 181.39
-9755224.46 5135426.47 181.37
-9755226.03 5135428.89 192.34
-9755226.86 5135429.84 192.34
-9755226.57 5135422.28 181.22
-9755224.79 5135430.36 193.30
-9755225.71 5135432.19 193.97
-9755227.48 5135431.01 192.40
-9755225.57 5135430.75 193.21
-9755224.01 5135430.38 193.34
-9755222.72 5135432.56 192.39
-9755223.69 5135431.37 192.39
-9755223.64 5135431.59 193.31
-9755224.87 5135430.91 193.93
-9755226.03 5135431.50 193.98
-9755227.74 5135431.33 192.50
-9755226.01 5135431.97 192.35
-9755222.47 5135433.37 193.10
-9755223.68 5135431.28 193.30
-9755226.27 5135432.13 193.99
-9755214.54 5135422.86 187.56
-9755215.40 5135420.88 185.08
-9755215.89 5135421.24 184.64
-9755218.67 5135420.97 184.20
-9755214.86 5135423.84 187.60
-9755215.94 5135424.84 183.80
-9755218.03 5135419.74 184.95
-9755215.35 5135424.80 184.19
-9755214.17 5135425.55 182.46
-9755214.79 5135421.31 187.98
-9755215.38 5135424.59 184.18
-9755215.76 5135422.05 183.80
-9755219.52 5135419.66 181.81
-9755218.25 5135419.24 185.46
-9755215.94 5135422.99 186.20
-9755215.13 5135422.69 186.27
-9755218.94 5135419.01 185.10
-9755215.33 5135422.92 186.19
-9755217.65 5135428.84 181.53
-9755214.53 5135420.80 187.10
-9755215.30 5135424.96 182.54
-9755220.29 5135428.26 181.44
-9755217.83 5135420.62 185.33
-9755216.17 5135423.02 183.03
-9755214.83 5135419.95 186.24
-9755215.42 5135422.24 184.08
-9755215.38 5135424.02 184.11
-9755214.89 5135420.77 185.08
-9755216.89 5135419.67 184.23
-9755215.37 5135419.82 184.05
-9755218.99 5135419.44 184.56
-9755215.04 5135420.61 185.97
-9755218.97 5135419.01 186.33
-9755216.87 5135419.43 185.75
-9755218.52 5135420.57 184.85
-9755218.51 5135420.64 184.79
-9755217.96 5135420.08 185.89
-9755217.12 5135423.05 184.11
-9755215.13 5135421.44 186.79
-9755214.93 5135424.63 183.46
-9755214.21 5135421.73 188.12
-9755214.94 5135424.39 186.46
-9755215.88 5135423.37 184.13
-9755217.50 5135420.05 186.00
-9755218.03 5135419.72 186.50
-9755219.24 5135419.73 185.38
-9755215.59 5135420.95 185.01
-9755214.12 5135419.62 183.92
-9755216.32 5135422.95 181.96
-9755216.46 5135423.07 184.03
-9755214.83 5135421.40 187.22
-9755219.22 5135420.02 185.53
-9755216.48 5135422.64 185.76
-9755218.36 5135419.79 185.46
-9755214.24 5135421.16 187.08
-9755219.98 5135427.99 181.45
-9755215.99 5135422.37 185.96
-9755215.33 5135421.22 187.18
-9755214.83 5135420.60 184.91
-9755215.33 5135422.71 186.18
-9755218.32 5135420.12 184.92
-9755214.47 5135419.84 184.22
-9755221.44 5135426.78 181.37
-9755214.13 5135422.12 188.67
-9755215.68 5135424.85 183.81
-9755215.64 5135423.55 185.83
-9755215.02 5135424.76 183.76
-9755218.67 5135420.52 183.93
-9755215.46 5135422.42 184.06
-9755215.33 5135421.23 185.17
-9755215.07 5135422.85 186.27
-9755219.51 5135419.22 184.52
-9755214.43 5135422.31 188.36
-9755218.09 5135419.05 184.66
-9755215.64 5135422.15 186.00
-9755214.96 5135420.63 184.62
-9755216.49 5135419.82 185.04
-9755218.66 5135420.68 185.77
-9755218.60 5135419.89 184.72
-9755216.23 5135422.63 185.82
-9755214.95 5135422.67 186.01
-9755216.23 5135423.08 184.02
-9755216.49 5135422.70 184.01
-9755213.85 5135421.13 188.29
-9755213.98 5135419.80 184.20
-9755214.09 5135420.01 184.60
-9755214.10 5135420.67 186.43
-9755214.04 5135426.04 182.45
-9755217.02 5135430.59 181.60
-9755218.22 5135431.20 181.60
-9755213.35 5135420.77 187.61
-9755213.66 5135424.44 186.61
-9755213.57 5135420.22 184.74
-9755213.31 5135419.69 185.65
-9755213.32 5135422.86 188.02
-9755213.57 5135420.09 184.66
-9755213.37 5135422.27 189.03
-9755236.33 5135418.42 192.41
-9755236.69 5135418.08 192.39
-9755236.34 5135418.64 192.42
-9755236.96 5135418.94 192.42
-9755237.03 5135417.82 192.41
-9755237.53 5135417.43 192.40
-9755224.81 5135418.72 183.39
-9755223.56 5135418.23 182.55
-9755224.51 5135417.81 183.51
-9755226.92 5135418.13 183.40
-9755226.29 5135418.14 183.43
-9755222.72 5135417.64 186.71
-9755223.99 5135417.46 185.62
-9755224.67 5135417.55 183.22
-9755222.75 5135417.40 186.24
-9755223.92 5135418.58 185.57
-9755224.80 5135417.51 183.88
-9755218.84 5135417.38 185.06
-9755218.68 5135418.12 184.86
-9755216.53 5135417.84 184.78
-9755218.66 5135418.00 185.65
-9755217.96 5135417.74 184.83
-9755218.29 5135417.78 184.45
-9755216.54 5135418.61 185.49
-9755215.74 5135418.96 182.35
-9755217.38 5135418.78 185.78
-9755218.96 5135417.75 184.16
-9755218.51 5135417.85 185.44
-9755217.99 5135418.86 185.91
-9755218.11 5135418.03 185.75
-9755221.54 5135418.22 181.58
-9755218.35 5135418.11 184.90
-9755218.69 5135418.85 186.03
-9755217.34 5135418.65 184.92
-9755219.49 5135418.11 184.39
-9755215.04 5135418.06 182.36
-9755216.99 5135417.98 184.79
-9755213.33 5135418.52 185.70
-9755213.57 5135418.92 182.91
-9755213.31 5135417.36 185.55
-9755202.97 5135438.74 188.55
-9755201.67 5135443.24 188.60
-9755206.23 5135437.21 188.62
-9755207.55 5135442.03 188.54
-9755201.71 5135443.48 188.60
-9755203.42 5135443.17 188.56
-9755210.89 5135443.54 188.68
-9755206.68 5135440.92 188.54
-9755205.00 5135436.66 189.46
-9755202.66 5135436.65 188.57
-9755210.01 5135439.41 181.64
-9755213.17 5135442.45 188.51
-9755204.06 5135440.02 188.52
-9755212.47 5135440.57 181.66
-9755212.39 5135440.81 188.55
-9755205.82 5135438.73 188.56
-9755208.51 5135443.23 188.67
-9755202.62 5135442.35 188.55
-9755201.77 5135439.71 188.54
-9755209.62 5135438.82 188.35
-9755209.71 5135441.20 188.50
-9755205.79 5135443.64 188.59
-9755201.70 5135439.30 188.53
-9755203.81 5135436.34 189.45
-9755201.38 5135442.37 188.94
-9755207.57 5135440.35 188.48
-9755205.00 5135437.18 181.72
-9755212.92 5135434.70 181.60
-9755209.67 5135434.44 181.59
-9755213.23 5135434.17 181.58
-9755202.61 5135435.55 188.55
-9755205.26 5135435.01 181.52
-9755202.02 5135434.65 181.55
-9755211.56 5135421.46 186.71
-9755205.86 5135428.48 181.53
-9755209.21 5135419.76 186.32
-9755210.55 5135426.40 182.13
-9755211.24 5135422.29 186.54
-9755209.24 5135419.67 186.22
-9755213.11 5135424.72 185.68
-9755209.43 5135423.07 185.30
-9755210.41 5135420.70 184.59
-9755210.86 5135428.80 181.77
-9755212.42 5135420.27 186.23
-9755210.00 5135427.59 182.00
-9755202.70 5135419.82 182.04
-9755206.76 5135425.17 181.63
-9755210.86 5135427.90 181.84
-9755213.20 5135427.62 181.88
-9755201.18 5135421.88 183.55
-9755207.03 5135426.39 181.58
-9755212.43 5135421.16 187.20
-9755202.60 5135425.77 181.52
-9755206.77 5135425.47 181.62
-9755202.14 5135418.94 182.89
-9755212.73 5135420.58 186.26
-9755210.03 5135423.50 185.22
-9755212.23 5135426.36 181.92
-9755210.36 5135422.40 185.04
-9755212.64 5135423.90 186.36
-9755205.36 5135421.43 185.34
-9755201.72 5135424.23 181.62
-9755210.64 5135419.43 185.58
-9755212.81 5135420.21 185.84
-9755209.29 5135419.15 185.94
-9755210.37 5135419.70 183.29
-9755210.07 5135421.21 184.62
-9755210.04 5135422.12 184.43
-9755210.10 5135422.19 184.39
-9755209.76 5135421.86 184.58
-9755210.94 5135423.89 185.30
-9755203.01 5135419.80 182.30
-9755212.76 5135420.54 187.56
-9755213.00 5135420.51 187.61
-9755211.28 5135423.52 185.74
-9755212.44 5135420.04 186.21
-9755201.99 5135429.59 181.52
-9755207.20 5135423.28 185.33
-9755202.11 5135419.17 182.97
-9755202.63 5135428.43 181.53
-9755212.69 5135419.06 185.47
-9755205.07 5135422.08 185.34
-9755211.44 5135426.45 182.95
-9755208.35 5135419.33 186.49
-9755212.17 5135421.51 186.03
-9755211.84 5135420.57 186.15
-9755212.54 5135420.28 185.09
-9755211.32 5135420.68 185.46
-9755209.78 5135419.03 185.91
-9755212.15 5135420.76 187.15
-9755210.04 5135426.69 181.98
-9755211.80 5135427.58 182.93
-9755211.16 5135423.85 185.79
-9755212.48 5135419.08 183.92
-9755209.95 5135430.86 181.58
-9755208.50 5135432.96 181.57
-9755205.26 5135430.52 181.55
-9755201.39 5135431.38 181.53
-9755209.99 5135429.97 181.69
-9755210.87 5135431.75 181.56
-9755200.55 5135438.63 188.53
-9755200.57 5135440.22 188.57
-9755196.19 5135440.47 188.70
-9755196.42 5135437.84 188.60
-9755196.49 5135439.60 188.60
-9755196.94 5135442.59 188.71
-9755196.72 5135437.58 188.57
-9755197.65 5135437.30 188.53
-9755200.20 5135440.86 188.60
-9755196.94 5135440.75 188.76
-9755195.52 5135438.12 188.55
-9755197.22 5135440.93 188.89
-9755197.16 5135440.85 188.87
-9755194.98 5135439.89 188.62
-9755194.35 5135441.04 188.61
-9755198.49 5135441.67 188.73
-9755197.63 5135442.04 188.63
-9755195.91 5135439.62 188.62
-9755195.25 5135437.46 188.56
-9755196.70 5135437.43 189.69
-9755197.63 5135440.82 188.74
-9755200.88 5135435.76 188.53
-9755199.67 5135435.55 188.48
-9755198.22 5135434.61 188.48
-9755200.29 5135435.03 181.65
-9755196.45 5135433.73 188.50
-9755198.85 5135435.45 188.49
-9755196.14 5135434.31 188.50
-9755196.41 5135435.39 188.53
-9755200.23 5135434.61 181.63
-9755199.29 5135435.43 188.48
-9755199.77 5135435.41 181.41
-9755193.54 5135436.64 188.54
-9755193.47 5135441.08 188.65
-9755193.17 5135441.99 188.65
-9755192.34 5135439.58 188.63
-9755190.24 5135441.24 189.45
-9755192.25 5135438.05 188.57
-9755188.13 5135437.22 181.55
-9755188.13 5135439.88 181.56
-9755190.78 5135439.55 189.46
-9755193.50 5135435.14 188.54
-9755193.54 5135434.90 188.54
-9755194.01 5135434.54 188.50
-9755193.49 5135434.27 189.46
-9755195.25 5135420.81 184.02
-9755199.67 5135422.23 181.61
-9755195.98 5135418.78 184.03
-9755198.49 5135429.28 181.50
-9755197.08 5135419.59 181.76
-9755195.30 5135419.42 184.64
-9755195.62 5135420.60 184.01
-9755197.00 5135426.34 181.49
-9755195.02 5135420.21 185.61
-9755200.03 5135420.61 183.54
-9755195.31 5135432.17 189.48
-9755196.78 5135432.55 189.46
-9755197.56 5135432.54 181.54
-9755198.45 5135431.64 181.49
-9755194.80 5135432.88 189.51
-9755194.42 5135421.02 181.41
-9755193.58 5135419.30 185.47
-9755193.50 5135420.61 186.53
-9755193.01 5135421.03 186.60
-9755193.86 5135419.92 185.82
-9755193.58 5135420.49 185.79
-9755193.21 5135420.17 185.87
-9755193.44 5135431.35 181.57
-9755192.66 5135419.83 186.36
-9755189.36 5135421.49 182.18
-9755187.31 5135423.89 181.42
-9755190.88 5135419.00 185.90
-9755191.78 5135421.05 186.50
-9755188.25 5135419.07 183.23
-9755190.27 5135422.11 182.17
-9755191.84 5135420.20 185.83
-9755187.17 5135420.60 182.49
-9755190.65 5135418.81 185.45
-9755188.66 5135419.41 184.12
-9755189.35 5135421.01 182.65
-9755190.60 5135419.77 185.47
-9755191.53 5135419.00 186.00
-9755190.89 5135419.01 185.51
-9755190.64 5135420.42 185.90
-9755192.46 5135420.55 186.55
-9755189.85 5135418.68 185.72
-9755187.33 5135421.22 182.40
-9755187.05 5135420.96 182.53
-9755188.48 5135419.38 183.24
-9755191.56 5135421.36 186.62
-9755189.68 5135421.51 182.20
-9755190.20 5135419.02 183.92
-9755190.64 5135419.92 186.03
-9755187.05 5135422.06 182.48
-9755192.74 5135418.98 185.69
-9755191.55 5135418.90 185.81
-9755189.33 5135419.36 183.90
-9755190.39 5135420.18 185.93
-9755192.46 5135418.94 185.82
-9755190.26 5135418.72 185.17
-9755189.14 5135419.59 184.26
-9755189.09 5135418.80 183.93
-9755188.24 5135418.86 183.19
-9755187.36 5135420.60 182.39
-9755192.66 5135421.03 186.71
-9755191.77 5135419.03 185.95
-9755193.12 5135431.36 181.56
-9755190.22 5135430.11 181.46
-9755209.26 5135418.20 186.72
-9755212.13 5135418.82 184.68
-9755203.29 5135418.58 182.71
-9755209.50 5135418.18 186.74
-9755210.08 5135417.66 185.39
-9755209.85 5135417.34 185.91
-9755211.77 5135418.20 186.37
-9755201.69 5135418.55 184.65
-9755209.56 5135417.91 185.98
-9755211.50 5135417.92 185.44
-9755213.28 5135417.94 185.64
-9755213.27 5135417.97 183.99
-9755213.19 5135418.65 183.85
-9755202.97 5135418.29 183.17
-9755209.19 5135418.43 186.90
-9755202.11 5135417.32 184.72
-9755208.37 5135418.44 186.13
-9755212.14 5135417.67 185.89
-9755211.19 5135417.35 185.70
-9755210.10 5135417.90 186.58
-9755211.31 5135417.60 185.50
-9755212.18 5135418.81 185.88
-9755203.04 5135418.05 182.98
-9755202.38 5135418.92 182.96
-9755202.37 5135417.69 184.81
-9755211.84 5135418.24 185.32
-9755210.03 5135418.18 186.78
-9755201.00 5135417.66 185.21
-9755203.28 5135417.83 183.05
-9755208.30 5135417.60 187.11
-9755209.80 5135418.19 186.76
-9755212.70 5135418.96 182.94
-9755213.25 5135417.69 183.96
-9755203.25 5135417.36 184.52
-9755208.42 5135418.25 183.21
-9755208.30 5135418.13 184.43
-9755203.84 5135418.39 182.31
-9755201.40 5135417.53 185.86
-9755211.81 5135417.73 184.54
-9755211.26 5135418.22 185.88
-9755200.72 5135417.62 185.28
-9755195.82 5135418.74 184.19
-9755195.65 5135418.48 184.21
-9755197.72 5135418.83 183.43
-9755196.62 5135417.71 183.46
-9755195.32 5135418.55 184.58
-9755196.91 5135417.33 183.29
-9755197.70 5135417.66 183.33
-9755194.42 5135418.18 185.16
-9755194.36 5135418.24 185.40
-9755192.72 5135418.94 186.09
-9755194.20 5135418.21 185.19
-9755194.43 5135418.36 185.43
-9755193.93 5135418.41 185.67
-9755192.64 5135418.71 185.66
-9755187.05 5135417.92 182.05
-9755191.94 5135417.36 186.53
-9755192.12 5135417.77 186.30
-9755187.12 5135418.47 182.53
-9755191.28 5135417.74 186.98
-9755187.77 5135418.29 181.90
-9755235.49 5135468.06 193.90
-9755234.36 5135467.36 194.65
-9755237.58 5135468.33 194.35
-9755235.63 5135468.19 194.47
-9755233.16 5135465.58 193.93
-9755236.17 5135468.79 193.90
-9755235.57 5135468.01 194.37
-9755238.84 5135465.29 195.02
-9755237.55 5135467.74 193.91
-9755234.60 5135467.95 193.91
-9755237.25 5135469.19 194.65
-9755233.45 5135466.75 194.67
-9755238.50 5135468.09 194.25
-9755239.44 5135455.56 193.91
-9755233.46 5135456.06 189.02
-9755233.45 5135454.65 189.00
-9755237.91 5135456.48 193.91
-9755237.62 5135453.73 189.03
-9755234.34 5135453.73 188.99
-9755238.81 5135454.95 193.91
-9755237.59 5135452.88 189.00
-9755238.80 5135463.91 193.92
-9755235.58 5135464.77 193.91
-9755237.60 5135460.01 193.91
-9755232.86 5135464.76 193.61
-9755234.07 5135461.78 193.92
-9755239.05 5135460.58 193.90
-9755233.13 5135464.75 193.67
-9755234.69 5135459.74 193.96
-9755233.17 5135462.95 193.92
-9755233.46 5135459.98 189.03
-9755237.33 5135461.81 193.92
-9755233.49 5135459.31 189.04
-9755234.67 5135463.52 193.91
-9755236.47 5135458.54 193.91
-9755238.45 5135461.81 193.92
-9755234.08 5135465.06 193.92
-9755232.90 5135463.84 193.89
-9755236.74 5135462.71 193.90
-9755232.58 5135466.69 194.64
-9755232.24 5135465.37 193.31
-9755230.44 5135467.16 193.34
-9755232.87 5135470.02 194.26
-9755229.58 5135468.33 193.31
-9755230.29 5135466.76 194.58
-9755231.38 5135465.63 193.34
-9755228.67 5135465.86 189.02
-9755230.74 5135465.92 194.58
-9755229.35 5135453.37 189.00
-9755231.43 5135453.97 188.99
-9755228.48 5135456.96 189.01
-9755229.39 5135452.77 189.01
-9755228.17 5135456.39 189.03
-9755231.42 5135456.98 189.01
-9755231.42 5135454.34 188.98
-9755229.93 5135455.16 189.02
-9755231.43 5135453.75 188.99
-9755229.66 5135453.11 189.00
-9755230.51 5135453.14 188.99
-9755228.49 5135453.39 189.00
-9755229.36 5135456.68 189.01
-9755229.66 5135454.01 189.00
-9755230.50 5135457.28 189.02
-9755231.41 5135464.45 193.94
-9755228.15 5135459.27 188.97
-9755229.06 5135458.10 188.99
-9755232.30 5135465.07 193.32
-9755228.13 5135459.93 188.97
-9755232.55 5135458.48 189.03
-9755231.05 5135460.19 189.02
-9755228.73 5135462.55 188.99
-9755228.75 5135458.50 188.99
-9755230.19 5135462.61 189.01
-9755230.20 5135460.25 189.00
-9755228.13 5135461.41 188.97
-9755229.87 5135464.69 189.00
-9755234.34 5135452.83 188.97
-9755233.24 5135446.92 188.99
-9755236.74 5135451.13 189.00
-9755235.29 5135446.60 189.01
-9755236.73 5135448.69 189.00
-9755233.49 5135448.72 188.95
-9755233.54 5135451.11 188.96
-9755235.86 5135446.96 189.01
-9755234.69 5135451.08 188.96
-9755235.55 5135451.70 188.97
-9755235.29 5135449.89 188.97
-9755237.97 5135450.21 189.02
-9755233.53 5135447.82 188.95
-9755234.69 5135449.93 188.98
-9755235.57 5135448.36 189.00
-9755236.20 5135446.96 189.02
-9755234.69 5135446.61 189.00
-9755238.24 5135449.04 189.03
-9755231.78 5135452.80 188.96
-9755232.65 5135446.94 188.99
-9755228.52 5135448.69 189.00
-9755229.35 5135448.69 188.98
-9755229.34 5135451.89 188.98
-9755229.97 5135451.10 188.98
-9755231.76 5135451.09 188.95
-9755228.20 5135449.87 188.99
-9755230.48 5135449.90 188.96
-9755232.60 5135451.93 188.95
-9755229.66 5135447.81 188.99
-9755230.60 5135446.89 188.98
-9755229.08 5135447.76 189.00
-9755230.58 5135448.67 188.97
-9755232.06 5135449.86 188.95
-9755229.07 5135450.71 189.00
-9755222.85 5135466.66 189.03
-9755225.18 5135465.85 189.00
-9755226.63 5135469.97 189.01
-9755223.99 5135465.52 189.00
-9755226.01 5135466.69 189.00
-9755224.83 5135469.63 189.02
-9755222.21 5135468.77 189.00
-9755222.50 5135466.40 189.02
-9755226.92 5135467.30 189.01
-9755226.04 5135467.58 189.01
-9755227.21 5135468.83 189.02
-9755221.94 5135466.04 189.03
-9755214.23 5135469.62 188.99
-9755218.36 5135466.36 189.01
-9755215.41 5135466.68 189.01
-9755215.97 5135469.60 188.99
-9755218.69 5135466.68 189.01
-9755214.59 5135466.94 189.00
-9755219.81 5135465.51 189.02
-9755218.67 5135468.46 188.99
-9755216.62 5135466.38 189.02
-9755216.60 5135469.34 188.98
-9755219.83 5135469.07 188.99
-9755217.77 5135469.94 188.97
-9755217.53 5135468.41 189.00
-9755217.50 5135466.33 189.01
-9755214.83 5135467.59 189.01
-9755220.72 5135469.67 188.97
-9755221.63 5135467.61 189.01
-9755219.83 5135466.41 189.02
-9755217.16 5135465.45 189.01
-9755219.56 5135467.53 189.00
-9755215.12 5135468.47 189.00
-9755217.83 5135465.20 189.02
-9755216.54 5135468.16 189.00
-9755221.87 5135469.96 188.99
-9755213.69 5135465.77 189.01
-9755213.78 5135468.45 190.09
-9755213.35 5135466.36 189.01
-9755213.65 5135466.63 189.02
-9755213.31 5135467.47 189.02
-9755213.34 5135467.25 189.01
-9755213.63 5135469.25 190.08
-9755227.61 5135455.22 189.03
-9755223.14 5135454.85 189.01
-9755222.87 5135456.05 189.00
-9755224.41 5135452.78 189.02
-9755227.25 5135457.26 189.00
-9755224.03 5135455.21 189.01
-9755221.95 5135456.98 188.99
-9755225.20 5135456.06 189.00
-9755226.09 5135456.07 189.01
-9755226.69 5135453.97 189.02
-9755223.19 5135456.02 189.02
-9755226.44 5135454.87 189.01
-9755223.15 5135453.38 189.03
-9755225.21 5135454.27 189.02
-9755227.27 5135453.40 189.01
-9755225.84 5135455.19 189.00
-9755225.51 5135457.21 188.98
-9755222.60 5135454.00 189.02
-9755228.10 5135462.58 188.99
-9755228.08 5135463.48 188.99
-9755227.31 5135461.68 188.97
-9755224.03 5135460.18 188.99
-9755222.83 5135464.01 189.01
-9755223.14 5135458.68 188.99
-9755225.48 5135461.36 188.96
-9755225.18 5135459.89 188.96
-9755224.88 5135462.26 188.97
-9755225.23 5135458.72 188.98
-9755226.07 5135460.21 188.96
-9755226.33 5135461.38 188.96
-9755226.09 5135457.84 188.99
-9755226.64 5135464.68 188.98
-9755224.30 5135460.16 188.99
-9755226.39 5135461.07 188.95
-9755227.25 5135458.13 189.00
-9755226.36 5135460.19 188.96
-9755224.87 5135462.57 188.98
-9755221.98 5135455.14 189.01
-9755221.66 5135457.23 189.00
-9755219.90 5135456.00 189.01
-9755219.07 5135454.87 189.03
-9755221.45 5135453.09 189.03
-9755221.09 5135455.42 189.01
-9755221.39 5135457.24 189.01
-9755217.59 5135457.18 189.05
-9755221.13 5135454.53 189.02
-9755221.39 5135456.07 188.99
-9755219.67 5135454.49 190.27
-9755219.06 5135456.94 189.02
-9755220.52 5135454.86 189.02
-9755221.11 5135456.60 189.01
-9755221.10 5135453.64 189.03
-9755219.04 5135457.16 189.02
-9755219.96 5135454.36 193.66
-9755219.58 5135456.02 189.01
-9755219.61 5135456.91 189.01
-9755219.86 5135456.89 189.02
-9755221.08 5135457.48 189.00
-9755215.23 5135462.82 192.42
-9755219.00 5135458.05 189.01
-9755215.15 5135464.27 189.03
-9755214.28 5135462.94 192.44
-9755217.86 5135463.42 189.03
-9755215.01 5135462.60 191.18
-9755216.60 5135464.62 189.02
-9755214.55 5135463.41 189.04
-9755217.21 5135463.03 189.02
-9755216.63 5135462.84 189.04
-9755214.89 5135461.83 193.14
-9755219.87 5135458.43 189.03
-9755215.47 5135461.85 189.26
-9755215.40 5135463.67 189.02
-9755216.64 5135458.94 189.06
-9755216.96 5135461.93 189.03
-9755219.88 5135458.65 189.04
-9755217.20 5135458.97 189.04
-9755216.60 5135461.00 189.02
-9755217.83 5135460.12 189.03
-9755218.11 5135462.23 189.03
-9755217.81 5135458.71 189.04
-9755218.11 5135464.62 189.02
-9755215.70 5135462.14 190.10
-9755217.75 5135464.92 189.02
-9755218.72 5135459.32 189.03
-9755221.37 5135459.24 189.00
-9755219.83 5135459.03 189.03
-9755213.95 5135464.32 189.03
-9755217.58 5135458.05 189.08
-9755215.24 5135461.41 190.20
-9755219.93 5135460.20 189.03
-9755220.73 5135464.01 189.01
-9755217.83 5135461.66 189.02
-9755216.99 5135460.76 189.01
-9755220.48 5135459.28 189.00
-9755220.51 5135460.18 189.01
-9755214.89 5135462.30 193.11
-9755214.24 5135462.72 193.32
-9755214.88 5135464.28 189.02
-9755218.69 5135461.92 189.02
-9755213.36 5135463.81 192.39
-9755227.34 5135448.97 189.00
-9755227.59 5135451.91 189.02
-9755227.30 5135449.26 189.01
-9755227.27 5135446.60 189.01
-9755224.39 5135451.89 189.02
-9755224.40 5135448.05 189.00
-9755223.20 5135450.71 189.05
-9755223.25 5135451.30 189.06
-9755226.44 5135446.88 189.03
-9755226.45 5135448.65 189.01
-9755224.69 5135449.80 189.02
-9755226.41 5135449.53 189.01
-9755225.55 5135448.64 189.04
-9755225.85 5135448.62 189.03
-9755222.68 5135450.62 193.31
-9755224.11 5135448.60 189.02
-9755227.33 5135448.59 189.00
-9755225.29 5135447.78 189.03
-9755223.80 5135449.85 189.03
-9755222.88 5135450.63 189.05
-9755226.41 5135450.43 189.02
-9755215.86 5135446.93 192.72
-9755215.57 5135446.95 192.72
-9755214.11 5135446.65 192.39
-9755214.09 5135449.91 192.37
-9755214.10 5135448.43 192.37
-9755235.87 5135443.68 189.03
-9755234.11 5135444.87 189.01
-9755235.92 5135445.42 189.03
-9755233.80 5135445.75 189.01
-9755238.85 5135445.46 189.00
-9755237.94 5135445.74 189.02
-9755231.47 5135443.69 189.03
-9755229.68 5135446.05 189.00
-9755229.41 5135444.52 189.01
-9755231.23 5135445.74 189.00
-9755229.06 5135444.27 189.01
-9755229.43 5135445.39 189.00
-9755228.54 5135445.43 189.03
-9755230.30 5135444.47 189.02
-9755228.51 5135444.57 189.00
-9755227.70 5135443.69 189.03
-9755227.99 5135444.05 193.34
-9755227.89 5135445.69 189.03
-9755227.30 5135445.72 189.03
-9755217.06 5135443.72 192.34
-9755215.28 5135443.69 192.36
-9755218.85 5135443.70 192.33
-9755214.10 5135443.99 192.40
-9755214.95 5135446.04 192.72
-9755217.36 5135445.20 192.34
-9755215.31 5135446.08 192.73
-9755218.27 5135444.27 192.34
-9755215.40 5135445.34 192.84
-9755215.31 5135444.25 192.37
-9755214.08 5135444.27 192.40
-9755210.44 5135470.03 192.40
-9755212.44 5135468.41 189.01
-9755212.49 5135467.01 192.45
-9755201.70 5135465.14 192.36
-9755212.48 5135468.17 188.99
-9755201.28 5135466.69 192.37
-9755209.59 5135469.17 192.40
-9755212.43 5135468.66 189.01
-9755212.19 5135468.41 189.02
-9755213.08 5135466.38 189.00
-9755211.58 5135469.60 189.02
-9755211.63 5135466.79 192.41
-9755211.64 5135466.51 192.77
-9755206.41 5135456.05 192.41
-9755201.12 5135454.66 191.21
-9755208.13 5135454.02 192.38
-9755208.25 5135453.15 192.38
-9755203.41 5135452.44 187.69
-9755206.72 5135455.21 193.35
-9755204.29 5135455.39 187.71
-9755205.15 5135456.00 187.78
-9755209.90 5135455.26 192.40
-9755201.75 5135454.81 188.54
-9755200.61 5135454.31 191.58
-9755207.02 5135455.19 192.40
-9755201.68 5135454.89 190.41
-9755203.99 5135456.03 190.86
-9755203.99 5135455.94 187.72
-9755209.62 5135453.73 192.39
-9755209.67 5135454.58 192.39
-9755207.93 5135453.75 192.39
-9755201.36 5135455.44 192.64
-9755203.40 5135455.66 187.71
-9755202.19 5135455.39 187.73
-9755209.35 5135455.21 192.39
-9755202.78 5135455.33 189.25
-9755206.64 5135459.90 192.36
-9755203.41 5135459.56 192.70
-9755201.28 5135463.39 187.72
-9755207.54 5135457.80 192.68
-9755204.29 5135460.17 193.35
-9755203.14 5135463.43 192.33
-9755201.62 5135462.20 187.72
-9755203.43 5135458.41 192.69
-9755206.38 5135457.80 193.07
-9755205.81 5135458.02 193.08
-9755212.51 5135465.04 192.41
-9755207.25 5135458.10 193.09
-9755204.27 5135462.83 192.33
-9755202.58 5135459.35 192.91
-9755200.53 5135458.37 192.93
-9755207.53 5135458.15 192.71
-9755201.01 5135463.39 187.73
-9755203.41 5135461.38 193.36
-9755203.40 5135459.34 192.69
-9755202.26 5135464.57 192.37
-9755205.76 5135457.27 193.35
-9755203.33 5135462.53 192.34
-9755203.68 5135463.47 192.33
-9755202.26 5135461.35 188.25
-9755211.57 5135448.08 192.73
-9755203.46 5135447.30 189.44
-9755204.32 5135448.55 188.01
-9755204.07 5135447.39 189.44
-9755203.41 5135450.66 187.68
-9755204.30 5135448.61 187.67
-9755204.05 5135451.52 187.69
-9755211.42 5135448.07 192.44
-9755209.67 5135451.96 192.34
-9755212.91 5135450.19 192.36
-9755204.89 5135448.58 187.68
-9755209.07 5135451.91 192.36
-9755206.35 5135452.17 187.71
-9755211.79 5135448.11 192.44
-9755204.69 5135447.54 188.66
-9755212.37 5135446.59 192.40
-9755210.84 5135452.24 192.34
-9755207.58 5135447.37 188.61
-9755202.54 5135450.63 187.66
-9755201.35 5135447.69 187.65
-9755201.95 5135452.70 187.68
-9755209.91 5135451.94 192.33
-9755207.90 5135446.17 188.59
-9755213.23 5135446.92 192.39
-9755210.74 5135446.52 188.62
-9755211.42 5135447.33 192.41
-9755209.97 5135450.51 192.35
-9755212.02 5135447.53 192.39
-9755212.62 5135449.91 192.36
-9755201.37 5135450.38 187.65
-9755208.83 5135451.70 192.34
-9755203.37 5135451.56 187.68
-9755210.29 5135446.20 189.73
-9755208.67 5135447.66 188.61
-9755208.83 5135449.44 188.62
-9755205.47 5135451.86 187.71
-9755210.37 5135449.32 192.09
-9755206.81 5135448.29 188.66
-9755208.11 5135449.42 189.44
-9755203.98 5135450.66 187.67
-9755205.55 5135450.07 187.69
-9755209.61 5135447.92 188.62
-9755209.95 5135447.73 188.62
-9755209.67 5135451.06 192.37
-9755200.13 5135469.10 192.40
-9755200.15 5135468.44 192.41
-9755200.18 5135469.93 192.39
-9755198.89 5135466.63 187.71
-9755195.91 5135468.38 187.70
-9755196.85 5135467.19 187.70
-9755199.84 5135469.66 192.42
-9755195.09 5135467.18 187.68
-9755194.76 5135467.79 187.68
-9755199.52 5135465.15 187.71
-9755200.08 5135469.26 193.34
-9755195.68 5135468.39 187.70
-9755196.89 5135466.33 188.82
-9755197.71 5135466.91 187.70
-9755199.85 5135469.86 192.46
-9755196.05 5135466.03 188.27
-9755198.89 5135465.75 187.70
-9755195.41 5135465.12 187.66
-9755194.42 5135465.13 189.02
-9755200.49 5135454.51 192.95
-9755200.50 5135454.43 188.78
-9755200.59 5135455.03 192.93
-9755200.28 5135454.74 192.94
-9755199.30 5135454.86 192.60
-9755195.11 5135455.96 187.62
-9755197.90 5135453.54 188.40
-9755197.77 5135453.22 190.36
-9755199.37 5135453.91 192.96
-9755198.45 5135457.20 192.93
-9755200.18 5135456.01 192.62
-9755197.58 5135453.89 192.65
-9755195.77 5135452.72 187.62
-9755196.93 5135455.67 192.59
-9755195.73 5135454.78 187.59
-9755198.46 5135453.14 190.77
-9755196.04 5135453.57 187.60
-9755200.50 5135456.88 192.63
-9755195.17 5135455.61 187.62
-9755198.31 5135453.23 190.09
-9755199.30 5135457.21 192.60
-9755194.81 5135460.94 187.67
-9755195.11 5135459.77 187.66
-9755195.61 5135461.30 188.28
-9755198.10 5135459.41 189.01
-9755194.92 5135460.56 189.18
-9755195.80 5135457.65 189.28
-9755194.63 5135460.60 189.85
-9755196.89 5135463.91 187.68
-9755195.15 5135459.11 187.94
-9755195.17 5135461.15 190.30
-9755198.95 5135460.16 187.68
-9755199.21 5135463.06 187.71
-9755198.04 5135463.40 187.69
-9755195.73 5135458.47 190.29
-9755199.79 5135464.26 187.72
-9755198.98 5135456.86 192.61
-9755199.50 5135464.26 187.71
-9755198.34 5135461.03 187.69
-9755195.19 5135459.23 189.67
-9755197.16 5135460.12 187.66
-9755198.96 5135460.38 187.67
-9755193.56 5135468.39 187.67
-9755193.27 5135467.19 187.66
-9755193.62 5135466.32 187.66
-9755188.57 5135468.06 187.60
-9755188.59 5135466.84 187.63
-9755191.94 5135465.85 189.59
-9755187.77 5135468.54 187.63
-9755192.00 5135465.89 188.67
-9755187.33 5135469.96 186.03
-9755191.81 5135466.66 189.03
-9755191.86 5135469.16 190.28
-9755191.15 5135468.35 188.03
-9755189.79 5135467.76 187.62
-9755191.78 5135468.40 187.66
-9755192.26 5135465.06 189.00
-9755190.07 5135466.28 187.63
-9755191.14 5135466.37 188.75
-9755191.25 5135468.40 187.67
-9755191.89 5135465.29 190.29
-9755191.47 5135467.04 189.23
-9755189.49 5135465.11 187.66
-9755188.28 5135467.66 186.60
-9755188.57 5135467.40 187.62
-9755193.08 5135456.81 187.69
-9755193.96 5135454.84 187.35
-9755193.62 5135455.73 187.48
-9755193.93 5135456.80 187.64
-9755193.08 5135456.78 188.01
-9755193.63 5135456.83 188.01
-9755194.26 5135454.77 187.67
-9755194.02 5135460.59 189.96
-9755193.04 5135465.09 187.65
-9755194.25 5135460.55 190.30
-9755193.90 5135462.60 190.28
-9755193.87 5135464.99 190.29
-9755193.22 5135463.61 187.76
-9755193.33 5135463.85 189.64
-9755192.99 5135464.52 189.50
-9755192.74 5135463.21 190.05
-9755193.05 5135458.84 187.64
-9755192.71 5135463.90 187.66
-9755193.64 5135462.58 190.29
-9755193.59 5135462.90 189.98
-9755192.72 5135457.60 185.62
-9755193.64 5135459.77 187.63
-9755192.71 5135464.82 187.66
-9755193.95 5135461.88 187.65
-9755192.76 5135457.66 188.01
-9755193.35 5135459.79 187.62
-9755192.76 5135452.65 182.14
-9755186.94 5135464.78 182.58
-9755187.34 5135464.76 182.67
-9755192.20 5135458.22 187.53
-9755191.84 5135461.54 187.61
-9755191.91 5135459.80 187.63
-9755191.88 5135459.48 188.01
-9755187.04 5135464.66 182.99
-9755191.37 5135460.58 187.60
-9755187.36 5135464.22 181.75
-9755190.99 5135462.15 187.63
-9755191.31 5135461.83 187.62
-9755192.43 5135458.84 187.67
-9755190.99 5135463.88 187.64
-9755191.87 5135461.00 187.60
-9755200.75 5135449.49 187.64
-9755195.76 5135452.39 188.00
-9755199.31 5135446.47 187.67
-9755196.33 5135450.63 187.65
-9755200.15 5135451.52 187.65
-9755194.43 5135451.25 181.74
-9755195.28 5135451.46 188.03
-9755196.02 5135448.33 180.41
-9755197.25 5135450.95 187.62
-9755196.37 5135450.34 188.03
-9755198.11 5135447.35 187.66
-9755198.45 5135446.44 187.69
-9755196.31 5135451.52 187.62
-9755196.00 5135451.49 188.01
-9755199.88 5135451.52 187.64
-9755198.09 5135450.32 187.63
-9755196.65 5135451.54 187.62
-9755193.09 5135450.39 181.73
-9755193.55 5135450.94 182.16
-9755194.26 5135451.50 181.77
-9755189.80 5135450.23 182.48
-9755188.93 5135450.47 182.47
-9755189.67 5135448.89 181.74
-9755191.83 5135450.00 181.74
-9755189.55 5135450.85 182.13
-9755191.83 5135450.58 181.75
-9755191.87 5135446.81 180.63
-9755189.82 5135448.54 180.72
-9755190.15 5135450.23 182.49
-9755191.86 5135451.11 181.73
-9755188.60 5135450.30 181.72
-9755208.54 5135444.12 188.59
-9755211.54 5135445.23 188.78
-9755212.90 5135445.71 192.41
-9755205.82 5135445.66 188.63
-9755208.72 5135444.36 188.58
-9755209.99 5135443.82 188.64
-9755208.72 5135443.89 188.60
-9755213.27 5135445.81 192.40
-9755211.37 5135444.47 188.72
-9755210.85 5135445.06 188.71
-9755202.34 5135446.11 188.66
-9755204.64 5135444.40 188.58
-9755204.66 5135445.33 188.58
-9755202.56 5135445.58 188.61
-9755206.71 5135444.09 188.55
-9755197.61 5135444.14 189.44
-9755199.11 5135444.04 188.64
-9755199.29 5135445.54 187.70
-9755233.17 5135466.45 194.65
-9755235.47 5135469.85 193.31
-9755234.92 5135468.23 194.67
-9755234.59 5135466.85 193.92
-9755233.43 5135465.65 193.92
-9755233.72 5135468.92 193.30
-9755237.59 5135466.85 193.91
-9755239.47 5135465.28 194.99
-9755234.01 5135466.85 194.63
-9755238.12 5135469.04 193.28
-9755232.92 5135466.58 193.34
-9755235.80 5135466.56 193.91
-9755233.14 5135468.97 193.32
-9755232.90 5135465.53 193.93
-9755233.75 5135466.31 194.28
-9755238.19 5135465.93 193.92
-9755238.72 5135466.58 193.91
-9755238.90 5135468.05 194.44
-9755238.76 5135466.22 194.97
-9755233.14 5135466.22 194.66
-9755233.14 5135467.43 193.30
-9755234.85 5135468.06 193.33
-9755234.63 5135465.68 193.91
-9755232.51 5135468.30 193.32
-9755234.77 5135467.81 193.35
-9755233.16 5135469.49 193.32
-9755234.97 5135465.63 193.91
-9755238.11 5135468.03 194.72
-9755239.46 5135469.11 193.92
-9755233.79 5135467.43 193.30
-9755236.16 5135466.28 193.91
-9755236.38 5135467.14 193.91
-9755233.60 5135466.78 194.38
-9755234.01 5135468.06 193.29
-9755238.73 5135469.86 193.27
-9755239.60 5135469.37 193.29
-9755233.36 5135467.43 194.65
-9755233.11 5135470.00 194.24
-9755233.52 5135466.51 194.30
-9755239.33 5135466.79 193.91
-9755235.85 5135465.36 193.91
-9755237.82 5135469.45 194.66
-9755236.96 5135469.24 193.30
-9755233.13 5135469.47 194.22
-9755232.91 5135469.48 194.25
-9755232.64 5135466.22 193.91
-9755235.53 5135465.63 193.92
-9755239.39 5135467.99 194.70
-9755234.71 5135466.62 194.68
-9755236.40 5135469.50 193.30
-9755235.70 5135467.30 194.76
-9755235.80 5135467.79 194.33
-9755236.67 5135468.65 194.64
-9755239.35 5135467.44 193.91
-9755234.52 5135467.76 193.33
-9755235.81 5135467.44 193.89
-9755233.73 5135466.55 193.92
-9755233.06 5135466.82 193.33
-9755234.97 5135467.48 194.65
-9755233.43 5135468.32 193.31
-9755233.71 5135469.44 194.21
-9755238.16 5135467.14 193.92
-9755239.06 5135466.18 195.00
-9755238.76 5135468.90 194.65
-9755239.46 5135466.11 195.01
-9755234.60 5135466.55 193.92
-9755235.79 5135469.82 193.31
-9755234.07 5135466.29 194.30
-9755237.02 5135466.87 193.91
-9755232.83 5135469.20 193.31
-9755238.77 5135466.22 193.91
-9755233.18 5135465.35 193.49
-9755238.94 5135468.89 193.93
-9755239.03 5135469.18 194.66
-9755234.67 5135454.05 189.00
-9755237.85 5135456.15 189.05
-9755239.41 5135455.35 193.91
-9755238.84 5135455.53 189.06
-9755239.41 5135455.28 189.03
-9755237.28 5135456.44 193.33
-9755236.41 5135454.61 189.01
-9755236.43 5135456.67 189.03
-9755239.39 5135454.04 189.04
-9755237.06 5135453.48 189.02
-9755238.17 5135456.11 189.06
-9755238.80 5135454.92 189.06
-9755235.26 5135455.81 189.02
-9755239.14 5135454.18 193.91
-9755236.13 5135456.67 189.05
