-9755264.54 5135331.92 182.31
-9755260.67 5135329.38 185.01
-9755261.91 5135321.83 188.31
-9755267.01 5135322.34 191.38
-9755263.71 5135323.17 191.47
-9755258.68 5135323.63 182.50
-9755268.34 5135330.47 182.27
-9755263.63 5135325.06 187.92
-9755258.38 5135327.49 182.45
-9755257.77 5135326.82 182.48
-9755263.35 5135327.79 182.47
-9755261.88 5135329.02 184.75
-9755264.34 5135332.11 184.32
-9755265.68 5135326.81 190.96
-9755261.88 5135326.89 182.46
-9755261.46 5135321.82 184.88
-9755262.24 5135325.17 186.33
-9755266.90 5135326.19 191.08
-9755258.65 5135331.96 182.39
-9755264.56 5135328.10 186.93
-9755257.78 5135321.51 182.45
-9755260.73 5135328.50 185.45
-9755265.52 5135326.55 191.25
-9755265.29 5135325.56 190.29
-9755263.05 5135323.44 187.24
-9755261.69 5135321.90 182.49
-9755265.79 5135322.03 192.13
-9755267.01 5135324.91 192.26
-9755264.44 5135325.82 186.74
-9755268.71 5135326.18 185.62
-9755266.39 5135325.70 182.47
-9755264.31 5135324.48 187.55
-9755263.33 5135325.10 182.53
-9755264.91 5135326.63 182.52
-9755262.51 5135332.97 184.63
-9755255.96 5135330.56 185.59
-9755264.55 5135327.25 182.50
-9755261.89 5135322.75 188.20
-9755266.71 5135325.84 186.42
-9755266.33 5135321.99 193.41
-9755265.72 5135324.62 188.38
-9755265.85 5135326.15 191.88
-9755261.68 5135323.37 182.52
-9755265.23 5135324.13 190.05
-9755264.05 5135321.97 191.34
-9755269.30 5135327.99 185.60
-9755266.83 5135325.79 188.51
-9755264.25 5135325.14 190.95
-9755266.63 5135322.40 191.19
-9755266.08 5135327.70 186.34
-9755259.28 5135326.89 182.46
-9755261.68 5135325.17 186.80
-9755258.42 5135332.26 184.79
-9755262.63 5135323.23 189.31
-9755256.64 5135329.98 186.00
-9755262.96 5135324.10 188.92
-9755256.29 5135326.27 182.49
-9755267.84 5135327.45 186.02
-9755264.66 5135326.10 188.51
-9755256.20 5135333.09 184.22
-9755269.51 5135336.43 181.51
-9755269.48 5135335.86 181.59
-9755270.93 5135335.59 181.47
-9755269.52 5135335.56 181.62
-9755271.51 5135337.37 181.26
-9755270.10 5135335.56 181.58
-9755270.10 5135336.45 181.44
-9755267.41 5135337.60 181.58
-9755256.87 5135337.63 185.48
-9755260.96 5135337.51 182.21
-9755256.85 5135335.27 185.60
-9755258.27 5135337.35 185.87
-9755256.63 5135337.34 184.88
-9755260.57 5135337.47 184.87
-9755258.93 5135335.97 185.24
-9755258.93 5135335.61 185.61
-9755259.22 5135336.48 185.47
-9755258.34 5135335.61 185.68
-9755256.28 5135337.33 185.69
-9755258.65 5135335.89 185.57
-9755258.93 5135337.41 185.37
-9755255.98 5135335.02 185.27
-9755256.84 5135336.77 185.66
-9755257.46 5135335.61 185.57
-9755255.91 5135337.38 185.72
-9755257.16 5135336.47 185.53
-9755257.89 5135336.76 184.53
-9755256.84 5135335.88 186.22
-9755256.87 5135337.11 185.63
-9755260.08 5135335.04 185.72
-9755255.89 5135336.83 185.79
-9755257.74 5135336.33 184.49
-9755257.09 5135335.31 185.07
-9755257.16 5135336.73 185.70
-9755258.91 5135335.05 185.18
-9755258.01 5135335.58 184.21
-9755259.28 5135336.23 184.39
-9755256.28 5135336.74 185.64
-9755258.92 5135336.51 185.59
-9755257.06 5135335.93 186.21
-9755256.23 5135336.76 185.19
-9755258.04 5135336.41 182.45
-9755263.31 5135336.69 182.08
-9755259.55 5135336.84 185.47
-9755268.95 5135336.43 181.56
-9755260.15 5135335.19 184.22
-9755258.04 5135335.61 185.55
-9755256.88 5135335.10 185.24
-9755255.90 5135334.99 184.75
-9755256.89 5135335.62 185.52
-9755259.53 5135335.55 185.67
-9755257.55 5135335.01 184.33
-9755262.13 5135336.39 182.18
-9755259.59 5135335.67 184.13
-9755260.19 5135335.27 185.41
-9755260.38 5135337.22 184.89
-9755257.42 5135337.31 185.49
-9755257.24 5135337.21 184.25
-9755260.33 5135335.63 184.89
-9755256.27 5135337.08 185.10
-9755260.36 5135335.95 184.87
-9755260.03 5135337.05 185.28
-9755256.21 5135336.72 184.43
-9755255.99 5135335.63 185.00
-9755269.19 5135337.04 181.47
-9755259.47 5135336.28 185.51
-9755257.43 5135336.74 185.96
-9755265.97 5135335.22 181.99
-9755260.11 5135335.75 185.20
-9755257.47 5135336.75 185.47
-9755260.32 5135335.06 185.68
-9755257.43 5135337.09 185.86
-9755257.72 5135335.73 184.72
-9755256.50 5135337.10 184.06
-9755258.68 5135336.49 184.75
-9755269.70 5135319.51 190.75
-9755269.49 5135319.41 191.63
-9755269.45 5135319.35 191.56
-9755270.17 5135318.63 189.21
-9755269.35 5135319.09 191.29
-9755269.75 5135319.15 191.41
-9755270.76 5135319.15 188.07
-9755265.30 5135319.22 191.01
-9755260.20 5135319.42 182.41
-9755259.29 5135319.46 182.41
-9755265.84 5135318.78 191.24
-9755263.44 5135319.34 188.61
-9755266.39 5135319.10 191.34
-9755258.71 5135319.48 182.41
-9755263.41 5135319.57 187.69
-9755263.77 5135319.34 187.02
-9755262.01 5135319.58 187.87
-9755267.10 5135318.81 191.05
-9755262.01 5135319.01 187.76
-9755264.97 5135318.72 186.58
-9755267.61 5135319.10 191.05
-9755264.11 5135319.13 189.99
-9755262.94 5135319.38 189.03
-9755262.92 5135318.85 184.45
-9755268.15 5135318.50 190.98
-9755265.23 5135318.88 190.27
-9755267.04 5135319.07 191.76
-9755266.13 5135319.87 188.45
-9755264.19 5135319.38 188.05
-9755268.14 5135319.06 190.95
-9755258.46 5135318.76 185.03
-9755263.84 5135318.88 191.23
-9755257.84 5135319.01 186.84
-9755266.53 5135319.40 191.02
-9755263.48 5135319.40 189.03
-9755259.66 5135318.75 184.18
-9755264.52 5135318.97 190.44
-9755268.68 5135318.86 189.74
-9755257.27 5135318.97 186.58
-9755267.87 5135318.76 191.21
-9755266.90 5135319.10 190.57
-9755259.34 5135318.71 185.54
-9755259.27 5135318.45 185.88
-9755269.09 5135318.83 191.25
-9755256.40 5135319.01 185.02
-9755265.25 5135319.12 191.73
-9755258.42 5135318.74 185.52
-9755264.87 5135319.22 188.23
-9755258.21 5135318.66 184.42
-9755263.42 5135319.01 186.88
-9755262.53 5135319.05 187.64
-9755262.80 5135319.27 188.90
-9755263.44 5135319.15 188.74
-9755263.72 5135319.18 190.20
-9755262.85 5135318.62 182.44
-9755267.03 5135318.85 190.70
-9755263.84 5135318.50 190.42
-9755256.87 5135318.49 185.52
-9755264.99 5135319.08 191.60
-9755257.57 5135318.77 184.96
-9755268.51 5135318.64 190.65
-9755262.99 5135318.91 186.87
-9755256.70 5135319.09 184.04
-9755267.71 5135319.13 190.36
-9755265.17 5135318.96 189.73
-9755267.54 5135319.06 190.42
-9755264.99 5135319.04 190.37
-9755260.76 5135318.64 182.39
-9755257.57 5135318.72 186.87
-9755265.01 5135318.57 191.13
-9755268.77 5135319.04 191.25
-9755269.36 5135318.61 189.36
-9755266.91 5135318.78 192.01
-9755266.96 5135318.70 189.01
-9755257.54 5135319.10 184.94
-9755264.60 5135319.20 191.28
-9755265.29 5135318.71 186.21
-9755263.54 5135318.81 188.77
-9755257.54 5135318.57 184.33
-9755263.72 5135319.25 188.73
-9755257.86 5135318.85 182.39
-9755267.26 5135318.66 188.98
-9755258.82 5135318.25 185.91
-9755258.70 5135319.10 184.21
-9755263.80 5135318.78 190.32
-9755265.63 5135319.12 191.32
-9755266.39 5135319.12 192.02
-9755256.69 5135318.29 184.93
-9755263.83 5135319.16 188.16
-9755267.33 5135318.85 190.79
-9755265.27 5135318.70 190.99
-9755264.86 5135318.87 191.54
-9755265.81 5135318.77 190.41
-9755266.70 5135319.08 190.49
-9755264.57 5135318.99 186.48
-9755258.76 5135319.09 185.07
-9755267.65 5135319.06 191.42
-9755281.42 5135312.04 186.40
-9755283.21 5135314.02 182.42
-9755281.75 5135316.90 182.59
-9755280.99 5135312.91 186.19
-9755282.34 5135314.84 182.47
-9755282.29 5135313.49 186.26
-9755282.22 5135313.37 186.11
-9755281.69 5135318.37 182.63
-9755281.74 5135315.06 184.54
-9755282.64 5135312.59 186.27
-9755283.20 5135316.31 182.59
-9755281.38 5135313.60 184.16
-9755282.37 5135313.61 184.13
-9755281.47 5135313.95 184.22
-9755282.10 5135314.47 184.65
-9755282.62 5135316.32 182.57
-9755282.62 5135314.58 182.47
-9755281.43 5135313.38 184.14
-9755281.71 5135314.81 182.47
-9755282.31 5135312.30 186.22
-9755281.45 5135313.18 186.30
-9755281.45 5135313.71 182.34
-9755281.01 5135313.86 184.10
-9755282.63 5135313.03 184.04
-9755281.40 5135313.98 182.41
-9755282.93 5135314.11 184.18
-9755282.05 5135314.19 184.31
-9755281.58 5135313.36 185.38
-9755276.51 5135318.46 184.80
-9755274.95 5135313.44 186.02
-9755274.28 5135315.42 186.83
-9755274.34 5135316.08 186.64
-9755280.67 5135312.12 184.87
-9755280.29 5135312.60 185.52
-9755273.69 5135315.68 185.86
-9755274.03 5135317.32 184.87
-9755274.94 5135312.86 186.07
-9755278.79 5135317.38 184.80
-9755274.41 5135315.84 187.01
-9755274.08 5135317.08 184.46
-9755278.22 5135314.40 185.07
-9755274.06 5135315.13 186.15
-9755271.91 5135314.87 185.66
-9755276.74 5135313.75 185.72
-9755274.68 5135315.42 184.82
-9755276.78 5135314.07 186.54
-9755273.54 5135313.73 185.52
-9755280.59 5135312.91 185.99
-9755276.37 5135317.68 184.85
-9755274.35 5135315.72 182.47
-9755277.65 5135317.87 185.55
-9755273.24 5135315.23 184.58
-9755274.08 5135313.43 186.56
-9755277.31 5135316.76 186.56
-9755274.12 5135316.72 185.81
-9755272.36 5135313.32 188.08
-9755273.54 5135314.39 186.30
-9755276.49 5135315.26 186.07
-9755274.57 5135315.24 184.88
-9755275.84 5135317.97 184.53
-9755273.54 5135314.60 187.19
-9755273.22 5135313.45 186.55
-9755273.36 5135312.39 185.79
-9755275.82 5135316.91 187.00
-9755274.14 5135314.89 187.05
-9755273.99 5135313.76 186.98
-9755276.95 5135316.72 186.13
-9755272.66 5135313.62 186.81
-9755274.89 5135312.67 185.21
-9755275.33 5135316.72 185.66
-9755273.76 5135314.97 186.01
-9755273.15 5135313.80 185.76
-9755274.12 5135315.23 184.57
-9755274.40 5135317.03 185.86
-9755272.95 5135312.60 187.26
-9755272.84 5135314.24 182.30
-9755273.12 5135312.81 186.97
-9755274.95 5135316.18 184.95
-9755272.70 5135312.17 188.18
-9755280.58 5135312.07 185.61
-9755275.28 5135313.60 187.08
-9755275.89 5135316.84 184.60
-9755278.43 5135315.30 186.42
-9755277.95 5135316.66 185.85
-9755274.96 5135312.11 185.46
-9755280.17 5135313.18 185.68
-9755272.00 5135311.90 188.09
-9755279.68 5135314.21 184.96
-9755276.48 5135313.44 186.67
-9755277.64 5135315.23 186.28
-9755278.46 5135318.31 184.60
-9755273.63 5135314.87 186.61
-9755272.62 5135315.38 182.39
-9755273.87 5135314.43 185.05
-9755275.89 5135313.20 184.71
-9755279.96 5135313.84 184.97
-9755271.92 5135312.86 186.46
-9755272.36 5135314.33 185.90
-9755277.69 5135313.26 184.66
-9755276.20 5135312.20 186.46
-9755273.22 5135315.29 185.87
-9755273.51 5135316.73 185.06
-9755278.47 5135314.43 185.07
-9755273.17 5135316.62 182.49
-9755272.71 5135312.34 186.03
-9755277.71 5135315.52 185.57
-9755274.46 5135314.96 184.90
-9755274.42 5135313.48 186.80
-9755277.87 5135316.74 186.71
-9755277.04 5135313.78 186.53
-9755278.41 5135315.78 186.51
-9755277.66 5135315.45 182.52
-9755274.98 5135316.07 187.00
-9755274.08 5135318.11 182.55
-9755272.62 5135313.37 182.27
-9755274.25 5135314.52 182.37
-9755275.67 5135312.78 186.37
-9755278.14 5135316.20 185.72
-9755280.77 5135313.36 184.51
-9755276.03 5135318.40 184.58
-9755272.52 5135315.50 183.94
-9755275.19 5135316.41 185.61
-9755274.82 5135312.97 185.20
-9755273.54 5135312.45 188.60
-9755274.37 5135315.83 185.51
-9755273.39 5135314.01 185.47
-9755276.17 5135317.38 185.90
-9755274.47 5135316.38 186.98
-9755272.51 5135315.65 187.41
-9755276.58 5135317.32 184.49
-9755274.20 5135316.11 185.53
-9755272.85 5135314.86 182.37
-9755272.10 5135314.20 185.52
-9755277.03 5135312.86 185.64
-9755273.22 5135313.91 182.29
-9755273.13 5135316.77 184.86
-9755275.60 5135314.48 187.40
-9755277.61 5135311.95 182.13
-9755278.59 5135316.11 186.53
-9755277.05 5135316.70 186.31
-9755273.40 5135316.21 183.91
-9755277.66 5135317.42 185.73
-9755277.22 5135317.44 186.02
-9755276.47 5135316.72 186.71
-9755274.46 5135316.15 186.13
-9755276.71 5135316.92 182.56
-9755272.99 5135316.69 184.95
-9755272.35 5135314.93 185.91
-9755272.96 5135312.43 188.36
-9755279.97 5135312.50 182.24
-9755274.92 5135317.34 185.95
-9755275.25 5135317.35 184.62
-9755273.21 5135314.69 185.80
-9755278.52 5135314.20 184.71
-9755276.08 5135313.01 184.43
-9755280.84 5135312.04 186.11
-9755277.35 5135317.06 185.83
-9755275.01 5135316.71 185.82
-9755275.24 5135316.36 186.98
-9755274.76 5135318.27 183.84
-9755278.20 5135317.61 186.30
-9755272.34 5135315.24 185.89
-9755274.31 5135314.14 182.38
-9755273.46 5135313.11 187.34
-9755273.74 5135315.30 184.61
-9755275.31 5135313.79 185.82
-9755277.89 5135317.39 184.73
-9755277.65 5135312.19 184.83
-9755279.63 5135317.79 182.58
-9755272.95 5135315.98 184.22
-9755275.27 5135312.62 185.66
-9755272.64 5135315.49 187.01
-9755276.11 5135316.75 185.90
-9755280.07 5135311.93 185.41
-9755273.20 5135312.56 187.26
-9755272.37 5135313.58 185.60
-9755275.79 5135317.80 183.67
-9755271.98 5135315.18 185.89
-9755277.98 5135314.80 185.06
-9755279.51 5135312.70 185.53
-9755280.59 5135313.82 185.90
-9755273.22 5135312.98 188.54
-9755276.43 5135315.87 186.74
-9755276.38 5135317.55 182.54
-9755275.63 5135312.03 183.53
-9755274.07 5135313.48 186.07
-9755275.83 5135318.32 183.67
-9755274.40 5135317.17 182.55
-9755273.02 5135311.93 187.56
-9755278.14 5135314.12 185.04
-9755272.53 5135312.02 186.59
-9755279.67 5135311.92 182.17
-9755272.25 5135316.88 182.47
-9755277.63 5135313.73 186.56
-9755276.10 5135317.77 183.59
-9755276.17 5135313.73 186.65
-9755276.73 5135314.90 187.59
-9755277.06 5135318.40 182.58
-9755272.38 5135312.80 187.82
-9755272.36 5135316.59 186.43
-9755276.68 5135318.10 182.56
-9755276.05 5135314.57 187.33
-9755275.91 5135313.18 186.71
-9755276.12 5135316.99 184.30
-9755279.34 5135315.93 184.76
-9755272.42 5135313.06 188.06
-9755274.76 5135314.22 182.30
-9755272.91 5135315.37 184.08
-9755273.18 5135318.33 182.53
-9755278.18 5135317.02 186.34
-9755275.56 5135313.65 186.51
-9755272.34 5135312.21 187.67
-9755274.30 5135314.54 186.03
-9755280.83 5135315.45 182.50
-9755276.65 5135317.08 184.50
-9755275.54 5135315.83 185.81
-9755275.23 5135315.33 186.98
-9755274.94 5135317.95 183.66
-9755272.36 5135314.64 187.13
-9755272.94 5135312.90 187.28
-9755272.06 5135313.71 182.26
-9755276.18 5135315.48 187.43
-9755274.09 5135316.53 184.98
-9755273.00 5135312.79 188.07
-9755276.17 5135313.69 185.52
-9755279.85 5135315.42 184.40
-9755275.52 5135315.11 187.56
-9755278.17 5135318.31 184.57
-9755279.58 5135316.87 184.78
-9755273.55 5135311.93 185.82
-9755272.58 5135315.77 182.43
-9755274.98 5135315.15 182.42
-9755272.00 5135315.41 182.40
-9755272.06 5135315.34 187.12
-9755276.16 5135316.69 186.73
-9755273.99 5135317.13 184.87
-9755280.52 5135314.39 184.89
-9755277.24 5135315.31 185.59
-9755277.43 5135316.15 186.98
-9755273.17 5135312.47 182.18
-9755274.52 5135315.33 184.54
-9755276.13 5135317.72 184.49
-9755272.93 5135313.33 188.17
-9755275.87 5135316.72 185.73
-9755280.84 5135314.29 182.42
-9755275.28 5135314.01 186.42
-9755280.47 5135313.59 185.02
-9755278.23 5135315.82 186.80
-9755279.11 5135313.08 182.24
-9755277.30 5135318.32 184.75
-9755273.05 5135316.26 184.24
-9755277.05 5135316.90 186.68
-9755276.41 5135312.65 185.45
-9755274.70 5135315.78 187.00
-9755278.19 5135312.51 182.21
-9755277.60 5135314.49 185.00
-9755279.92 5135315.48 182.49
-9755275.27 5135313.60 186.52
-9755275.26 5135318.32 183.77
-9755272.93 5135314.58 186.63
-9755275.68 5135316.06 185.81
-9755275.25 5135312.98 184.41
-9755279.06 5135318.42 182.59
-9755276.45 5135312.93 184.08
-9755276.12 5135316.21 185.70
-9755276.65 5135318.17 185.93
-9755278.13 5135317.94 185.34
-9755277.66 5135314.63 186.58
-9755277.60 5135318.13 184.49
-9755275.28 5135315.81 186.99
-9755277.30 5135316.13 186.23
-9755272.32 5135313.63 186.12
-9755280.84 5135318.38 182.61
-9755273.20 5135315.96 182.44
-9755276.75 5135315.93 186.74
-9755274.87 5135317.64 183.68
-9755273.14 5135313.42 182.27
-9755276.44 5135316.72 185.95
-9755278.19 5135314.07 185.59
-9755280.24 5135316.92 182.58
-9755274.09 5135317.63 184.54
-9755272.85 5135316.89 182.49
-9755280.59 5135313.40 182.35
-9755273.76 5135315.94 182.45
-9755273.73 5135314.31 182.36
-9755277.30 5135312.53 182.18
-9755276.15 5135315.99 187.57
-9755272.91 5135316.52 184.21
-9755275.85 5135316.04 187.50
-9755272.69 5135316.13 183.92
-9755274.96 5135313.11 186.55
-9755280.22 5135318.41 182.60
-9755274.02 5135316.69 182.50
-9755274.59 5135314.23 185.99
-9755272.00 5135314.87 184.06
-9755272.05 5135312.78 187.78
-9755270.79 5135315.05 183.71
-9755269.86 5135311.94 187.03
-9755271.88 5135314.21 184.86
-9755270.87 5135315.73 183.58
-9755271.64 5135312.24 186.38
-9755270.30 5135314.54 183.90
-9755270.33 5135313.67 185.75
-9755270.61 5135311.93 185.32
-9755270.00 5135312.11 187.34
-9755270.26 5135313.59 184.64
-9755270.85 5135313.70 187.48
-9755270.34 5135316.11 183.51
-9755270.30 5135315.57 184.35
-9755270.78 5135313.49 185.75
-9755271.14 5135312.47 186.70
-9755271.46 5135312.11 189.31
-9755270.48 5135316.61 184.01
-9755270.82 5135313.85 185.60
-9755271.16 5135315.61 183.79
-9755269.96 5135312.63 188.49
-9755271.02 5135314.73 184.00
-9755270.71 5135315.18 183.95
-9755270.31 5135316.93 184.95
-9755269.35 5135313.71 185.46
-9755270.90 5135312.09 189.17
-9755271.19 5135314.79 187.56
-9755270.01 5135314.06 185.57
-9755269.91 5135312.23 185.92
-9755271.97 5135317.45 182.50
-9755271.76 5135311.99 187.03
-9755270.78 5135312.17 188.22
-9755271.12 5135315.06 182.37
-9755271.21 5135312.33 189.73
-9755271.13 5135314.62 185.35
-9755269.97 5135314.41 185.13
-9755269.65 5135311.91 187.41
-9755270.23 5135314.76 183.78
-9755270.25 5135312.33 182.18
-9755270.78 5135312.81 186.60
-9755269.63 5135315.08 182.38
-9755271.57 5135312.51 187.10
-9755270.26 5135314.07 185.57
-9755271.56 5135314.88 187.31
-9755270.77 5135315.40 182.39
-9755270.49 5135315.08 182.37
-9755271.05 5135315.69 183.65
-9755271.44 5135311.89 188.05
-9755269.85 5135312.09 189.31
-9755270.28 5135316.53 184.64
-9755269.94 5135314.89 182.37
-9755269.60 5135312.07 185.13
-9755271.67 5135314.62 185.38
-9755269.56 5135312.64 189.75
-9755272.04 5135314.89 185.96
-9755270.79 5135312.96 185.72
-9755271.11 5135313.47 185.51
-9755270.53 5135312.56 185.84
-9755271.09 5135312.85 186.12
-9755271.24 5135312.42 189.10
-9755269.60 5135312.71 182.15
-9755271.71 5135313.96 188.05
-9755270.23 5135314.06 185.18
-9755269.96 5135312.50 187.08
-9755270.33 5135312.10 189.48
-9755271.69 5135313.90 182.28
-9755270.91 5135314.45 184.01
-9755269.95 5135312.84 187.08
-9755270.84 5135312.24 187.90
-9755270.01 5135313.63 184.58
-9755270.77 5135314.16 182.30
-9755270.32 5135312.52 185.87
-9755271.69 5135316.55 182.47
-9755271.06 5135313.23 187.83
-9755271.24 5135313.75 185.45
-9755270.88 5135313.38 187.88
-9755271.16 5135314.74 184.59
-9755270.66 5135312.50 186.73
-9755269.40 5135314.58 185.98
-9755257.82 5135318.34 186.02
-9755265.35 5135318.34 190.79
-9755264.08 5135318.39 185.97
-9755263.82 5135318.38 186.21
-9755263.50 5135318.42 187.27
-9755262.90 5135318.34 184.37
-9755268.70 5135315.42 182.37
-9755258.46 5135315.13 186.80
-9755267.02 5135316.71 186.91
-9755264.08 5135316.96 187.37
-9755264.66 5135317.80 185.27
-9755267.13 5135315.03 187.68
-9755259.87 5135311.93 186.35
-9755257.65 5135315.98 188.20
-9755257.05 5135314.45 188.28
-9755265.88 5135313.64 187.66
-9755257.99 5135317.88 186.24
-9755267.14 5135318.29 190.88
-9755262.87 5135313.68 187.20
-9755260.51 5135312.82 186.05
-9755257.89 5135317.06 186.89
-9755256.44 5135313.82 188.20
-9755262.03 5135312.90 185.09
-9755266.10 5135315.37 188.97
-9755256.76 5135318.10 185.99
-9755262.82 5135317.32 184.51
-9755266.55 5135314.29 187.60
-9755262.45 5135314.44 182.28
-9755263.24 5135314.19 187.35
-9755265.26 5135312.37 187.25
-9755260.83 5135315.82 184.60
-9755263.21 5135317.13 186.78
-9755262.90 5135317.95 184.39
-9755266.95 5135312.55 186.23
-9755256.93 5135317.13 188.00
-9755264.43 5135312.16 186.83
-9755259.93 5135311.98 183.94
-9755261.96 5135314.96 185.25
-9755268.80 5135314.80 184.34
-9755259.95 5135317.58 184.32
-9755259.97 5135316.05 185.86
-9755262.88 5135312.78 186.61
-9755264.70 5135315.86 188.13
-9755258.47 5135315.62 187.95
-9755258.75 5135312.48 186.53
-9755262.61 5135314.88 186.41
-9755260.81 5135316.21 184.86
-9755259.32 5135312.80 185.62
-9755263.36 5135312.97 185.22
-9755257.94 5135317.76 186.89
-9755262.52 5135313.50 185.70
-9755268.88 5135314.09 184.22
-9755260.81 5135312.77 186.04
-9755263.14 5135314.05 186.02
-9755263.63 5135317.00 185.67
-9755262.70 5135312.83 185.28
-9755267.60 5135318.29 190.56
-9755263.54 5135312.61 185.08
-9755268.18 5135314.99 184.71
-9755261.40 5135317.50 184.57
-9755257.90 5135316.52 187.42
-9755261.63 5135316.75 183.94
-9755267.55 5135317.80 191.12
-9755267.39 5135318.41 188.99
-9755266.33 5135317.53 187.06
-9755265.23 5135318.09 188.48
-9755260.17 5135312.46 186.25
-9755261.99 5135315.38 184.35
-9755263.23 5135314.43 188.11
-9755256.29 5135316.24 186.83
-9755257.01 5135313.07 187.51
-9755266.11 5135315.69 188.16
-9755258.74 5135312.46 186.24
-9755264.53 5135317.36 186.02
-9755265.81 5135316.26 188.59
-9755257.63 5135317.72 188.18
-9755262.33 5135312.04 186.96
-9755265.39 5135315.55 188.68
-9755265.56 5135317.69 188.20
-9755263.74 5135313.68 186.61
-9755266.49 5135313.36 187.30
-9755263.21 5135315.67 186.73
-9755263.21 5135317.83 186.48
-9755265.88 5135313.38 187.67
-9755257.23 5135317.73 186.40
-9755268.43 5135312.27 185.86
-9755266.38 5135313.68 187.65
-9755257.88 5135311.90 185.92
-9755264.61 5135317.87 186.52
-9755264.08 5135317.43 188.21
-9755264.97 5135315.72 188.92
-9755261.11 5135314.46 182.26
-9755262.50 5135313.70 185.92
-9755263.80 5135318.21 186.43
-9755262.88 5135315.90 182.34
-9755265.55 5135315.12 188.64
-9755259.94 5135313.34 186.36
-9755263.79 5135315.70 188.03
-9755261.43 5135317.64 184.87
-9755264.08 5135316.59 187.35
-9755265.27 5135316.57 188.34
-9755263.36 5135314.06 185.02
-9755259.63 5135316.74 183.86
-9755261.81 5135312.16 186.10
-9755264.47 5135317.73 187.59
-9755268.45 5135316.56 182.42
-9755262.86 5135317.42 183.62
-9755259.74 5135313.60 186.48
-9755267.08 5135313.69 186.89
-9755262.43 5135315.78 186.41
-9755259.39 5135312.54 184.82
-9755266.10 5135311.89 185.30
-9755259.97 5135313.69 185.53
-9755266.11 5135313.32 187.16
-9755257.12 5135315.51 188.94
-9755262.88 5135316.64 187.32
-9755258.07 5135316.90 188.11
-9755264.66 5135312.82 185.80
-9755263.46 5135312.75 186.82
-9755264.42 5135313.73 186.61
-9755267.48 5135315.87 186.56
-9755261.97 5135317.30 184.82
-9755258.74 5135316.94 186.61
-9755262.62 5135312.21 186.41
-9755263.43 5135314.10 187.67
-9755263.65 5135316.98 185.25
-9755262.06 5135313.23 184.58
-9755264.65 5135315.01 189.11
-9755256.70 5135316.84 188.54
-9755267.38 5135317.93 191.48
-9755259.95 5135311.98 185.54
-9755265.85 5135316.63 187.94
-9755257.33 5135316.75 186.00
-9755259.30 5135312.81 185.27
-9755263.42 5135315.19 187.39
-9755267.10 5135313.68 186.33
-9755265.47 5135316.29 188.39
-9755264.97 5135314.02 187.54
-9755256.68 5135313.83 187.74
-9755262.11 5135314.44 186.03
-9755256.63 5135316.06 187.55
-9755265.00 5135315.07 189.17
-9755257.25 5135316.20 187.42
-9755269.22 5135312.14 187.10
-9755269.28 5135315.30 184.15
-9755262.50 5135316.14 184.53
-9755260.17 5135312.43 182.14
-9755257.59 5135317.78 186.71
-9755265.01 5135313.02 187.88
-9755264.10 5135313.17 185.05
-9755264.08 5135316.63 188.22
-9755259.26 5135312.88 184.25
-9755262.07 5135312.47 186.28
-9755263.06 5135317.03 185.94
-9755268.15 5135312.67 182.16
-9755269.06 5135313.02 185.97
-9755261.69 5135315.13 185.28
-9755266.17 5135314.50 188.30
-9755257.50 5135317.36 188.49
-9755264.22 5135317.34 185.11
-9755265.01 5135316.71 188.08
-9755258.80 5135315.11 184.74
-9755264.38 5135312.44 185.11
-9755266.72 5135314.56 187.60
-9755262.62 5135315.69 187.14
-9755267.08 5135317.92 190.77
-9755262.20 5135318.17 184.76
-9755263.49 5135315.65 187.90
-9755258.76 5135317.54 185.27
-9755266.68 5135316.88 186.61
-9755257.66 5135314.49 187.77
-9755263.76 5135314.17 187.11
-9755258.93 5135314.35 186.35
-9755258.08 5135316.61 186.46
-9755257.19 5135317.97 185.66
-9755256.33 5135317.67 186.84
-9755264.65 5135316.24 187.60
-9755265.23 5135317.40 187.93
-9755262.78 5135316.87 182.29
-9755263.46 5135316.34 182.35
-9755262.56 5135312.39 182.12
-9755261.98 5135316.23 185.63
-9755258.55 5135315.71 187.12
-9755264.40 5135315.14 188.70
-9755256.40 5135314.03 188.14
-9755268.99 5135311.95 186.08
-9755259.41 5135313.58 183.73
-9755258.42 5135313.39 185.98
-9755262.72 5135312.60 184.64
-9755256.73 5135312.51 187.20
-9755256.26 5135317.18 186.99
-9755265.63 5135317.44 187.33
-9755263.42 5135313.70 186.19
-9755256.35 5135313.78 185.71
-9755256.40 5135317.39 187.67
-9755269.35 5135312.50 187.10
-9755269.34 5135314.20 182.30
-9755264.13 5135317.07 186.08
-9755258.95 5135312.84 185.32
-9755263.75 5135315.88 186.88
-9755268.77 5135312.83 185.97
-9755267.89 5135311.92 185.68
-9755263.81 5135315.92 185.87
-9755261.84 5135313.57 185.68
-9755266.08 5135317.16 187.67
-9755261.38 5135315.90 186.33
-9755262.23 5135313.21 182.19
-9755257.83 5135317.98 182.36
-9755267.05 5135312.02 185.23
-9755267.25 5135312.51 186.07
-9755262.39 5135312.65 184.67
-9755266.41 5135312.75 187.20
-9755260.81 5135312.09 187.25
-9755261.65 5135314.60 185.31
-9755268.82 5135314.09 186.03
-9755258.47 5135317.17 187.61
-9755261.71 5135317.06 184.48
-9755267.75 5135312.02 187.29
-9755257.90 5135317.71 187.61
-9755256.37 5135316.78 188.38
-9755262.80 5135316.76 184.66
-9755261.71 5135313.80 184.68
-9755264.09 5135312.85 186.40
-9755262.90 5135316.24 187.29
-9755261.95 5135315.76 187.30
-9755256.74 5135317.72 185.97
-9755259.17 5135312.18 185.70
-9755256.18 5135316.19 188.95
-9755264.69 5135314.19 188.38
-9755258.80 5135316.38 186.99
-9755266.42 5135316.62 189.10
-9755258.48 5135313.43 184.98
-9755262.78 5135316.57 184.43
-9755264.60 5135317.76 188.61
-9755264.30 5135318.46 182.50
-9755267.92 5135316.12 186.32
-9755259.97 5135314.96 185.75
-9755264.44 5135313.06 187.99
-9755263.66 5135316.49 186.95
-9755263.81 5135316.24 188.19
-9755257.73 5135315.15 182.26
-9755264.04 5135316.60 187.61
-9755264.11 5135313.65 187.71
-9755264.95 5135316.56 187.64
-9755261.70 5135313.47 185.57
-9755259.29 5135317.34 183.95
-9755267.86 5135317.30 186.10
-9755267.04 5135317.56 190.80
-9755261.99 5135313.77 185.10
-9755259.32 5135314.04 184.51
-9755259.38 5135312.34 183.89
-9755265.86 5135315.36 188.29
-9755260.42 5135317.02 184.46
-9755260.86 5135312.43 187.76
-9755266.67 5135317.20 187.67
-9755262.91 5135313.43 185.39
-9755258.81 5135315.98 186.89
-9755258.49 5135318.05 186.85
-9755261.67 5135314.31 185.22
-9755257.53 5135316.21 187.41
-9755267.18 5135317.84 190.97
-9755257.59 5135313.59 186.87
-9755262.15 5135315.76 185.22
-9755268.73 5135312.65 182.13
-9755265.53 5135317.74 189.01
-9755257.16 5135318.28 184.97
-9755266.19 5135312.15 187.16
-9755257.97 5135317.55 187.04
-9755259.10 5135316.08 186.86
-9755264.03 5135313.31 186.68
-9755263.42 5135316.90 184.29
-9755262.03 5135316.55 186.00
-9755263.41 5135317.95 185.34
-9755256.74 5135315.26 189.36
-9755263.26 5135316.24 188.18
-9755259.36 5135314.05 185.32
-9755261.93 5135316.02 186.46
-9755262.61 5135313.79 185.28
-9755257.22 5135318.04 187.57
-9755263.61 5135315.09 188.32
-9755256.73 5135317.59 186.76
-9755262.25 5135314.37 184.76
-9755261.65 5135314.12 182.24
-9755256.71 5135317.70 186.77
-9755263.70 5135313.36 182.19
-9755261.18 5135312.44 187.64
-9755263.08 5135317.42 182.40
-9755261.97 5135316.73 184.36
-9755269.37 5135314.52 182.33
-9755256.72 5135312.69 187.06
-9755262.82 5135314.25 185.93
-9755261.65 5135315.95 182.33
-9755266.47 5135313.51 185.86
-9755264.66 5135313.32 187.93
-9755258.79 5135315.58 185.31
-9755259.94 5135312.79 186.28
-9755262.96 5135315.14 188.32
-9755266.15 5135317.78 188.15
-9755256.16 5135312.79 185.53
-9755264.69 5135315.63 188.97
-9755262.82 5135314.47 182.26
-9755259.51 5135312.85 184.90
-9755262.93 5135315.25 185.64
-9755258.68 5135312.15 186.18
-9755267.91 5135312.49 185.90
-9755265.79 5135317.45 182.41
-9755260.62 5135312.16 185.88
-9755266.07 5135318.01 191.46
-9755259.26 5135313.37 185.22
-9755266.34 5135317.98 187.62
-9755259.97 5135314.79 185.99
-9755261.32 5135313.52 185.15
-9755258.85 5135317.87 186.54
-9755262.01 5135314.07 184.95
-9755264.94 5135314.28 188.88
-9755263.42 5135317.55 186.35
-9755262.38 5135312.67 182.14
-9755268.18 5135315.52 186.02
-9755262.83 5135315.13 187.32
-9755261.79 5135314.04 185.00
-9755262.03 5135315.01 183.34
-9755257.03 5135316.48 188.94
-9755258.15 5135315.28 188.06
-9755257.01 5135315.87 189.35
-9755261.44 5135313.43 184.80
-9755261.64 5135313.47 184.47
-9755261.91 5135317.32 184.52
-9755259.95 5135317.29 184.10
-9755260.58 5135313.12 186.06
-9755261.92 5135318.34 182.42
-9755257.94 5135317.42 186.14
-9755265.00 5135313.61 187.72
-9755256.50 5135312.77 185.39
-9755265.89 5135312.49 187.74
-9755262.20 5135313.86 184.95
-9755269.44 5135313.68 186.12
-9755264.04 5135317.60 186.43
-9755258.99 5135316.21 188.05
-9755263.73 5135318.20 190.20
-9755262.88 5135314.00 185.18
-9755262.76 5135316.19 185.48
-9755261.53 5135312.59 184.75
-9755264.12 5135312.78 185.17
-9755261.38 5135313.55 182.21
-9755263.88 5135317.55 184.92
-9755266.75 5135313.62 187.28
-9755260.25 5135316.75 184.42
-9755260.84 5135313.72 182.23
-9755262.87 5135315.73 186.61
-9755260.48 5135314.64 185.84
-9755265.74 5135317.66 182.41
-9755257.24 5135318.32 182.32
-9755257.02 5135312.99 187.25
-9755260.54 5135313.34 186.42
-9755260.25 5135312.21 187.16
-9755264.86 5135317.57 185.27
-9755261.11 5135315.37 182.27
-9755261.04 5135317.10 182.37
-9755259.12 5135316.06 186.46
-9755260.33 5135314.91 185.77
-9755261.97 5135315.23 183.33
-9755258.79 5135313.35 186.03
-9755263.83 5135316.60 188.31
-9755267.13 5135317.78 191.49
-9755257.30 5135313.04 186.68
-9755260.21 5135313.70 185.33
-9755259.11 5135314.37 184.84
-9755265.26 5135315.81 189.21
-9755261.69 5135316.16 183.94
-9755268.15 5135315.23 185.44
-9755266.48 5135312.84 187.78
-9755263.05 5135312.47 186.71
-9755262.97 5135314.89 188.02
-9755262.48 5135314.82 185.92
-9755264.69 5135314.25 188.90
-9755261.38 5135315.90 184.31
-9755265.07 5135317.60 187.22
-9755267.59 5135312.54 187.22
-9755267.96 5135314.99 186.07
-9755264.11 5135313.11 187.54
-9755269.19 5135312.74 182.14
-9755263.76 5135312.76 186.87
-9755265.32 5135313.63 187.71
-9755262.52 5135316.99 186.04
-9755260.22 5135316.54 184.63
-9755263.22 5135317.05 184.71
-9755264.53 5135317.32 188.35
-9755266.87 5135313.32 187.51
-9755264.04 5135312.69 185.96
-9755256.96 5135318.07 185.56
-9755262.54 5135314.29 187.28
-9755263.16 5135316.83 185.60
-9755260.23 5135314.27 186.46
-9755261.71 5135312.53 186.19
-9755265.02 5135312.21 184.93
-9755268.30 5135318.22 190.80
-9755260.56 5135315.76 185.61
-9755264.97 5135314.95 188.01
-9755268.14 5135316.70 186.17
-9755263.86 5135315.86 188.65
-9755258.42 5135314.52 186.86
-9755261.01 5135312.45 185.46
-9755261.07 5135313.78 185.48
-9755263.41 5135314.77 185.60
-9755262.22 5135312.00 184.42
-9755262.92 5135317.52 187.22
-9755257.00 5135317.39 187.95
-9755257.45 5135317.11 186.55
-9755261.69 5135312.86 184.76
-9755262.38 5135313.59 182.20
-9755262.08 5135313.84 182.21
-9755264.04 5135315.94 189.16
-9755263.43 5135312.92 184.88
-9755259.17 5135313.48 186.17
-9755258.61 5135316.93 186.03
-9755260.80 5135317.41 182.37
-9755262.58 5135314.60 186.00
-9755262.00 5135314.56 185.18
-9755262.52 5135314.20 186.44
-9755263.46 5135318.25 184.62
-9755263.42 5135317.21 182.39
-9755259.50 5135313.23 185.53
-9755264.45 5135317.57 185.11
-9755262.02 5135316.75 185.65
-9755263.01 5135316.35 182.37
-9755264.96 5135312.52 187.21
-9755260.26 5135317.94 182.38
-9755261.05 5135317.78 182.36
-9755261.34 5135315.86 182.31
-9755256.27 5135315.99 186.95
-9755267.58 5135317.53 191.16
-9755262.88 5135316.16 184.53
-9755263.41 5135316.73 184.29
-9755259.77 5135312.84 184.15
-9755259.56 5135318.24 185.47
-9755259.42 5135313.23 186.27
-9755268.49 5135315.18 185.49
-9755266.97 5135314.74 185.73
-9755267.58 5135317.09 183.99
-9755257.50 5135317.87 184.93
-9755261.97 5135316.73 183.85
-9755268.75 5135315.01 185.51
-9755256.07 5135317.25 188.31
-9755256.68 5135314.20 187.71
-9755264.12 5135317.67 182.38
-9755262.89 5135315.44 186.60
-9755262.95 5135315.82 186.03
-9755264.68 5135318.17 186.44
-9755262.98 5135313.76 185.11
-9755264.55 5135317.90 186.14
-9755259.71 5135312.77 186.25
-9755263.84 5135318.38 187.22
-9755261.64 5135316.01 184.34
-9755266.83 5135314.07 185.80
-9755260.83 5135312.21 185.96
-9755263.79 5135314.36 186.07
-9755266.55 5135317.56 186.70
-9755264.05 5135316.26 187.60
-9755261.76 5135316.04 186.45
-9755266.15 5135312.82 185.27
-9755266.83 5135312.14 185.44
-9755268.08 5135318.24 190.72
-9755263.76 5135317.18 184.96
-9755263.51 5135318.17 185.32
-9755257.78 5135317.06 187.87
-9755265.85 5135315.69 188.85
-9755267.56 5135314.30 187.15
-9755262.30 5135316.04 186.03
-9755265.25 5135318.21 190.40
-9755261.44 5135313.78 184.22
-9755265.57 5135317.86 186.75
-9755263.51 5135313.89 187.92
-9755259.27 5135314.88 186.38
-9755258.43 5135317.85 185.24
-9755260.25 5135316.36 184.41
-9755259.63 5135316.67 186.52
-9755262.56 5135314.03 185.96
-9755264.42 5135316.57 187.68
-9755260.96 5135313.74 185.06
-9755265.50 5135317.14 182.41
-9755262.93 5135317.08 185.32
-9755258.41 5135311.92 185.27
-9755262.74 5135314.96 184.90
-9755263.22 5135314.56 187.04
-9755262.88 5135315.15 186.68
-9755262.57 5135317.64 184.57
-9755263.03 5135316.21 188.26
-9755263.26 5135313.27 182.21
-9755263.56 5135317.83 187.31
-9755266.09 5135317.54 188.20
-9755265.29 5135316.22 188.75
-9755266.47 5135314.75 188.46
-9755260.26 5135311.96 185.82
-9755262.56 5135316.29 182.37
-9755265.09 5135314.68 189.36
-9755268.15 5135315.06 182.33
-9755259.75 5135315.95 184.21
-9755269.04 5135313.69 186.14
-9755265.25 5135312.26 185.79
-9755257.59 5135312.79 184.82
-9755263.32 5135315.57 186.01
-9755259.69 5135314.37 184.50
-9755257.79 5135318.11 186.59
-9755256.72 5135314.70 188.97
-9755268.57 5135311.91 187.07
-9755264.82 5135318.40 190.36
-9755257.51 5135316.24 187.90
-9755266.10 5135313.60 186.97
-9755262.65 5135311.89 184.59
-9755261.97 5135312.25 186.26
-9755263.25 5135313.43 187.64
-9755261.64 5135315.04 182.30
-9755265.83 5135314.55 188.15
-9755261.90 5135313.72 185.60
-9755265.55 5135317.86 191.48
-9755257.90 5135313.87 187.65
-9755260.79 5135312.65 187.11
-9755268.12 5135312.48 185.17
-9755266.84 5135313.00 187.71
-9755267.75 5135317.90 190.57
-9755264.36 5135317.18 188.36
-9755265.80 5135316.64 187.07
-9755263.48 5135314.73 187.89
-9755263.85 5135312.85 185.13
-9755256.93 5135318.04 187.53
-9755266.14 5135317.59 190.84
-9755261.60 5135315.54 185.17
-9755261.95 5135317.09 183.86
-9755269.33 5135311.91 187.05
-9755252.13 5135337.79 182.58
-9755256.12 5135320.72 188.24
-9755255.86 5135320.91 187.77
-9755256.07 5135319.81 186.37
-9755254.68 5135320.94 188.01
-9755253.40 5135320.84 189.87
-9755253.53 5135320.23 191.30
-9755253.12 5135319.38 190.94
-9755253.20 5135320.25 190.71
-9755252.92 5135319.90 190.73
-9755254.05 5135320.79 190.07
-9755253.83 5135320.25 191.38
-9755254.33 5135319.58 191.91
-9755253.38 5135319.36 189.02
-9755253.21 5135320.82 190.87
-9755254.07 5135319.83 191.83
-9755255.54 5135320.71 186.79
-9755252.84 5135320.71 191.68
-9755254.69 5135320.16 186.61
-9755253.49 5135320.88 188.46
-9755253.70 5135321.12 186.78
-9755253.80 5135320.35 187.87
-9755254.63 5135320.35 187.10
-9755254.30 5135319.84 191.28
-9755255.48 5135320.64 188.22
-9755254.61 5135320.36 188.02
-9755253.98 5135320.74 187.35
-9755255.20 5135320.70 188.06
-9755253.79 5135320.07 190.71
-9755254.27 5135320.01 190.71
-9755253.82 5135320.30 187.30
-9755253.41 5135319.94 191.11
-9755256.00 5135333.05 184.14
-9755255.89 5135332.77 184.11
-9755255.73 5135333.20 185.81
-9755255.47 5135334.66 184.79
-9755255.43 5135332.03 183.67
-9755255.61 5135333.31 184.29
-9755254.28 5135321.12 186.77
-9755255.45 5135332.98 185.77
-9755255.99 5135334.70 185.19
-9755255.93 5135332.52 182.49
-9755256.07 5135326.56 182.49
-9755255.42 5135332.03 185.69
-9755254.64 5135321.84 186.54
-9755255.35 5135333.08 182.49
-9755255.40 5135331.10 186.02
-9755254.54 5135322.54 186.42
-9755255.07 5135329.48 184.31
-9755255.15 5135321.61 186.68
-9755254.81 5135329.98 184.68
-9755254.49 5135328.75 184.08
-9755254.91 5135320.98 187.98
-9755255.42 5135331.12 185.64
-9755255.40 5135321.17 188.08
-9755253.89 5135329.32 184.65
-9755255.20 5135333.41 185.57
-9755255.05 5135331.17 185.75
-9755255.39 5135330.22 185.67
-9755254.80 5135329.64 184.30
-9755254.03 5135333.20 184.70
-9755253.95 5135330.01 185.52
-9755255.09 5135333.06 184.82
-9755255.26 5135330.61 185.04
-9755255.39 5135326.84 182.49
-9755254.56 5135331.07 185.76
-9755253.68 5135331.45 185.73
-9755253.07 5135327.74 182.51
-9755253.93 5135331.15 185.72
-9755255.67 5135329.68 185.56
-9755255.32 5135334.55 182.49
-9755254.62 5135321.52 182.43
-9755253.72 5135330.32 185.25
-9755254.29 5135333.51 184.24
-9755255.18 5135330.51 185.65
-9755255.10 5135332.63 184.61
-9755253.37 5135322.53 185.29
-9755254.53 5135333.60 184.77
-9755255.63 5135332.96 184.61
-9755253.31 5135325.97 182.50
-9755253.00 5135331.74 185.65
-9755254.57 5135322.07 182.43
-9755253.45 5135332.30 184.74
-9755253.31 5135330.99 182.55
-9755255.18 5135322.51 186.41
-9755254.57 5135331.94 185.82
-9755253.06 5135328.87 182.52
-9755254.22 5135333.49 184.75
-9755255.33 5135333.24 184.50
-9755255.45 5135329.43 185.56
-9755253.07 5135330.91 184.92
-9755253.09 5135330.34 184.90
-9755253.08 5135331.59 182.55
-9755254.52 5135333.57 185.25
-9755255.13 5135327.37 182.50
-9755255.11 5135332.99 184.24
-9755255.07 5135333.57 184.73
-9755255.30 5135331.46 185.64
-9755253.94 5135333.91 184.33
-9755254.01 5135333.46 184.68
-9755255.72 5135321.99 186.61
-9755254.46 5135334.23 182.51
-9755253.09 5135328.31 182.52
-9755254.24 5135331.39 185.84
-9755253.08 5135325.94 182.50
-9755254.63 5135321.59 187.08
-9755255.15 5135330.57 185.91
-9755255.50 5135332.96 185.10
-9755254.48 5135321.75 187.85
-9755253.21 5135329.38 184.64
-9755253.91 5135331.76 182.54
-9755255.14 5135330.49 184.69
-9755254.80 5135331.42 185.86
-9755255.19 5135321.27 187.90
-9755253.32 5135332.70 183.96
-9755253.58 5135332.15 182.56
-9755255.53 5135329.01 185.72
-9755254.86 5135329.07 185.14
-9755254.28 5135322.37 185.79
-9755254.59 5135325.66 182.48
-9755254.95 5135321.64 187.88
-9755253.66 5135333.47 185.17
-9755255.34 5135333.51 185.75
-9755253.35 5135332.04 185.17
-9755253.65 5135325.02 182.47
-9755254.60 5135333.73 185.26
-9755253.84 5135322.30 185.49
-9755255.51 5135333.27 183.54
-9755253.28 5135329.83 182.53
-9755254.01 5135333.26 184.46
-9755254.24 5135330.57 185.70
-9755253.35 5135330.00 185.24
-9755254.92 5135332.81 184.14
-9755254.25 5135331.12 185.78
-9755253.08 5135323.46 184.96
-9755254.61 5135329.38 185.28
-9755255.45 5135332.40 184.31
-9755253.78 5135329.74 184.15
-9755253.59 5135332.65 185.55
-9755253.17 5135329.79 185.39
-9755256.11 5135321.82 182.45
-9755254.14 5135332.49 183.96
-9755254.25 5135329.35 184.33
-9755253.06 5135324.91 184.73
-9755255.18 5135321.94 186.63
-9755255.70 5135337.43 185.04
-9755253.53 5135337.37 185.32
-9755252.79 5135336.01 185.18
-9755253.55 5135336.43 185.17
-9755253.02 5135336.41 185.50
-9755253.56 5135337.34 185.62
-9755255.43 5135335.07 185.06
-9755253.11 5135337.31 185.19
-9755255.09 5135337.44 184.75
-9755255.28 5135337.33 185.03
-9755252.75 5135336.45 185.21
-9755254.50 5135335.68 184.62
-9755255.48 5135335.24 184.30
-9755253.70 5135336.50 184.84
-9755255.12 5135337.28 185.60
-9755255.12 5135336.33 184.02
-9755253.81 5135337.09 185.13
-9755254.47 5135336.27 185.16
-9755255.64 5135336.80 185.07
-9755255.06 5135335.86 184.99
-9755253.88 5135335.73 182.52
-9755253.92 5135336.75 185.21
-9755253.95 5135335.68 184.66
-9755255.11 5135336.33 184.24
-9755253.10 5135336.81 185.03
-9755256.08 5135319.13 188.20
-9755253.16 5135319.05 190.92
-9755253.86 5135318.62 191.29
-9755253.48 5135318.74 191.58
-9755253.92 5135319.09 191.22
-9755253.76 5135318.75 191.70
-9755253.45 5135318.81 191.15
-9755253.12 5135318.73 190.58
-9755255.48 5135318.76 189.42
-9755252.90 5135318.39 190.98
-9755254.38 5135318.77 190.46
-9755254.75 5135318.57 191.40
-9755254.35 5135319.06 187.98
-9755253.72 5135319.12 191.00
-9755255.20 5135318.47 189.47
-9755255.01 5135318.49 188.74
-9755252.68 5135320.21 190.42
-9755252.70 5135319.93 190.63
-9755252.33 5135320.19 191.65
-9755251.71 5135319.79 190.07
-9755252.63 5135321.02 191.65
-9755252.28 5135319.87 191.64
-9755252.29 5135320.78 191.65
-9755252.78 5135330.82 184.85
-9755252.48 5135330.60 185.11
-9755252.77 5135325.39 182.48
-9755252.49 5135331.83 185.08
-9755252.21 5135322.19 191.51
-9755252.78 5135324.90 184.74
-9755252.32 5135321.04 191.64
-9755252.79 5135332.01 185.54
-9755252.75 5135330.95 182.55
-9755252.46 5135322.14 189.83
-9755252.14 5135331.81 185.18
-9755252.17 5135333.34 182.57
-9755252.70 5135331.14 185.30
-9755252.17 5135331.47 185.28
-9755251.75 5135322.85 191.45
-9755252.72 5135325.12 184.77
-9755252.74 5135332.26 185.65
-9755252.17 5135325.04 182.48
-9755252.74 5135325.49 184.72
-9755251.65 5135323.45 191.02
-9755252.22 5135324.01 185.19
-9755252.14 5135323.95 188.24
-9755252.13 5135334.51 182.59
-9755252.72 5135328.00 182.51
-9755252.65 5135321.17 191.22
-9755252.17 5135328.89 182.53
-9755252.63 5135321.65 191.75
-9755252.16 5135325.60 182.49
-9755252.73 5135336.33 182.56
-9755252.10 5135336.93 182.57
-9755252.01 5135319.84 191.40
-9755248.94 5135320.44 190.68
-9755246.40 5135320.87 189.52
-9755251.42 5135319.93 190.95
-9755249.00 5135320.43 191.50
-9755248.41 5135320.76 190.27
-9755249.37 5135320.31 190.05
-9755251.39 5135319.46 189.85
-9755248.46 5135320.15 190.10
-9755248.06 5135319.87 190.00
-9755250.53 5135319.97 190.03
-9755245.15 5135320.70 186.62
-9755247.58 5135320.76 190.98
-9755249.72 5135319.76 191.43
-9755249.01 5135320.77 190.88
-9755249.68 5135320.63 188.82
-9755249.69 5135319.43 190.87
-9755249.86 5135319.48 191.36
-9755250.29 5135320.82 190.99
-9755246.10 5135320.08 191.37
-9755249.33 5135320.19 191.39
-9755251.68 5135320.80 191.34
-9755250.99 5135319.75 190.95
-9755248.05 5135320.22 190.55
-9755248.64 5135320.74 189.82
-9755249.25 5135320.05 190.09
-9755248.71 5135319.97 188.61
-9755243.40 5135320.26 188.16
-9755247.24 5135320.42 191.09
-9755245.42 5135320.14 185.98
-9755249.61 5135320.23 191.42
-9755242.46 5135320.26 187.59
-9755246.37 5135320.77 190.52
-9755246.52 5135320.71 191.48
-9755248.94 5135319.88 190.54
-9755251.69 5135320.06 188.49
-9755248.13 5135319.87 190.83
-9755247.25 5135320.03 190.40
-9755244.62 5135320.10 186.96
-9755246.44 5135320.37 191.59
-9755248.50 5135319.61 190.81
-9755247.28 5135319.85 191.18
-9755245.39 5135320.35 187.11
-9755249.12 5135319.76 190.01
-9755245.48 5135320.37 188.45
-9755248.56 5135320.29 189.74
-9755247.79 5135320.57 189.07
-9755245.53 5135320.40 190.37
-9755252.59 5135319.49 191.69
-9755248.45 5135320.21 190.76
-9755247.84 5135319.50 191.23
-9755248.13 5135319.63 190.82
-9755246.97 5135318.97 191.55
-9755245.92 5135320.85 189.42
-9755244.72 5135319.48 186.58
-9755246.41 5135321.33 191.00
-9755251.38 5135319.65 190.27
-9755251.43 5135319.99 190.10
-9755244.04 5135320.91 188.47
-9755246.03 5135320.12 191.88
-9755251.35 5135319.89 191.29
-9755243.71 5135319.48 188.13
-9755248.24 5135320.08 189.08
-9755246.20 5135320.34 190.53
-9755249.01 5135319.99 189.67
-9755250.50 5135320.29 189.45
-9755243.99 5135319.40 186.87
-9755251.46 5135319.45 189.09
-9755244.04 5135320.79 188.75
-9755246.13 5135320.27 187.14
-9755244.82 5135319.44 187.16
-9755245.21 5135320.98 186.31
-9755245.80 5135319.98 188.44
-9755242.77 5135320.03 187.74
-9755244.64 5135320.82 186.90
-9755245.54 5135320.07 191.91
-9755246.58 5135320.28 190.53
-9755247.53 5135319.90 190.98
-9755242.72 5135320.84 188.96
-9755245.17 5135319.43 187.33
-9755245.51 5135320.21 190.83
-9755251.12 5135319.63 191.37
-9755247.28 5135319.44 190.75
-9755242.86 5135319.99 188.45
-9755247.91 5135320.86 190.40
-9755246.12 5135320.73 190.52
-9755248.12 5135320.82 191.41
-9755251.37 5135319.47 191.39
-9755246.71 5135319.86 191.48
-9755244.90 5135319.41 187.93
-9755246.37 5135320.49 192.14
-9755250.55 5135321.23 190.99
-9755246.02 5135320.15 187.80
-9755246.08 5135320.80 191.17
-9755245.54 5135319.56 187.18
-9755244.02 5135320.35 188.50
-9755245.77 5135319.98 187.74
-9755246.89 5135321.03 191.16
-9755246.02 5135320.22 188.50
-9755247.85 5135321.30 191.33
-9755245.83 5135320.81 186.36
-9755249.55 5135319.68 190.14
-9755250.46 5135320.77 191.07
-9755247.55 5135319.40 182.27
-9755247.23 5135319.54 191.29
-9755245.80 5135320.91 188.74
-9755248.20 5135319.98 189.70
-9755245.83 5135320.36 190.60
-9755245.26 5135319.50 186.67
-9755246.38 5135320.92 188.66
-9755250.31 5135319.69 190.00
-9755251.10 5135319.52 191.85
-9755245.75 5135320.31 187.16
-9755244.59 5135320.87 186.31
-9755245.74 5135320.57 188.44
-9755248.65 5135320.01 190.03
-9755250.56 5135320.47 190.49
-9755251.89 5135320.89 190.02
-9755245.78 5135320.57 190.16
-9755251.32 5135320.56 190.93
-9755248.73 5135320.39 191.18
-9755242.22 5135320.28 188.81
-9755246.04 5135320.69 187.03
-9755243.99 5135319.79 186.91
-9755246.01 5135319.81 187.82
-9755246.14 5135320.75 185.92
-9755244.92 5135319.42 188.36
-9755250.27 5135319.88 191.52
-9755248.75 5135320.54 190.69
-9755248.77 5135319.63 190.54
-9755239.66 5135320.06 189.01
-9755240.17 5135319.90 189.10
-9755240.55 5135320.78 190.07
-9755241.46 5135320.16 188.08
-9755240.13 5135320.85 188.91
-9755242.04 5135320.23 190.23
-9755241.11 5135320.00 188.15
-9755241.07 5135319.35 189.33
-9755239.92 5135320.25 189.03
-9755240.84 5135320.79 189.25
-9755240.40 5135320.33 181.91
-9755241.95 5135319.66 187.69
-9755240.87 5135319.59 187.62
-9755241.05 5135319.91 189.24
-9755240.83 5135320.80 190.38
-9755240.78 5135319.37 189.38
-9755241.68 5135319.66 189.13
-9755241.89 5135319.50 187.14
-9755240.71 5135319.50 186.88
-9755252.17 5135328.33 182.53
-9755250.00 5135337.54 183.43
-9755245.70 5135321.07 186.66
-9755247.69 5135331.35 186.40
-9755246.28 5135330.71 186.34
-9755248.17 5135326.65 186.09
-9755249.58 5135321.47 190.57
-9755248.53 5135325.81 186.62
-9755242.77 5135328.70 184.43
-9755242.44 5135328.45 184.51
-9755246.34 5135323.95 187.25
-9755243.89 5135323.10 186.47
-9755252.00 5135322.89 190.99
-9755243.57 5135329.68 184.09
-9755243.89 5135331.98 185.61
-9755251.69 5135323.15 191.36
-9755247.74 5135324.20 188.16
-9755245.68 5135327.71 187.57
-9755250.24 5135322.18 190.58
-9755246.96 5135331.32 185.56
-9755248.64 5135331.45 185.46
-9755247.77 5135331.45 185.30
-9755245.67 5135330.81 186.33
-9755246.41 5135331.56 184.50
-9755246.55 5135331.33 186.45
-9755249.32 5135321.65 191.49
-9755243.95 5135329.63 184.08
-9755249.96 5135322.50 190.15
-9755249.31 5135325.65 185.12
-9755245.96 5135321.11 186.66
-9755249.57 5135322.70 189.63
-9755250.10 5135324.88 187.49
-9755247.15 5135331.38 185.17
-9755245.48 5135323.23 187.36
-9755244.22 5135332.59 185.26
-9755245.18 5135321.97 186.57
-9755249.64 5135323.63 191.52
-9755248.42 5135328.32 187.70
-9755247.76 5135328.23 188.41
-9755251.93 5135321.08 191.58
-9755246.96 5135328.31 188.09
-9755243.71 5135322.37 187.89
-9755242.87 5135321.15 188.50
-9755244.04 5135321.80 188.28
-9755243.51 5135332.61 185.00
-9755248.12 5135325.20 186.65
-9755243.26 5135327.62 183.31
-9755244.85 5135321.03 186.30
-9755247.20 5135330.12 186.92
-9755246.30 5135325.83 186.62
-9755242.85 5135321.14 188.95
-9755246.90 5135326.85 186.75
-9755250.24 5135322.79 191.14
-9755246.93 5135323.05 186.88
-9755244.26 5135327.29 185.10
-9755245.09 5135326.05 185.82
-9755242.69 5135333.39 185.73
-9755242.21 5135326.38 184.61
-9755243.45 5135322.71 187.91
-9755247.19 5135321.90 191.00
-9755247.72 5135332.14 182.48
-9755249.20 5135329.61 184.89
-9755249.98 5135329.23 184.85
-9755249.59 5135325.75 187.23
-9755247.45 5135325.73 185.26
-9755248.11 5135324.82 187.03
-9755247.00 5135323.38 188.12
-9755243.28 5135329.07 184.13
-9755245.11 5135331.10 184.83
-9755243.67 5135330.22 185.13
-9755244.80 5135327.25 185.14
-9755247.83 5135324.38 190.12
-9755250.13 5135323.47 189.81
-9755243.01 5135321.86 187.23
-9755247.24 5135322.37 188.33
-9755246.20 5135326.94 185.81
-9755249.26 5135330.27 185.22
-9755249.36 5135324.68 189.66
-9755246.53 5135321.85 186.80
-9755245.15 5135327.22 186.56
-9755247.16 5135330.40 187.67
-9755248.91 5135327.81 187.01
-9755246.30 5135330.32 186.11
-9755248.48 5135321.98 190.74
-9755244.17 5135325.21 184.20
-9755245.42 5135321.48 187.74
-9755248.84 5135332.15 182.53
-9755247.36 5135322.73 186.99
-9755247.19 5135324.52 187.12
-9755243.07 5135331.69 184.81
-9755246.02 5135327.62 187.93
-9755249.32 5135321.78 189.28
-9755244.83 5135325.19 184.89
