-9755274.71 5135298.48 183.58
-9755280.61 5135298.13 186.25
-9755272.97 5135298.60 181.58
-9755279.59 5135297.91 190.15
-9755280.88 5135299.13 186.34
-9755275.68 5135298.56 182.57
-9755274.57 5135298.19 185.37
-9755273.41 5135298.22 190.02
-9755276.84 5135298.15 187.07
-9755276.83 5135298.00 184.68
-9755274.85 5135297.84 190.24
-9755280.13 5135297.97 186.33
-9755273.35 5135294.31 190.19
-9755278.40 5135297.84 186.00
-9755275.18 5135298.61 185.14
-9755278.37 5135296.40 190.22
-9755280.71 5135298.78 186.32
-9755275.04 5135298.29 186.30
-9755276.30 5135294.62 190.19
-9755279.11 5135298.78 185.72
-9755274.86 5135296.64 190.20
-9755274.29 5135298.33 184.32
-9755281.17 5135297.88 185.69
-9755279.88 5135297.57 190.26
-9755274.78 5135298.32 189.97
-9755283.17 5135288.44 190.14
-9755272.46 5135290.48 190.14
-9755273.36 5135290.45 190.16
-9755276.34 5135287.20 190.14
-9755276.68 5135287.22 190.14
-9755278.43 5135288.40 190.15
-9755276.03 5135287.22 190.13
-9755273.36 5135289.29 190.15
-9755275.48 5135285.74 190.13
-9755279.54 5135289.61 190.15
-9755279.63 5135287.23 190.15
-9755278.73 5135289.60 190.15
-9755277.54 5135288.44 190.15
-9755277.52 5135290.16 190.16
-9755278.41 5135287.51 190.13
-9755275.76 5135287.20 190.13
-9755280.80 5135288.46 190.15
-9755274.25 5135289.88 190.16
-9755272.47 5135294.62 190.18
-9755271.32 5135290.47 190.14
-9755270.13 5135291.90 190.15
-9755271.88 5135293.71 190.17
-9755269.25 5135292.47 190.17
-9755266.02 5135292.50 190.17
-9755266.03 5135291.30 190.16
-9755266.88 5135292.51 190.17
-9755269.29 5135291.34 190.15
-9755268.08 5135292.19 190.17
-9755267.21 5135292.20 190.18
-9755267.78 5135292.50 190.18
-9755272.20 5135297.80 190.62
-9755270.70 5135293.72 190.17
-9755270.58 5135298.03 184.21
-9755271.00 5135297.88 184.88
-9755272.16 5135298.12 190.63
-9755270.96 5135298.08 184.86
-9755269.73 5135298.57 181.59
-9755271.90 5135297.53 190.22
-9755272.19 5135297.55 190.61
-9755271.28 5135297.83 190.63
-9755270.91 5135298.19 184.25
-9755271.01 5135297.86 190.62
-9755270.14 5135298.21 189.98
-9755267.45 5135294.60 190.18
-9755267.65 5135298.34 182.15
-9755268.92 5135298.05 184.84
-9755268.07 5135296.95 190.20
-9755267.65 5135298.21 187.38
-9755268.92 5135296.96 190.20
-9755267.64 5135298.64 186.39
-9755267.62 5135298.25 189.77
-9755266.86 5135296.66 190.21
-9755267.90 5135298.70 187.51
-9755268.89 5135296.35 190.20
-9755266.23 5135297.50 190.63
-9755268.06 5135296.05 190.20
-9755266.55 5135297.88 184.92
-9755267.65 5135298.42 188.53
-9755268.91 5135297.83 190.62
-9755268.98 5135297.86 190.20
-9755268.50 5135298.89 181.59
-9755267.72 5135298.54 183.37
-9755268.06 5135297.78 190.19
-9755267.39 5135298.29 189.77
-9755268.04 5135298.55 188.70
-9755266.26 5135294.57 190.19
-9755272.23 5135289.53 190.14
-9755272.23 5135288.07 190.13
-9755271.30 5135288.65 190.13
-9755270.48 5135287.18 190.12
-9755271.32 5135287.19 190.12
-9755270.16 5135288.95 190.14
-9755271.61 5135287.19 190.12
-9755270.76 5135288.39 190.12
-9755268.13 5135285.69 190.11
-9755267.22 5135287.73 190.13
-9755268.41 5135289.25 190.14
-9755269.29 5135288.06 190.14
-9755269.31 5135286.02 190.11
-9755266.90 5135289.21 190.15
-9755269.25 5135290.46 190.16
-9755270.13 5135290.14 190.14
-9755267.19 5135288.66 190.13
-9755267.22 5135286.27 190.13
-9755265.88 5135311.00 185.89
-9755262.24 5135311.18 187.30
-9755259.43 5135311.85 185.79
-9755259.13 5135310.98 187.37
-9755264.16 5135311.88 186.66
-9755258.82 5135311.86 186.13
-9755257.33 5135311.28 185.82
-9755257.57 5135311.37 185.54
-9755261.10 5135310.68 188.21
-9755261.16 5135311.88 187.40
-9755256.65 5135311.02 184.43
-9755263.12 5135311.88 186.58
-9755263.48 5135310.72 187.53
-9755259.20 5135310.68 185.12
-9755262.32 5135310.92 187.56
-9755262.62 5135310.74 187.46
-9755263.50 5135310.92 187.74
-9755264.38 5135311.81 186.39
-9755258.21 5135311.39 187.51
-9755261.11 5135311.84 182.03
-9755264.67 5135310.70 185.94
-9755262.63 5135310.74 187.61
-9755258.67 5135310.45 185.17
-9755264.02 5135311.04 186.18
-9755260.17 5135311.57 182.05
-9755261.22 5135311.58 187.11
-9755260.24 5135310.62 186.73
-9755258.54 5135311.66 185.55
-9755264.43 5135311.03 186.28
-9755262.40 5135311.45 187.38
-9755259.10 5135311.19 187.76
-9755260.56 5135311.84 185.87
-9755265.27 5135311.79 186.90
-9755265.62 5135311.88 186.43
-9755259.12 5135310.73 187.34
-9755258.51 5135311.88 186.45
-9755253.50 5135311.83 186.08
-9755254.96 5135310.67 184.66
-9755255.24 5135311.01 185.18
-9755254.69 5135310.74 185.02
-9755253.25 5135310.72 185.73
-9755255.17 5135311.81 185.18
-9755255.51 5135311.02 185.23
-9755254.94 5135311.88 184.10
-9755253.40 5135311.30 186.04
-9755252.02 5135311.26 186.26
-9755252.35 5135311.80 187.03
-9755248.72 5135310.78 185.33
-9755247.00 5135310.68 184.86
-9755247.90 5135310.99 184.93
-9755244.66 5135311.71 183.99
-9755246.72 5135310.98 184.71
-9755244.61 5135311.53 184.03
-9755243.80 5135310.29 186.75
-9755246.80 5135311.44 183.84
-9755242.93 5135310.49 188.53
-9755249.96 5135310.64 186.39
-9755251.17 5135310.34 185.53
-9755246.19 5135311.57 184.85
-9755242.86 5135311.19 187.36
-9755242.33 5135311.36 186.75
-9755249.98 5135311.19 187.44
-9755243.18 5135311.49 187.20
-9755243.76 5135311.25 186.40
-9755243.10 5135311.12 186.48
-9755242.85 5135311.08 188.29
-9755244.63 5135310.59 186.75
-9755247.85 5135311.86 184.40
-9755247.58 5135311.83 184.75
-9755249.09 5135310.60 185.14
-9755249.74 5135310.67 185.50
-9755251.11 5135311.53 187.87
-9755250.86 5135311.32 186.29
-9755246.36 5135311.13 181.89
-9755250.25 5135311.51 187.35
-9755247.07 5135311.01 184.52
-9755247.01 5135311.58 184.14
-9755250.78 5135311.82 187.69
-9755249.12 5135310.50 184.66
-9755246.38 5135311.52 183.60
-9755247.53 5135310.95 184.17
-9755242.61 5135311.08 188.97
-9755249.12 5135310.72 185.73
-9755248.73 5135310.92 184.61
-9755243.11 5135311.43 187.22
-9755248.11 5135310.61 185.21
-9755249.21 5135311.29 185.93
-9755248.15 5135310.65 184.88
-9755243.01 5135311.49 186.91
-9755242.56 5135311.12 186.96
-9755242.43 5135311.13 188.10
-9755244.43 5135311.40 186.72
-9755242.17 5135311.73 187.00
-9755240.75 5135311.81 186.58
-9755241.70 5135311.01 189.10
-9755241.66 5135311.11 188.52
-9755241.37 5135310.84 188.74
-9755241.65 5135311.78 186.61
-9755241.15 5135310.44 189.28
-9755239.97 5135310.48 188.72
-9755241.74 5135310.51 188.99
-9755240.96 5135310.74 189.20
-9755240.88 5135311.01 189.19
-9755241.37 5135311.32 188.90
-9755239.92 5135310.99 187.94
-9755242.11 5135310.42 189.40
-9755241.87 5135311.17 189.11
-9755241.80 5135311.38 188.13
-9755240.33 5135310.59 187.89
-9755240.78 5135311.75 187.62
-9755258.23 5135310.57 187.48
-9755259.41 5135306.54 185.77
-9755263.54 5135303.74 184.37
-9755262.66 5135304.92 184.33
-9755258.21 5135302.79 184.07
-9755265.23 5135302.74 185.16
-9755260.93 5135305.70 185.49
-9755261.52 5135306.28 186.57
-9755256.74 5135304.40 185.39
-9755265.06 5135302.26 183.56
-9755256.25 5135305.30 186.58
-9755261.83 5135301.67 185.90
-9755256.47 5135304.28 184.20
-9755265.24 5135305.92 184.22
-9755256.47 5135304.44 185.85
-9755258.77 5135302.43 183.93
-9755260.26 5135303.32 186.32
-9755257.72 5135305.92 186.22
-9755265.52 5135301.23 183.69
-9755259.40 5135301.59 183.89
-9755263.26 5135303.70 184.32
-9755256.46 5135305.62 186.17
-9755262.95 5135302.23 183.71
-9755257.00 5135305.49 184.07
-9755259.45 5135303.68 184.67
-9755257.87 5135306.91 184.15
-9755259.14 5135301.64 184.19
-9755257.62 5135301.51 183.97
-9755264.78 5135301.89 183.64
-9755259.12 5135306.54 185.84
-9755261.68 5135301.19 183.10
-9755265.64 5135301.99 186.06
-9755264.48 5135306.04 184.50
-9755259.50 5135302.09 184.65
-9755262.10 5135301.40 183.72
-9755265.08 5135303.12 184.26
-9755263.56 5135301.27 185.21
-9755261.58 5135301.65 183.37
-9755262.32 5135305.39 185.91
-9755261.85 5135301.54 185.32
-9755258.19 5135306.68 185.18
-9755265.60 5135301.48 183.52
-9755263.46 5135301.13 184.70
-9755261.46 5135306.92 186.42
-9755259.47 5135301.20 186.59
-9755258.92 5135302.53 184.12
-9755262.73 5135301.68 184.43
-9755258.54 5135302.23 183.94
-9755256.45 5135306.27 187.08
-9755259.38 5135303.63 184.58
-9755258.99 5135301.07 183.69
-9755257.29 5135305.95 187.25
-9755261.78 5135307.21 186.41
-9755256.79 5135302.60 183.78
-9755257.04 5135306.94 185.60
-9755264.11 5135302.19 185.03
-9755260.32 5135305.72 185.32
-9755257.34 5135305.37 187.35
-9755260.87 5135302.76 184.08
-9755256.55 5135301.56 183.45
-9755264.43 5135302.31 184.05
-9755264.40 5135305.20 184.73
-9755264.41 5135302.52 185.08
-9755258.00 5135301.59 184.87
-9755256.83 5135305.82 185.52
-9755260.84 5135302.94 183.68
-9755262.66 5135301.40 183.84
-9755263.92 5135300.52 185.74
-9755264.63 5135301.82 184.15
-9755259.40 5135301.60 184.20
-9755257.06 5135304.56 186.57
-9755259.74 5135301.47 184.16
-9755256.14 5135305.33 185.62
-9755261.53 5135303.34 184.33
-9755259.77 5135306.05 184.82
-9755259.91 5135302.40 184.90
-9755260.55 5135300.80 184.97
-9755259.84 5135303.57 185.81
-9755263.01 5135300.79 185.20
-9755265.01 5135306.35 184.63
-9755259.46 5135301.54 186.53
-9755259.78 5135302.78 184.22
-9755258.14 5135305.65 184.25
-9755259.88 5135305.66 185.94
-9755261.45 5135305.35 185.14
-9755256.44 5135306.16 187.33
-9755263.55 5135302.73 184.97
-9755256.15 5135304.44 186.60
-9755261.39 5135300.10 185.29
-9755262.91 5135305.49 184.60
-9755256.73 5135303.07 183.90
-9755264.77 5135301.17 185.84
-9755256.44 5135303.62 184.12
-9755263.52 5135301.62 184.33
-9755256.77 5135301.61 184.23
-9755256.59 5135302.18 183.86
-9755260.28 5135302.24 184.91
-9755257.32 5135307.14 185.67
-9755256.74 5135304.88 187.40
-9755260.70 5135305.97 186.58
-9755259.67 5135304.88 184.53
-9755265.59 5135306.91 184.61
-9755264.41 5135307.27 184.54
-9755256.49 5135306.02 187.25
-9755257.68 5135305.63 187.48
-9755262.69 5135301.08 184.94
-9755262.64 5135304.21 184.55
-9755264.47 5135303.57 184.62
-9755259.49 5135303.84 184.67
-9755257.04 5135303.18 181.38
-9755260.90 5135302.63 186.69
-9755256.16 5135301.31 184.63
-9755256.53 5135305.11 187.40
-9755264.58 5135300.71 185.33
-9755265.34 5135300.80 183.59
-9755257.70 5135304.72 187.02
-9755261.46 5135301.98 183.19
-9755259.87 5135303.42 183.88
-9755260.87 5135306.39 186.73
-9755258.17 5135305.44 184.24
-9755256.53 5135300.98 184.63
-9755260.25 5135301.31 184.03
-9755265.04 5135305.32 184.67
-9755258.19 5135304.30 184.37
-9755257.02 5135304.89 184.11
-9755265.42 5135302.23 183.81
-9755262.34 5135302.76 184.69
-9755265.36 5135303.32 185.09
-9755264.98 5135305.83 184.99
-9755261.15 5135302.33 187.27
-9755257.33 5135303.38 184.15
-9755263.57 5135301.44 183.19
-9755260.32 5135303.69 184.64
-9755263.46 5135305.74 184.63
-9755264.77 5135301.91 186.33
-9755265.14 5135301.58 185.97
-9755256.24 5135306.18 187.28
-9755260.35 5135302.74 184.47
-9755256.64 5135304.17 186.34
-9755256.72 5135304.00 185.36
-9755264.34 5135301.06 183.40
-9755265.55 5135301.30 185.11
-9755260.88 5135304.52 185.15
-9755260.59 5135307.11 186.90
-9755265.95 5135306.93 185.52
-9755258.04 5135305.76 184.27
-9755262.89 5135307.44 186.32
-9755261.18 5135301.17 186.22
-9755265.09 5135302.82 184.38
-9755256.87 5135305.87 187.59
-9755265.66 5135300.01 184.99
-9755263.76 5135303.10 184.26
-9755260.32 5135301.63 183.62
-9755256.84 5135306.12 184.52
-9755258.17 5135302.18 183.68
-9755256.19 5135305.71 183.89
-9755263.54 5135306.01 184.50
-9755263.91 5135301.58 185.02
-9755259.47 5135301.51 185.50
-9755265.26 5135305.46 185.19
-9755257.64 5135305.43 186.73
-9755261.26 5135303.25 184.54
-9755259.77 5135302.75 184.72
-9755263.45 5135301.51 184.85
-9755257.45 5135300.32 185.73
-9755264.70 5135302.87 184.29
-9755264.42 5135304.09 184.84
-9755265.24 5135306.11 185.00
-9755258.17 5135304.74 186.48
-9755265.92 5135306.49 184.27
-9755264.69 5135301.83 185.33
-9755262.02 5135306.55 186.44
-9755257.39 5135302.15 184.21
-9755265.51 5135305.49 184.29
-9755264.43 5135301.29 186.19
-9755258.24 5135307.20 185.01
-9755260.30 5135301.22 186.92
-9755265.95 5135302.75 185.43
-9755261.49 5135305.94 186.75
-9755265.55 5135304.91 184.41
-9755258.22 5135301.67 183.40
-9755263.86 5135305.77 183.90
-9755265.98 5135302.23 184.31
-9755256.98 5135306.30 186.44
-9755265.57 5135303.44 184.60
-9755261.60 5135299.98 185.55
-9755263.46 5135302.62 185.42
-9755264.72 5135301.71 185.10
-9755256.45 5135305.24 187.27
-9755264.71 5135305.43 184.59
-9755261.81 5135300.37 184.56
-9755264.63 5135303.39 184.61
-9755256.41 5135305.37 184.96
-9755265.10 5135302.79 183.60
-9755258.87 5135306.93 185.59
-9755260.56 5135302.75 183.61
-9755256.25 5135302.73 186.44
-9755264.77 5135300.52 185.36
-9755264.68 5135306.10 184.57
-9755260.25 5135306.79 187.05
-9755259.06 5135301.79 183.88
-9755262.34 5135302.03 184.71
-9755257.12 5135305.95 185.82
-9755256.16 5135303.96 184.97
-9755257.45 5135306.07 185.07
-9755262.35 5135305.08 186.08
-9755260.62 5135301.44 185.91
-9755263.73 5135301.92 185.80
-9755259.94 5135301.87 183.76
-9755264.06 5135301.54 184.07
-9755261.73 5135300.35 185.07
-9755257.95 5135302.83 184.25
-9755260.61 5135301.55 184.32
-9755262.07 5135302.67 185.39
-9755261.84 5135303.06 184.20
-9755261.24 5135303.16 184.15
-9755265.28 5135300.82 183.19
-9755258.80 5135301.32 183.67
-9755256.18 5135306.05 186.34
-9755266.00 5135300.12 184.85
-9755257.42 5135302.78 184.39
-9755260.03 5135305.71 185.74
-9755258.61 5135303.98 185.81
-9755265.18 5135301.69 185.08
-9755265.78 5135302.77 184.73
-9755262.63 5135304.03 184.58
-9755258.79 5135302.07 183.98
-9755261.02 5135302.48 186.11
-9755256.77 5135304.94 184.93
-9755258.82 5135303.43 184.28
-9755265.59 5135306.40 184.54
-9755259.18 5135301.49 183.47
-9755265.59 5135300.82 185.87
-9755263.47 5135302.57 184.47
-9755257.27 5135301.39 183.97
-9755256.41 5135306.92 184.19
-9755258.23 5135304.92 185.85
-9755264.99 5135303.19 184.60
-9755262.31 5135306.32 186.48
-9755257.70 5135307.32 184.13
-9755264.17 5135301.56 186.09
-9755263.23 5135300.66 185.06
-9755260.04 5135303.17 184.11
-9755262.68 5135301.85 185.92
-9755263.58 5135301.62 185.14
-9755263.65 5135300.41 185.57
-9755261.42 5135303.15 184.29
-9755260.73 5135301.26 185.60
-9755260.98 5135302.41 186.29
-9755259.74 5135301.99 184.18
-9755257.06 5135305.78 184.05
-9755263.16 5135301.23 184.72
-9755265.55 5135305.46 184.65
-9755260.24 5135304.90 184.47
-9755260.88 5135301.31 184.60
-9755265.25 5135302.67 185.31
-9755260.86 5135306.81 186.97
-9755259.16 5135301.14 185.81
-9755263.90 5135306.07 185.11
-9755257.97 5135305.75 185.82
-9755260.55 5135302.38 185.87
-9755265.39 5135301.57 185.50
-9755257.73 5135301.63 184.39
-9755264.94 5135301.96 185.16
-9755260.87 5135300.42 184.98
-9755257.54 5135304.43 185.58
-9755265.43 5135301.96 184.12
-9755257.64 5135304.62 187.08
-9755260.64 5135302.53 184.06
-9755256.44 5135304.66 187.35
-9755258.79 5135303.96 185.75
-9755257.06 5135305.36 186.26
-9755265.62 5135306.00 185.56
-9755265.33 5135303.70 184.55
-9755263.59 5135300.98 185.14
-9755257.67 5135302.83 183.71
-9755259.36 5135306.94 185.67
-9755264.65 5135303.49 184.24
-9755263.48 5135305.87 184.55
-9755263.56 5135300.55 185.50
-9755257.64 5135306.88 184.15
-9755261.27 5135304.25 184.62
-9755258.54 5135306.99 184.14
-9755263.91 5135301.11 184.50
-9755261.72 5135301.55 185.80
-9755265.22 5135300.79 185.88
-9755263.52 5135303.45 184.39
-9755256.14 5135307.36 186.66
-9755262.93 5135307.21 186.37
-9755260.39 5135307.37 186.96
-9755257.66 5135307.76 185.68
-9755260.27 5135310.30 188.47
-9755258.19 5135307.44 184.12
-9755256.62 5135308.55 184.16
-9755258.54 5135307.46 185.67
-9755260.27 5135311.81 185.63
-9755261.48 5135308.79 188.33
-9755259.36 5135307.69 187.29
-9755263.91 5135308.73 185.78
-9755263.18 5135309.81 186.93
-9755259.52 5135309.24 187.44
-9755262.66 5135309.76 187.21
-9755261.52 5135310.15 187.27
-9755262.08 5135309.41 187.19
-9755263.55 5135309.79 186.95
-9755256.48 5135307.70 186.63
-9755263.51 5135308.64 185.68
-9755264.36 5135307.58 184.39
-9755259.16 5135309.41 187.57
-9755257.56 5135309.54 185.58
-9755260.65 5135308.66 187.20
-9755263.88 5135307.71 186.61
-9755258.16 5135308.83 186.68
-9755262.59 5135307.54 185.43
-9755258.57 5135309.80 187.05
-9755258.49 5135307.46 184.79
-9755258.17 5135309.35 185.55
-9755262.89 5135309.83 187.17
-9755258.35 5135310.28 184.75
-9755256.94 5135309.21 185.90
-9755259.17 5135308.50 185.48
-9755256.67 5135309.89 184.28
-9755262.93 5135308.14 186.39
-9755260.83 5135310.28 188.16
-9755260.32 5135308.50 187.09
-9755261.46 5135309.66 188.65
-9755259.51 5135310.54 188.38
-9755262.63 5135307.77 186.54
-9755264.00 5135308.69 185.47
-9755259.73 5135309.43 187.42
-9755260.07 5135309.46 187.07
-9755259.39 5135309.15 186.48
-9755263.83 5135309.76 187.04
-9755264.38 5135308.64 185.98
-9755264.67 5135308.61 185.57
-9755259.42 5135310.05 186.44
-9755260.35 5135308.55 188.10
-9755259.47 5135309.50 187.58
-9755257.66 5135307.82 185.08
-9755256.50 5135308.33 184.17
-9755260.57 5135308.08 188.12
-9755261.73 5135310.20 187.27
-9755261.99 5135309.47 186.92
-9755263.48 5135307.81 185.15
-9755260.48 5135307.74 187.07
-9755263.20 5135308.64 185.63
-9755257.60 5135308.60 185.68
-9755264.49 5135309.15 185.65
-9755265.25 5135309.91 186.04
-9755257.96 5135307.64 185.40
-9755258.55 5135309.62 186.96
-9755264.41 5135309.92 185.52
-9755258.10 5135307.74 186.02
-9755261.17 5135309.64 187.24
-9755265.58 5135309.29 185.36
-9755258.80 5135308.61 186.51
-9755257.80 5135309.70 184.11
-9755257.64 5135309.26 185.64
-9755265.58 5135310.21 185.16
-9755263.61 5135309.09 185.47
-9755265.63 5135308.56 188.23
-9755260.27 5135309.71 188.42
-9755263.73 5135309.01 185.47
-9755262.61 5135310.25 188.41
-9755259.21 5135309.42 187.08
-9755256.40 5135307.73 185.87
-9755265.98 5135293.64 190.17
-9755260.72 5135292.78 190.17
-9755256.29 5135293.33 190.17
-9755262.80 5135291.29 190.17
-9755261.91 5135292.47 190.17
-9755262.76 5135293.06 190.17
-9755258.64 5135292.73 190.17
-9755258.64 5135293.93 190.18
-9755266.01 5135297.82 190.23
-9755259.78 5135296.94 190.21
-9755261.02 5135298.36 186.41
-9755257.75 5135298.41 189.96
-9755260.42 5135298.36 185.95
-9755256.18 5135298.75 181.58
-9755261.89 5135295.42 190.20
-9755259.41 5135298.05 184.89
-9755260.10 5135297.46 190.24
-9755260.87 5135298.60 182.93
-9755260.08 5135298.32 190.65
-9755258.34 5135294.20 190.18
-9755265.99 5135295.47 190.21
-9755257.32 5135298.65 184.79
-9755258.56 5135298.05 184.93
-9755264.50 5135296.60 190.20
-9755262.46 5135298.62 190.63
-9755261.20 5135298.65 189.31
-9755257.17 5135294.22 190.18
-9755257.75 5135296.32 190.21
-9755260.24 5135297.30 181.56
-9755263.54 5135298.03 190.23
-9755256.49 5135297.99 184.95
-9755261.34 5135298.35 189.87
-9755257.62 5135298.29 184.84
-9755263.52 5135298.51 181.59
-9755259.77 5135298.07 190.64
-9755260.76 5135298.57 185.18
-9755259.23 5135298.66 190.62
-9755260.36 5135298.67 190.03
-9755258.12 5135298.16 183.01
-9755263.03 5135297.97 190.25
-9755260.97 5135296.63 190.22
-9755259.07 5135298.63 184.81
-9755264.54 5135294.56 190.20
-9755258.92 5135295.43 190.19
-9755256.14 5135298.59 184.85
-9755259.26 5135298.62 189.88
-9755260.68 5135296.92 190.23
-9755259.94 5135298.61 184.73
-9755264.81 5135296.02 190.20
-9755256.57 5135295.42 190.19
-9755260.87 5135298.08 190.02
-9755264.46 5135298.24 183.33
-9755260.72 5135298.87 187.44
-9755263.55 5135298.31 181.93
-9755258.27 5135298.34 190.65
-9755265.04 5135298.20 189.56
-9755260.24 5135298.91 185.43
-9755257.75 5135295.41 190.19
-9755259.47 5135298.31 190.15
-9755265.72 5135297.03 181.60
-9755265.96 5135298.34 189.32
-9755260.97 5135298.73 190.03
-9755265.36 5135298.28 184.83
-9755263.56 5135297.10 181.58
-9755262.41 5135298.26 190.07
-9755265.18 5135290.13 190.15
-9755256.29 5135288.02 190.12
-9755258.96 5135288.03 190.14
-9755263.99 5135288.04 190.14
-9755262.22 5135290.45 190.16
-9755257.81 5135289.79 190.15
-9755257.80 5135290.07 190.16
-9755260.45 5135287.13 190.14
-9755257.77 5135286.53 190.13
-9755263.10 5135286.24 190.12
-9755264.29 5135285.94 190.12
-9755263.06 5135289.54 190.14
-9755256.60 5135285.62 190.11
-9755262.81 5135287.14 190.13
-9755265.49 5135287.18 190.13
-9755265.11 5135287.15 190.13
-9755256.31 5135290.11 190.14
-9755264.00 5135288.95 190.14
-9755265.13 5135289.26 190.13
-9755262.79 5135286.29 190.12
-9755256.11 5135305.69 184.71
-9755256.12 5135302.73 185.54
-9755256.11 5135303.97 184.20
-9755255.25 5135306.46 185.00
-9755255.85 5135303.65 184.20
-9755252.98 5135301.55 183.73
-9755254.47 5135305.21 188.30
-9755254.41 5135303.38 184.23
-9755253.44 5135301.73 185.00
-9755255.94 5135302.23 183.61
-9755253.28 5135303.76 187.67
-9755255.95 5135302.48 183.13
-9755254.12 5135305.54 184.94
-9755254.05 5135301.03 185.32
-9755254.07 5135306.82 187.14
-9755253.89 5135305.66 185.83
-9755255.58 5135303.63 184.18
-9755255.31 5135306.51 186.97
-9755255.02 5135303.53 185.43
-9755254.09 5135300.79 184.29
-9755253.51 5135304.26 186.66
-9755254.45 5135304.99 187.94
-9755254.41 5135306.84 186.71
-9755255.63 5135302.21 185.07
-9755254.06 5135305.74 184.97
-9755254.93 5135301.92 183.40
-9755254.46 5135300.75 184.75
-9755255.21 5135305.15 184.19
-9755253.19 5135301.97 184.15
-9755252.93 5135305.34 186.00
-9755255.58 5135304.37 184.15
-9755254.52 5135301.27 185.01
-9755254.67 5135301.55 184.96
-9755255.31 5135301.66 184.72
-9755255.68 5135300.65 185.79
-9755254.47 5135301.97 183.27
-9755254.60 5135305.75 185.42
-9755254.64 5135301.23 184.54
-9755252.90 5135304.84 184.28
-9755253.78 5135305.16 185.02
-9755254.07 5135304.04 187.36
-9755254.86 5135307.15 185.05
-9755255.47 5135305.13 184.23
-9755254.49 5135305.71 185.42
-9755255.02 5135306.37 185.00
-9755253.88 5135304.89 184.08
-9755254.96 5135302.17 183.60
-9755254.40 5135305.73 186.20
-9755253.83 5135307.15 185.06
-9755255.35 5135300.01 185.39
-9755255.81 5135304.75 185.82
-9755253.81 5135306.53 186.53
-9755253.58 5135304.45 186.96
-9755254.11 5135301.52 183.44
-9755253.51 5135305.25 187.60
-9755255.24 5135300.93 185.45
-9755252.90 5135301.55 185.60
-9755254.90 5135307.41 185.94
-9755252.89 5135300.85 185.38
-9755255.40 5135304.50 186.25
-9755253.58 5135303.61 185.89
-9755255.83 5135305.33 186.93
-9755253.42 5135304.30 186.27
-9755254.25 5135301.06 185.03
-9755255.29 5135306.37 186.15
-9755255.36 5135303.23 186.49
-9755255.53 5135302.35 183.36
-9755254.15 5135303.83 186.20
-9755255.38 5135305.44 184.30
-9755252.94 5135305.37 187.07
-9755255.63 5135300.65 185.22
-9755254.43 5135305.55 183.84
-9755255.71 5135304.44 185.63
-9755254.41 5135305.60 187.70
-9755253.21 5135301.22 185.97
-9755254.03 5135305.11 184.10
-9755255.57 5135306.07 184.94
-9755255.19 5135305.79 183.75
-9755254.68 5135300.44 185.37
-9755255.32 5135306.36 186.37
-9755253.17 5135303.47 187.99
-9755253.54 5135305.69 185.12
-9755254.69 5135305.28 185.86
-9755255.09 5135306.95 186.70
-9755255.20 5135303.19 184.49
-9755253.80 5135302.91 183.76
-9755252.93 5135301.66 184.72
-9755254.49 5135301.21 183.62
-9755254.12 5135306.08 187.12
-9755255.20 5135307.43 186.64
-9755254.27 5135303.84 187.09
-9755255.85 5135300.99 185.46
-9755256.10 5135306.08 185.72
-9755255.27 5135304.65 186.76
-9755252.93 5135300.80 184.38
-9755254.61 5135306.19 187.14
-9755252.89 5135307.16 185.13
-9755255.65 5135305.40 187.72
-9755254.12 5135303.99 184.18
-9755255.41 5135305.73 183.70
-9755254.97 5135304.43 185.67
-9755253.20 5135304.10 185.94
-9755255.17 5135303.58 185.51
-9755252.93 5135303.86 185.86
-9755255.27 5135303.56 186.57
-9755256.03 5135306.97 185.47
-9755255.57 5135304.53 185.00
-9755253.47 5135306.36 187.46
-9755254.76 5135307.28 186.56
-9755253.84 5135306.32 186.53
-9755254.66 5135302.05 185.07
-9755253.30 5135303.93 186.46
-9755255.28 5135303.95 184.87
-9755253.47 5135300.73 185.33
-9755254.36 5135304.59 184.27
-9755255.26 5135302.41 185.28
-9755252.88 5135301.63 185.99
-9755253.54 5135304.83 186.68
-9755255.85 5135300.64 185.85
-9755253.52 5135305.06 186.23
-9755254.00 5135306.90 186.42
-9755252.91 5135302.78 184.08
-9755253.32 5135305.33 187.49
-9755254.34 5135301.22 185.61
-9755254.65 5135303.63 184.24
-9755255.22 5135302.33 185.89
-9755253.21 5135304.52 186.18
-9755254.12 5135305.24 187.88
-9755253.22 5135302.19 184.07
-9755255.27 5135304.35 185.64
-9755254.92 5135301.17 184.97
-9755255.63 5135305.68 186.07
-9755256.12 5135301.33 185.68
-9755254.11 5135306.93 184.36
-9755253.21 5135301.51 185.05
-9755255.34 5135301.54 185.15
-9755253.19 5135306.00 187.38
-9755254.97 5135305.33 185.41
-9755255.75 5135308.01 186.61
-9755254.06 5135307.61 186.72
-9755254.68 5135309.00 184.63
-9755253.70 5135307.43 186.48
-9755252.90 5135309.89 184.26
-9755252.87 5135308.45 184.29
-9755254.63 5135309.54 184.61
-9755255.38 5135308.14 184.50
-9755252.88 5135309.19 184.77
-9755255.87 5135307.37 186.67
-9755254.37 5135309.88 184.77
-9755254.92 5135307.42 186.54
-9755253.55 5135307.39 186.94
-9755254.33 5135307.76 186.36
-9755255.15 5135308.11 184.87
-9755254.92 5135307.75 185.34
-9755253.45 5135307.74 185.09
-9755254.07 5135308.98 184.33
-9755254.43 5135307.82 184.68
-9755252.87 5135309.47 181.81
-9755255.53 5135308.04 184.33
-9755254.16 5135308.16 185.09
-9755254.82 5135307.79 184.78
-9755255.55 5135308.53 186.57
-9755254.65 5135308.07 184.86
-9755252.86 5135308.59 185.59
-9755253.24 5135308.32 185.11
-9755255.26 5135308.65 184.47
-9755256.04 5135308.54 186.63
-9755253.80 5135308.07 185.32
-9755252.42 5135303.62 185.29
-9755252.80 5135301.60 184.19
-9755252.62 5135300.71 184.39
-9755252.66 5135307.00 185.47
-9755252.80 5135301.22 185.07
-9755252.62 5135302.79 183.64
-9755252.37 5135302.20 183.83
-9755252.42 5135301.51 185.02
-9755252.37 5135301.21 185.63
-9755252.59 5135302.17 183.86
-9755252.43 5135302.71 184.60
-9755252.55 5135303.56 185.83
-9755252.49 5135305.62 184.86
-9755252.21 5135304.86 184.27
-9755252.42 5135303.59 183.54
-9755252.74 5135305.35 186.99
-9755252.30 5135309.40 185.11
-9755252.83 5135308.01 185.62
-9755252.81 5135309.24 184.68
-9755252.38 5135307.71 184.82
-9755252.81 5135309.59 184.24
-9755252.39 5135308.04 184.90
-9755242.46 5135311.00 189.48
-9755249.59 5135310.74 183.86
-9755251.17 5135305.71 184.78
-9755252.03 5135304.82 184.72
-9755248.58 5135305.72 184.71
-9755248.46 5135305.98 184.72
-9755249.03 5135302.90 185.05
-9755245.05 5135300.86 185.03
-9755252.01 5135307.19 184.82
-9755245.00 5135301.43 184.97
-9755246.83 5135302.10 185.93
-9755242.93 5135304.76 185.19
-9755245.82 5135302.70 185.50
-9755246.07 5135302.39 185.12
-9755248.46 5135306.53 184.78
-9755245.55 5135304.53 184.95
-9755246.27 5135302.65 186.13
-9755252.03 5135305.74 184.93
-9755247.97 5135302.80 184.18
-9755245.31 5135300.31 185.50
-9755247.75 5135302.04 186.41
-9755247.00 5135306.18 184.89
-9755250.28 5135305.98 184.64
-9755247.86 5135303.59 184.67
-9755251.18 5135301.87 183.64
-9755252.10 5135301.62 183.65
-9755252.02 5135301.58 183.56
-9755244.71 5135300.75 186.39
-9755246.14 5135306.90 184.66
-9755246.12 5135305.10 185.01
-9755248.12 5135303.28 185.42
-9755247.53 5135306.83 184.93
-9755244.58 5135302.40 184.14
-9755248.95 5135301.65 186.56
-9755250.27 5135304.82 184.63
-9755249.08 5135300.62 187.05
-9755250.79 5135301.85 183.08
-9755246.13 5135301.96 184.85
-9755246.78 5135303.63 184.65
-9755247.89 5135302.13 184.53
-9755248.91 5135302.40 186.20
-9755250.23 5135301.18 187.40
-9755243.76 5135299.65 184.69
-9755246.41 5135303.62 184.53
-9755247.08 5135302.87 186.30
-9755245.03 5135301.32 183.48
-9755248.76 5135302.86 184.72
-9755252.02 5135302.27 183.81
-9755246.63 5135301.32 182.61
-9755247.84 5135306.01 184.69
-9755247.58 5135303.58 184.66
-9755248.76 5135305.67 184.72
-9755244.54 5135303.57 185.80
-9755243.47 5135301.87 185.47
-9755242.32 5135303.25 184.96
-9755247.07 5135305.73 184.61
-9755245.95 5135301.50 184.26
-9755251.16 5135300.38 187.00
-9755247.40 5135301.18 186.20
-9755244.82 5135302.81 185.77
-9755249.41 5135300.53 187.07
-9755247.89 5135305.98 184.98
-9755249.35 5135302.26 187.87
-9755247.33 5135303.60 184.94
-9755249.30 5135302.03 186.47
-9755246.62 5135302.72 185.57
-9755249.69 5135301.15 188.59
-9755244.99 5135306.25 184.81
-9755246.73 5135305.98 184.99
-9755245.82 5135305.11 184.97
-9755245.57 5135300.75 186.49
-9755249.82 5135301.95 187.93
-9755249.49 5135301.69 187.22
-9755249.98 5135303.19 188.17
-9755250.28 5135305.73 184.85
-9755246.19 5135305.07 185.05
-9755243.79 5135302.35 185.93
-9755246.17 5135305.40 185.00
-9755248.77 5135302.36 187.03
-9755249.08 5135305.39 184.56
-9755243.78 5135304.76 184.97
-9755242.96 5135306.12 186.01
-9755245.56 5135302.48 184.69
-9755250.06 5135301.62 188.24
-9755249.79 5135301.93 188.11
-9755244.66 5135303.25 185.69
-9755246.44 5135304.52 184.90
-9755244.35 5135303.59 184.59
-9755242.96 5135302.37 185.17
-9755247.94 5135303.95 184.71
-9755249.09 5135302.14 185.64
-9755244.99 5135303.78 184.94
-9755249.06 5135301.98 187.11
-9755246.13 5135303.62 184.53
-9755243.87 5135299.97 185.24
-9755248.73 5135305.99 184.61
-9755247.10 5135306.90 185.00
-9755245.64 5135303.25 185.73
-9755244.95 5135305.10 184.99
-9755247.99 5135304.45 185.45
-9755246.63 5135301.82 185.00
-9755242.95 5135305.35 184.79
-9755246.97 5135303.28 185.80
-9755245.97 5135302.10 185.10
-9755243.69 5135303.14 185.41
-9755251.48 5135301.37 183.22
-9755244.72 5135303.24 184.60
-9755243.81 5135305.09 184.87
-9755246.20 5135305.95 184.70
-9755250.01 5135301.09 187.99
-9755247.95 5135306.47 184.93
-9755247.08 5135302.28 184.75
-9755243.20 5135304.38 184.67
-9755249.66 5135305.76 184.62
-9755243.78 5135301.51 185.81
-9755245.85 5135302.47 185.18
-9755251.77 5135306.06 184.24
-9755248.55 5135301.19 184.97
-9755249.04 5135300.35 186.99
-9755243.44 5135302.06 186.51
-9755247.25 5135304.50 184.85
-9755244.22 5135301.56 185.81
-9755244.13 5135302.28 185.06
-9755250.68 5135302.81 186.79
-9755246.24 5135301.84 183.63
-9755247.63 5135305.95 184.95
-9755246.43 5135303.87 184.92
-9755251.19 5135303.08 184.10
-9755249.08 5135304.49 184.79
-9755245.46 5135303.16 185.67
-9755247.54 5135302.06 181.72
-9755247.63 5135304.49 184.67
-9755242.96 5135302.70 185.89
-9755243.77 5135302.61 185.70
-9755249.07 5135302.20 187.11
-9755248.19 5135304.53 185.00
-9755247.28 5135302.47 184.79
-9755247.92 5135304.66 185.05
-9755250.24 5135304.81 184.57
-9755245.61 5135301.35 184.18
-9755247.04 5135305.61 185.05
-9755248.71 5135303.30 185.64
-9755244.69 5135306.21 185.27
-9755249.71 5135302.29 184.91
-9755246.13 5135304.17 184.88
-9755246.78 5135302.72 186.87
-9755242.86 5135303.32 184.54
-9755249.11 5135303.92 184.55
-9755247.99 5135303.23 186.08
-9755244.14 5135303.23 184.20
-9755244.83 5135303.69 184.67
-9755244.93 5135300.91 184.99
-9755248.68 5135302.63 186.85
-9755245.85 5135299.46 185.75
-9755243.82 5135303.27 184.63
-9755249.63 5135304.30 184.31
-9755245.86 5135301.20 185.57
-9755251.12 5135304.30 184.97
-9755250.00 5135302.55 187.35
-9755251.21 5135306.29 184.15
-9755247.10 5135302.89 186.24
-9755251.17 5135304.80 184.73
-9755247.91 5135303.38 184.68
-9755248.29 5135302.93 183.83
-9755250.55 5135301.94 187.30
-9755244.65 5135300.03 185.45
-9755249.69 5135302.03 188.17
-9755246.63 5135303.03 186.74
-9755243.58 5135300.75 186.58
-9755243.52 5135301.63 186.66
-9755250.20 5135302.34 186.89
-9755244.31 5135306.59 184.95
-9755244.91 5135304.78 184.93
-9755243.28 5135304.55 185.47
-9755246.95 5135302.05 185.93
-9755249.68 5135304.81 184.56
-9755250.22 5135304.49 184.73
-9755251.11 5135300.60 187.01
-9755252.02 5135306.64 184.96
-9755248.47 5135303.56 185.50
-9755246.67 5135305.11 184.86
-9755243.36 5135300.98 185.11
-9755244.03 5135304.42 184.90
-9755249.17 5135302.16 185.87
-9755250.27 5135300.90 188.23
-9755246.17 5135302.49 184.55
-9755248.28 5135301.17 186.32
-9755250.91 5135300.54 187.01
-9755242.59 5135305.31 184.95
-9755243.21 5135305.27 185.25
-9755249.73 5135304.50 184.67
-9755249.07 5135302.20 184.08
-9755244.90 5135302.26 185.82
-9755250.55 5135301.99 186.68
-9755248.50 5135304.13 185.35
-9755242.89 5135302.41 185.14
-9755242.31 5135305.34 184.88
-9755244.96 5135304.49 184.97
-9755250.20 5135304.50 184.54
-9755250.71 5135301.06 187.37
-9755247.62 5135304.52 185.11
-9755247.08 5135301.27 183.85
-9755248.58 5135305.35 184.94
-9755248.45 5135302.07 185.08
-9755249.65 5135306.86 184.58
-9755244.34 5135305.32 184.88
-9755245.62 5135305.95 184.94
-9755244.60 5135303.26 184.85
-9755252.01 5135306.48 184.78
-9755246.72 5135303.14 186.76
-9755243.16 5135304.23 184.66
-9755243.73 5135302.07 185.98
-9755249.77 5135299.92 187.47
-9755251.06 5135302.76 186.99
-9755246.13 5135303.25 185.51
-9755244.99 5135300.51 184.98
-9755251.42 5135302.77 183.97
-9755246.76 5135301.56 184.98
-9755249.37 5135303.17 184.10
-9755244.32 5135305.33 184.72
-9755247.89 5135304.89 184.67
-9755243.24 5135305.29 184.82
-9755249.04 5135301.07 186.31
-9755249.33 5135303.18 185.09
-9755243.77 5135305.69 184.89
-9755249.88 5135300.64 188.31
-9755244.28 5135301.93 186.79
-9755246.45 5135302.57 186.73
-9755252.04 5135301.92 184.99
-9755251.70 5135304.51 184.65
-9755242.32 5135303.27 184.48
-9755244.63 5135303.85 184.86
-9755246.33 5135303.69 185.29
-9755248.37 5135301.50 186.60
-9755242.60 5135304.40 185.12
-9755245.26 5135301.22 184.67
-9755249.16 5135302.46 185.20
-9755251.14 5135307.20 184.55
-9755243.80 5135305.65 184.66
-9755248.77 5135302.38 186.11
-9755250.26 5135303.55 185.20
-9755248.50 5135301.56 184.71
-9755246.13 5135306.19 184.87
-9755247.60 5135305.63 184.97
-9755247.08 5135300.88 185.91
-9755247.93 5135301.50 184.97
-9755245.97 5135301.50 185.06
-9755249.20 5135304.20 185.61
-9755247.96 5135302.89 186.52
-9755247.65 5135303.21 186.67
-9755246.55 5135303.58 185.82
-9755243.80 5135305.36 185.02
-9755242.52 5135302.60 185.07
-9755244.70 5135306.51 185.13
-9755251.20 5135304.22 184.47
-9755246.74 5135303.59 184.57
-9755247.64 5135306.54 184.43
-9755250.52 5135301.78 186.80
-9755243.39 5135305.39 185.05
-9755251.21 5135307.21 181.56
-9755244.89 5135303.35 185.68
-9755248.66 5135305.07 185.01
-9755246.25 5135302.05 184.74
-9755246.54 5135301.17 185.37
-9755247.67 5135301.21 186.27
-9755246.16 5135301.63 185.82
-9755247.03 5135302.01 186.57
-9755247.47 5135301.52 186.58
-9755242.39 5135300.35 185.68
-9755246.72 5135303.85 184.67
-9755250.59 5135303.69 184.23
-9755249.11 5135301.87 188.42
-9755243.24 5135302.05 186.13
-9755249.82 5135301.94 186.29
-9755248.81 5135303.00 184.55
-9755250.04 5135302.00 188.12
-9755247.02 5135304.16 184.96
-9755251.13 5135303.67 184.46
-9755248.28 5135302.50 186.47
-9755244.66 5135302.15 185.20
-9755247.72 5135301.53 185.87
-9755248.33 5135302.50 184.05
-9755249.21 5135301.18 186.21
-9755247.05 5135302.71 186.39
-9755243.29 5135302.31 185.28
-9755245.07 5135301.96 185.58
-9755247.13 5135303.15 185.94
-9755251.99 5135302.81 183.31
-9755251.41 5135306.66 184.68
-9755243.76 5135303.86 184.74
-9755248.52 5135302.77 185.04
-9755250.76 5135303.91 184.92
-9755244.46 5135301.62 186.29
-9755246.74 5135303.04 184.60
-9755243.51 5135301.99 184.80
-9755247.91 5135303.92 185.63
-9755248.49 5135305.67 184.93
-9755249.67 5135301.97 182.08
-9755246.65 5135306.83 184.82
-9755249.03 5135303.64 185.75
-9755246.71 5135305.28 185.30
-9755245.53 5135303.56 184.39
-9755247.04 5135302.48 184.13
-9755245.31 5135302.69 185.07
-9755247.45 5135302.32 187.39
-9755242.63 5135302.72 184.43
-9755245.53 5135305.05 184.97
-9755249.09 5135302.10 186.47
-9755246.39 5135302.21 186.75
-9755245.83 5135306.24 184.73
-9755247.94 5135303.77 186.02
-9755243.85 5135304.10 186.15
-9755244.89 5135305.36 184.86
-9755242.33 5135301.68 185.41
-9755242.20 5135302.32 186.29
-9755240.47 5135301.95 186.04
-9755241.68 5135307.29 188.29
-9755240.83 5135306.49 186.70
-9755239.67 5135304.41 185.13
-9755242.30 5135305.84 184.65
-9755240.83 5135301.90 186.00
-9755242.91 5135299.51 181.42
-9755241.99 5135302.07 186.24
-9755242.14 5135299.75 185.07
-9755242.02 5135301.20 186.80
-9755241.74 5135303.26 183.45
-9755242.05 5135302.58 183.51
-9755240.23 5135304.38 184.56
-9755239.68 5135305.66 184.65
-9755241.98 5135301.60 187.35
-9755241.13 5135306.38 186.67
-9755241.24 5135306.42 187.00
-9755242.12 5135299.94 185.04
-9755241.74 5135303.61 184.48
-9755240.51 5135302.23 184.56
-9755240.65 5135302.06 187.31
-9755240.04 5135301.94 187.55
-9755239.75 5135302.58 186.69
-9755241.77 5135302.01 186.24
-9755240.30 5135305.33 185.20
-9755240.28 5135301.60 188.00
-9755239.68 5135301.96 187.79
-9755241.14 5135303.20 186.21
-9755239.90 5135301.40 185.46
-9755240.57 5135302.32 183.94
-9755239.69 5135300.74 188.07
-9755241.22 5135306.27 186.71
-9755240.28 5135302.81 187.35
-9755240.85 5135302.64 186.04
-9755241.24 5135301.82 186.25
-9755241.21 5135301.65 186.10
-9755239.87 5135301.03 185.86
-9755240.54 5135303.92 183.81
-9755241.01 5135302.83 184.45
-9755242.12 5135302.51 186.18
-9755240.27 5135300.41 185.75
-9755240.07 5135303.05 187.25
-9755240.50 5135299.70 185.47
-9755241.11 5135301.94 186.21
-9755240.55 5135305.83 184.65
-9755242.08 5135301.89 187.42
-9755241.14 5135301.91 185.83
-9755239.67 5135307.31 187.62
-9755240.61 5135302.43 187.30
-9755241.16 5135303.54 184.54
-9755239.88 5135299.91 185.75
-9755241.45 5135303.64 184.64
-9755242.23 5135306.39 187.16
-9755240.95 5135302.92 186.09
-9755239.99 5135300.35 188.11
-9755240.81 5135306.49 186.88
-9755239.72 5135301.96 187.28
-9755240.27 5135304.72 184.50
-9755241.23 5135301.67 187.11
-9755241.70 5135301.91 186.73
-9755239.69 5135303.36 185.30
-9755239.66 5135303.33 185.35
-9755240.34 5135301.15 186.14
-9755241.43 5135302.59 186.10
-9755241.46 5135305.77 187.19
-9755247.36 5135307.06 184.58
-9755252.02 5135309.79 185.82
-9755245.47 5135308.10 183.58
-9755245.46 5135307.73 185.13
-9755250.73 5135308.57 185.35
-9755247.55 5135310.18 183.84
-9755250.04 5135308.64 185.56
-9755247.95 5135309.81 185.66
-9755243.42 5135309.59 188.73
-9755248.42 5135310.18 184.02
-9755246.99 5135309.95 183.93
-9755252.00 5135309.22 185.42
-9755248.48 5135308.96 185.19
-9755247.54 5135309.26 183.81
-9755243.85 5135309.40 186.42
-9755245.43 5135308.38 185.70
-9755243.85 5135308.23 186.25
-9755249.06 5135307.77 184.69
-9755248.77 5135309.46 185.38
-9755249.94 5135309.46 185.92
-9755249.99 5135308.89 185.71
-9755247.66 5135309.44 185.43
-9755247.59 5135307.77 184.11
-9755248.21 5135307.61 184.98
-9755250.74 5135309.54 184.90
-9755245.79 5135308.99 185.78
-9755249.94 5135308.58 186.61
-9755246.98 5135308.95 184.85
-9755247.85 5135309.83 183.93
-9755251.59 5135308.44 185.02
-9755249.62 5135309.49 185.98
-9755250.72 5135309.85 185.02
-9755250.86 5135309.34 181.86
-9755247.05 5135309.25 184.87
-9755251.09 5135309.45 185.79
-9755247.93 5135308.39 185.16
-9755243.30 5135309.47 187.07
-9755243.74 5135307.89 186.80
-9755249.48 5135308.93 186.36
-9755251.48 5135309.74 185.84
-9755249.90 5135310.18 184.95
-9755250.81 5135310.15 184.56
-9755249.97 5135310.06 185.87
-9755249.13 5135309.48 185.14
-9755247.86 5135309.49 185.40
-9755249.64 5135309.43 184.03
-9755244.98 5135307.68 185.76
-9755244.69 5135308.04 185.68
-9755250.82 5135310.08 186.12
-9755250.80 5135309.58 184.13
-9755251.97 5135307.47 185.38
-9755251.59 5135310.02 184.57
-9755242.41 5135309.01 189.01
-9755251.64 5135308.15 184.25
-9755250.23 5135309.08 185.45
-9755243.53 5135309.42 186.10
-9755245.80 5135308.53 184.79
-9755251.41 5135308.11 184.84
-9755251.15 5135310.14 185.54
-9755247.86 5135307.98 184.14
-9755243.21 5135309.44 188.05
-9755247.23 5135309.79 184.01
-9755250.04 5135310.17 185.70
-9755248.70 5135308.26 184.97
-9755243.48 5135309.10 188.25
-9755251.22 5135309.52 185.12
-9755251.10 5135309.26 185.45
-9755247.82 5135309.13 184.84
-9755248.03 5135308.83 184.96
-9755244.01 5135309.11 187.50
-9755242.98 5135308.97 188.21
-9755249.69 5135309.82 184.11
-9755247.08 5135308.95 183.53
-9755247.89 5135308.03 184.73
-9755244.60 5135309.65 186.13
-9755251.42 5135308.66 185.43
-9755249.04 5135308.35 185.02
-9755246.96 5135309.20 184.97
-9755239.69 5135308.13 188.80
-9755240.21 5135307.80 188.80
-9755241.05 5135309.54 189.88
-9755241.14 5135307.81 188.14
-9755240.81 5135309.80 189.80
-9755242.25 5135308.11 189.25
-9755241.71 5135307.89 189.08
-9755240.57 5135307.83 188.69
-9755240.62 5135310.18 189.58
-9755240.26 5135309.89 188.71
-9755240.04 5135307.61 187.98
-9755241.69 5135309.66 189.30
-9755240.48 5135307.98 188.42
-9755239.90 5135309.89 189.24
-9755241.42 5135307.81 189.02
-9755241.68 5135308.09 189.06
-9755240.78 5135307.73 187.89
-9755240.50 5135307.82 188.44
-9755239.95 5135307.78 188.93
-9755240.24 5135309.82 189.73
-9755241.63 5135307.49 188.29
-9755240.55 5135309.20 189.92
-9755241.22 5135307.46 189.10
-9755240.02 5135310.05 188.52
-9755240.00 5135308.60 188.92
-9755241.43 5135309.97 189.21
-9755240.26 5135308.95 189.74
-9755240.26 5135309.02 188.97
-9755240.56 5135308.64 189.83
-9755242.04 5135309.11 188.68
-9755240.20 5135309.02 188.92
-9755240.78 5135310.15 189.60
-9755240.81 5135309.52 189.93
-9755253.61 5135293.65 190.17
-9755254.51 5135293.27 190.17
-9755254.54 5135292.15 190.17
-9755255.70 5135293.61 190.19
-9755253.16 5135298.78 181.58
-9755252.95 5135298.78 187.33
-9755253.60 5135298.86 188.15
-9755254.52 5135293.60 190.17
-9755253.83 5135298.64 186.22
-9755252.95 5135298.74 181.58
-9755253.28 5135298.94 190.63
-9755253.30 5135295.66 190.19
-9755254.67 5135298.57 188.73
-9755252.98 5135297.47 190.21
-9755253.27 5135298.57 189.26
-9755255.10 5135298.38 190.63
-9755255.56 5135298.33 184.95
-9755255.38 5135298.37 190.45
-9755253.65 5135286.50 190.11
-9755255.73 5135285.64 190.11
-9755254.54 5135286.79 190.12
-9755254.54 5135285.88 190.10
-9755253.62 5135286.80 190.12
-9755255.98 5135290.07 190.14
-9755253.97 5135288.86 190.13
-9755252.47 5135292.72 190.17
-9755252.45 5135295.66 190.18
-9755252.44 5135294.76 190.16
-9755252.63 5135298.46 187.20
-9755245.33 5135291.04 185.03
-9755250.97 5135291.23 190.16
-9755245.33 5135293.56 188.76
-9755245.52 5135291.25 188.47
-9755245.32 5135291.72 184.90
-9755245.19 5135292.09 190.37
-9755245.14 5135292.06 189.43
-9755245.10 5135292.46 189.11
-9755247.41 5135292.07 190.17
-9755245.36 5135291.18 190.20
-9755245.22 5135292.81 186.69
-9755245.33 5135290.27 185.47
-9755250.40 5135290.90 190.15
-9755248.34 5135292.07 190.17
-9755245.11 5135290.80 185.03
-9755245.29 5135290.52 189.57
-9755245.01 5135291.24 189.06
-9755245.03 5135293.70 187.03
-9755245.40 5135291.48 189.45
-9755249.50 5135291.53 190.17
-9755245.34 5135292.88 189.78
-9755245.09 5135292.83 186.03
-9755245.07 5135291.31 187.94
-9755245.63 5135291.32 188.75
-9755245.12 5135290.93 188.32
-9755247.16 5135292.08 190.17
-9755245.36 5135293.09 187.65
-9755245.33 5135293.44 186.26
-9755245.04 5135292.01 186.50
-9755245.32 5135291.29 186.88
-9755245.31 5135292.14 188.91
-9755245.07 5135291.26 186.80
-9755243.82 5135293.42 181.51
-9755245.65 5135292.90 190.63
-9755245.13 5135290.48 186.09
-9755247.41 5135292.98 190.18
-9755242.94 5135292.54 181.52
-9755240.87 5135291.30 181.49
-9755239.72 5135293.34 181.45
-9755246.38 5135299.08 185.35
-9755245.36 5135297.46 182.97
-9755249.96 5135298.73 181.58
-9755245.26 5135297.42 189.32
-9755245.38 5135292.99 185.42
-9755252.33 5135298.67 181.57
-9755245.35 5135297.17 189.13
-9755248.02 5135298.33 190.63
-9755245.23 5135296.25 190.36
-9755245.10 5135297.96 186.89
-9755246.54 5135299.05 186.57
-9755251.23 5135298.28 190.63
-9755245.10 5135298.25 189.33
-9755246.04 5135299.09 185.00
-9755245.17 5135295.33 188.77
-9755246.10 5135298.71 183.66
-9755249.46 5135298.63 186.28
-9755246.45 5135298.83 185.03
-9755248.23 5135295.62 190.50
-9755245.33 5135294.74 187.86
-9755245.37 5135295.17 185.04
-9755245.38 5135295.73 189.05
-9755245.09 5135296.16 185.75
-9755246.19 5135298.91 185.37
-9755252.06 5135298.57 189.19
-9755245.55 5135298.26 184.95
-9755245.44 5135295.06 183.62
-9755249.17 5135294.48 190.18
-9755245.06 5135297.15 182.86
-9755245.22 5135293.81 184.29
-9755245.95 5135294.16 190.59
-9755245.01 5135296.77 190.64
-9755245.33 5135296.19 186.37
-9755245.37 5135294.10 188.96
-9755245.16 5135295.03 187.50
-9755245.24 5135298.36 183.94
-9755245.02 5135297.31 186.41
-9755245.41 5135295.03 189.98
-9755245.32 5135294.24 187.39
-9755245.50 5135295.58 188.30
-9755245.66 5135294.16 187.27
-9755248.23 5135298.03 190.61
-9755248.31 5135297.16 190.21
-9755247.91 5135295.12 190.84
-9755245.49 5135295.56 187.43
-9755247.49 5135295.37 190.50
-9755249.53 5135298.47 186.48
-9755249.75 5135297.39 190.21
-9755249.21 5135296.82 190.20
-9755245.13 5135295.45 185.12
-9755245.23 5135297.96 189.34
-9755251.25 5135295.35 190.18
-9755245.36 5135296.57 187.95
-9755247.67 5135298.64 185.02
-9755248.26 5135296.83 190.20
-9755252.02 5135298.60 183.70
-9755245.28 5135293.81 189.16
-9755245.35 5135295.73 185.12
-9755247.37 5135298.65 185.04
-9755245.35 5135298.68 186.76
-9755245.05 5135297.43 190.65
-9755249.20 5135298.30 190.63
-9755251.53 5135296.25 190.20
-9755246.22 5135295.64 190.20
-9755245.38 5135296.92 188.63
-9755250.00 5135298.69 186.88
-9755245.11 5135293.95 185.89
-9755248.24 5135298.67 190.15
-9755245.39 5135296.41 185.50
-9755242.61 5135298.10 181.45
-9755246.25 5135298.85 190.63
-9755248.60 5135298.72 188.35
-9755245.08 5135294.36 186.64
-9755247.68 5135297.42 190.23
-9755245.36 5135295.53 188.15
-9755246.11 5135298.73 181.56
-9755245.04 5135297.92 190.14
-9755245.32 5135294.62 184.58
-9755245.26 5135297.65 182.97
-9755249.87 5135298.36 189.19
-9755245.37 5135297.08 190.64
-9755245.01 5135297.68 190.16
-9755245.34 5135296.70 186.89
-9755245.37 5135297.91 184.95
-9755248.30 5135294.49 190.18
-9755245.45 5135298.45 185.95
-9755245.39 5135294.80 188.72
-9755247.13 5135295.03 190.20
-9755245.06 5135297.68 185.10
-9755251.82 5135296.25 190.20
-9755247.67 5135295.07 190.58
-9755242.94 5135294.55 181.50
-9755241.39 5135296.60 181.44
-9755252.47 5135289.45 190.14
-9755252.79 5135286.79 190.11
-9755252.50 5135285.59 190.10
-9755252.78 5135287.44 190.12
-9755248.65 5135290.04 190.14
-9755245.39 5135286.67 187.60
-9755245.37 5135288.06 189.69
-9755251.02 5135288.00 190.13
-9755245.12 5135288.83 185.76
-9755245.32 5135289.13 188.38
-9755245.12 5135289.65 184.95
-9755245.04 5135285.57 186.88
-9755245.38 5135285.94 187.37
-9755251.58 5135288.85 190.13
-9755249.54 5135286.75 190.11
-9755245.39 5135288.72 188.39
-9755251.27 5135288.84 190.13
-9755245.08 5135289.70 188.44
-9755249.48 5135290.02 190.15
-9755247.70 5135288.85 190.13
-9755245.53 5135287.55 184.61
-9755245.33 5135287.31 184.60
-9755245.46 5135289.11 190.19
-9755248.65 5135286.77 190.12
-9755246.01 5135288.84 190.56
-9755245.13 5135288.35 187.47
-9755245.37 5135287.26 187.15
-9755245.15 5135288.83 190.37
-9755245.10 5135286.65 189.99
-9755245.37 5135287.90 186.17
-9755245.19 5135287.22 184.50
-9755245.12 5135287.46 189.23
-9755245.08 5135288.64 185.06
-9755245.07 5135287.01 186.54
-9755245.36 5135287.67 188.88
-9755245.33 5135287.92 190.07
-9755245.36 5135287.61 190.64
-9755245.13 5135289.33 184.86
-9755245.15 5135285.63 184.65
-9755251.58 5135287.93 190.12
-9755246.05 5135289.12 190.42
-9755245.39 5135287.68 185.33
-9755245.35 5135288.88 187.47
-9755240.89 5135288.03 181.43
-9755291.74 5135311.80 185.68
-9755291.29 5135310.55 185.70
-9755291.84 5135311.60 185.31
-9755291.55 5135310.83 185.63
-9755292.10 5135310.57 186.51
-9755291.77 5135311.68 186.82
-9755283.38 5135311.74 186.15
-9755285.10 5135310.83 186.42
-9755286.56 5135310.96 184.84
-9755287.11 5135310.90 184.72
-9755288.53 5135310.85 186.53
-9755290.57 5135311.31 183.68
-9755290.93 5135311.56 185.34
-9755283.83 5135311.69 187.65
-9755290.90 5135311.17 185.37
-9755284.16 5135310.77 187.96
-9755290.28 5135310.96 185.18
-9755287.12 5135310.60 184.83
-9755283.18 5135311.21 186.79
-9755284.12 5135311.66 182.13
-9755284.08 5135310.27 186.19
-9755290.20 5135310.78 186.10
-9755284.17 5135311.35 188.03
-9755285.53 5135310.77 185.40
-9755290.29 5135310.33 185.18
-9755290.63 5135311.18 182.15
-9755289.38 5135310.92 184.78
-9755283.92 5135311.65 186.26
-9755283.86 5135310.53 186.72
-9755284.17 5135310.58 186.54
-9755283.67 5135310.94 186.25
-9755284.23 5135311.68 183.54
-9755290.84 5135310.92 185.99
-9755287.46 5135310.95 184.44
-9755290.13 5135311.64 185.71
-9755285.88 5135310.74 182.03
-9755290.62 5135310.65 185.89
-9755283.74 5135311.19 185.22
-9755286.75 5135311.47 184.94
-9755285.57 5135310.86 186.41
-9755283.23 5135311.73 186.56
-9755290.09 5135311.20 185.17
-9755290.65 5135311.81 183.80
-9755286.03 5135310.54 184.48
