-9755218.92 5135361.37 181.09
-9755218.02 5135364.58 181.08
-9755217.74 5135364.02 181.06
-9755219.85 5135361.67 181.13
-9755216.57 5135361.64 181.01
-9755221.33 5135361.40 181.18
-9755222.47 5135363.44 181.16
-9755220.72 5135364.59 181.16
-9755219.55 5135361.94 181.12
-9755216.54 5135362.84 181.02
-9755220.39 5135364.04 181.14
-9755220.36 5135362.82 181.15
-9755220.94 5135363.46 181.16
-9755217.43 5135363.41 181.06
-9755221.30 5135364.00 181.17
-9755218.10 5135363.15 181.08
-9755219.45 5135362.86 181.12
-9755229.64 5135350.42 180.99
-9755228.42 5135353.96 181.02
-9755228.40 5135348.95 181.07
-9755223.36 5135356.34 181.17
-9755223.69 5135354.56 181.18
-9755223.14 5135350.66 181.19
-9755225.20 5135354.60 181.14
-9755224.26 5135353.11 181.17
-9755223.71 5135352.24 181.18
-9755224.89 5135352.80 181.17
-9755224.01 5135349.81 181.19
-9755223.13 5135350.12 181.19
-9755227.88 5135351.61 181.08
-9755226.41 5135350.43 181.13
-9755226.94 5135353.11 181.10
-9755226.66 5135355.44 181.11
-9755224.60 5135350.99 181.18
-9755223.43 5135352.80 181.19
-9755227.56 5135354.04 181.08
-9755223.08 5135349.57 181.20
-9755226.36 5135353.10 181.11
-9755223.43 5135351.32 181.19
-9755226.63 5135350.98 181.12
-9755225.44 5135356.06 181.13
-9755223.66 5135355.72 181.16
-9755226.08 5135355.50 181.12
-9755226.43 5135348.93 181.13
-9755228.09 5135353.97 181.06
-9755226.08 5135349.88 181.15
-9755226.61 5135356.37 181.11
-9755223.09 5135354.51 181.18
-9755225.76 5135352.52 181.14
-9755227.56 5135356.98 181.05
-9755225.20 5135349.83 181.18
-9755217.20 5135356.58 181.04
-9755223.47 5135348.91 181.21
-9755220.77 5135355.77 181.17
-9755222.82 5135353.95 181.18
-9755215.18 5135348.69 186.89
-9755217.12 5135348.97 186.09
-9755216.89 5135349.86 184.97
-9755220.11 5135352.76 181.19
-9755218.99 5135353.32 181.14
-9755215.14 5135349.73 187.28
-9755215.16 5135349.20 185.76
-9755219.57 5135352.19 181.16
-9755215.74 5135355.70 180.97
-9755216.61 5135355.42 181.04
-9755214.70 5135349.44 185.85
-9755219.92 5135353.41 181.19
-9755218.11 5135354.23 181.10
-9755219.38 5135348.33 186.72
-9755221.98 5135350.73 181.20
-9755215.11 5135356.27 180.94
-9755218.08 5135356.31 181.09
-9755216.07 5135350.67 181.04
-9755219.90 5135354.86 181.17
-9755222.20 5135350.09 181.19
-9755216.61 5135352.50 181.05
-9755219.54 5135354.52 181.15
-9755222.51 5135354.54 181.18
-9755217.57 5135348.25 187.25
-9755221.08 5135352.24 181.19
-9755216.10 5135348.65 185.67
-9755216.60 5135348.23 181.06
-9755218.58 5135348.35 187.03
-9755218.97 5135349.84 181.14
-9755222.80 5135348.93 181.21
-9755217.63 5135348.36 185.95
-9755215.44 5135348.91 186.87
-9755215.60 5135349.74 187.29
-9755218.75 5135348.16 185.17
-9755216.63 5135352.13 181.04
-9755217.60 5135348.43 185.31
-9755221.00 5135356.33 181.19
-9755219.30 5135350.99 181.16
-9755219.00 5135354.87 181.14
-9755215.53 5135349.07 186.74
-9755219.70 5135348.36 185.84
-9755215.88 5135348.34 181.04
-9755221.33 5135355.44 181.18
-9755215.81 5135350.15 181.02
-9755217.79 5135349.80 181.10
-9755221.34 5135354.52 181.18
-9755214.95 5135348.63 188.21
-9755218.16 5135351.58 181.12
-9755217.19 5135353.63 181.06
-9755218.97 5135356.30 181.12
-9755214.68 5135349.28 187.81
-9755214.29 5135349.49 186.98
-9755214.38 5135348.47 185.30
-9755214.31 5135349.07 188.12
-9755214.89 5135350.29 188.02
-9755214.25 5135354.51 181.13
-9755214.77 5135355.34 181.05
-9755215.22 5135348.29 180.99
-9755214.80 5135348.61 181.01
-9755214.31 5135348.24 187.41
-9755214.86 5135355.99 181.00
-9755214.40 5135349.25 187.89
-9755228.76 5135347.78 181.03
-9755228.84 5135340.40 181.08
-9755214.50 5135348.31 181.08
-9755227.93 5135338.27 181.10
-9755226.04 5135345.69 181.16
-9755226.41 5135348.07 181.14
-9755226.71 5135346.26 181.14
-9755223.18 5135339.22 181.21
-9755225.56 5135340.00 181.18
-9755227.58 5135339.22 181.11
-9755227.61 5135344.82 181.10
-9755223.48 5135343.88 181.22
-9755224.96 5135343.90 181.20
-9755226.47 5135343.05 181.15
-9755227.58 5135342.44 181.10
-9755226.41 5135345.38 181.15
-9755226.96 5135343.36 181.14
-9755223.20 5135345.10 181.21
-9755223.78 5135338.88 181.22
-9755223.15 5135347.44 181.21
-9755227.90 5135343.94 181.10
-9755225.85 5135343.30 181.17
-9755227.30 5135338.85 181.12
-9755224.05 5135346.89 181.21
-9755223.51 5135340.05 181.22
-9755227.03 5135341.52 181.13
-9755226.09 5135346.57 181.16
-9755227.30 5135338.03 181.13
-9755227.61 5135345.38 181.11
-9755223.77 5135343.04 181.22
-9755223.76 5135340.94 181.21
-9755222.86 5135346.55 181.21
-9755222.88 5135343.90 181.20
-9755216.88 5135342.33 189.13
-9755219.00 5135342.22 188.49
-9755222.88 5135340.97 181.23
-9755216.68 5135346.49 181.05
-9755218.55 5135348.01 186.98
-9755216.76 5135343.14 190.95
-9755215.90 5135339.74 188.13
-9755218.79 5135346.59 186.09
-9755218.59 5135347.16 187.37
-9755218.78 5135340.36 186.50
-9755218.87 5135342.86 188.24
-9755217.59 5135344.54 189.56
-9755219.36 5135342.51 186.75
-9755217.93 5135346.56 186.00
-9755215.00 5135344.13 193.54
-9755219.20 5135343.56 188.12
-9755215.27 5135347.24 190.89
-9755216.29 5135339.74 188.26
-9755216.17 5135343.98 191.49
-9755217.38 5135343.00 190.55
-9755217.30 5135346.17 187.59
-9755215.11 5135342.46 192.09
-9755217.19 5135341.55 181.10
-9755216.41 5135342.46 192.38
-9755217.64 5135343.26 189.35
-9755219.07 5135344.45 187.31
-9755219.60 5135343.27 186.39
-9755218.83 5135345.65 186.40
-9755217.34 5135344.33 189.57
-9755216.69 5135347.95 187.71
-9755218.85 5135346.74 186.51
-9755219.12 5135346.52 186.47
-9755218.32 5135341.76 188.28
-9755219.21 5135343.87 186.91
-9755217.28 5135337.94 186.44
-9755217.33 5135338.14 185.86
-9755216.41 5135338.30 186.56
-9755218.13 5135347.47 186.17
-9755217.13 5135345.35 189.17
-9755216.96 5135344.11 189.35
-9755216.61 5135344.15 181.04
-9755215.62 5135344.25 193.74
-9755217.34 5135347.79 187.16
-9755218.43 5135340.16 186.47
-9755215.07 5135346.59 188.77
-9755222.53 5135346.80 181.21
-9755216.57 5135337.75 186.64
-9755220.54 5135340.02 181.22
-9755216.12 5135340.40 188.96
-9755216.21 5135341.61 190.93
-9755222.28 5135339.77 181.23
-9755218.06 5135339.96 188.91
-9755217.91 5135343.19 187.75
-9755216.43 5135342.04 190.41
-9755217.23 5135340.16 187.97
-9755217.32 5135340.25 188.88
-9755219.83 5135340.27 186.89
-9755217.65 5135338.83 181.14
-9755215.98 5135345.18 192.30
-9755219.30 5135340.44 185.89
-9755215.22 5135342.36 181.02
-9755216.77 5135347.58 185.50
-9755219.39 5135347.17 185.04
-9755220.62 5135344.22 185.63
-9755215.52 5135340.19 190.52
-9755216.51 5135337.61 186.13
-9755219.63 5135343.33 186.86
-9755217.03 5135340.01 187.77
-9755215.01 5135347.46 185.89
-9755215.04 5135342.41 193.74
-9755216.31 5135347.23 187.34
-9755215.08 5135339.73 190.46
-9755216.13 5135346.22 188.29
-9755216.54 5135347.37 187.31
-9755222.89 5135337.68 181.22
-9755215.52 5135341.56 191.52
-9755215.40 5135337.62 188.47
-9755222.28 5135339.47 181.23
-9755215.21 5135346.59 190.96
-9755218.09 5135341.49 187.60
-9755216.70 5135344.20 188.26
-9755215.96 5135346.11 188.78
-9755215.16 5135347.40 181.01
-9755216.80 5135340.73 191.43
-9755215.06 5135338.90 188.55
-9755214.78 5135346.94 188.97
-9755219.18 5135345.05 187.90
-9755219.66 5135342.45 186.60
-9755215.68 5135337.97 186.62
-9755217.71 5135347.10 185.94
-9755217.32 5135340.35 181.13
-9755215.73 5135338.47 186.32
-9755216.47 5135347.67 188.92
-9755219.04 5135345.39 181.17
-9755216.83 5135345.78 190.55
-9755216.62 5135342.95 181.10
-9755215.91 5135342.06 181.05
-9755219.68 5135345.14 187.76
-9755215.98 5135345.11 192.91
-9755215.45 5135342.15 191.78
-9755218.84 5135340.34 187.73
-9755218.63 5135341.34 187.28
-9755222.28 5135346.59 181.21
-9755220.61 5135338.85 181.22
-9755220.13 5135347.24 187.59
-9755215.19 5135341.85 192.54
-9755219.31 5135347.15 187.30
-9755214.83 5135343.83 193.94
-9755216.27 5135342.91 189.10
-9755217.35 5135338.00 185.64
-9755217.58 5135344.36 189.56
-9755219.02 5135343.85 188.06
-9755219.62 5135344.24 186.55
-9755218.03 5135346.59 181.16
-9755220.54 5135337.96 181.23
-9755221.09 5135347.42 181.20
-9755222.87 5135343.31 181.23
-9755217.31 5135341.67 190.41
-9755217.34 5135347.49 187.72
-9755215.86 5135347.55 191.13
-9755215.50 5135342.96 181.03
-9755216.96 5135339.03 185.55
-9755217.10 5135343.41 191.46
-9755218.74 5135344.77 187.79
-9755215.04 5135343.25 193.79
-9755217.02 5135347.43 187.99
-9755218.16 5135342.46 186.91
-9755217.36 5135346.81 186.23
-9755219.39 5135348.00 187.24
-9755216.22 5135345.39 192.99
-9755218.54 5135344.67 188.86
-9755215.54 5135344.03 193.20
-9755219.34 5135341.42 187.24
-9755219.74 5135340.95 186.75
-9755215.51 5135347.22 185.71
-9755217.56 5135347.58 188.41
-9755217.89 5135344.89 181.13
-9755216.50 5135341.97 190.16
-9755218.27 5135340.58 188.00
-9755215.53 5135338.82 181.05
-9755215.66 5135340.42 190.95
-9755217.40 5135343.44 190.55
-9755218.90 5135340.43 185.86
-9755216.39 5135342.77 191.90
-9755215.77 5135340.52 181.08
-9755215.28 5135340.69 181.07
-9755215.78 5135346.66 181.06
-9755218.89 5135341.28 187.25
-9755215.51 5135341.87 191.66
-9755217.39 5135338.80 188.17
-9755219.64 5135343.01 181.20
-9755216.70 5135344.52 190.74
-9755215.57 5135340.16 189.15
-9755215.06 5135345.45 192.36
-9755219.61 5135348.03 187.85
-9755221.73 5135340.91 181.22
-9755216.33 5135340.56 181.10
-9755216.53 5135347.27 186.06
-9755216.12 5135339.06 185.51
-9755218.95 5135345.06 186.04
-9755215.02 5135342.32 194.36
-9755220.63 5135344.98 188.30
-9755219.18 5135344.96 189.09
-9755217.64 5135340.78 190.56
-9755215.70 5135340.11 190.18
-9755216.20 5135346.32 181.05
-9755215.03 5135344.54 192.26
-9755216.12 5135338.78 181.08
-9755214.72 5135345.80 190.16
-9755215.86 5135340.14 190.85
-9755216.58 5135342.07 188.07
-9755216.75 5135343.89 190.52
-9755217.59 5135346.29 181.08
-9755215.13 5135345.75 186.46
-9755217.20 5135346.38 188.48
-9755217.63 5135344.20 181.14
-9755215.22 5135341.73 188.45
-9755215.55 5135337.64 187.30
-9755215.58 5135346.64 187.43
-9755216.77 5135338.36 185.42
-9755219.59 5135347.49 185.89
-9755218.63 5135341.33 186.03
-9755219.05 5135345.88 188.79
-9755215.55 5135346.61 181.04
-9755217.49 5135342.99 181.12
-9755215.25 5135345.62 181.01
-9755214.97 5135339.34 181.03
-9755217.88 5135339.07 188.78
-9755215.24 5135342.40 194.42
-9755214.72 5135343.69 193.58
-9755219.72 5135339.13 181.21
-9755215.08 5135345.88 188.54
-9755217.61 5135344.56 181.14
-9755216.43 5135342.14 191.65
-9755218.45 5135343.07 181.14
-9755216.67 5135340.90 181.12
-9755219.11 5135343.82 189.02
-9755217.91 5135340.83 187.99
-9755216.69 5135344.27 190.19
-9755219.29 5135341.87 181.17
-9755217.68 5135339.98 188.43
-9755216.72 5135341.16 181.09
-9755216.47 5135347.90 188.95
-9755216.95 5135341.92 190.14
-9755216.73 5135339.19 186.49
-9755218.53 5135346.46 188.00
-9755214.99 5135345.09 187.41
-9755216.77 5135341.25 190.54
-9755215.86 5135337.88 181.08
-9755217.98 5135340.33 187.58
-9755216.44 5135341.41 190.90
-9755215.14 5135340.63 189.20
-9755219.52 5135340.85 187.23
-9755215.95 5135344.20 191.53
-9755219.66 5135338.21 181.21
-9755219.48 5135345.48 185.17
-9755218.70 5135343.20 186.20
-9755215.28 5135345.63 189.23
-9755221.99 5135338.88 181.22
-9755215.72 5135346.04 181.04
-9755215.26 5135340.17 189.86
-9755216.58 5135341.47 190.52
-9755215.63 5135346.66 189.64
-9755217.52 5135346.13 187.60
-9755214.93 5135341.82 181.05
-9755216.84 5135339.75 187.97
-9755219.56 5135346.56 186.52
-9755215.23 5135340.88 192.06
-9755217.75 5135338.89 185.99
-9755214.77 5135345.44 193.24
-9755218.00 5135343.47 189.41
-9755217.52 5135340.67 187.04
-9755217.92 5135341.81 188.79
-9755214.95 5135346.87 188.49
-9755218.09 5135344.65 181.15
-9755221.42 5135338.31 181.23
-9755214.68 5135343.32 193.62
-9755214.42 5135343.67 193.19
-9755214.68 5135344.31 192.60
-9755214.67 5135345.48 191.59
-9755214.72 5135345.73 187.59
-9755214.51 5135343.91 193.55
-9755214.97 5135338.15 181.05
-9755214.42 5135346.56 188.67
-9755214.40 5135337.52 188.51
-9755214.44 5135345.52 191.43
-9755214.74 5135345.30 187.38
-9755214.82 5135340.71 191.88
-9755214.92 5135340.87 181.06
-9755214.59 5135346.44 188.80
-9755214.77 5135347.35 185.93
-9755214.79 5135345.63 181.01
-9755214.23 5135342.57 191.46
-9755214.76 5135342.60 192.64
-9755214.36 5135347.16 192.14
-9755214.43 5135343.14 191.69
-9755214.50 5135345.98 191.34
-9755214.77 5135339.22 191.14
-9755214.71 5135347.22 191.12
-9755214.30 5135348.09 185.44
-9755214.34 5135344.17 194.13
-9755214.68 5135339.24 188.23
-9755214.35 5135342.13 193.66
-9755214.71 5135344.19 186.71
-9755214.26 5135346.70 190.37
-9755214.88 5135341.20 181.07
-9755214.40 5135345.14 191.59
-9755214.42 5135347.23 189.28
-9755214.51 5135343.83 194.62
-9755214.59 5135343.08 190.70
-9755214.54 5135342.96 193.28
-9755214.89 5135342.64 180.99
-9755214.37 5135339.75 187.97
-9755214.52 5135340.90 192.28
-9755214.86 5135338.72 188.82
-9755214.77 5135340.78 191.45
-9755214.14 5135339.77 191.78
-9755214.48 5135342.68 192.27
-9755214.40 5135343.10 190.49
-9755214.36 5135341.54 191.04
-9755214.39 5135342.44 191.68
-9755214.76 5135343.80 188.49
-9755214.19 5135341.91 192.89
-9755214.64 5135337.69 189.81
-9755214.61 5135338.98 189.16
-9755214.46 5135339.90 191.47
-9755214.43 5135338.52 188.28
-9755214.63 5135346.33 190.60
-9755214.38 5135339.99 191.80
-9755214.65 5135340.73 190.51
-9755214.64 5135343.84 190.62
-9755214.28 5135341.77 181.15
-9755214.67 5135338.59 186.83
-9755214.65 5135345.48 193.51
-9755214.46 5135338.19 187.96
-9755214.86 5135348.03 181.01
-9755214.41 5135345.70 192.29
-9755212.26 5135348.24 185.63
-9755206.95 5135351.33 185.30
-9755212.56 5135349.53 186.62
-9755212.30 5135349.75 186.75
-9755205.68 5135349.82 184.78
-9755213.41 5135349.98 187.54
-9755201.68 5135350.70 184.40
-9755207.84 5135349.87 184.36
-9755204.28 5135348.38 187.61
-9755206.96 5135350.79 184.41
-9755201.55 5135351.30 184.82
-9755213.25 5135350.00 187.46
-9755204.86 5135349.81 184.40
-9755211.27 5135349.19 185.72
-9755202.47 5135350.60 184.76
-9755208.19 5135348.30 186.43
-9755202.44 5135349.83 184.79
-9755205.15 5135350.42 184.40
-9755201.86 5135348.72 184.97
-9755213.63 5135349.03 186.79
-9755207.25 5135349.86 185.12
-9755202.82 5135350.03 184.80
-9755203.72 5135348.67 184.79
-9755203.18 5135351.34 184.39
-9755208.19 5135349.91 185.29
-9755202.20 5135349.60 184.78
-9755206.92 5135350.35 185.29
-9755208.15 5135348.64 185.09
-9755202.63 5135351.56 185.29
-9755207.26 5135351.05 184.42
-9755207.17 5135349.78 184.41
-9755205.87 5135349.55 184.77
-9755202.80 5135350.74 184.40
-9755206.57 5135349.36 184.73
-9755204.22 5135348.47 184.47
-9755207.87 5135350.80 184.42
-9755207.26 5135350.72 185.10
-9755210.12 5135349.14 181.27
-9755211.92 5135349.78 186.69
-9755208.31 5135348.36 185.36
-9755213.07 5135354.49 181.20
-9755214.28 5135351.85 181.12
-9755202.63 5135351.87 185.46
-9755208.14 5135352.19 191.77
-9755206.45 5135350.40 184.42
-9755211.03 5135352.12 181.23
-9755203.97 5135348.16 185.09
-9755206.65 5135349.28 184.44
-9755207.27 5135349.56 184.39
-9755212.49 5135353.58 181.23
-9755213.36 5135355.37 181.19
-9755206.88 5135349.26 184.40
-9755212.98 5135349.81 185.62
-9755207.76 5135349.22 185.26
-9755207.91 5135348.29 185.27
-9755208.15 5135348.31 184.90
-9755202.58 5135351.72 184.85
-9755207.31 5135352.07 191.72
-9755211.92 5135348.37 186.93
-9755202.77 5135348.25 188.09
-9755211.48 5135348.66 185.44
-9755201.90 5135351.27 184.42
-9755213.47 5135349.47 187.99
-9755201.94 5135348.66 185.29
-9755213.97 5135349.27 187.90
-9755210.16 5135348.19 181.26
-9755202.49 5135348.71 188.34
-9755207.45 5135348.75 184.78
-9755211.09 5135349.75 181.24
-9755206.97 5135348.31 184.73
-9755207.54 5135348.39 184.71
-9755213.42 5135350.07 181.22
-9755205.16 5135350.72 184.42
-9755207.62 5135348.63 185.29
-9755202.10 5135351.48 198.85
-9755212.63 5135349.55 185.93
-9755211.90 5135352.07 181.22
-9755203.65 5135348.71 184.39
-9755206.98 5135350.43 184.41
-9755211.61 5135353.32 181.22
-9755207.94 5135352.14 191.72
-9755207.93 5135353.27 182.47
-9755207.37 5135349.20 191.34
-9755213.20 5135349.47 188.16
-9755203.00 5135354.81 184.18
-9755204.09 5135348.64 185.03
-9755207.91 5135350.75 185.20
-9755212.23 5135348.23 185.36
-9755212.32 5135348.92 186.55
-9755203.95 5135350.39 184.41
-9755213.47 5135349.46 187.40
-9755201.60 5135350.66 184.77
-9755204.39 5135348.75 186.77
-9755214.02 5135349.20 186.98
-9755203.47 5135348.24 185.23
-9755212.30 5135350.70 186.37
-9755202.25 5135350.38 184.78
-9755209.85 5135353.03 181.28
-9755207.54 5135352.46 191.75
-9755201.71 5135349.19 184.82
-9755203.97 5135348.14 187.33
-9755206.34 5135351.31 184.42
-9755202.33 5135351.49 195.03
-9755202.51 5135349.24 184.41
-9755205.21 5135351.31 184.42
-9755210.15 5135350.56 181.27
-9755201.97 5135348.46 188.44
-9755206.07 5135349.24 184.75
-9755213.68 5135348.71 186.64
-9755208.33 5135353.85 181.45
-9755201.98 5135350.12 184.78
-9755213.99 5135348.82 187.17
-9755204.87 5135349.25 184.74
-9755209.55 5135348.32 185.90
-9755208.35 5135350.32 185.16
-9755214.00 5135348.62 187.73
-9755214.31 5135355.41 181.12
-9755213.06 5135349.23 185.47
-9755203.61 5135351.29 184.43
-9755208.50 5135349.74 185.26
-9755210.16 5135353.00 181.26
-9755206.94 5135348.67 185.29
-9755212.49 5135348.53 181.27
-9755205.38 5135349.57 184.79
-9755206.99 5135352.17 191.87
-9755208.42 5135353.29 181.46
-9755211.65 5135350.23 185.62
-9755213.30 5135349.41 186.55
-9755212.55 5135348.26 185.46
-9755208.12 5135350.13 184.38
-9755206.33 5135350.83 184.40
-9755207.87 5135350.45 185.26
-9755202.97 5135351.60 196.39
-9755206.37 5135348.16 184.42
-9755208.07 5135349.22 185.09
-9755202.28 5135351.38 184.86
-9755206.66 5135350.45 185.20
-9755207.33 5135348.68 184.44
-9755209.67 5135353.85 191.79
-9755201.69 5135349.62 184.71
-9755208.21 5135348.63 186.49
-9755210.73 5135349.19 181.26
-9755211.36 5135348.26 181.23
-9755206.92 5135350.43 184.64
-9755201.97 5135350.39 184.79
-9755207.78 5135352.01 181.96
-9755206.06 5135350.46 184.41
-9755202.56 5135349.89 185.21
-9755211.94 5135350.63 186.74
-9755206.37 5135349.54 184.70
-9755207.00 5135349.85 191.42
-9755206.13 5135348.40 184.41
-9755208.10 5135349.58 185.07
-9755203.80 5135348.36 184.42
-9755204.59 5135348.96 184.71
-9755207.85 5135348.68 184.92
-9755202.18 5135350.36 184.37
-9755202.62 5135348.66 185.25
-9755209.45 5135349.77 191.43
-9755208.19 5135352.48 191.79
-9755202.85 5135348.38 185.25
-9755209.85 5135352.13 181.28
-9755203.69 5135348.44 184.82
-9755213.45 5135349.45 185.47
-9755207.21 5135352.41 181.53
-9755206.80 5135349.64 184.91
-9755201.64 5135349.61 184.45
-9755204.01 5135350.77 184.42
-9755212.69 5135349.19 187.84
-9755203.07 5135351.60 185.35
-9755208.11 5135348.80 191.27
-9755213.33 5135342.11 191.42
-9755213.76 5135346.40 189.13
-9755202.01 5135341.62 188.60
-9755213.57 5135338.16 188.46
-9755204.93 5135343.78 187.28
-9755203.78 5135342.62 188.52
-9755202.96 5135346.71 189.17
-9755202.97 5135347.81 181.62
-9755206.03 5135343.25 186.39
-9755213.45 5135343.40 188.17
-9755202.04 5135342.89 186.60
-9755206.45 5135344.76 186.31
-9755203.21 5135346.61 189.48
-9755206.63 5135344.13 181.54
-9755206.14 5135343.89 186.31
-9755213.12 5135341.72 188.14
-9755211.99 5135344.66 186.91
-9755204.97 5135342.44 187.70
-9755203.68 5135345.73 188.89
-9755213.20 5135337.90 187.53
-9755210.22 5135347.21 185.03
-9755203.18 5135347.45 184.83
-9755203.13 5135340.43 185.91
-9755213.48 5135343.78 188.16
-9755203.48 5135340.92 186.05
-9755203.67 5135348.12 185.23
-9755210.19 5135347.08 181.27
-9755204.31 5135346.69 188.50
-9755212.26 5135347.56 185.15
-9755213.14 5135337.96 185.77
-9755210.80 5135342.91 186.49
-9755204.64 5135342.89 188.06
-9755214.32 5135342.95 181.12
-9755204.57 5135344.98 181.61
-9755206.37 5135341.68 184.82
-9755205.80 5135344.51 186.43
-9755212.60 5135341.69 186.28
-9755213.09 5135344.34 189.25
-9755205.21 5135345.78 188.35
-9755205.78 5135341.78 187.04
-9755213.85 5135345.68 188.17
-9755203.23 5135347.24 185.23
-9755214.06 5135346.17 187.59
-9755202.37 5135341.35 188.77
-9755202.37 5135342.34 186.60
-9755204.36 5135346.70 187.36
-9755214.05 5135346.09 191.48
-9755204.85 5135346.70 187.05
-9755202.94 5135344.53 187.21
-9755211.09 5135344.56 185.91
-9755213.48 5135347.53 187.50
-9755204.98 5135347.19 188.02
-9755204.94 5135341.75 187.38
-9755206.62 5135342.68 184.34
-9755211.86 5135345.05 187.31
-9755209.88 5135342.37 181.31
-9755213.19 5135337.52 185.60
-9755211.80 5135342.53 187.60
-9755210.17 5135342.37 181.28
-9755202.07 5135342.59 188.86
-9755212.34 5135344.99 187.02
-9755211.98 5135344.97 186.81
-9755205.77 5135341.66 181.52
-9755212.23 5135347.80 185.30
-9755206.07 5135348.05 184.41
-9755211.42 5135338.86 181.18
-9755204.26 5135343.14 186.11
-9755213.20 5135343.99 189.57
-9755212.52 5135337.67 185.44
-9755207.79 5135346.31 185.24
-9755214.39 5135337.68 187.50
-9755203.35 5135343.04 186.81
-9755214.81 5135339.28 189.19
-9755211.72 5135342.88 187.66
-9755202.47 5135347.63 188.65
-9755210.53 5135341.82 186.37
-9755203.42 5135346.25 187.08
-9755203.68 5135344.97 181.54
-9755207.30 5135345.67 185.21
-9755212.72 5135339.42 188.11
-9755201.96 5135344.38 188.12
-9755202.43 5135346.29 186.70
-9755203.45 5135342.65 185.16
-9755211.19 5135347.78 186.72
-9755213.63 5135343.88 188.54
-9755203.79 5135344.74 187.82
-9755210.26 5135345.97 185.75
-9755201.97 5135344.93 188.38
-9755211.75 5135343.28 185.98
-9755209.01 5135344.68 181.45
-9755205.55 5135342.07 186.91
-9755213.88 5135339.16 187.99
-9755211.62 5135343.41 187.47
-9755212.34 5135348.00 181.26
-9755212.61 5135339.74 181.16
-9755205.54 5135342.96 186.68
-9755213.15 5135344.07 181.37
-9755212.59 5135344.12 186.89
-9755201.96 5135341.04 188.77
-9755202.84 5135344.10 187.21
-9755203.37 5135340.53 186.51
-9755201.58 5135341.07 188.27
-9755211.44 5135345.27 181.26
-9755206.37 5135346.41 181.51
-9755204.40 5135341.73 185.89
-9755213.28 5135340.37 186.84
-9755212.68 5135340.56 187.64
-9755212.31 5135339.21 186.96
-9755202.29 5135344.63 188.34
-9755202.82 5135347.54 188.48
-9755211.36 5135342.34 187.19
-9755205.58 5135344.95 187.74
-9755205.34 5135345.81 187.20
-9755212.41 5135346.85 185.34
-9755213.75 5135340.13 189.24
-9755212.56 5135345.02 186.91
-9755210.21 5135344.67 187.06
-9755213.00 5135341.28 190.28
-9755211.68 5135342.88 181.29
-9755202.91 5135340.67 186.42
-9755205.35 5135345.61 186.07
-9755212.33 5135345.44 187.16
-9755213.91 5135340.21 191.38
-9755213.16 5135339.47 181.10
-9755214.14 5135339.86 189.15
-9755210.83 5135344.99 181.27
-9755204.45 5135345.58 188.80
-9755203.23 5135342.55 188.39
-9755211.03 5135343.50 186.42
-9755202.20 5135345.03 186.89
-9755206.10 5135347.50 184.41
-9755213.60 5135346.89 188.94
-9755211.51 5135338.28 185.92
-9755208.12 5135348.09 184.87
-9755207.28 5135344.90 184.41
-9755210.88 5135346.97 185.10
-9755205.24 5135345.56 187.98
-9755212.97 5135346.17 186.74
-9755213.88 5135343.76 188.93
-9755206.44 5135345.97 185.94
-9755202.57 5135344.43 188.03
-9755214.16 5135343.04 192.37
-9755212.89 5135339.91 188.35
-9755211.66 5135341.75 181.26
-9755213.30 5135338.88 187.34
-9755213.46 5135341.75 192.70
-9755202.88 5135345.84 188.92
-9755211.45 5135344.08 186.08
-9755210.21 5135347.36 181.26
-9755211.01 5135342.02 185.77
-9755202.90 5135347.05 186.65
-9755203.34 5135347.04 181.58
-9755208.07 5135348.03 185.40
-9755212.88 5135340.69 190.51
-9755202.95 5135346.19 188.44
-9755214.37 5135339.01 191.05
-9755201.93 5135345.84 181.58
-9755205.81 5135346.35 185.63
-9755213.22 5135340.29 190.56
-9755213.17 5135343.41 189.45
-9755202.86 5135341.33 187.76
-9755214.36 5135338.47 187.37
-9755211.36 5135347.42 185.03
-9755204.60 5135342.53 188.76
-9755208.50 5135345.67 186.31
-9755212.01 5135344.35 187.37
-9755213.21 5135344.55 188.49
-9755214.10 5135339.88 187.91
-9755213.29 5135342.08 190.13
-9755204.62 5135338.16 181.37
-9755205.85 5135346.46 187.44
-9755202.96 5135345.01 186.79
-9755212.93 5135339.07 188.09
-9755210.57 5135348.05 186.58
-9755211.74 5135344.45 186.55
-9755213.86 5135340.81 190.86
-9755213.08 5135345.88 181.30
-9755201.98 5135342.22 186.33
-9755202.46 5135343.15 188.40
-9755207.48 5135347.05 185.33
-9755204.95 5135341.72 186.15
-9755212.23 5135341.26 186.65
-9755212.89 5135343.83 185.90
-9755211.52 5135342.93 186.95
-9755202.50 5135346.20 181.57
-9755203.53 5135347.19 189.41
-9755212.24 5135347.97 186.62
-9755207.24 5135346.27 185.45
-9755208.35 5135342.03 181.43
-9755211.65 5135338.13 185.68
-9755211.79 5135338.56 186.53
-9755213.33 5135344.37 188.62
-9755211.11 5135342.65 187.38
-9755213.85 5135346.88 191.61
-9755205.83 5135346.24 186.54
-9755214.77 5135337.69 185.88
-9755213.22 5135340.69 186.35
-9755209.32 5135342.89 181.23
-9755211.78 5135340.52 185.90
-9755213.17 5135341.61 187.20
-9755208.25 5135344.77 190.52
-9755211.42 5135342.76 187.32
-9755206.01 5135341.59 185.11
-9755205.23 5135342.63 186.97
-9755203.37 5135344.38 181.53
-9755211.84 5135339.01 185.98
-9755204.00 5135343.46 181.51
-9755206.51 5135345.00 185.95
-9755205.07 5135345.91 185.74
-9755210.76 5135344.36 181.28
-9755210.86 5135337.90 181.21
-9755210.21 5135340.58 181.27
-9755214.13 5135337.69 187.41
-9755213.27 5135340.18 189.77
-9755213.78 5135342.00 193.28
-9755203.03 5135342.39 181.41
-9755211.78 5135345.97 185.81
-9755203.33 5135346.65 186.82
-9755213.58 5135347.37 188.51
-9755209.69 5135345.41 187.04
-9755204.34 5135341.78 186.78
-9755204.02 5135342.19 188.39
-9755209.90 5135343.67 185.87
-9755211.70 5135338.72 185.22
-9755205.39 5135345.80 186.60
-9755213.76 5135344.87 188.81
-9755210.93 5135345.31 186.50
-9755204.91 5135337.86 181.37
-9755207.31 5135345.97 185.79
-9755204.01 5135346.54 189.71
-9755213.28 5135341.66 193.90
-9755210.47 5135347.76 185.75
-9755204.83 5135344.51 184.29
-9755204.28 5135342.46 187.78
-9755206.44 5135345.05 185.50
-9755207.32 5135345.12 183.76
-9755203.16 5135343.80 181.53
-9755213.28 5135340.46 187.27
-9755213.33 5135339.11 187.68
-9755210.58 5135345.56 187.02
-9755208.24 5135348.02 185.62
-9755204.95 5135343.52 186.33
-9755213.04 5135339.69 187.86
-9755211.61 5135343.01 186.30
-9755213.98 5135345.71 181.26
-9755214.13 5135341.20 192.76
-9755214.02 5135339.33 189.62
-9755213.75 5135341.54 181.26
-9755213.80 5135343.83 194.28
-9755212.67 5135343.43 189.68
-9755211.39 5135346.21 186.11
-9755206.40 5135342.10 185.13
-9755201.83 5135347.40 185.19
-9755214.19 5135341.73 193.36
-9755211.04 5135344.61 186.30
-9755213.83 5135347.47 185.35
-9755212.46 5135341.75 186.77
-9755205.64 5135345.37 186.54
-9755211.78 5135340.70 186.56
-9755211.65 5135343.87 181.27
-9755202.03 5135344.05 181.54
-9755214.14 5135343.29 192.41
-9755203.25 5135341.36 187.85
-9755201.93 5135346.14 181.58
-9755206.96 5135340.23 181.42
-9755203.18 5135341.62 189.33
-9755210.17 5135346.24 186.95
-9755212.49 5135344.33 181.34
-9755211.97 5135342.42 186.09
-9755213.98 5135343.49 192.87
-9755204.90 5135347.44 184.35
-9755205.44 5135342.33 185.37
-9755208.16 5135345.59 181.46
-9755213.45 5135337.58 188.80
-9755209.96 5135347.98 186.57
-9755207.06 5135344.05 184.25
-9755211.63 5135347.48 181.22
-9755213.80 5135347.37 188.66
-9755206.69 5135347.25 184.39
-9755211.08 5135343.80 187.79
-9755212.41 5135340.23 187.09
-9755206.73 5135347.71 184.40
-9755214.09 5135347.06 181.20
-9755201.90 5135347.48 184.42
-9755212.53 5135339.37 181.15
-9755214.07 5135346.08 192.01
-9755213.23 5135340.39 189.86
-9755207.29 5135347.17 184.75
-9755211.10 5135343.83 181.28
-9755211.18 5135342.41 186.44
-9755201.71 5135344.05 187.73
-9755207.80 5135348.04 184.81
-9755203.33 5135342.83 187.29
-9755204.34 5135343.46 188.45
-9755205.58 5135345.59 187.69
-9755211.75 5135338.49 186.05
-9755213.45 5135344.01 181.36
-9755202.51 5135341.48 181.41
-9755210.25 5135342.93 185.99
-9755212.51 5135343.83 181.35
-9755210.12 5135346.22 181.26
-9755206.32 5135346.67 186.54
-9755213.28 5135341.23 190.71
-9755212.65 5135342.79 187.05
-9755204.25 5135346.15 188.17
-9755212.01 5135338.32 185.20
-9755212.31 5135344.76 187.02
-9755205.94 5135345.08 186.00
-9755203.58 5135341.08 186.39
-9755204.46 5135342.52 186.52
-9755202.86 5135344.83 187.78
-9755211.35 5135346.55 185.09
-9755213.86 5135341.65 190.35
-9755213.21 5135339.72 186.82
-9755213.20 5135340.79 187.53
-9755204.57 5135347.38 181.55
-9755211.59 5135345.87 181.25
-9755210.62 5135347.73 186.00
-9755210.19 5135345.95 181.26
-9755213.04 5135339.40 187.74
-9755203.54 5135346.68 189.00
-9755205.83 5135340.27 181.37
-9755211.30 5135344.67 186.86
-9755204.15 5135347.10 185.31
-9755202.88 5135342.50 188.78
-9755203.13 5135342.20 188.38
-9755205.23 5135346.30 187.03
-9755211.09 5135348.03 185.99
-9755213.80 5135348.03 187.43
-9755214.08 5135342.95 181.17
-9755214.20 5135341.51 193.25
-9755210.84 5135345.35 186.15
-9755206.87 5135347.09 186.00
-9755212.52 5135341.34 190.35
-9755212.79 5135342.11 187.31
-9755212.60 5135340.60 186.54
-9755213.89 5135346.24 190.66
-9755213.14 5135340.58 181.23
-9755202.19 5135345.87 186.99
-9755210.60 5135344.39 185.92
-9755211.74 5135340.89 181.26
-9755201.92 5135342.33 181.40
-9755211.01 5135345.61 181.26
-9755204.96 5135345.43 188.42
-9755213.13 5135341.34 189.92
-9755204.30 5135347.50 187.88
-9755213.52 5135341.57 191.97
-9755203.44 5135342.85 187.96
-9755202.54 5135341.97 181.41
-9755211.11 5135345.91 181.26
-9755207.04 5135346.61 186.09
-9755213.83 5135341.47 193.66
-9755201.96 5135346.49 186.75
-9755210.05 5135347.08 186.18
-9755202.51 5135341.28 188.60
-9755213.30 5135342.31 188.13
-9755212.70 5135337.76 187.53
-9755204.99 5135347.09 187.62
-9755213.51 5135339.55 189.04
-9755202.80 5135345.91 187.25
-9755212.61 5135338.26 181.12
-9755213.70 5135340.65 191.91
-9755214.02 5135344.20 181.18
-9755214.04 5135341.77 191.84
-9755211.40 5135341.87 185.78
-9755203.70 5135339.70 181.38
-9755206.40 5135347.12 186.04
-9755202.11 5135346.28 189.20
-9755214.12 5135345.44 191.12
-9755212.32 5135339.79 186.09
-9755202.81 5135346.79 186.90
-9755212.24 5135343.28 186.23
-9755213.03 5135341.70 190.11
-9755212.26 5135337.99 185.68
-9755210.54 5135345.66 186.18
-9755209.24 5135346.19 181.39
-9755212.59 5135343.03 185.26
-9755204.34 5135341.97 188.10
-9755202.47 5135343.20 186.11
-9755214.11 5135338.37 188.88
-9755203.58 5135342.16 189.25
-9755213.95 5135344.72 181.21
-9755202.88 5135340.29 181.37
-9755212.20 5135342.08 185.46
-9755203.05 5135347.31 181.58
-9755208.71 5135342.60 181.44
-9755204.91 5135342.92 186.95
-9755208.63 5135340.03 186.16
-9755203.28 5135341.68 188.29
-9755203.22 5135340.89 181.39
-9755211.09 5135347.48 185.87
-9755211.40 5135344.70 181.27
-9755205.51 5135343.21 187.96
-9755209.01 5135342.86 190.15
-9755214.19 5135340.43 189.99
-9755205.84 5135347.43 186.81
-9755201.62 5135345.37 186.67
-9755203.99 5135342.76 188.24
-9755213.22 5135341.47 187.83
-9755204.16 5135344.44 187.89
-9755211.65 5135339.75 186.46
-9755203.96 5135345.13 188.51
-9755206.07 5135344.32 185.26
-9755212.80 5135338.26 186.98
-9755213.77 5135339.76 188.51
-9755208.76 5135339.04 181.30
-9755203.18 5135344.23 186.76
-9755204.91 5135345.33 187.90
-9755212.77 5135339.11 187.01
-9755212.29 5135345.10 187.20
-9755211.50 5135340.03 186.55
-9755208.72 5135346.55 181.39
-9755213.98 5135348.00 181.20
-9755203.48 5135347.41 188.18
-9755202.03 5135341.77 181.41
-9755213.52 5135343.02 181.37
-9755212.95 5135337.32 187.33
-9755213.39 5135339.46 181.10
-9755203.47 5135347.78 181.58
-9755212.04 5135345.68 186.80
-9755203.23 5135341.42 185.72
-9755206.10 5135338.47 181.38
-9755213.88 5135341.15 191.48
-9755211.43 5135338.18 181.17
-9755213.12 5135337.17 185.82
-9755203.52 5135347.52 185.18
-9755211.17 5135342.32 186.01
-9755204.71 5135341.68 181.44
-9755205.41 5135345.17 184.34
-9755212.08 5135343.14 186.24
-9755203.18 5135346.94 187.93
-9755204.93 5135348.01 186.51
-9755205.79 5135346.08 181.57
-9755212.21 5135342.59 187.55
-9755211.44 5135342.36 181.28
-9755212.57 5135339.65 186.94
-9755206.63 5135340.52 181.44
-9755205.20 5135342.26 187.68
-9755213.95 5135348.09 188.30
-9755205.14 5135345.38 184.49
-9755211.68 5135343.55 186.85
-9755204.15 5135340.90 186.10
-9755202.58 5135341.96 186.74
-9755209.30 5135346.85 181.39
-9755212.10 5135341.71 187.29
-9755212.53 5135340.26 186.31
-9755210.86 5135342.93 185.74
-9755211.11 5135343.23 181.30
-9755213.93 5135343.55 193.85
-9755203.21 5135344.65 188.61
-9755202.85 5135344.63 181.54
-9755203.07 5135348.06 184.51
-9755213.23 5135339.74 186.21
-9755204.87 5135345.83 187.85
-9755213.39 5135340.24 188.96
-9755211.08 5135340.89 181.26
-9755202.60 5135343.45 186.76
-9755212.40 5135341.44 186.72
-9755205.48 5135347.23 181.54
-9755207.91 5135347.19 184.41
-9755205.95 5135347.16 184.38
-9755205.25 5135341.64 181.46
-9755208.64 5135347.35 181.37
-9755212.37 5135343.00 181.36
-9755205.32 5135344.71 186.03
-9755204.34 5135343.43 187.22
-9755214.19 5135344.52 190.81
-9755202.55 5135347.87 187.99
-9755211.97 5135344.98 181.28
-9755202.23 5135341.63 188.60
-9755213.15 5135343.50 186.53
-9755213.97 5135339.52 191.69
-9755205.51 5135340.79 181.41
-9755208.71 5135338.22 186.15
-9755204.84 5135344.85 187.29
-9755203.08 5135342.27 187.87
-9755213.23 5135339.16 187.36
-9755211.69 5135341.17 181.24
-9755210.87 5135343.83 186.40
-9755212.30 5135343.80 186.25
-9755210.71 5135346.71 185.25
-9755204.94 5135346.12 188.18
-9755206.04 5135342.12 185.06
-9755213.42 5135340.60 181.21
-9755210.00 5135343.29 186.36
-9755203.16 5135347.01 188.69
-9755213.79 5135343.94 193.64
-9755209.07 5135339.69 181.32
-9755203.46 5135341.41 181.42
-9755206.67 5135346.17 185.98
-9755207.89 5135338.48 181.34
-9755212.43 5135339.28 186.36
-9755208.99 5135346.74 181.34
-9755210.25 5135344.70 185.99
-9755208.48 5135340.25 181.37
-9755205.18 5135347.00 181.55
-9755202.21 5135347.28 181.60
-9755212.73 5135344.12 187.28
-9755203.21 5135343.27 187.10
-9755205.99 5135347.91 181.53
-9755210.28 5135341.45 186.84
-9755203.13 5135347.04 186.86
-9755206.84 5135340.12 189.89
-9755213.60 5135341.93 194.26
-9755202.02 5135344.06 186.73
-9755214.14 5135345.06 190.19
-9755204.40 5135345.19 187.39
-9755203.97 5135345.84 187.21
-9755214.05 5135340.98 191.76
-9755206.01 5135346.61 185.66
-9755213.23 5135345.06 181.31
-9755212.24 5135344.11 181.35
-9755213.16 5135338.46 181.11
-9755214.00 5135345.53 190.19
-9755212.31 5135344.68 181.32
-9755204.97 5135338.75 181.38
-9755211.08 5135342.09 181.28
-9755203.15 5135339.27 181.39
-9755201.74 5135345.50 186.02
-9755213.51 5135341.44 190.58
-9755203.47 5135340.84 181.40
-9755207.24 5135346.19 181.49
-9755212.67 5135342.32 186.98
-9755212.08 5135337.60 185.07
-9755204.28 5135347.10 187.17
-9755211.44 5135342.44 186.43
-9755203.45 5135345.04 188.20
-9755202.02 5135345.05 186.81
-9755213.83 5135347.16 191.63
-9755211.68 5135346.77 181.22
-9755202.00 5135343.47 187.47
-9755211.07 5135347.39 181.24
-9755212.78 5135341.47 187.60
-9755202.29 5135341.80 186.41
-9755213.42 5135337.62 181.08
-9755213.38 5135338.66 188.61
-9755202.85 5135343.50 181.51
-9755212.62 5135342.60 181.36
-9755201.82 5135342.31 187.67
-9755210.17 5135347.09 185.81
-9755210.16 5135345.59 186.87
-9755205.56 5135346.21 186.05
-9755213.43 5135345.62 185.00
-9755211.43 5135344.32 187.72
-9755204.53 5135345.40 188.52
-9755212.21 5135346.37 181.26
-9755201.66 5135342.19 187.82
-9755203.49 5135342.33 181.45
-9755206.89 5135348.08 184.78
-9755205.01 5135346.50 186.54
-9755213.81 5135344.46 193.12
-9755201.94 5135343.72 186.75
-9755212.60 5135341.05 190.43
-9755210.71 5135347.87 185.07
-9755213.72 5135340.82 189.45
-9755212.69 5135343.44 186.02
-9755204.27 5135346.75 181.56
-9755204.01 5135344.93 188.27
-9755212.84 5135343.20 181.38
-9755203.37 5135346.71 181.57
-9755213.75 5135347.22 189.31
-9755202.53 5135344.70 181.55
-9755202.51 5135347.59 181.61
-9755204.02 5135340.23 181.39
-9755201.83 5135343.41 187.03
-9755210.82 5135344.92 186.74
-9755212.34 5135345.07 181.29
-9755203.43 5135342.62 181.43
-9755213.84 5135338.20 187.24
-9755212.67 5135338.54 187.37
-9755205.17 5135343.56 181.56
-9755203.23 5135341.41 188.40
-9755209.94 5135341.16 181.27
-9755213.21 5135344.72 181.33
-9755209.87 5135345.88 181.29
-9755209.92 5135344.95 186.73
-9755204.67 5135341.45 187.08
-9755212.09 5135343.30 186.93
-9755212.56 5135340.24 181.19
-9755213.28 5135342.32 193.48
-9755212.57 5135346.76 181.25
-9755213.60 5135342.03 192.37
-9755210.86 5135347.43 185.49
-9755208.70 5135340.51 181.36
-9755203.52 5135343.20 187.16
-9755213.47 5135340.59 189.14
-9755212.01 5135339.14 181.17
-9755205.25 5135346.49 186.54
-9755213.26 5135344.67 187.47
-9755212.78 5135343.92 187.13
-9755211.42 5135345.06 181.27
-9755213.59 5135338.10 187.72
-9755212.56 5135341.49 181.30
-9755213.57 5135338.09 189.10
-9755211.61 5135342.70 185.49
-9755211.83 5135338.05 185.14
-9755201.43 5135343.72 188.53
-9755213.49 5135337.92 181.08
-9755204.34 5135343.46 181.53
-9755206.02 5135342.97 186.62
-9755210.54 5135346.50 181.25
-9755211.62 5135340.49 181.24
-9755211.68 5135347.09 187.37
-9755213.21 5135338.16 181.11
-9755204.07 5135341.20 186.15
-9755205.76 5135345.34 181.61
-9755203.43 5135348.02 184.58
-9755211.18 5135341.55 185.81
-9755210.23 5135341.76 181.28
-9755212.56 5135348.02 187.15
-9755202.61 5135344.01 187.90
-9755211.30 5135348.05 185.34
-9755207.55 5135341.74 181.48
-9755214.00 5135341.08 193.61
-9755211.06 5135345.36 187.07
-9755204.23 5135340.80 186.52
-9755204.01 5135345.47 188.09
-9755207.92 5135339.32 189.74
-9755213.25 5135347.65 186.92
-9755213.40 5135340.95 186.39
-9755212.24 5135340.84 181.25
-9755211.50 5135346.47 185.83
-9755205.82 5135345.45 183.95
-9755204.92 5135345.00 188.03
-9755204.68 5135342.20 188.73
-9755207.88 5135342.33 181.47
-9755203.48 5135341.13 185.32
-9755213.72 5135341.93 192.70
-9755207.03 5135339.12 181.38
-9755213.37 5135342.58 187.05
-9755212.23 5135338.42 186.87
-9755213.68 5135347.17 181.21
-9755204.14 5135341.24 185.43
-9755201.81 5135343.42 187.57
-9755213.52 5135347.14 187.37
-9755210.52 5135342.10 185.73
-9755202.32 5135342.16 188.68
-9755205.15 5135341.84 185.56
-9755202.06 5135344.09 185.92
-9755204.88 5135345.63 186.05
-9755212.84 5135345.65 181.30
-9755213.51 5135339.37 189.68
-9755209.32 5135347.90 181.31
-9755202.25 5135348.06 185.26
-9755202.61 5135348.07 185.26
-9755204.90 5135348.08 187.26
-9755201.59 5135349.29 184.43
-9755201.10 5135350.38 184.74
-9755201.20 5135349.13 185.28
-9755201.04 5135348.62 185.29
-9755197.49 5135351.27 184.76
-9755196.37 5135351.28 184.43
-9755201.01 5135350.39 184.41
-9755196.99 5135351.28 184.76
-9755200.88 5135349.32 184.79
-9755201.65 5135351.74 184.89
-9755200.16 5135348.66 184.43
-9755200.81 5135348.29 185.15
-9755200.15 5135350.39 184.78
-9755201.00 5135349.87 184.77
-9755196.90 5135349.18 184.78
-9755197.50 5135348.90 184.85
-9755200.56 5135349.29 185.82
-9755200.74 5135348.92 184.91
-9755196.86 5135349.43 184.79
-9755196.97 5135349.87 184.42
-9755201.04 5135351.31 184.42
-9755200.13 5135349.58 184.78
-9755197.73 5135349.48 184.43
-9755196.62 5135348.56 184.44
-9755198.36 5135349.21 185.52
-9755197.84 5135348.34 184.42
-9755199.86 5135348.67 184.43
-9755196.83 5135348.95 185.29
-9755198.13 5135349.44 185.64
-9755195.73 5135350.42 184.44
-9755198.45 5135349.88 184.42
-9755200.18 5135351.68 184.44
-9755196.34 5135349.70 184.43
-9755197.22 5135351.28 184.43
-9755197.14 5135350.10 184.80
-9755200.75 5135349.86 184.78
-9755197.71 5135351.37 184.76
-9755199.94 5135351.69 184.47
-9755197.75 5135350.09 184.44
-9755198.04 5135349.81 184.79
-9755199.50 5135351.50 184.39
-9755196.61 5135350.38 184.43
-9755195.73 5135349.48 184.79
-9755197.67 5135350.71 184.74
-9755197.62 5135349.81 184.77
-9755200.26 5135349.54 184.40
-9755196.88 5135350.37 184.42
-9755199.93 5135351.54 199.18
-9755200.10 5135349.25 184.75
-9755200.28 5135349.70 185.77
-9755199.87 5135350.46 184.40
-9755197.26 5135350.42 184.44
-9755199.26 5135350.10 184.79
-9755197.42 5135349.84 184.46
-9755200.77 5135350.68 184.43
-9755197.54 5135349.46 184.77
-9755199.01 5135351.29 184.43
-9755198.66 5135349.42 185.56
-9755200.76 5135351.29 184.42
-9755199.86 5135350.72 184.41
-9755196.63 5135349.18 184.78
-9755196.60 5135351.24 184.43
-9755199.25 5135348.68 184.43
-9755198.63 5135349.20 185.52
-9755199.33 5135349.30 184.77
-9755199.55 5135349.83 184.79
-9755198.20 5135349.54 184.77
-9755198.72 5135351.27 184.42
-9755196.08 5135349.21 184.79
-9755199.33 5135349.52 184.81
-9755196.91 5135351.51 184.44
-9755195.80 5135349.09 184.46
-9755197.24 5135348.82 185.62
-9755197.73 5135349.53 185.56
-9755196.68 5135351.49 184.43
-9755201.65 5135348.00 185.26
-9755201.61 5135347.87 181.63
-9755201.62 5135343.89 186.50
-9755201.43 5135342.83 188.48
-9755201.41 5135343.75 185.92
-9755201.10 5135344.76 186.50
-9755201.66 5135342.92 181.39
-9755201.55 5135344.36 187.22
-9755201.44 5135345.00 186.64
-9755201.38 5135347.43 185.20
-9755201.03 5135343.76 186.17
-9755201.35 5135343.24 187.79
-9755202.53 5135347.00 185.22
-9755201.14 5135345.45 186.92
-9755201.66 5135338.76 181.35
-9755201.30 5135344.30 186.35
-9755201.67 5135340.45 181.38
-9755201.69 5135347.15 184.32
-9755197.82 5135348.06 184.43
-9755197.74 5135347.50 184.39
-9755201.73 5135343.50 181.49
-9755200.78 5135344.95 181.55
-9755200.79 5135346.67 181.61
-9755196.60 5135347.58 181.60
-9755200.20 5135344.67 181.54
-9755197.61 5135339.31 181.33
-9755200.86 5135344.18 187.21
-9755201.74 5135341.35 181.40
-9755201.11 5135341.67 187.25
-9755201.06 5135343.34 186.84
-9755200.30 5135344.44 186.05
-9755198.49 5135347.62 181.58
-9755196.07 5135344.59 181.53
-9755198.43 5135342.59 181.38
-9755198.63 5135347.28 181.60
-9755201.64 5135343.77 181.51
-9755199.34 5135347.15 184.41
-9755200.75 5135341.98 181.34
-9755197.52 5135348.09 184.42
-9755201.09 5135347.30 181.61
-9755197.49 5135341.63 181.35
-9755197.56 5135342.53 181.37
-9755199.92 5135343.44 186.75
-9755198.38 5135341.37 181.38
-9755200.95 5135347.59 184.40
-9755199.87 5135344.32 181.55
-9755196.90 5135342.83 181.38
-9755201.07 5135344.99 186.53
-9755196.94 5135344.88 181.54
-9755195.51 5135347.53 184.39
-9755201.03 5135344.93 181.55
-9755196.91 5135347.45 184.37
-9755196.63 5135347.81 181.59
-9755197.51 5135347.53 181.62
-9755198.97 5135347.25 181.60
-9755201.04 5135342.64 181.39
-9755196.92 5135347.29 181.59
-9755201.32 5135345.81 181.57
-9755199.69 5135347.29 185.12
-9755198.38 5135340.16 181.35
-9755198.68 5135341.04 181.37
-9755199.86 5135347.35 181.58
-9755199.36 5135338.11 181.35
-9755200.20 5135343.43 181.49
-9755197.82 5135340.52 181.36
-9755200.17 5135347.34 181.59
-9755199.68 5135343.14 181.40
-9755199.01 5135344.06 181.53
-9755200.75 5135341.76 181.35
-9755200.98 5135343.37 186.17
-9755200.56 5135344.63 187.23
-9755196.14 5135347.12 184.36
-9755199.23 5135346.73 181.58
-9755200.12 5135342.86 181.38
-9755199.93 5135347.07 185.83
-9755197.55 5135341.08 181.37
-9755197.52 5135347.50 184.41
-9755200.80 5135347.76 185.15
-9755200.48 5135344.07 181.52
-9755199.27 5135347.86 181.57
-9755196.09 5135338.10 181.30
-9755199.01 5135339.01 181.34
-9755200.56 5135343.17 181.43
-9755198.37 5135342.84 181.40
-9755200.74 5135348.04 184.44
-9755196.04 5135343.73 181.49
-9755200.46 5135348.06 184.43
-9755195.47 5135338.06 181.30
-9755200.55 5135343.15 188.25
-9755199.95 5135344.32 186.54
-9755196.10 5135341.07 181.34
-9755196.68 5135339.87 181.33
-9755199.92 5135340.18 181.34
-9755195.79 5135340.18 181.34
-9755197.56 5135340.18 181.33
-9755201.01 5135347.63 181.52
-9755196.64 5135347.04 184.34
-9755199.83 5135345.81 181.58
-9755196.93 5135340.79 181.34
-9755195.25 5135344.92 188.17
-9755199.28 5135347.60 181.58
-9755200.18 5135347.83 181.57
-9755196.64 5135343.13 181.38
-9755196.34 5135344.02 181.51
-9755200.19 5135341.13 181.37
-9755195.15 5135349.55 184.49
-9755194.55 5135349.78 184.43
-9755193.72 5135350.36 184.43
-9755194.54 5135350.44 184.44
-9755193.63 5135351.26 184.43
-9755194.28 5135348.65 185.80
-9755194.25 5135349.81 184.42
-9755193.95 5135351.55 184.46
-9755192.81 5135351.66 186.76
-9755189.64 5135349.53 184.42
-9755191.59 5135351.26 184.43
-9755190.39 5135351.70 190.00
-9755188.09 5135350.07 184.43
-9755190.38 5135351.87 191.45
-9755188.71 5135349.14 184.43
-9755191.30 5135348.89 184.45
-9755190.38 5135349.50 184.41
-9755190.45 5135348.61 184.51
-9755192.77 5135348.28 184.43
-9755190.81 5135351.88 184.77
-9755191.60 5135351.64 188.55
-9755190.30 5135351.47 192.68
-9755191.59 5135350.35 184.44
-9755191.38 5135348.29 190.50
-9755190.57 5135351.54 193.13
-9755192.22 5135351.23 184.44
-9755191.91 5135350.34 184.44
-9755190.77 5135349.81 184.42
-9755192.51 5135351.25 184.44
-9755187.56 5135349.79 184.43
-9755189.80 5135351.56 185.64
-9755191.90 5135351.36 184.94
-9755192.90 5135348.71 184.76
-9755188.38 5135350.71 184.43
-9755193.11 5135350.70 184.42
-9755192.79 5135348.54 184.43
-9755188.65 5135350.35 184.43
-9755191.67 5135348.22 190.95
-9755192.83 5135350.04 184.45
-9755190.41 5135351.54 184.42
-9755188.96 5135349.78 184.43
-9755188.40 5135348.26 184.44
-9755188.56 5135351.77 186.09
-9755191.28 5135351.48 187.13
-9755188.69 5135348.92 184.43
-9755190.40 5135350.64 184.42
-9755189.30 5135351.55 193.60
-9755187.77 5135349.17 184.41
-9755190.44 5135351.97 191.10
-9755189.91 5135351.55 189.68
-9755192.49 5135350.34 184.44
-9755188.72 5135351.75 191.37
-9755188.91 5135352.03 184.46
-9755189.86 5135350.65 184.43
-9755191.34 5135351.65 188.53
-9755191.16 5135351.61 188.96
-9755190.01 5135348.32 190.22
-9755189.41 5135351.85 189.42
-9755189.25 5135348.29 184.42
-9755190.59 5135351.54 185.47
-9755188.25 5135351.65 189.53
-9755192.72 5135351.63 192.25
-9755188.84 5135348.25 184.47
-9755188.09 5135351.59 186.03
-9755188.44 5135352.00 186.11
-9755191.60 5135349.78 184.43
-9755190.78 5135352.01 199.72
-9755189.33 5135351.79 185.51
-9755191.34 5135351.57 184.47
-9755188.71 5135351.83 186.99
-9755189.13 5135352.04 186.99
-9755191.87 5135351.57 187.72
-9755190.98 5135351.51 184.46
-9755187.90 5135348.05 189.50
-9755189.89 5135348.16 191.58
-9755189.04 5135348.89 184.44
-9755189.57 5135351.54 189.61
-9755190.18 5135351.56 184.41
-9755191.31 5135350.37 184.43
-9755189.64 5135348.20 191.48
-9755190.77 5135350.40 184.43
-9755192.47 5135350.10 184.44
-9755190.43 5135348.10 189.26
-9755189.25 5135351.22 184.43
-9755190.27 5135348.58 190.44
-9755188.38 5135349.15 184.42
-9755188.36 5135348.57 184.42
-9755190.05 5135348.56 190.17
-9755190.70 5135351.63 185.63
-9755190.35 5135351.80 191.92
-9755193.47 5135351.64 190.91
-9755187.25 5135349.16 184.43
-9755187.23 5135348.83 184.44
-9755187.14 5135351.48 193.16
-9755187.28 5135351.79 192.60
-9755186.96 5135348.62 190.81
-9755187.22 5135349.74 184.43
-9755187.20 5135348.00 190.65
-9755194.91 5135344.56 187.79
-9755194.61 5135344.91 188.14
-9755193.82 5135343.14 187.21
-9755193.63 5135344.88 189.69
-9755193.78 5135345.70 189.20
-9755193.70 5135344.30 188.07
-9755194.04 5135347.27 187.98
-9755193.69 5135344.50 188.11
-9755195.15 5135347.83 181.55
-9755194.88 5135342.32 181.38
-9755193.67 5135346.98 188.03
-9755194.21 5135342.25 188.00
-9755194.62 5135346.96 187.91
-9755190.12 5135347.75 190.06
-9755189.25 5135341.66 190.05
-9755192.80 5135344.78 189.30
-9755189.61 5135343.86 190.68
-9755188.73 5135340.90 189.83
-9755189.53 5135341.35 188.35
-9755190.02 5135346.52 190.67
-9755188.75 5135341.13 189.82
-9755191.78 5135345.42 189.80
-9755189.96 5135337.22 186.18
-9755188.72 5135344.11 190.77
-9755189.89 5135338.89 187.59
-9755190.48 5135347.44 189.99
-9755190.23 5135341.57 181.31
-9755188.72 5135346.38 189.32
-9755190.02 5135344.69 190.67
-9755192.58 5135342.98 189.82
-9755190.87 5135339.05 186.40
-9755188.49 5135347.90 189.59
-9755189.90 5135347.44 190.31
-9755192.59 5135343.87 189.63
-9755190.81 5135342.96 190.01
-9755189.98 5135341.77 188.56
-9755189.93 5135346.20 191.46
-9755189.31 5135338.75 186.25
-9755188.40 5135344.75 191.05
-9755188.97 5135339.33 185.57
-9755188.56 5135341.79 190.00
-9755192.86 5135344.47 190.18
-9755187.80 5135346.21 189.90
-9755188.39 5135346.21 189.77
-9755189.47 5135343.04 189.77
-9755188.34 5135341.05 186.47
-9755191.46 5135341.85 189.79
-9755191.38 5135343.22 190.09
-9755190.96 5135345.19 189.08
-9755187.82 5135340.05 188.44
-9755191.43 5135345.88 190.95
-9755188.50 5135337.97 188.34
-9755188.31 5135338.96 186.25
-9755187.90 5135347.62 189.30
-9755189.69 5135337.97 185.90
-9755188.45 5135347.42 189.17
-9755191.03 5135346.36 181.59
-9755187.62 5135338.35 188.92
