-9755080.12 5135798.66 183.42
-9755077.08 5135798.78 182.21
-9755079.84 5135798.62 183.34
-9755081.01 5135798.66 183.71
-9755077.16 5135798.72 182.30
-9755075.42 5135798.71 182.42
-9755074.98 5135798.68 182.54
-9755075.67 5135798.05 182.39
-9755073.93 5135797.94 179.38
-9755064.19 5135799.47 177.35
-9755070.04 5135798.79 178.63
-9755073.63 5135797.34 179.31
-9755072.75 5135797.63 179.24
-9755072.69 5135797.85 179.17
-9755067.50 5135797.64 177.82
-9755070.36 5135797.92 178.55
-9755067.69 5135797.14 177.99
-9755068.67 5135797.92 178.29
-9755068.82 5135797.96 178.02
-9755064.17 5135797.97 177.34
-9755070.11 5135797.89 178.66
-9755070.12 5135798.29 178.55
-9755069.75 5135798.54 178.42
-9755070.68 5135798.25 178.79
-9755073.65 5135798.50 179.35
-9755080.66 5135795.41 182.77
-9755078.10 5135790.87 185.37
-9755079.18 5135789.63 185.23
-9755079.83 5135790.35 182.94
-9755080.15 5135790.38 182.62
-9755081.04 5135796.94 182.60
-9755080.20 5135787.90 184.26
-9755080.16 5135792.95 185.13
-9755080.64 5135790.94 183.10
-9755078.45 5135790.87 184.89
-9755078.99 5135787.64 184.48
-9755079.76 5135788.86 184.85
-9755081.38 5135786.79 182.58
-9755080.23 5135786.48 183.66
-9755079.78 5135791.41 182.72
-9755080.76 5135791.30 182.40
-9755078.35 5135788.82 183.95
-9755081.37 5135790.81 182.58
-9755078.96 5135790.96 183.43
-9755080.18 5135789.54 182.71
-9755078.61 5135788.84 183.84
-9755078.97 5135789.26 184.01
-9755078.67 5135789.59 184.20
-9755080.26 5135787.93 184.62
-9755081.34 5135789.94 184.12
-9755079.56 5135789.43 184.85
-9755081.11 5135787.94 184.45
-9755078.96 5135787.51 184.98
-9755080.45 5135793.74 185.33
-9755078.14 5135792.31 185.00
-9755078.11 5135792.15 183.30
-9755078.63 5135787.87 184.50
-9755079.55 5135792.13 184.42
-9755081.50 5135797.42 182.17
-9755080.48 5135788.89 184.64
-9755079.60 5135793.87 185.05
-9755078.99 5135790.06 183.91
-9755080.20 5135791.84 183.13
-9755078.42 5135787.12 183.08
-9755080.26 5135792.12 184.64
-9755077.42 5135792.93 185.15
-9755077.85 5135787.61 182.63
-9755080.39 5135792.20 182.09
-9755081.18 5135792.18 183.71
-9755081.09 5135790.95 183.70
-9755079.64 5135788.80 185.30
-9755080.51 5135788.87 184.32
-9755080.48 5135789.08 184.27
-9755078.98 5135788.90 183.67
-9755079.64 5135792.55 182.29
-9755081.40 5135787.15 183.26
-9755080.16 5135789.72 184.53
-9755080.20 5135793.26 185.09
-9755081.32 5135787.26 182.70
-9755078.79 5135790.92 184.91
-9755080.23 5135793.80 185.23
-9755078.38 5135787.11 182.76
-9755078.61 5135791.28 182.11
-9755078.99 5135787.90 184.50
-9755081.16 5135786.49 182.20
-9755080.22 5135789.45 184.09
-9755079.04 5135790.15 182.73
-9755079.82 5135792.29 183.90
-9755080.98 5135791.67 183.38
-9755079.00 5135786.77 182.86
-9755078.50 5135792.88 186.21
-9755080.66 5135787.94 184.81
-9755078.96 5135788.41 184.98
-9755078.54 5135787.98 183.99
-9755079.04 5135787.48 184.65
-9755080.17 5135787.08 184.57
-9755077.86 5135788.41 181.95
-9755080.87 5135792.90 184.81
-9755079.11 5135789.22 185.22
-9755079.77 5135790.85 183.07
-9755078.67 5135788.73 184.69
-9755080.67 5135793.23 185.50
-9755077.43 5135792.36 185.38
-9755077.93 5135787.45 182.91
-9755077.90 5135786.38 180.01
-9755078.36 5135793.52 185.15
-9755081.35 5135789.47 184.06
-9755078.76 5135787.61 184.56
-9755081.16 5135787.97 184.83
-9755081.12 5135787.05 183.27
-9755079.30 5135788.57 184.25
-9755079.59 5135792.91 185.12
-9755080.69 5135791.63 183.16
-9755079.83 5135789.08 184.92
-9755078.45 5135792.58 184.57
-9755079.88 5135789.68 183.12
-9755078.65 5135786.44 182.85
-9755080.17 5135792.32 185.15
-9755080.90 5135789.08 184.60
-9755081.09 5135795.11 182.37
-9755079.83 5135789.17 183.99
-9755079.11 5135789.59 185.17
-9755079.85 5135786.82 183.69
-9755079.63 5135791.91 184.32
-9755079.39 5135789.16 185.11
-9755075.75 5135788.47 179.46
-9755075.86 5135788.32 179.60
-9755075.69 5135787.81 179.62
-9755076.28 5135790.56 179.59
-9755075.78 5135787.29 179.76
-9755074.55 5135789.63 179.44
-9755074.24 5135789.68 179.42
-9755073.69 5135795.53 179.28
-9755074.21 5135787.60 179.28
-9755073.68 5135797.00 179.32
-9755073.66 5135788.20 179.22
-9755074.27 5135788.09 179.48
-9755074.30 5135787.86 179.63
-9755073.94 5135789.04 179.22
-9755073.75 5135787.89 179.16
-9755073.34 5135796.48 179.31
-9755070.70 5135797.07 178.55
-9755069.76 5135797.08 178.44
-9755066.03 5135786.38 177.56
-9755068.33 5135795.32 178.12
-9755072.14 5135789.63 178.89
-9755068.33 5135793.81 178.17
-9755072.77 5135789.34 179.25
-9755068.31 5135791.54 178.23
-9755068.96 5135796.17 178.43
-9755068.40 5135791.19 178.12
-9755072.46 5135789.42 179.25
-9755072.52 5135789.97 179.12
-9755067.91 5135792.90 178.16
-9755071.71 5135788.52 179.08
-9755068.35 5135788.79 178.42
-9755071.24 5135794.09 178.59
-9755068.84 5135797.08 178.40
-9755069.21 5135793.55 178.41
-9755068.33 5135793.83 178.31
-9755073.00 5135794.06 179.16
-9755067.19 5135786.46 177.96
-9755067.72 5135787.92 178.10
-9755068.61 5135791.73 178.30
-9755072.49 5135793.10 179.01
-9755068.02 5135796.20 178.06
-9755067.56 5135792.92 178.12
-9755073.34 5135793.78 179.21
-9755068.23 5135796.47 178.09
-9755073.30 5135794.41 179.14
-9755067.72 5135789.68 177.97
-9755068.33 5135792.60 178.02
-9755067.48 5135796.24 177.95
-9755067.40 5135787.61 178.11
-9755070.45 5135788.81 178.73
-9755066.32 5135786.66 177.69
-9755069.25 5135788.13 178.43
-9755071.24 5135790.23 178.82
-9755072.13 5135797.08 178.91
-9755072.77 5135787.84 179.25
-9755068.66 5135787.05 178.20
-9755069.45 5135797.05 178.39
-9755071.75 5135795.88 178.92
-9755066.06 5135786.76 177.59
-9755069.27 5135788.76 178.37
-9755072.74 5135792.92 178.87
-9755066.30 5135787.31 177.94
-9755069.20 5135792.89 178.24
-9755071.94 5135797.03 178.95
-9755069.79 5135792.93 178.53
-9755071.63 5135789.09 178.95
-9755068.31 5135789.00 178.34
-9755067.75 5135787.66 178.21
-9755073.63 5135789.11 179.18
-9755066.57 5135787.62 177.65
-9755073.35 5135797.02 179.25
-9755064.16 5135794.15 177.31
-9755068.94 5135788.23 178.42
-9755068.36 5135793.21 178.24
-9755068.32 5135792.02 178.26
-9755070.07 5135796.23 178.59
-9755073.01 5135788.46 179.14
-9755066.56 5135787.62 177.92
-9755071.62 5135788.52 178.91
-9755070.31 5135797.45 178.59
-9755066.58 5135787.89 177.64
-9755066.27 5135788.24 177.76
-9755067.00 5135789.32 177.77
-9755072.75 5135795.82 179.07
-9755066.58 5135790.54 177.56
-9755071.59 5135790.83 178.71
-9755068.30 5135796.11 178.06
-9755069.56 5135790.81 178.38
-9755072.77 5135788.43 179.19
-9755066.28 5135787.59 177.86
-9755066.53 5135787.83 177.85
-9755070.51 5135793.76 178.64
-9755070.08 5135789.98 178.55
-9755070.05 5135796.49 178.46
-9755067.48 5135787.26 178.18
-9755072.09 5135793.70 179.13
-9755070.66 5135790.84 178.57
-9755067.43 5135792.89 177.94
-9755069.54 5135790.51 178.41
-9755068.29 5135797.08 177.95
-9755070.68 5135794.12 178.45
-9755060.10 5135788.51 176.58
-9755055.31 5135796.20 176.71
-9755054.35 5135810.12 176.81
-9755049.33 5135806.51 176.81
-9755050.24 5135806.48 176.81
-9755048.51 5135799.12 176.74
-9755054.70 5135793.50 176.69
-9755050.97 5135786.36 176.67
-9755051.79 5135794.35 176.72
-9755051.80 5135794.97 176.73
-9755049.15 5135795.85 176.73
-9755053.02 5135786.35 176.65
-9755053.88 5135788.76 176.67
-9755052.66 5135795.86 176.72
-9755053.88 5135786.99 176.65
-9755047.71 5135788.40 176.65
-9755045.31 5135797.04 176.70
-9755046.80 5135793.69 176.69
-9755047.68 5135788.14 176.65
-9755041.45 5135794.58 176.62
-9755040.29 5135793.41 176.59
-9755036.82 5135790.43 176.85
-9755037.09 5135790.44 177.12
-9755081.07 5135839.01 181.69
-9755080.99 5135839.02 181.64
-9755080.74 5135837.80 181.40
-9755078.44 5135839.05 181.13
-9755081.36 5135837.83 181.44
-9755081.33 5135838.13 181.38
-9755081.34 5135837.88 181.42
-9755080.77 5135837.51 181.34
-9755081.29 5135837.41 182.24
-9755079.83 5135838.70 181.29
-9755079.58 5135837.55 180.91
-9755080.25 5135835.83 181.26
-9755080.18 5135836.39 181.31
-9755079.95 5135837.57 181.22
-9755079.59 5135837.84 181.06
-9755078.42 5135838.72 181.20
-9755080.68 5135838.69 181.53
-9755080.66 5135837.51 181.78
-9755079.64 5135837.56 181.20
-9755081.09 5135836.00 181.37
-9755080.72 5135836.69 181.34
-9755080.49 5135836.08 181.23
-9755078.73 5135836.66 181.24
-9755075.12 5135838.17 179.80
-9755075.30 5135838.46 179.84
-9755074.91 5135837.59 179.99
-9755075.39 5135838.20 179.66
-9755075.15 5135836.15 179.57
-9755074.94 5135836.40 179.58
-9755074.53 5135837.89 179.83
-9755074.99 5135837.18 179.58
-9755075.17 5135836.32 179.64
-9755074.79 5135836.44 179.38
-9755074.29 5135836.94 179.86
-9755074.47 5135837.90 179.67
-9755074.51 5135837.30 179.55
-9755074.23 5135838.26 179.75
-9755073.99 5135836.15 179.23
-9755074.50 5135838.23 179.69
-9755072.85 5135837.29 179.46
-9755068.32 5135836.44 177.94
-9755070.43 5135837.61 178.47
-9755073.12 5135836.13 179.06
-9755070.41 5135838.21 178.45
-9755064.84 5135836.16 177.60
-9755064.20 5135835.89 176.83
-9755078.94 5135834.21 184.16
-9755077.84 5135834.19 184.15
-9755081.40 5135831.98 185.43
-9755077.96 5135832.09 185.79
-9755078.87 5135833.19 186.18
-9755076.69 5135828.81 183.27
-9755078.19 5135834.16 183.01
-9755078.67 5135835.52 183.43
-9755079.38 5135831.71 185.06
-9755076.66 5135829.12 182.33
-9755078.97 5135827.36 184.51
-9755077.26 5135830.85 184.22
-9755080.25 5135834.11 184.79
-9755077.28 5135830.87 183.15
-9755079.09 5135833.80 185.97
-9755077.67 5135832.58 186.37
-9755078.18 5135834.54 181.90
-9755079.08 5135833.70 185.79
-9755077.53 5135834.90 182.28
-9755077.25 5135827.90 184.99
-9755077.60 5135831.70 186.57
-9755079.63 5135834.73 183.84
-9755078.67 5135828.22 183.97
-9755079.98 5135831.72 185.45
-9755078.98 5135830.92 181.90
-9755078.75 5135830.40 182.30
-9755080.56 5135834.07 184.59
-9755077.03 5135830.88 184.32
-9755077.15 5135826.32 186.10
-9755078.65 5135834.98 183.71
-9755077.27 5135827.26 185.81
-9755081.12 5135830.84 183.60
-9755078.71 5135832.33 185.01
-9755078.75 5135827.91 184.01
-9755079.33 5135830.05 183.83
-9755079.10 5135833.71 182.60
-9755078.74 5135829.18 182.87
-9755078.21 5135834.84 182.38
-9755076.79 5135827.93 184.52
-9755076.68 5135833.23 183.33
-9755079.82 5135833.08 186.37
-9755081.12 5135832.93 185.11
-9755078.75 5135827.32 184.50
-9755077.00 5135833.85 183.59
-9755076.88 5135827.41 183.79
-9755079.30 5135834.46 184.38
-9755078.78 5135835.09 183.42
-9755080.05 5135831.19 183.85
-9755080.46 5135834.15 184.79
-9755078.05 5135832.06 184.63
-9755079.63 5135830.01 183.18
-9755079.48 5135831.14 184.38
-9755079.96 5135833.31 183.31
-9755078.14 5135835.46 182.07
-9755077.54 5135828.90 182.55
-9755077.32 5135826.33 183.96
-9755078.18 5135833.57 185.07
-9755079.64 5135834.19 185.36
-9755080.31 5135832.78 184.87
-9755078.65 5135827.55 184.22
-9755077.60 5135832.60 185.50
-9755078.19 5135832.24 186.53
-9755076.92 5135827.95 183.10
-9755080.53 5135832.02 185.56
-9755078.21 5135833.86 185.04
-9755079.65 5135832.68 185.81
-9755080.77 5135833.30 184.95
-9755077.01 5135827.74 183.85
-9755079.03 5135833.03 184.37
-9755078.16 5135826.85 183.71
-9755077.60 5135832.67 183.81
-9755078.78 5135831.67 186.09
-9755079.00 5135829.78 182.78
-9755078.22 5135833.98 183.84
-9755077.25 5135831.67 182.00
-9755080.26 5135831.70 185.68
-9755076.78 5135827.92 185.33
-9755077.48 5135831.22 183.24
-9755076.93 5135831.55 183.36
-9755077.56 5135827.49 185.79
-9755077.29 5135829.17 183.25
-9755078.25 5135830.01 183.12
-9755076.94 5135831.86 182.72
-9755077.15 5135828.69 183.25
-9755076.36 5135833.28 183.61
-9755078.18 5135831.44 185.38
-9755078.10 5135828.05 185.42
-9755077.48 5135828.72 183.81
-9755079.69 5135830.37 183.36
-9755078.65 5135828.10 181.62
-9755077.47 5135827.38 185.83
-9755079.81 5135831.45 185.05
-9755078.05 5135834.11 182.60
-9755076.66 5135833.31 183.66
-9755079.06 5135831.38 186.50
-9755078.76 5135834.14 184.20
-9755078.43 5135834.54 182.37
-9755077.57 5135830.88 183.95
-9755077.31 5135833.26 183.81
-9755077.86 5135834.81 182.59
-9755076.73 5135826.71 184.94
-9755078.64 5135834.10 183.96
-9755077.65 5135833.99 182.66
-9755076.97 5135826.66 184.55
-9755077.85 5135834.03 185.41
-9755078.14 5135826.37 185.00
-9755077.28 5135828.88 183.46
-9755079.10 5135832.01 185.06
-9755079.99 5135833.62 184.23
-9755077.02 5135829.12 180.00
-9755078.16 5135834.19 183.90
-9755079.92 5135832.62 186.55
-9755076.64 5135827.90 183.36
-9755080.52 5135831.98 185.73
-9755079.85 5135833.76 180.45
-9755079.01 5135832.54 185.75
-9755076.36 5135827.40 184.01
-9755078.58 5135830.00 182.82
-9755078.42 5135834.84 184.63
-9755081.44 5135832.12 185.33
-9755079.03 5135832.80 185.40
-9755078.90 5135833.76 181.58
-9755078.99 5135830.03 183.82
-9755078.76 5135830.61 183.85
-9755077.65 5135827.95 183.76
-9755079.98 5135833.01 185.92
-9755077.19 5135828.00 183.04
-9755077.81 5135833.20 183.62
-9755077.87 5135835.10 182.64
-9755077.81 5135832.55 181.44
-9755079.38 5135832.63 184.30
-9755077.25 5135833.88 183.54
-9755075.50 5135827.63 184.12
-9755075.52 5135829.60 179.77
-9755076.14 5135827.37 184.03
-9755075.00 5135826.14 183.37
-9755075.23 5135827.35 184.88
-9755076.25 5135826.84 183.74
-9755076.05 5135829.07 179.94
-9755075.02 5135827.91 183.14
-9755074.95 5135827.57 184.53
-9755075.75 5135827.63 184.24
-9755074.95 5135827.33 183.48
-9755074.96 5135829.93 179.37
-9755075.26 5135827.56 185.10
-9755075.02 5135826.34 185.34
-9755076.18 5135827.36 184.35
-9755075.57 5135832.67 183.72
-9755074.93 5135826.47 183.02
-9755076.15 5135826.35 184.85
-9755074.94 5135834.37 179.71
-9755076.09 5135827.65 183.99
-9755075.83 5135828.50 184.14
-9755076.11 5135827.04 184.35
-9755075.80 5135827.91 184.73
-9755075.88 5135827.06 184.39
-9755074.88 5135827.05 184.79
-9755074.91 5135835.21 179.62
-9755075.85 5135832.08 183.41
-9755075.87 5135828.84 182.55
-9755075.55 5135827.00 183.95
-9755076.07 5135826.97 184.16
-9755075.62 5135832.44 183.66
-9755074.94 5135826.39 184.29
-9755074.99 5135827.72 181.70
-9755075.23 5135826.77 183.73
-9755074.89 5135826.84 181.50
-9755074.75 5135826.72 185.20
-9755074.69 5135827.19 184.49
-9755065.15 5135826.11 177.52
-9755066.32 5135830.86 177.53
-9755062.19 5135830.84 176.85
-9755069.93 5135827.90 178.34
-9755069.59 5135832.58 178.28
-9755069.57 5135826.68 178.24
-9755057.70 5135836.18 176.96
-9755060.45 5135827.55 176.86
-9755078.11 5135819.47 182.23
-9755076.61 5135824.71 183.26
-9755077.87 5135825.00 183.00
-9755077.22 5135824.38 181.27
-9755078.19 5135825.03 184.76
-9755076.57 5135824.75 183.83
-9755077.78 5135820.36 181.03
-9755077.91 5135819.82 182.25
-9755077.01 5135824.67 183.15
-9755077.00 5135819.40 181.75
-9755076.66 5135821.32 180.03
-9755077.40 5135820.96 182.76
-9755077.25 5135816.52 181.58
-9755081.45 5135819.70 181.83
-9755077.42 5135824.65 185.54
-9755076.94 5135824.56 183.99
-9755077.29 5135824.66 185.00
-9755076.54 5135824.96 183.82
-9755077.29 5135819.78 182.88
-9755077.00 5135824.21 181.95
-9755078.26 5135820.59 181.92
-9755078.21 5135825.57 184.68
-9755078.23 5135825.81 182.68
-9755076.97 5135825.83 184.02
-9755076.57 5135825.98 185.31
-9755077.61 5135825.79 185.00
-9755076.68 5135825.82 184.62
-9755077.27 5135825.78 185.41
-9755078.12 5135825.96 185.00
-9755076.37 5135824.29 184.23
-9755074.96 5135819.86 179.58
-9755076.14 5135824.98 183.52
-9755074.91 5135822.52 179.64
-9755075.91 5135824.15 184.19
-9755076.15 5135824.07 183.47
-9755076.16 5135823.41 179.76
-9755076.11 5135823.83 184.24
-9755075.26 5135822.49 179.66
-9755075.49 5135823.44 179.67
-9755075.30 5135824.29 184.24
-9755075.20 5135824.57 184.37
-9755076.15 5135818.37 179.70
-9755074.98 5135816.87 179.54
-9755075.26 5135824.14 184.16
-9755074.94 5135820.73 179.66
-9755074.97 5135825.14 185.62
-9755074.92 5135823.74 179.48
-9755074.98 5135825.33 183.35
-9755074.94 5135821.64 179.66
-9755074.11 5135819.56 179.61
-9755073.81 5135820.13 179.37
-9755074.04 5135823.39 179.54
-9755074.66 5135823.09 179.64
-9755074.09 5135821.57 179.46
-9755074.16 5135819.84 179.62
-9755074.36 5135820.14 179.52
-9755074.33 5135821.89 179.31
-9755075.61 5135825.18 185.39
-9755075.62 5135825.48 185.48
-9755074.84 5135825.87 184.65
-9755065.49 5135817.81 177.38
-9755064.68 5135825.01 176.92
-9755064.60 5135817.82 177.49
-9755071.99 5135816.89 178.79
-9755064.96 5135819.31 177.49
-9755064.64 5135818.41 177.49
-9755071.73 5135819.29 179.03
-9755063.44 5135821.37 176.74
-9755072.09 5135818.14 179.04
-9755069.57 5135820.18 178.22
-9755072.30 5135818.95 179.21
-9755067.60 5135817.25 177.72
-9755066.65 5135824.63 177.57
-9755063.40 5135821.70 176.74
-9755072.86 5135821.35 179.18
-9755071.40 5135819.25 178.89
-9755064.56 5135821.02 177.52
-9755071.97 5135818.43 179.20
-9755064.91 5135818.15 177.49
-9755064.69 5135825.85 176.95
-9755065.10 5135825.83 177.24
-9755072.29 5135825.47 178.88
-9755077.05 5135814.38 182.38
-9755080.26 5135815.39 180.62
-9755077.35 5135816.16 182.07
-9755078.88 5135815.52 181.34
-9755077.29 5135815.99 181.45
-9755077.64 5135814.43 181.79
-9755078.77 5135815.59 182.36
-9755078.17 5135815.31 182.42
-9755080.22 5135815.06 181.90
-9755078.27 5135815.34 182.13
-9755078.53 5135815.25 181.86
-9755077.36 5135814.76 180.97
-9755079.06 5135816.27 181.90
-9755078.27 5135815.01 182.21
-9755076.77 5135815.57 182.39
-9755078.27 5135815.90 182.46
-9755077.99 5135816.03 180.12
-9755077.94 5135813.50 182.29
-9755078.19 5135812.91 181.82
-9755079.91 5135812.86 183.24
-9755076.49 5135813.56 181.72
-9755081.48 5135812.79 180.83
-9755077.35 5135813.84 182.45
-9755081.20 5135813.46 182.98
-9755081.19 5135813.02 182.77
-9755081.46 5135813.88 180.87
-9755079.41 5135813.84 182.44
-9755081.20 5135813.60 182.81
-9755076.40 5135815.99 179.66
-9755076.18 5135814.40 182.13
-9755075.87 5135815.54 182.10
-9755076.13 5135814.50 181.48
-9755075.60 5135815.60 181.72
-9755075.68 5135814.43 180.74
-9755073.17 5135816.01 179.22
-9755072.38 5135816.60 178.88
-9755064.31 5135816.03 177.41
-9755072.90 5135815.69 179.07
-9755072.58 5135815.73 179.22
-9755073.20 5135815.10 179.16
-9755072.01 5135816.29 178.81
-9755072.34 5135816.29 179.22
-9755072.40 5135814.58 179.01
-9755076.15 5135813.84 181.04
-9755076.21 5135814.21 181.28
-9755076.46 5135813.82 182.11
-9755071.49 5135812.71 179.06
-9755069.11 5135813.99 178.11
-9755064.64 5135814.27 177.46
-9755071.99 5135812.81 179.19
-9755064.13 5135813.92 177.22
-9755072.10 5135812.73 179.24
-9755073.24 5135813.40 179.19
-9755070.63 5135812.73 178.84
-9755070.61 5135812.79 178.83
-9755072.66 5135813.90 179.24
-9755062.50 5135820.50 176.76
-9755061.36 5135817.79 176.78
-9755059.29 5135820.79 176.83
-9755057.20 5135821.66 176.86
-9755061.70 5135815.14 176.75
-9755053.06 5135830.76 176.97
-9755050.98 5135833.77 177.02
-9755054.61 5135819.27 176.88
-9755052.23 5135818.63 176.90
-9755046.08 5135814.77 176.83
-9755081.34 5135836.38 181.52
-9755078.41 5135838.73 181.01
-9755080.16 5135838.03 181.22
-9755081.02 5135835.94 181.86
-9755080.47 5135836.73 181.30
-9755079.27 5135837.48 181.39
-9755078.76 5135836.94 181.18
-9755079.60 5135838.11 181.12
-9755079.57 5135839.05 180.93
-9755078.98 5135836.39 181.18
-9755080.14 5135835.85 181.08
-9755080.66 5135836.98 180.88
-9755080.81 5135837.23 182.47
-9755080.14 5135836.70 181.38
-9755080.17 5135838.15 180.62
-9755078.42 5135837.81 181.06
-9755079.33 5135836.49 180.36
-9755078.80 5135838.05 181.21
-9755077.63 5135835.77 182.58
-9755081.40 5135838.45 181.64
-9755079.51 5135836.73 181.39
-9755080.47 5135838.77 181.73
-9755080.18 5135837.35 181.15
-9755078.76 5135838.76 180.90
-9755080.89 5135836.70 181.04
-9755078.65 5135838.17 180.23
-9755075.11 5135836.37 179.59
-9755074.86 5135838.51 179.75
-9755075.69 5135837.58 179.75
-9755075.11 5135837.23 180.09
-9755075.03 5135836.93 179.95
-9755075.63 5135836.53 180.03
-9755075.33 5135837.28 180.09
-9755074.31 5135836.78 179.80
-9755074.22 5135838.47 179.75
-9755074.58 5135835.80 179.77
-9755073.95 5135836.68 179.92
-9755074.33 5135835.84 179.77
-9755074.18 5135837.92 179.86
-9755073.38 5135837.03 179.90
-9755074.25 5135838.76 179.70
-9755073.95 5135837.04 179.50
-9755073.95 5135838.86 179.72
-9755073.41 5135838.68 179.57
-9755073.96 5135835.79 179.23
-9755074.42 5135837.24 179.90
-9755073.42 5135836.98 179.66
-9755073.57 5135836.90 179.69
-9755074.57 5135836.36 179.79
-9755073.41 5135838.52 179.64
-9755073.76 5135837.23 179.75
-9755073.41 5135835.88 179.67
-9755070.67 5135837.04 178.53
-9755070.41 5135836.75 178.45
-9755068.36 5135836.76 177.96
-9755063.59 5135837.94 176.85
-9755065.07 5135838.25 177.62
-9755061.83 5135837.66 176.91
-9755066.58 5135835.60 177.56
-9755065.39 5135835.90 177.55
-9755069.84 5135838.52 178.34
-9755062.42 5135838.56 176.91
-9755073.05 5135838.23 179.06
-9755073.08 5135837.47 179.21
-9755066.60 5135836.18 177.58
-9755062.44 5135837.33 176.89
-9755073.20 5135837.90 179.45
-9755067.73 5135837.37 177.81
-9755066.28 5135837.40 177.53
-9755078.06 5135831.82 186.21
-9755081.43 5135834.10 184.55
-9755078.46 5135827.77 181.32
-9755079.28 5135831.71 185.93
-9755076.70 5135829.03 183.33
-9755079.40 5135830.12 183.27
-9755079.28 5135831.14 185.91
-9755077.29 5135827.66 183.63
-9755081.43 5135833.62 183.03
-9755080.83 5135834.01 183.03
-9755081.14 5135832.45 184.08
-9755078.82 5135826.71 184.74
-9755077.23 5135833.89 183.56
-9755077.64 5135831.97 186.56
-9755078.18 5135826.48 184.05
-9755080.15 5135835.69 182.66
-9755078.52 5135830.97 185.70
-9755079.94 5135831.07 185.87
-9755080.80 5135832.90 185.78
-9755080.56 5135832.70 184.94
-9755079.72 5135834.55 183.78
-9755079.34 5135833.78 186.00
-9755080.80 5135833.47 183.11
-9755080.15 5135832.56 184.07
-9755080.45 5135833.78 184.50
-9755076.65 5135832.72 182.51
-9755077.28 5135827.31 183.70
-9755077.58 5135833.94 182.73
-9755079.10 5135826.23 182.68
-9755078.46 5135832.40 185.56
-9755079.88 5135828.98 180.40
-9755078.18 5135830.63 184.25
-9755077.22 5135832.32 185.70
-9755081.36 5135834.24 183.01
-9755077.82 5135826.99 184.92
-9755077.55 5135834.77 183.32
-9755076.74 5135827.32 185.34
-9755078.09 5135827.35 184.89
-9755080.90 5135833.17 185.28
-9755080.21 5135832.30 185.66
-9755079.64 5135835.08 184.44
-9755081.30 5135833.29 183.24
-9755076.71 5135828.06 182.71
-9755077.66 5135827.60 184.81
-9755079.10 5135827.01 184.49
-9755078.74 5135832.07 184.86
-9755078.14 5135827.62 185.68
-9755079.92 5135832.01 185.93
-9755079.30 5135826.53 182.25
-9755081.40 5135832.31 185.24
-9755080.56 5135832.72 184.40
-9755078.40 5135833.83 185.62
-9755080.46 5135832.16 184.84
-9755078.59 5135826.30 182.47
-9755079.62 5135835.07 182.37
-9755080.14 5135832.35 183.67
-9755081.34 5135833.03 185.62
-9755079.20 5135826.80 184.63
-9755079.77 5135831.09 182.08
-9755078.44 5135828.27 183.61
-9755080.55 5135832.35 185.62
-9755081.43 5135830.20 181.79
-9755079.34 5135835.46 182.48
-9755079.88 5135829.90 180.35
-9755080.45 5135832.65 186.35
-9755076.74 5135832.59 186.09
-9755079.31 5135834.83 182.01
-9755080.51 5135833.16 186.50
-9755077.21 5135829.02 180.24
-9755078.77 5135829.41 182.84
-9755081.34 5135834.79 183.21
-9755078.85 5135831.02 183.06
-9755078.26 5135832.52 187.14
-9755078.76 5135826.51 184.32
-9755077.58 5135826.97 186.11
-9755077.55 5135827.61 183.52
-9755079.90 5135831.96 186.62
-9755076.91 5135830.91 183.15
-9755076.71 5135828.58 183.18
-9755079.64 5135834.84 182.28
-9755077.86 5135827.68 183.63
-9755079.14 5135831.38 186.02
-9755076.87 5135829.41 183.08
-9755076.63 5135828.93 182.39
-9755077.87 5135827.58 183.96
-9755078.84 5135832.67 185.73
-9755078.33 5135828.52 183.61
-9755077.31 5135828.69 180.23
-9755079.72 5135832.63 186.09
-9755079.94 5135835.21 182.68
-9755079.24 5135826.27 182.53
-9755078.33 5135834.74 184.75
-9755080.83 5135833.24 186.16
-9755078.80 5135826.17 183.13
-9755079.15 5135833.47 185.27
-9755079.66 5135830.57 183.69
-9755076.89 5135826.19 186.23
-9755077.83 5135834.12 184.20
-9755078.42 5135834.43 183.93
-9755078.68 5135834.81 184.45
-9755078.54 5135828.78 184.17
-9755080.80 5135833.52 184.40
-9755078.91 5135828.29 183.74
-9755078.27 5135827.60 183.30
-9755077.29 5135833.14 186.20
-9755079.57 5135835.13 181.05
-9755079.35 5135827.51 180.27
-9755077.67 5135831.26 185.52
-9755077.53 5135828.91 183.95
-9755077.28 5135828.24 183.21
-9755079.05 5135827.80 184.54
-9755080.55 5135833.56 184.36
-9755077.15 5135826.56 185.91
-9755077.56 5135826.46 183.38
-9755079.30 5135831.66 185.78
-9755077.53 5135831.17 185.25
-9755077.23 5135833.05 182.75
-9755080.07 5135833.20 186.05
-9755079.97 5135830.59 182.91
-9755078.53 5135833.71 186.54
-9755077.89 5135832.01 184.80
-9755077.07 5135827.01 185.30
-9755077.56 5135831.15 183.97
-9755077.50 5135832.17 186.27
-9755078.71 5135831.95 185.65
-9755079.34 5135829.26 180.26
-9755077.52 5135834.21 182.73
-9755077.22 5135834.75 183.31
-9755080.43 5135830.75 180.51
-9755078.81 5135834.07 185.01
-9755077.48 5135834.40 183.81
-9755077.83 5135833.96 183.24
-9755078.53 5135829.83 182.84
-9755080.71 5135832.64 184.45
-9755080.83 5135833.84 184.59
-9755078.51 5135833.38 183.21
-9755079.10 5135829.78 183.14
-9755078.98 5135833.84 182.59
-9755076.40 5135833.19 184.02
-9755079.35 5135834.43 185.11
-9755080.79 5135832.27 180.62
-9755077.86 5135828.29 181.51
-9755077.59 5135826.95 182.66
-9755078.83 5135827.01 183.99
-9755080.33 5135833.51 185.24
-9755076.74 5135828.22 184.97
-9755078.39 5135832.81 186.16
-9755079.78 5135834.35 182.81
-9755077.02 5135827.60 185.05
-9755079.92 5135835.04 184.50
-9755078.45 5135826.44 184.11
-9755079.06 5135826.41 184.84
-9755078.14 5135828.58 183.22
-9755079.77 5135827.35 183.30
-9755078.44 5135826.26 181.87
-9755081.36 5135833.83 182.99
-9755077.28 5135827.45 181.86
-9755080.47 5135831.27 183.82
-9755080.78 5135831.63 186.17
-9755077.21 5135828.22 182.96
-9755077.24 5135834.82 182.38
-9755079.02 5135827.81 180.14
-9755078.09 5135833.06 182.33
-9755079.97 5135833.75 186.13
-9755079.31 5135826.84 183.24
-9755077.61 5135831.05 185.65
-9755077.28 5135826.42 184.50
-9755080.43 5135831.80 185.04
-9755079.56 5135829.82 183.52
-9755080.51 5135833.92 183.07
-9755077.77 5135826.77 183.88
-9755079.93 5135831.39 186.10
-9755077.80 5135833.13 185.78
-9755079.64 5135832.66 183.12
-9755078.62 5135832.74 184.39
-9755079.56 5135834.07 180.35
-9755080.52 5135832.11 185.89
-9755079.27 5135834.97 180.30
-9755078.84 5135826.97 180.15
-9755080.47 5135831.48 183.67
-9755077.90 5135827.80 184.97
-9755079.36 5135835.28 184.02
-9755076.71 5135828.52 180.05
-9755078.71 5135833.24 184.43
-9755078.20 5135834.01 185.76
-9755077.04 5135827.73 182.92
-9755080.77 5135832.31 186.46
-9755078.12 5135831.15 183.77
-9755078.37 5135831.69 185.27
-9755077.64 5135831.39 184.81
-9755078.07 5135833.53 185.84
-9755076.32 5135829.29 179.95
-9755080.27 5135829.92 180.46
-9755079.64 5135831.40 185.05
-9755079.96 5135832.78 186.50
-9755079.93 5135833.97 183.60
-9755080.28 5135835.05 185.25
-9755078.26 5135832.31 185.90
-9755080.86 5135834.43 184.94
-9755077.24 5135832.00 185.56
-9755079.90 5135826.85 180.84
-9755080.70 5135834.22 182.81
-9755080.53 5135830.74 182.42
-9755077.43 5135832.57 186.23
-9755079.96 5135833.28 183.96
-9755078.19 5135833.19 186.09
-9755078.11 5135831.64 185.25
-9755077.01 5135833.63 182.63
-9755080.60 5135832.25 185.41
-9755079.89 5135834.67 180.45
-9755080.16 5135834.18 183.30
-9755077.48 5135829.44 183.25
-9755077.28 5135832.19 186.63
-9755078.14 5135826.12 185.39
-9755079.87 5135834.34 180.44
-9755077.23 5135828.82 183.95
-9755078.45 5135827.85 184.08
-9755079.26 5135832.54 185.58
-9755080.20 5135831.55 184.21
-9755078.90 5135832.26 185.19
-9755077.00 5135833.03 183.93
-9755077.80 5135829.18 183.84
-9755078.20 5135827.24 179.98
-9755078.42 5135828.13 180.05
-9755078.15 5135833.44 186.53
-9755080.58 5135831.32 182.55
-9755078.78 5135831.10 185.40
-9755078.08 5135828.03 182.22
-9755078.56 5135826.34 185.17
-9755076.83 5135831.64 185.68
-9755076.68 5135828.48 183.90
-9755078.75 5135825.97 181.84
-9755080.17 5135832.27 186.64
-9755080.53 5135832.45 182.93
-9755076.99 5135828.49 183.91
-9755078.99 5135831.09 185.86
-9755080.54 5135834.48 183.76
-9755080.81 5135833.04 184.97
-9755080.80 5135833.41 186.44
-9755081.32 5135833.71 180.75
-9755078.50 5135829.77 183.06
-9755079.62 5135834.59 183.29
-9755078.82 5135833.23 185.68
-9755078.71 5135833.48 185.61
-9755078.73 5135827.40 183.25
-9755077.69 5135831.74 186.18
-9755079.31 5135830.67 183.06
-9755079.65 5135831.43 186.29
-9755079.10 5135829.79 182.59
-9755081.44 5135834.22 181.93
-9755077.37 5135826.95 179.88
-9755080.47 5135832.60 185.36
-9755080.82 5135833.70 185.85
-9755079.03 5135832.06 185.89
-9755078.81 5135834.73 185.09
-9755077.85 5135833.89 182.44
-9755078.48 5135826.27 182.74
-9755078.54 5135826.73 182.32
-9755076.73 5135827.61 185.45
-9755076.21 5135826.70 186.19
-9755076.41 5135827.59 185.82
-9755076.32 5135834.92 179.71
-9755075.06 5135827.27 184.76
-9755075.57 5135828.28 181.65
-9755074.56 5135834.33 179.74
-9755075.82 5135828.63 182.84
-9755075.59 5135826.29 182.79
-9755075.57 5135828.46 184.10
-9755075.54 5135828.19 184.44
-9755075.86 5135827.34 184.09
-9755075.06 5135826.57 185.72
-9755075.86 5135826.80 184.49
-9755075.16 5135830.49 179.74
-9755075.29 5135826.47 183.76
-9755075.76 5135828.25 183.25
-9755074.96 5135828.16 185.00
-9755074.64 5135834.04 179.80
-9755076.26 5135826.98 186.07
-9755076.11 5135826.18 183.87
-9755075.14 5135829.47 179.77
-9755075.24 5135826.61 185.26
-9755075.82 5135828.53 182.45
-9755076.01 5135832.69 183.67
-9755075.50 5135826.96 184.03
-9755075.86 5135828.20 183.87
-9755075.88 5135826.20 185.54
-9755076.12 5135828.80 184.17
-9755075.95 5135828.87 183.22
-9755075.02 5135826.75 183.64
-9755075.51 5135828.74 184.23
-9755075.17 5135826.49 184.22
-9755075.56 5135827.84 185.12
-9755075.11 5135835.46 179.71
-9755076.17 5135832.45 186.33
-9755074.07 5135835.40 179.92
-9755074.56 5135835.22 179.70
-9755074.31 5135835.29 179.39
-9755074.45 5135827.63 184.90
-9755073.52 5135835.29 179.83
-9755074.77 5135829.93 179.52
-9755074.44 5135827.04 184.84
-9755073.66 5135834.05 179.16
-9755073.96 5135834.64 179.21
-9755073.66 5135833.51 179.16
-9755065.14 5135831.14 177.58
-9755066.02 5135834.08 177.50
-9755072.85 5135828.44 179.00
-9755071.88 5135831.39 178.79
-9755064.25 5135831.42 176.79
-9755064.83 5135831.14 177.58
-9755066.60 5135828.46 177.56
-9755063.97 5135831.76 176.80
-9755065.22 5135826.10 177.48
-9755067.76 5135834.37 177.78
-9755064.80 5135834.06 177.60
-9755065.76 5135827.89 177.44
-9755071.64 5135833.48 178.73
-9755067.23 5135826.08 177.64
-9755063.32 5135833.50 176.84
-9755072.82 5135832.33 179.01
-9755071.29 5135835.01 178.67
-9755063.95 5135834.13 176.81
-9755068.35 5135834.42 177.97
-9755065.73 5135826.10 177.44
-9755068.36 5135833.20 177.98
-9755068.46 5135826.69 177.95
-9755064.55 5135827.32 177.55
-9755063.38 5135832.32 176.83
-9755066.59 5135832.32 177.56
-9755063.69 5135826.08 176.76
-9755064.85 5135828.77 177.57
-9755071.67 5135827.55 178.72
-9755071.90 5135830.82 178.79
-9755065.72 5135831.12 177.46
-9755062.46 5135829.41 176.83
-9755069.91 5135830.57 178.31
-9755072.19 5135833.51 178.85
-9755062.50 5135827.93 176.81
-9755071.03 5135826.39 178.58
-9755065.39 5135833.51 177.56
-9755068.96 5135830.53 178.12
-9755071.64 5135835.52 178.74
-9755067.19 5135829.07 177.64
-9755064.84 5135829.34 177.57
-9755060.96 5135838.82 176.92
-9755057.66 5135837.35 176.98
-9755057.73 5135837.63 176.97
-9755060.68 5135838.85 176.93
-9755056.84 5135837.94 177.00
-9755055.09 5135837.31 177.01
-9755050.37 5135837.89 177.02
-9755048.59 5135837.27 177.01
-9755050.65 5135837.30 177.02
-9755049.79 5135837.29 177.01
-9755051.81 5135837.90 177.04
-9755052.99 5135838.18 177.03
-9755054.15 5135837.28 177.01
-9755048.29 5135837.27 177.01
-9755045.92 5135835.80 176.97
-9755046.78 5135838.20 176.99
-9755046.47 5135837.25 176.99
-9755046.79 5135839.01 177.01
-9755038.58 5135838.45 176.87
-9755038.34 5135837.26 177.44
-9755038.23 5135836.90 176.87
-9755038.54 5135839.02 177.36
-9755038.51 5135836.62 177.53
-9755038.56 5135838.02 177.98
-9755043.02 5135838.18 176.94
-9755038.83 5135836.56 177.35
-9755038.59 5135837.25 176.85
-9755037.99 5135836.30 177.96
-9755037.98 5135836.00 177.95
-9755038.25 5135835.53 176.83
-9755038.81 5135838.97 177.96
-9755043.87 5135839.05 176.96
-9755037.04 5135837.78 177.17
-9755035.89 5135836.61 177.19
-9755037.12 5135836.92 177.15
-9755037.06 5135838.72 177.17
-9755036.79 5135838.08 177.17
-9755037.08 5135838.13 177.17
-9755062.23 5135828.51 176.84
-9755060.98 5135834.37 176.89
-9755061.05 5135826.11 176.84
-9755059.87 5135829.94 176.89
-9755058.67 5135827.86 176.90
-9755059.27 5135827.86 176.88
-9755060.11 5135828.50 176.88
-9755058.93 5135832.61 176.92
-9755057.75 5135830.85 176.92
-9755058.60 5135832.93 176.92
-9755058.33 5135828.45 176.90
-9755057.76 5135829.37 176.92
-9755059.26 5135827.30 176.88
-9755058.34 5135827.01 176.89
-9755060.69 5135833.23 176.89
-9755056.89 5135826.08 176.91
-9755057.18 5135830.84 176.94
-9755055.08 5135834.95 177.00
-9755053.29 5135834.00 176.99
-9755052.73 5135835.25 177.01
-9755052.76 5135827.50 176.96
-9755050.09 5135829.90 176.98
-9755056.00 5135829.32 176.95
-9755049.79 5135830.82 176.98
-9755050.36 5135829.04 176.97
-9755048.62 5135835.54 176.99
-9755053.07 5135833.20 176.99
-9755052.80 5135827.83 176.96
-9755051.87 5135829.91 176.98
-9755057.42 5135834.08 176.96
-9755050.12 5135826.08 176.95
-9755050.96 5135835.25 177.03
-9755048.00 5135834.03 176.98
-9755049.55 5135827.83 176.95
-9755055.97 5135832.60 176.97
-9755049.24 5135827.19 176.94
-9755057.47 5135827.25 176.91
-9755056.92 5135830.50 176.94
-9755053.89 5135834.03 176.99
-9755050.71 5135828.40 176.98
-9755056.93 5135827.01 176.91
-9755048.36 5135826.08 176.93
-9755047.38 5135831.68 176.96
-9755048.86 5135829.89 176.96
-9755049.17 5135834.63 177.00
-9755053.95 5135827.50 176.94
-9755048.32 5135833.45 176.97
-9755052.47 5135828.70 176.96
-9755056.58 5135829.92 176.94
-9755053.63 5135831.67 176.97
-9755048.91 5135826.89 176.93
-9755050.09 5135833.14 177.00
-9755055.39 5135832.00 176.96
-9755052.13 5135834.94 177.02
-9755048.92 5135834.03 176.99
-9755055.39 5135834.09 176.99
-9755053.32 5135833.44 176.99
-9755051.29 5135828.11 176.97
-9755045.41 5135832.54 176.93
-9755045.38 5135831.61 176.93
-9755046.84 5135832.25 176.96
-9755044.24 5135829.27 176.90
-9755047.48 5135827.50 176.93
-9755045.98 5135828.97 176.93
-9755044.77 5135831.61 176.92
-9755046.33 5135825.99 176.90
-9755046.58 5135827.54 176.91
-9755044.16 5135834.89 176.94
-9755045.40 5135825.99 176.90
-9755045.71 5135828.37 176.91
-9755044.50 5135831.95 176.92
-9755041.83 5135827.18 176.84
-9755038.57 5135832.49 177.39
-9755038.56 5135831.32 176.83
-9755038.32 5135826.85 176.96
-9755038.59 5135831.93 176.83
-9755038.40 5135833.06 176.98
-9755044.20 5135828.09 176.88
-9755038.88 5135830.71 176.79
-9755038.30 5135831.89 177.35
-9755038.33 5135826.84 177.91
-9755040.33 5135835.16 176.86
-9755038.55 5135834.83 176.88
-9755038.32 5135826.05 176.83
-9755044.22 5135827.46 176.89
-9755039.47 5135830.74 176.80
-9755038.36 5135830.03 177.60
-9755042.70 5135834.30 176.90
-9755038.34 5135831.61 177.37
-9755042.10 5135834.86 176.91
-9755038.36 5135829.58 177.36
-9755043.59 5135830.44 176.89
-9755038.34 5135826.63 176.84
-9755038.33 5135828.88 177.49
-9755038.31 5135830.68 177.92
-9755043.89 5135832.52 176.91
-9755038.86 5135833.71 176.82
-9755043.03 5135830.19 176.89
-9755038.38 5135830.48 177.39
-9755039.00 5135830.03 177.21
-9755038.31 5135826.61 177.35
-9755041.87 5135829.25 176.87
-9755040.07 5135827.48 176.81
-9755038.34 5135828.11 177.34
-9755041.82 5135830.74 176.87
-9755038.59 5135834.55 177.94
-9755040.04 5135834.88 176.85
-9755039.50 5135830.16 176.81
-9755038.31 5135827.54 177.21
-9755038.13 5135833.10 177.21
-9755038.38 5135834.48 177.52
-9755041.26 5135827.73 176.85
-9755043.37 5135829.22 176.89
-9755040.32 5135831.62 176.84
-9755041.79 5135832.54 176.88
-9755037.96 5135833.92 177.93
-9755037.93 5135828.03 177.05
-9755036.23 5135826.84 177.10
-9755036.24 5135829.49 177.13
-9755036.24 5135830.71 177.13
-9755037.42 5135828.38 177.11
-9755037.22 5135833.53 177.63
-9755037.35 5135834.87 177.14
-9755037.10 5135832.76 177.13
-9755037.73 5135831.23 177.93
-9755035.05 5135830.68 177.16
-9755038.01 5135826.75 177.32
-9755034.70 5135838.07 177.23
-9755032.37 5135837.45 177.27
-9755032.68 5135838.36 177.28
-9755029.98 5135838.34 177.32
-9755030.31 5135836.26 177.29
-9755028.86 5135837.15 177.33
-9755029.11 5135835.66 177.31
-9755032.03 5135838.63 177.29
-9755035.07 5135830.96 177.17
-9755033.91 5135828.29 177.19
-9755034.25 5135825.96 177.16
-9755033.88 5135830.65 177.21
-9755034.72 5135833.92 177.20
-9755033.90 5135828.63 177.19
-9755030.63 5135828.61 177.26
-9755029.44 5135832.42 177.30
-9755032.72 5135825.93 177.18
-9755030.63 5135832.46 177.27
-9755031.22 5135833.91 177.27
-9755028.82 5135831.86 177.30
-9755028.83 5135829.77 177.28
-9755031.81 5135830.68 177.24
-9755029.79 5135827.40 177.25
-9755032.97 5135828.03 177.20
-9755032.01 5135834.82 177.26
-9755029.20 5135826.74 177.26
-9755077.69 5135824.71 183.46
-9755079.96 5135821.01 180.41
-9755077.00 5135819.48 182.38
-9755077.30 5135825.30 183.17
-9755081.47 5135818.55 183.15
-9755077.32 5135824.93 184.90
-9755076.71 5135823.41 179.76
-9755077.92 5135819.46 182.26
-9755076.65 5135824.43 184.26
-9755080.92 5135819.77 181.78
-9755076.81 5135824.27 182.26
-9755077.52 5135819.48 182.20
-9755079.90 5135819.78 182.02
-9755077.38 5135824.11 183.87
-9755078.17 5135819.81 180.66
-9755077.61 5135824.98 184.17
-9755077.22 5135824.43 183.48
-9755077.38 5135819.26 181.07
-9755078.30 5135820.74 181.48
-9755076.71 5135819.57 179.73
-9755077.92 5135816.86 180.05
-9755077.54 5135824.87 184.88
-9755080.54 5135818.56 182.99
-9755077.47 5135824.71 184.26
-9755080.94 5135819.14 182.32
-9755077.53 5135821.06 179.89
-9755076.68 5135822.47 179.77
-9755080.31 5135816.83 180.62
-9755079.36 5135825.27 183.13
-9755078.45 5135825.28 183.70
-9755076.75 5135819.06 182.86
-9755077.63 5135820.36 181.05
-9755078.36 5135825.30 182.87
-9755080.59 5135819.48 181.89
-9755077.34 5135820.02 182.36
-9755077.31 5135825.23 181.76
-9755076.41 5135821.92 180.02
-9755078.21 5135817.44 180.09
-9755078.39 5135824.90 184.86
-9755080.52 5135818.22 182.40
-9755078.77 5135820.45 181.60
-9755077.86 5135824.73 182.76
-9755078.73 5135825.31 184.90
-9755078.80 5135824.97 182.32
-9755077.28 5135820.74 179.85
-9755081.41 5135819.22 180.87
-9755077.60 5135819.61 183.29
-9755081.21 5135818.22 183.09
-9755077.99 5135824.98 181.98
-9755078.29 5135820.05 181.57
-9755078.76 5135825.39 183.22
-9755079.05 5135818.94 180.25
-9755077.92 5135820.26 182.17
-9755077.57 5135825.14 186.27
-9755079.12 5135824.81 182.38
-9755077.62 5135818.68 179.94
-9755077.64 5135825.25 184.16
-9755078.17 5135820.97 181.01
-9755081.42 5135823.07 180.74
-9755079.05 5135823.10 180.21
-9755080.54 5135819.81 181.92
-9755080.61 5135818.93 181.62
-9755077.36 5135816.60 179.87
-9755077.30 5135824.14 183.61
-9755078.15 5135820.13 181.08
-9755081.33 5135822.21 181.09
-9755077.85 5135821.02 179.98
-9755077.29 5135816.90 181.88
-9755077.64 5135824.12 183.89
-9755080.95 5135821.40 181.13
-9755077.94 5135825.83 184.44
-9755078.96 5135825.68 181.36
-9755079.36 5135825.40 182.39
-9755077.95 5135825.64 182.24
-9755076.74 5135825.51 184.73
-9755076.65 5135826.04 179.61
-9755077.51 5135825.17 184.63
-9755078.73 5135825.82 183.94
-9755076.66 5135825.78 185.18
-9755077.99 5135825.37 186.36
-9755077.64 5135825.78 185.75
-9755076.48 5135825.58 183.90
-9755079.70 5135825.62 183.12
-9755076.99 5135825.78 184.58
-9755077.55 5135825.19 179.85
-9755075.84 5135823.12 179.62
-9755075.79 5135824.48 183.89
-9755075.48 5135820.37 179.73
-9755075.90 5135824.01 184.90
-9755076.51 5135816.52 181.00
-9755075.50 5135820.15 179.66
-9755075.22 5135821.90 179.59
-9755075.09 5135823.54 184.04
-9755075.56 5135825.12 184.01
-9755076.13 5135821.33 179.95
-9755075.54 5135823.10 179.74
-9755076.48 5135824.93 185.43
-9755075.79 5135817.20 179.51
-9755075.84 5135824.13 184.59
-9755075.87 5135820.10 179.84
-9755075.20 5135818.67 179.42
-9755075.56 5135818.65 179.46
-9755075.34 5135824.17 184.39
-9755075.54 5135821.65 179.71
-9755075.19 5135824.44 184.39
-9755075.19 5135820.18 179.49
-9755075.25 5135824.25 182.71
-9755076.12 5135824.32 183.75
-9755076.08 5135825.20 185.49
-9755075.54 5135825.46 185.26
-9755074.03 5135817.17 179.38
-9755073.81 5135821.05 179.52
-9755073.52 5135818.68 179.15
-9755073.76 5135821.63 179.47
-9755073.75 5135822.76 179.45
-9755074.01 5135823.13 179.36
-9755074.91 5135819.88 179.72
-9755073.47 5135819.56 179.10
-9755073.47 5135821.06 179.45
-9755073.47 5135821.96 179.35
-9755073.45 5135818.40 179.27
-9755074.50 5135820.11 179.63
-9755073.50 5135819.27 179.12
-9755075.89 5135825.88 184.29
-9755075.14 5135825.19 185.97
-9755075.68 5135825.56 185.55
-9755075.01 5135825.65 184.83
-9755072.61 5135818.37 179.20
-9755065.10 5135824.60 176.93
-9755072.63 5135817.78 179.21
-9755072.23 5135818.12 179.11
-9755066.66 5135822.82 177.55
-9755064.03 5135819.62 176.71
-9755071.66 5135818.99 179.05
-9755072.88 5135820.39 179.16
-9755066.36 5135816.93 177.49
-9755064.92 5135818.97 177.48
-9755067.53 5135822.55 177.71
-9755071.96 5135821.08 179.07
-9755073.10 5135821.42 179.29
-9755065.78 5135821.06 177.44
-9755071.65 5135818.72 179.08
-9755063.99 5135821.14 176.72
-9755072.28 5135817.69 178.97
-9755064.05 5135817.54 176.69
-9755063.44 5135819.03 176.72
-9755071.59 5135822.76 178.84
-9755072.85 5135821.59 179.33
-9755066.35 5135824.33 177.52
-9755064.36 5135821.96 177.52
-9755064.80 5135818.61 176.85
-9755064.14 5135818.05 177.48
-9755072.56 5135820.46 178.90
-9755063.12 5135824.34 176.77
-9755064.89 5135821.62 177.49
-9755069.33 5135817.53 178.16
-9755070.51 5135816.87 178.49
-9755068.43 5135822.83 177.96
-9755071.41 5135818.41 179.00
-9755070.47 5135822.53 178.47
-9755068.14 5135819.57 177.82
-9755065.24 5135825.54 177.46
-9755065.74 5135825.81 177.44
-9755064.86 5135825.88 176.70
-9755077.96 5135816.18 181.94
-9755077.91 5135815.23 182.31
-9755077.81 5135816.50 180.84
-9755079.18 5135816.18 182.33
-9755077.68 5135816.19 182.04
-9755079.72 5135814.47 182.32
-9755079.29 5135815.85 182.37
-9755077.96 5135814.46 181.81
-9755077.18 5135814.87 180.67
-9755078.85 5135816.26 180.84
-9755079.15 5135814.71 182.42
-9755076.83 5135815.33 181.96
-9755077.89 5135816.18 180.09
-9755077.36 5135814.76 181.76
-9755077.97 5135815.00 182.37
-9755078.51 5135816.41 182.38
-9755077.01 5135816.08 181.45
-9755080.59 5135815.14 181.21
-9755076.75 5135814.39 182.34
-9755079.14 5135815.05 181.81
-9755080.34 5135816.12 181.41
-9755076.75 5135815.13 179.78
-9755076.49 5135814.93 181.60
-9755078.50 5135815.32 182.68
-9755079.51 5135816.26 181.81
-9755080.39 5135815.88 182.43
-9755078.80 5135815.85 182.65
-9755080.21 5135815.40 181.83
-9755078.72 5135815.85 181.86
-9755079.31 5135814.98 182.37
-9755076.78 5135814.96 182.32
-9755076.94 5135816.04 182.37
-9755078.82 5135816.28 180.26
-9755078.77 5135816.44 182.00
-9755078.82 5135816.21 182.52
-9755078.80 5135815.32 182.46
-9755080.27 5135814.84 181.97
-9755079.67 5135816.42 182.26
-9755080.90 5135804.59 182.16
-9755080.97 5135803.81 183.19
-9755080.63 5135802.65 180.75
-9755081.22 5135809.72 181.74
-9755080.63 5135804.69 181.27
-9755077.63 5135810.98 179.78
-9755080.50 5135804.43 181.34
-9755080.43 5135805.00 181.10
-9755080.94 5135806.81 180.76
-9755079.81 5135809.03 181.17
-9755080.57 5135805.91 181.07
-9755080.44 5135808.26 181.09
-9755079.48 5135807.78 180.39
-9755077.68 5135801.20 180.04
-9755080.95 5135805.88 181.43
-9755079.81 5135808.73 181.87
-9755080.00 5135810.30 182.47
-9755080.39 5135810.24 181.21
-9755080.33 5135808.64 181.12
-9755080.65 5135801.95 183.26
-9755080.12 5135805.58 181.46
-9755078.39 5135800.01 181.13
-9755080.42 5135807.61 181.70
-9755080.39 5135804.97 181.83
-9755079.92 5135805.56 180.75
-9755080.55 5135810.01 181.90
-9755080.38 5135803.45 183.31
-9755076.82 5135799.21 182.28
-9755080.06 5135805.55 182.44
-9755077.46 5135799.99 180.51
-9755080.46 5135800.38 184.22
-9755081.23 5135802.53 183.22
-9755079.05 5135810.02 183.33
-9755080.66 5135810.58 181.71
-9755077.35 5135799.30 180.47
-9755079.21 5135804.67 182.75
-9755076.87 5135807.00 180.14
-9755078.32 5135799.99 181.50
-9755079.53 5135810.50 184.18
-9755079.72 5135809.65 182.44
-9755080.99 5135799.20 183.62
-9755081.22 5135801.98 183.16
-9755079.55 5135808.83 182.35
-9755079.37 5135806.43 181.95
-9755079.49 5135804.63 182.40
-9755080.54 5135807.87 181.59
-9755079.78 5135805.86 182.07
-9755081.27 5135810.29 182.50
-9755080.95 5135798.93 183.63
-9755079.98 5135804.53 181.88
-9755079.81 5135804.95 182.27
-9755080.63 5135801.74 182.63
-9755079.51 5135808.55 181.44
-9755080.47 5135800.51 184.72
-9755080.01 5135800.09 184.35
-9755079.23 5135800.27 180.69
-9755079.26 5135805.88 181.59
-9755079.73 5135809.29 184.12
-9755077.89 5135799.51 182.32
-9755080.63 5135807.12 180.52
-9755078.74 5135809.50 184.04
-9755079.17 5135808.85 181.44
-9755081.22 5135803.39 183.27
-9755080.06 5135804.99 182.53
-9755080.87 5135811.38 183.58
-9755077.88 5135800.21 181.51
-9755078.84 5135810.30 180.13
-9755076.82 5135807.23 183.32
-9755076.87 5135799.24 181.94
-9755080.03 5135806.22 180.49
-9755079.92 5135809.60 181.97
-9755080.07 5135799.38 180.67
-9755079.21 5135810.90 182.46
-9755080.06 5135805.93 180.51
-9755081.34 5135809.30 182.69
-9755080.04 5135810.53 182.70
-9755076.92 5135799.34 180.52
-9755079.79 5135805.53 181.29
-9755079.51 5135810.27 181.94
-9755081.02 5135801.42 182.01
-9755079.98 5135805.68 181.92
-9755080.90 5135799.64 181.74
-9755078.65 5135810.23 182.66
-9755080.30 5135809.50 183.37
-9755078.92 5135808.56 181.72
-9755077.98 5135808.01 179.35
-9755077.39 5135803.86 179.79
-9755080.69 5135802.19 183.53
-9755080.38 5135805.99 181.90
-9755080.88 5135806.80 182.37
-9755079.94 5135809.59 183.09
-9755080.68 5135799.76 183.97
-9755079.85 5135805.32 181.58
-9755080.58 5135805.47 182.02
-9755079.98 5135807.97 181.90
-9755081.47 5135810.84 183.39
-9755079.47 5135804.86 181.85
-9755080.92 5135800.13 183.97
-9755080.84 5135799.28 182.36
-9755081.26 5135806.74 181.32
-9755077.38 5135807.30 179.79
-9755080.39 5135802.55 182.93
-9755079.42 5135806.09 182.85
-9755081.03 5135801.03 184.65
-9755079.14 5135808.67 179.96
-9755080.35 5135806.21 180.55
-9755079.52 5135806.05 181.61
-9755080.73 5135808.63 181.14
-9755080.36 5135809.96 182.57
-9755080.97 5135804.63 182.64
-9755079.14 5135809.69 182.88
-9755081.18 5135801.63 181.57
-9755077.26 5135800.10 181.75
-9755078.30 5135809.98 182.24
-9755080.84 5135808.82 181.87
-9755081.49 5135811.55 180.82
-9755080.33 5135801.94 183.63
-9755080.65 5135809.64 181.91
-9755079.48 5135810.76 182.46
-9755078.97 5135808.79 182.46
-9755078.43 5135810.73 184.82
-9755080.06 5135806.59 182.23
-9755081.42 5135801.97 183.43
-9755080.04 5135807.68 181.69
-9755079.46 5135809.53 184.18
-9755080.68 5135807.30 183.11
-9755079.16 5135809.16 182.35
-9755077.39 5135804.45 179.79
-9755077.84 5135799.09 180.92
-9755080.03 5135806.71 181.87
-9755079.51 5135803.17 181.61
-9755081.15 5135808.81 181.12
-9755080.03 5135799.19 183.38
-9755079.92 5135804.86 182.55
-9755079.89 5135800.78 184.58
-9755080.10 5135805.46 182.59
-9755080.30 5135811.11 183.39
-9755078.88 5135809.70 182.73
-9755080.02 5135804.42 182.57
-9755078.30 5135799.11 180.26
-9755080.93 5135801.12 181.91
-9755078.56 5135808.83 182.29
-9755080.34 5135805.18 182.59
-9755080.32 5135800.98 184.56
-9755079.24 5135809.35 181.77
-9755081.00 5135799.07 183.23
-9755080.07 5135807.57 181.78
-9755079.81 5135809.62 181.70
-9755079.42 5135805.54 181.68
-9755081.22 5135807.96 180.72
-9755081.34 5135812.89 182.83
-9755080.12 5135812.84 183.09
-9755078.22 5135813.22 182.03
-9755077.95 5135813.27 182.28
-9755078.48 5135813.54 181.70
-9755078.26 5135813.45 181.60
-9755077.14 5135812.98 182.16
-9755081.17 5135813.39 183.35
-9755081.24 5135812.61 183.48
-9755077.97 5135813.75 181.57
-9755080.29 5135813.60 180.62
-9755076.74 5135813.24 181.70
-9755078.22 5135813.00 181.44
-9755077.11 5135813.82 181.60
-9755077.61 5135814.14 181.83
-9755079.44 5135812.74 180.36
-9755078.85 5135814.00 180.28
-9755080.56 5135814.20 180.68
-9755076.20 5135814.39 181.84
-9755075.98 5135815.60 181.84
-9755076.19 5135816.35 180.93
-9755075.89 5135815.70 181.24
-9755075.88 5135814.20 180.76
-9755075.69 5135815.30 181.99
