-9755182.37 5135588.81 182.92
-9755182.79 5135588.77 183.01
-9755176.58 5135592.17 182.49
-9755181.02 5135591.03 182.78
-9755176.07 5135592.02 183.02
-9755175.84 5135589.28 183.91
-9755179.89 5135587.24 182.98
-9755186.75 5135593.66 182.23
-9755185.99 5135595.64 181.60
-9755176.29 5135593.94 183.52
-9755176.09 5135599.48 183.29
-9755176.98 5135598.51 183.03
-9755176.62 5135596.98 182.82
-9755176.87 5135599.08 182.90
-9755179.17 5135599.03 183.25
-9755177.02 5135598.82 183.08
-9755176.53 5135595.27 183.42
-9755176.72 5135597.31 183.32
-9755176.64 5135596.73 183.14
-9755176.84 5135598.05 183.53
-9755173.87 5135598.56 181.55
-9755176.57 5135593.98 182.62
-9755179.42 5135597.28 182.52
-9755176.39 5135594.67 182.53
-9755176.84 5135597.71 183.88
-9755184.21 5135595.22 183.37
-9755178.27 5135599.08 183.25
-9755179.51 5135596.40 183.33
-9755180.25 5135595.81 183.31
-9755178.03 5135595.60 181.67
-9755176.56 5135596.08 182.84
-9755184.85 5135597.74 183.93
-9755178.25 5135599.37 181.91
-9755176.58 5135593.84 183.05
-9755179.48 5135599.30 183.56
-9755174.24 5135597.71 181.55
-9755176.22 5135597.00 182.32
-9755178.98 5135595.23 183.34
-9755181.00 5135594.04 183.27
-9755176.58 5135595.58 183.35
-9755178.95 5135595.24 182.63
-9755179.50 5135596.10 183.34
-9755176.27 5135594.37 182.95
-9755176.27 5135599.62 183.26
-9755176.81 5135598.53 181.92
-9755176.57 5135595.72 182.72
-9755176.30 5135599.37 182.29
-9755176.58 5135596.11 183.88
-9755172.91 5135600.19 183.29
-9755185.76 5135584.68 181.77
-9755186.06 5135583.65 183.85
-9755186.06 5135582.49 183.84
-9755180.79 5135586.19 181.78
-9755175.30 5135582.58 183.39
-9755175.72 5135585.78 182.35
-9755175.50 5135585.87 183.85
-9755185.97 5135582.82 181.82
-9755181.08 5135584.06 183.18
-9755175.80 5135586.68 183.36
-9755175.43 5135585.64 183.45
-9755175.44 5135582.47 183.24
-9755175.41 5135583.91 182.99
-9755180.30 5135586.56 182.97
-9755175.77 5135585.40 182.45
-9755181.11 5135584.06 183.03
-9755175.48 5135583.17 182.76
-9755175.68 5135583.63 182.94
-9755180.72 5135582.72 183.84
-9755180.12 5135582.09 181.82
-9755180.71 5135586.23 182.31
-9755175.50 5135584.96 182.50
-9755175.67 5135582.44 183.30
-9755180.44 5135585.29 182.08
-9755181.92 5135585.82 183.01
-9755183.17 5135583.07 183.84
-9755180.75 5135583.87 181.80
-9755180.78 5135583.02 183.84
-9755183.57 5135586.04 183.82
-9755175.75 5135585.16 182.48
-9755175.70 5135582.79 182.86
-9755180.80 5135584.48 183.18
-9755175.50 5135583.73 182.68
-9755172.46 5135586.96 181.61
-9755172.46 5135592.58 181.54
-9755170.12 5135588.46 181.56
-9755166.00 5135586.99 181.52
-9755170.05 5135590.50 181.54
-9755169.20 5135593.49 181.52
-9755172.12 5135596.45 181.54
-9755165.09 5135596.22 184.94
-9755163.03 5135596.77 186.46
-9755166.55 5135601.35 183.95
-9755163.05 5135595.27 186.28
-9755163.43 5135598.84 184.04
-9755164.52 5135596.65 184.97
-9755162.99 5135597.91 186.72
-9755163.34 5135596.48 186.56
-9755164.53 5135598.12 185.96
-9755170.35 5135600.50 183.97
-9755164.56 5135598.56 185.56
-9755165.01 5135597.74 186.09
-9755167.10 5135601.07 183.94
-9755162.75 5135595.66 187.24
-9755164.41 5135599.45 184.61
-9755165.94 5135598.77 181.49
-9755164.50 5135596.90 184.43
-9755164.30 5135596.23 185.96
-9755163.14 5135595.71 187.02
-9755163.04 5135600.10 184.97
-9755163.82 5135601.11 181.45
-9755166.77 5135596.13 181.51
-9755169.84 5135600.52 183.97
-9755170.35 5135600.94 183.97
-9755162.97 5135596.78 183.86
-9755163.11 5135598.27 185.77
-9755162.81 5135596.80 186.26
-9755163.01 5135594.05 181.48
-9755162.74 5135596.82 187.28
-9755171.23 5135600.46 183.96
-9755168.86 5135596.13 181.51
-9755160.97 5135587.82 181.44
-9755161.88 5135598.19 186.79
-9755162.81 5135595.85 187.50
-9755162.11 5135596.15 186.36
-9755162.62 5135596.28 186.50
-9755160.92 5135596.85 186.31
-9755162.24 5135597.17 186.67
-9755162.24 5135595.64 185.47
-9755161.74 5135596.75 186.16
-9755162.38 5135597.26 188.23
-9755161.50 5135600.07 185.34
-9755162.05 5135595.98 185.32
-9755161.23 5135595.32 184.59
-9755160.95 5135598.21 186.79
-9755160.65 5135595.59 185.47
-9755162.36 5135596.24 186.32
-9755160.92 5135596.49 186.84
-9755161.81 5135596.69 186.85
-9755161.43 5135599.31 184.86
-9755161.48 5135597.31 186.29
-9755161.59 5135597.34 188.00
-9755162.39 5135596.09 185.87
-9755161.79 5135599.47 185.03
-9755161.02 5135597.76 186.33
-9755161.28 5135597.55 185.74
-9755161.00 5135594.69 184.39
-9755160.93 5135596.72 186.85
-9755162.54 5135601.79 182.65
-9755161.36 5135598.63 184.87
-9755160.98 5135596.19 186.59
-9755160.97 5135595.06 184.28
-9755160.85 5135597.72 185.63
-9755160.70 5135599.49 184.63
-9755161.02 5135594.98 185.18
-9755161.63 5135595.92 186.66
-9755160.94 5135596.63 185.88
-9755161.22 5135594.36 181.43
-9755162.44 5135596.73 187.91
-9755172.24 5135584.92 181.62
-9755172.20 5135586.10 181.62
-9755168.36 5135586.92 181.55
-9755163.14 5135584.90 186.32
-9755163.41 5135585.29 185.86
-9755164.05 5135581.76 189.31
-9755162.73 5135584.36 186.75
-9755163.48 5135582.99 188.92
-9755166.01 5135582.27 186.90
-9755164.36 5135583.27 188.53
-9755163.72 5135582.99 188.97
-9755164.56 5135583.72 186.40
-9755164.64 5135583.20 187.87
-9755166.28 5135582.86 187.97
-9755170.47 5135582.53 181.58
-9755165.53 5135582.44 186.91
-9755163.04 5135583.99 186.92
-9755165.13 5135583.67 187.87
-9755165.31 5135582.52 188.09
-9755162.64 5135581.93 190.68
-9755164.30 5135583.35 188.21
-9755164.73 5135582.57 188.59
-9755162.77 5135584.81 186.26
-9755163.42 5135583.30 188.52
-9755164.25 5135584.61 186.37
-9755164.29 5135583.09 186.21
-9755169.54 5135583.70 181.56
-9755164.26 5135583.55 188.21
-9755163.08 5135583.43 188.26
-9755162.35 5135582.45 189.89
-9755162.20 5135583.98 188.14
-9755162.63 5135582.02 191.38
-9755161.88 5135582.89 189.62
-9755162.28 5135582.34 191.18
-9755161.92 5135584.01 188.08
-9755161.44 5135582.95 189.59
-9755162.18 5135583.20 190.20
-9755161.07 5135582.15 191.30
-9755160.99 5135582.94 189.93
-9755161.00 5135582.78 192.40
-9755160.78 5135583.24 191.11
-9755162.15 5135584.49 188.50
-9755162.86 5135584.11 186.20
-9755161.34 5135582.56 191.35
-9755161.38 5135582.31 191.54
-9755162.56 5135582.85 190.49
-9755161.91 5135584.81 187.24
-9755175.36 5135581.89 182.58
-9755179.89 5135581.92 181.82
-9755175.30 5135581.65 182.62
-9755181.98 5135576.56 183.82
-9755175.22 5135579.22 183.25
-9755174.58 5135575.87 183.81
-9755179.62 5135578.75 182.42
-9755184.93 5135576.33 181.79
-9755180.53 5135576.29 183.86
-9755179.52 5135577.41 182.40
-9755185.23 5135575.48 181.73
-9755175.08 5135578.03 183.27
-9755174.99 5135576.61 182.81
-9755180.17 5135578.33 183.83
-9755178.48 5135577.47 182.97
-9755174.94 5135576.26 182.41
-9755179.86 5135578.86 182.42
-9755178.78 5135577.50 181.80
-9755179.92 5135579.62 181.81
-9755179.70 5135575.52 182.12
-9755175.25 5135576.69 183.79
-9755174.93 5135576.22 183.55
-9755177.25 5135576.34 181.73
-9755174.95 5135577.23 183.68
-9755174.88 5135577.98 183.41
-9755175.01 5135577.13 183.18
-9755175.22 5135575.95 182.25
-9755175.23 5135578.66 183.42
-9755185.29 5135575.95 183.85
-9755179.89 5135579.88 182.44
-9755181.95 5135575.51 183.01
-9755174.92 5135575.67 183.43
-9755180.27 5135576.71 183.20
-9755175.25 5135580.08 183.38
-9755175.39 5135579.89 182.46
-9755179.90 5135580.48 181.80
-9755179.60 5135580.46 182.41
-9755179.93 5135580.45 182.49
-9755179.61 5135581.10 181.81
-9755165.48 5135581.75 189.42
-9755164.31 5135581.88 189.64
-9755161.42 5135581.97 190.97
-9755164.60 5135579.17 188.50
-9755163.97 5135579.59 188.23
-9755163.08 5135577.59 186.30
-9755163.75 5135578.79 186.73
-9755163.53 5135579.37 189.80
-9755163.23 5135577.57 185.29
-9755164.27 5135578.79 186.66
-9755164.28 5135578.72 187.47
-9755168.42 5135575.70 181.58
-9755163.04 5135578.84 188.29
-9755165.15 5135579.58 187.68
-9755163.72 5135577.60 186.63
-9755163.50 5135578.95 187.68
-9755163.12 5135578.23 187.36
-9755163.17 5135579.61 190.41
-9755163.83 5135578.61 188.61
-9755163.21 5135577.49 187.23
-9755164.94 5135578.54 186.64
-9755163.72 5135579.98 190.09
-9755163.48 5135580.80 190.84
-9755165.81 5135580.09 189.27
-9755166.40 5135581.35 186.70
-9755166.23 5135581.47 187.51
-9755164.69 5135581.01 189.41
-9755164.01 5135580.31 189.50
-9755168.43 5135581.33 181.54
-9755163.13 5135581.12 190.37
-9755164.34 5135581.25 189.73
-9755163.19 5135580.90 191.25
-9755166.10 5135581.24 188.52
-9755163.38 5135580.37 190.83
-9755165.89 5135580.64 187.18
-9755161.91 5135579.12 190.62
-9755162.25 5135577.50 187.73
-9755161.41 5135576.24 187.06
-9755161.39 5135576.29 188.18
-9755162.72 5135579.92 189.89
-9755161.95 5135577.63 188.39
-9755162.26 5135579.63 190.42
-9755161.58 5135579.14 190.43
-9755161.48 5135575.91 186.82
-9755161.36 5135576.60 186.79
-9755160.70 5135577.98 188.85
-9755161.37 5135577.99 188.87
-9755161.73 5135578.70 189.37
-9755162.07 5135576.57 187.90
-9755162.23 5135579.06 191.20
-9755162.94 5135577.54 187.24
-9755162.52 5135577.10 188.13
-9755162.00 5135579.11 190.26
-9755162.59 5135579.42 189.84
-9755162.60 5135578.60 188.76
-9755161.09 5135577.69 189.19
-9755160.72 5135579.32 192.40
-9755160.83 5135577.37 189.40
-9755160.67 5135576.73 187.10
-9755161.65 5135577.47 188.39
-9755161.48 5135578.28 189.91
-9755160.86 5135576.78 186.82
-9755162.22 5135578.35 181.50
-9755161.10 5135576.05 188.27
-9755161.22 5135577.12 188.97
-9755160.65 5135578.45 189.96
-9755161.87 5135577.98 188.91
-9755161.74 5135578.54 189.37
-9755160.63 5135576.46 186.84
-9755162.05 5135577.98 189.56
-9755161.35 5135581.65 191.66
-9755162.37 5135581.32 191.63
-9755161.44 5135581.35 192.73
-9755161.34 5135580.47 181.46
-9755161.39 5135580.25 191.50
-9755161.15 5135580.47 192.73
-9755161.19 5135580.44 191.29
-9755161.03 5135580.20 192.41
-9755160.28 5135596.53 186.47
-9755160.34 5135597.72 185.72
-9755160.33 5135599.44 185.46
-9755160.57 5135596.12 184.94
-9755160.34 5135598.46 186.32
-9755160.38 5135598.23 185.87
-9755160.28 5135597.62 185.16
-9755156.43 5135601.35 181.25
-9755155.63 5135594.01 181.24
-9755147.74 5135588.60 188.25
-9755152.10 5135591.28 181.22
-9755147.78 5135587.98 188.28
-9755146.30 5135587.04 189.10
-9755147.20 5135587.55 187.92
-9755147.40 5135587.67 188.60
-9755146.46 5135589.76 188.42
-9755145.72 5135588.50 189.92
-9755147.76 5135590.31 188.17
-9755146.59 5135587.73 188.29
-9755146.42 5135587.83 189.42
-9755146.57 5135588.54 189.60
-9755147.43 5135590.62 187.85
-9755147.34 5135586.74 189.14
-9755145.88 5135587.93 186.04
-9755148.38 5135588.22 186.53
-9755148.08 5135589.82 187.82
-9755147.10 5135587.69 187.98
-9755151.57 5135587.46 181.24
-9755145.64 5135587.00 187.92
-9755146.00 5135588.15 190.06
-9755149.18 5135588.66 187.92
-9755147.83 5135589.30 187.50
-9755146.56 5135589.00 187.69
-9755148.00 5135587.49 188.14
-9755149.77 5135586.96 185.50
-9755147.21 5135589.47 188.08
-9755147.72 5135587.38 186.50
-9755147.69 5135588.53 187.47
-9755145.45 5135587.42 189.44
-9755152.71 5135588.62 181.24
-9755147.79 5135589.21 187.81
-9755147.75 5135587.64 188.32
-9755146.60 5135586.43 188.76
-9755146.91 5135588.57 188.00
-9755145.49 5135587.28 189.96
-9755147.04 5135600.16 181.42
-9755147.05 5135598.95 184.14
-9755145.65 5135600.19 187.08
-9755145.96 5135599.26 187.06
-9755146.53 5135599.34 186.93
-9755146.88 5135599.72 185.98
-9755146.25 5135599.29 186.93
-9755145.21 5135598.67 187.08
-9755145.65 5135600.47 187.08
-9755145.46 5135601.01 187.15
-9755145.58 5135593.94 181.21
-9755146.14 5135600.84 187.28
-9755153.85 5135594.01 181.23
-9755145.46 5135601.35 186.71
-9755149.39 5135601.04 181.41
-9755145.60 5135598.08 181.43
-9755154.74 5135595.22 181.23
-9755145.34 5135600.04 188.16
-9755147.84 5135600.78 184.77
-9755147.23 5135598.92 184.26
-9755147.04 5135600.59 184.38
-9755145.30 5135600.40 188.32
-9755152.36 5135597.26 181.22
-9755146.21 5135597.79 181.43
-9755146.49 5135598.53 185.03
-9755149.09 5135599.64 181.30
-9755145.74 5135601.35 186.84
-9755147.17 5135601.71 185.83
-9755147.33 5135601.41 185.66
-9755158.96 5135582.08 189.72
-9755160.53 5135583.58 190.35
-9755160.40 5135583.32 190.94
-9755158.64 5135585.25 187.56
-9755160.14 5135584.43 188.08
-9755159.61 5135584.92 188.55
-9755158.36 5135585.15 187.45
-9755158.51 5135584.38 187.79
-9755158.89 5135582.47 190.03
-9755158.93 5135584.29 181.30
-9755158.98 5135584.95 187.72
-9755160.12 5135585.47 187.07
-9755159.91 5135583.57 189.11
-9755160.46 5135582.56 191.74
-9755160.42 5135584.15 189.54
-9755158.76 5135583.27 189.55
-9755159.82 5135582.88 191.07
-9755159.72 5135581.75 191.90
-9755160.18 5135583.02 189.61
-9755160.17 5135585.11 189.12
-9755158.99 5135584.17 188.71
-9755158.74 5135583.20 189.21
-9755158.98 5135585.43 187.97
-9755157.85 5135583.32 189.56
-9755157.84 5135583.00 188.78
-9755158.13 5135582.02 191.45
-9755156.51 5135585.37 181.26
-9755158.21 5135584.26 188.09
-9755154.85 5135583.39 186.87
-9755156.03 5135582.76 187.97
-9755156.07 5135581.69 189.31
-9755155.37 5135584.52 181.26
-9755155.63 5135584.32 181.26
-9755155.66 5135582.80 187.02
-9755156.79 5135584.50 181.25
-9755158.14 5135582.34 190.57
-9755155.65 5135583.77 186.08
-9755155.49 5135582.29 186.62
-9755157.94 5135584.15 185.93
-9755155.11 5135582.14 186.36
-9755156.12 5135582.04 189.37
-9755158.05 5135584.83 186.24
-9755155.69 5135582.57 186.99
-9755157.44 5135582.39 188.53
-9755156.49 5135582.69 188.37
-9755157.25 5135582.09 189.69
-9755157.84 5135584.56 187.79
-9755155.66 5135586.03 181.24
-9755157.19 5135583.32 187.94
-9755157.67 5135581.84 189.78
-9755158.41 5135582.97 189.11
-9755156.68 5135582.02 189.08
-9755156.98 5135582.42 188.29
-9755157.32 5135584.17 188.13
-9755146.64 5135583.34 188.26
-9755148.16 5135584.02 189.78
-9755146.50 5135585.75 188.82
-9755145.45 5135586.48 189.11
-9755145.53 5135584.08 187.52
-9755147.49 5135584.91 188.15
-9755148.02 5135586.22 189.54
-9755154.58 5135583.68 186.88
-9755146.94 5135585.88 188.28
-9755145.42 5135586.55 189.87
-9755147.97 5135582.90 186.65
-9755145.81 5135584.68 188.89
-9755147.53 5135585.29 187.56
-9755146.06 5135585.24 187.46
-9755149.27 5135586.13 189.93
-9755148.11 5135584.06 189.38
-9755146.88 5135584.09 188.31
-9755145.39 5135586.08 188.81
-9755147.24 5135584.07 189.29
-9755146.35 5135585.38 188.51
-9755147.43 5135583.79 186.22
-9755147.11 5135584.09 188.34
-9755145.49 5135584.66 188.68
-9755147.23 5135582.74 186.65
-9755148.42 5135586.13 185.76
-9755147.81 5135582.77 186.56
-9755146.31 5135582.77 186.21
-9755147.97 5135583.32 189.11
-9755148.05 5135583.75 189.58
-9755148.75 5135585.72 187.49
-9755147.30 5135582.44 186.28
-9755148.01 5135582.71 186.61
-9755146.12 5135584.24 187.20
-9755146.59 5135585.59 188.51
-9755148.70 5135585.37 189.11
-9755145.99 5135583.74 189.10
-9755154.69 5135582.48 186.42
-9755148.09 5135584.91 185.52
-9755147.79 5135584.49 188.14
-9755148.65 5135585.37 188.98
-9755147.51 5135584.96 189.10
-9755146.97 5135584.37 188.30
-9755145.36 5135584.70 188.61
-9755154.80 5135583.32 181.25
-9755147.52 5135583.74 186.41
-9755150.18 5135583.73 187.74
-9755148.65 5135585.03 187.48
-9755146.00 5135585.17 187.45
-9755146.92 5135583.74 187.41
-9755148.15 5135582.29 186.25
-9755146.85 5135586.08 186.64
-9755145.71 5135585.33 187.32
-9755145.21 5135586.97 189.95
-9755144.85 5135588.42 190.17
-9755145.47 5135588.72 189.99
-9755144.80 5135588.03 188.24
-9755145.28 5135590.26 188.75
-9755144.32 5135587.85 190.37
-9755144.57 5135588.51 190.09
-9755143.18 5135589.43 188.26
-9755140.37 5135587.06 189.39
-9755137.12 5135586.92 185.12
-9755144.55 5135588.43 189.85
-9755139.11 5135588.36 186.64
-9755137.44 5135587.61 186.29
-9755138.00 5135587.01 187.66
-9755143.45 5135590.34 186.19
-9755141.04 5135586.66 189.26
-9755137.51 5135587.68 187.35
-9755138.77 5135587.10 187.57
-9755141.13 5135587.78 189.76
-9755140.54 5135588.64 186.53
-9755140.86 5135592.99 182.04
-9755139.83 5135586.95 189.22
-9755137.14 5135586.38 185.09
-9755142.08 5135587.55 188.68
-9755143.28 5135590.72 186.14
-9755140.31 5135587.10 187.48
-9755143.67 5135587.62 189.51
-9755141.28 5135587.03 189.08
-9755142.36 5135588.34 187.99
-9755138.61 5135588.64 186.77
-9755139.88 5135586.86 187.32
-9755138.09 5135587.06 187.69
-9755137.76 5135587.09 186.36
-9755141.59 5135587.84 189.99
-9755143.18 5135588.51 187.35
-9755137.07 5135586.88 186.46
-9755140.85 5135591.99 182.40
-9755143.68 5135588.75 185.56
-9755141.11 5135587.49 186.34
-9755137.43 5135587.37 186.50
-9755140.10 5135588.28 187.04
-9755140.34 5135588.65 186.65
-9755140.06 5135590.08 187.76
-9755141.25 5135590.07 187.35
-9755142.87 5135587.63 188.99
-9755139.23 5135589.72 187.30
-9755141.69 5135587.33 188.88
-9755143.89 5135589.06 190.74
-9755137.95 5135587.39 186.38
-9755143.40 5135588.99 190.28
-9755141.66 5135590.05 188.68
-9755142.15 5135589.43 188.48
-9755142.78 5135590.33 188.73
-9755144.54 5135588.03 188.88
-9755144.55 5135588.78 190.22
-9755144.44 5135587.11 188.45
-9755139.08 5135588.07 187.26
-9755140.10 5135586.43 188.29
-9755138.85 5135587.65 186.68
-9755142.53 5135590.27 185.91
-9755143.39 5135589.91 185.99
-9755141.90 5135589.66 189.61
-9755142.16 5135586.91 190.63
-9755143.68 5135587.89 188.63
-9755139.49 5135586.41 188.43
-9755144.46 5135587.96 189.61
-9755143.99 5135587.57 190.36
-9755143.96 5135588.96 190.90
-9755139.83 5135590.10 187.24
-9755139.14 5135592.15 181.23
-9755141.87 5135588.92 187.79
-9755143.26 5135591.58 185.86
-9755140.05 5135588.63 186.49
-9755140.59 5135588.60 187.14
-9755144.83 5135587.15 188.10
-9755143.32 5135589.07 189.89
-9755136.76 5135592.43 181.26
-9755141.61 5135588.20 190.39
-9755139.55 5135586.55 188.49
-9755143.56 5135589.64 189.29
-9755142.43 5135589.43 181.44
-9755138.89 5135588.32 186.64
-9755142.21 5135587.03 188.75
-9755145.20 5135600.30 187.86
-9755145.04 5135598.22 186.79
-9755145.25 5135600.72 188.45
-9755145.33 5135600.79 187.67
-9755145.00 5135597.57 186.74
-9755144.88 5135598.57 186.70
-9755145.09 5135598.46 186.86
-9755144.63 5135599.56 187.00
-9755144.75 5135599.76 188.50
-9755144.72 5135600.39 188.39
-9755143.25 5135599.14 186.58
-9755143.49 5135598.13 181.42
-9755144.19 5135598.09 185.86
-9755143.46 5135599.78 187.35
-9755142.90 5135601.32 186.57
-9755144.16 5135600.99 188.52
-9755144.41 5135598.06 185.89
-9755143.33 5135601.07 186.60
-9755143.76 5135599.62 186.09
-9755142.50 5135598.66 186.37
-9755143.57 5135599.80 188.43
-9755144.15 5135598.71 186.15
-9755143.45 5135600.17 187.10
-9755140.00 5135595.67 181.33
-9755143.17 5135601.79 185.69
-9755142.80 5135600.13 187.60
-9755142.65 5135601.46 185.70
-9755144.74 5135598.14 186.67
-9755143.74 5135599.54 188.17
-9755144.50 5135598.64 186.85
-9755143.22 5135599.97 184.54
-9755144.50 5135599.12 186.87
-9755144.09 5135599.25 186.18
-9755142.90 5135601.11 186.57
-9755142.44 5135599.74 184.60
-9755143.38 5135599.21 188.63
-9755141.21 5135595.99 181.37
-9755144.17 5135599.48 188.44
-9755144.41 5135598.64 186.19
-9755144.09 5135601.34 187.96
-9755142.40 5135599.07 184.58
-9755143.31 5135600.40 188.47
-9755143.64 5135599.35 186.05
-9755139.95 5135598.33 181.29
-9755143.84 5135598.44 185.86
-9755144.21 5135599.02 186.78
-9755143.10 5135599.31 186.28
-9755143.27 5135594.82 181.43
-9755143.28 5135599.17 188.33
-9755143.16 5135601.03 187.89
-9755143.62 5135600.17 186.23
-9755144.18 5135598.07 186.61
-9755138.76 5135599.22 181.22
-9755144.17 5135598.62 188.21
-9755140.88 5135595.46 182.14
-9755142.85 5135599.08 184.26
-9755142.40 5135600.25 186.49
-9755143.24 5135601.31 188.15
-9755143.58 5135598.57 183.60
-9755141.05 5135595.77 181.97
-9755140.98 5135596.85 183.14
-9755144.41 5135599.81 187.26
-9755142.99 5135599.35 186.61
-9755135.03 5135588.27 181.29
-9755145.31 5135582.00 188.88
-9755145.41 5135585.41 188.31
-9755144.82 5135586.27 189.70
-9755145.06 5135585.86 189.29
-9755145.27 5135585.50 189.42
-9755144.97 5135584.71 187.86
-9755144.90 5135585.15 189.26
-9755144.89 5135581.94 187.66
-9755140.48 5135586.27 188.88
-9755144.89 5135581.99 188.71
-9755144.92 5135581.99 188.24
-9755144.56 5135582.03 188.09
-9755142.51 5135583.77 189.21
-9755136.71 5135585.41 187.18
-9755140.12 5135583.24 187.08
-9755141.66 5135583.48 189.60
-9755140.64 5135586.15 186.67
-9755138.22 5135583.66 185.64
-9755142.38 5135583.07 189.04
-9755137.45 5135584.47 185.75
-9755139.18 5135586.28 187.14
-9755140.79 5135582.54 190.00
-9755143.80 5135586.17 189.65
-9755139.51 5135586.22 187.18
-9755138.11 5135584.10 185.07
-9755144.01 5135583.33 188.92
-9755139.40 5135585.78 189.20
-9755141.36 5135582.58 189.60
-9755139.26 5135584.80 186.26
-9755137.96 5135586.25 187.14
-9755139.53 5135583.73 188.95
-9755140.10 5135586.17 189.75
-9755143.24 5135586.23 188.82
-9755138.52 5135585.16 185.85
-9755139.64 5135582.08 188.55
-9755143.35 5135586.17 189.56
-9755142.44 5135582.36 181.41
-9755140.35 5135586.08 186.69
-9755141.25 5135585.29 187.42
-9755142.48 5135585.80 189.38
-9755143.40 5135583.48 189.05
-9755142.44 5135581.71 188.48
-9755144.41 5135584.48 187.97
-9755144.83 5135586.97 190.02
-9755143.66 5135585.90 189.29
-9755143.69 5135584.49 188.36
-9755139.15 5135583.06 189.01
-9755140.76 5135586.19 188.89
-9755138.51 5135585.22 186.61
-9755142.84 5135585.25 188.75
-9755143.29 5135583.23 185.72
-9755136.80 5135585.35 181.30
-9755139.17 5135584.48 187.96
-9755142.49 5135584.23 183.18
-9755143.33 5135582.64 190.13
-9755139.94 5135585.32 188.27
-9755142.47 5135584.93 186.04
-9755143.28 5135584.13 188.89
-9755144.81 5135585.33 189.00
-9755144.22 5135585.31 188.35
-9755140.42 5135583.69 189.96
-9755143.26 5135585.30 189.36
-9755140.77 5135582.89 189.95
-9755141.65 5135582.04 188.61
-9755141.88 5135586.48 190.47
-9755140.34 5135585.38 181.37
-9755142.58 5135582.12 189.15
-9755141.39 5135586.15 188.15
-9755143.34 5135582.98 188.49
-9755138.28 5135584.72 181.28
-9755139.35 5135585.79 189.19
-9755143.71 5135583.55 189.23
-9755138.73 5135582.18 185.42
-9755142.41 5135585.33 181.56
-9755140.69 5135582.02 187.96
-9755138.65 5135584.08 186.59
-9755138.22 5135583.72 185.24
-9755142.77 5135585.09 189.14
-9755140.44 5135582.86 187.90
-9755139.08 5135583.81 186.25
-9755142.65 5135585.41 185.47
-9755137.90 5135583.39 185.10
-9755142.78 5135585.88 187.10
-9755139.98 5135584.04 186.53
-9755143.42 5135582.53 187.83
-9755143.28 5135584.89 188.85
-9755138.66 5135585.50 185.81
-9755139.59 5135582.05 187.07
-9755143.30 5135585.26 188.63
-9755138.73 5135585.17 185.73
-9755140.14 5135584.93 188.88
-9755141.56 5135585.35 181.41
-9755140.63 5135582.80 188.49
-9755144.48 5135585.06 189.04
-9755141.61 5135581.78 188.49
-9755143.32 5135584.40 188.23
-9755142.22 5135582.47 190.33
-9755138.37 5135585.94 184.79
-9755142.98 5135586.19 188.58
-9755142.41 5135586.22 187.44
-9755140.70 5135585.56 189.52
-9755142.40 5135582.35 186.57
-9755141.74 5135586.10 188.50
-9755140.40 5135585.31 185.98
-9755142.80 5135584.00 187.63
-9755143.31 5135584.33 189.29
-9755137.40 5135584.52 184.86
-9755143.67 5135582.77 189.22
-9755139.16 5135583.96 186.66
-9755137.99 5135585.17 189.13
-9755139.18 5135584.45 181.29
-9755139.64 5135582.77 188.50
-9755139.75 5135583.64 187.21
-9755136.26 5135584.49 181.30
-9755159.79 5135581.65 191.91
-9755159.95 5135581.62 192.80
-9755159.88 5135581.66 192.69
-9755159.34 5135581.44 191.88
-9755156.89 5135581.79 189.08
-9755156.92 5135581.71 189.93
-9755156.49 5135581.78 189.01
-9755157.22 5135582.06 190.15
-9755157.21 5135581.62 188.80
-9755156.33 5135581.34 187.95
-9755160.25 5135579.53 192.52
-9755160.33 5135577.08 188.79
-9755159.60 5135578.43 190.29
-9755160.41 5135578.25 189.60
-9755159.64 5135577.99 190.01
-9755160.47 5135576.82 188.70
-9755160.21 5135576.48 189.03
-9755159.76 5135576.73 188.63
-9755158.75 5135579.10 190.72
-9755158.81 5135575.91 184.79
-9755159.22 5135579.31 192.45
-9755158.77 5135578.58 190.75
-9755158.54 5135577.57 189.06
-9755159.36 5135579.56 193.09
-9755158.78 5135579.24 192.42
-9755160.34 5135576.23 186.61
-9755159.73 5135575.92 187.87
-9755159.70 5135579.62 192.03
-9755158.75 5135578.72 189.57
-9755159.27 5135575.86 187.23
-9755159.34 5135578.37 190.81
-9755158.47 5135577.95 189.90
-9755159.86 5135577.12 181.45
-9755159.34 5135577.83 189.27
-9755159.44 5135575.65 186.27
-9755159.87 5135578.29 190.29
-9755159.33 5135579.63 192.85
-9755158.77 5135577.26 187.53
-9755159.29 5135576.94 189.20
-9755158.57 5135577.43 190.21
-9755158.83 5135578.40 190.58
-9755158.72 5135576.27 186.89
-9755159.88 5135576.65 187.86
-9755158.70 5135579.68 192.14
-9755159.39 5135579.25 192.61
-9755159.04 5135576.28 187.35
-9755158.56 5135577.43 189.67
-9755160.14 5135579.79 192.93
-9755160.57 5135579.68 192.01
-9755158.40 5135575.50 185.38
-9755158.12 5135577.33 188.26
-9755157.73 5135577.17 186.72
-9755158.07 5135576.87 186.27
-9755158.51 5135576.55 186.21
-9755158.03 5135579.07 190.56
-9755157.25 5135577.76 187.57
-9755158.06 5135576.89 186.61
-9755156.61 5135578.48 186.31
-9755157.00 5135577.84 186.26
-9755157.35 5135579.91 189.34
-9755157.98 5135577.48 187.06
-9755157.98 5135577.89 190.66
-9755158.38 5135576.24 184.77
-9755157.31 5135578.06 186.79
-9755158.16 5135577.39 187.50
-9755158.14 5135577.58 189.82
-9755157.83 5135578.19 188.62
-9755158.13 5135578.39 190.74
-9755157.04 5135577.94 186.85
-9755157.87 5135578.24 189.18
-9755156.63 5135579.53 188.17
-9755158.19 5135577.94 187.94
-9755158.25 5135575.76 185.85
-9755155.73 5135578.62 187.57
-9755158.40 5135577.92 188.01
-9755157.29 5135578.58 187.07
-9755158.13 5135579.01 191.21
-9755158.44 5135579.03 190.77
-9755157.47 5135579.25 190.01
-9755157.25 5135579.61 189.43
-9755158.19 5135577.58 188.48
-9755157.45 5135579.08 188.70
-9755156.64 5135577.45 186.61
-9755157.75 5135579.65 190.75
-9755158.21 5135579.11 190.72
-9755157.77 5135578.76 189.10
-9755157.27 5135579.42 190.27
-9755157.36 5135578.36 186.78
-9755157.80 5135578.83 191.48
-9755157.85 5135578.11 187.94
-9755158.48 5135578.64 189.57
-9755158.08 5135577.17 187.34
-9755158.43 5135578.75 191.34
-9755158.16 5135580.00 191.10
-9755156.83 5135579.99 189.11
-9755159.31 5135581.84 191.04
-9755158.51 5135580.62 192.24
-9755159.90 5135580.82 183.25
-9755160.22 5135580.22 192.04
-9755159.26 5135581.03 192.35
-9755158.68 5135580.75 191.96
-9755160.24 5135580.48 192.51
-9755159.39 5135580.80 191.80
-9755159.08 5135580.10 190.70
-9755159.28 5135580.55 192.22
-9755155.20 5135581.54 185.96
-9755155.99 5135580.44 186.44
-9755156.55 5135581.19 188.32
-9755155.20 5135580.79 185.85
-9755158.01 5135580.16 190.66
-9755157.29 5135581.15 190.63
-9755158.10 5135580.91 190.78
-9755158.14 5135581.16 191.22
-9755155.54 5135580.86 186.03
-9755156.05 5135580.44 185.74
-9755157.68 5135581.15 189.96
-9755156.93 5135581.21 189.35
-9755157.75 5135580.52 190.61
-9755157.69 5135580.79 190.58
-9755156.08 5135581.27 186.54
-9755147.36 5135581.61 186.39
-9755145.72 5135581.41 189.77
-9755150.42 5135581.26 181.25
-9755146.54 5135576.79 181.25
-9755146.24 5135579.97 186.81
-9755151.89 5135578.91 181.26
-9755149.83 5135575.58 181.26
-9755147.23 5135579.17 187.13
-9755153.08 5135580.00 181.25
-9755145.56 5135579.79 186.71
-9755146.57 5135580.35 186.78
-9755147.01 5135580.64 186.67
-9755145.27 5135581.68 186.08
-9755147.45 5135581.23 187.33
-9755146.62 5135580.94 186.71
-9755146.68 5135580.43 185.96
-9755145.53 5135580.06 188.67
-9755145.05 5135581.66 190.20
-9755145.85 5135580.93 188.28
-9755146.99 5135580.40 186.67
-9755146.65 5135580.77 186.30
-9755145.19 5135581.27 188.28
-9755144.46 5135581.80 188.11
-9755143.69 5135581.66 189.12
-9755144.35 5135581.41 188.76
-9755142.32 5135581.75 186.62
-9755141.50 5135582.04 181.41
-9755141.09 5135581.52 185.96
-9755144.03 5135581.47 188.71
-9755141.58 5135581.57 187.91
-9755138.90 5135582.01 181.30
-9755141.61 5135581.45 188.38
-9755142.10 5135581.27 187.00
-9755140.43 5135581.56 185.92
-9755144.45 5135581.58 188.14
-9755137.93 5135581.28 185.32
-9755140.08 5135581.48 187.89
-9755141.59 5135581.56 186.21
-9755140.34 5135581.84 181.37
-9755136.82 5135581.46 185.81
-9755141.85 5135581.28 186.92
-9755142.76 5135581.33 188.48
-9755145.53 5135579.61 187.42
-9755145.13 5135579.44 186.98
-9755142.59 5135577.39 187.18
-9755142.50 5135577.28 187.21
-9755140.72 5135577.59 186.68
-9755140.02 5135578.83 185.86
-9755140.37 5135578.40 188.97
-9755140.80 5135578.14 186.93
-9755139.39 5135579.52 185.84
-9755140.46 5135579.58 188.54
-9755141.28 5135578.57 187.81
-9755139.83 5135579.18 186.59
-9755142.87 5135579.16 186.71
-9755139.89 5135579.33 186.57
-9755142.68 5135578.15 187.12
-9755140.53 5135579.42 186.43
-9755139.76 5135578.79 187.88
-9755139.91 5135578.34 186.14
-9755144.06 5135578.82 188.24
-9755143.29 5135579.50 188.07
-9755140.36 5135577.01 186.42
-9755140.78 5135578.37 186.66
-9755140.73 5135577.98 185.69
-9755141.67 5135579.38 186.84
-9755140.39 5135576.49 186.34
-9755141.57 5135578.29 187.95
-9755140.75 5135579.73 188.90
-9755137.54 5135578.92 185.13
-9755141.65 5135577.01 181.42
-9755141.62 5135577.89 187.76
-9755140.40 5135578.95 186.97
-9755141.77 5135577.56 187.26
-9755141.32 5135577.65 187.88
-9755144.95 5135580.70 189.88
-9755144.93 5135580.82 189.49
-9755144.96 5135581.18 188.31
-9755138.04 5135579.60 181.30
-9755139.47 5135579.66 186.46
-9755140.09 5135580.51 188.39
-9755140.80 5135580.37 187.10
-9755144.84 5135580.43 186.86
-9755140.47 5135580.54 187.47
-9755140.60 5135579.94 187.10
-9755140.44 5135579.79 188.93
-9755139.21 5135579.96 188.83
-9755141.99 5135581.15 186.45
-9755139.24 5135580.39 188.83
-9755142.15 5135581.19 188.04
-9755141.27 5135580.29 187.37
-9755141.51 5135579.59 186.45
-9755139.85 5135580.23 189.13
-9755140.09 5135580.30 187.08
-9755140.55 5135579.69 187.96
-9755139.27 5135580.30 186.19
-9755140.82 5135580.93 187.49
-9755143.10 5135580.90 187.45
-9755142.83 5135579.97 188.51
-9755144.12 5135581.16 189.06
-9755142.45 5135579.71 181.43
-9755139.19 5135580.42 185.99
-9755142.46 5135580.53 187.94
-9755141.21 5135581.11 187.27
-9755138.12 5135580.93 185.53
-9755144.55 5135580.27 188.89
-9755142.98 5135580.01 188.56
-9755144.87 5135580.64 187.66
-9755143.76 5135580.57 187.49
-9755140.15 5135580.96 187.06
-9755139.20 5135579.97 187.16
-9755144.29 5135581.02 188.72
-9755139.56 5135580.53 188.42
-9755143.56 5135581.11 186.51
-9755172.40 5135627.46 185.45
-9755177.91 5135614.87 181.57
-9755176.55 5135617.10 184.90
-9755176.64 5135617.48 184.12
-9755183.16 5135614.85 183.72
-9755179.03 5135617.43 188.82
-9755176.61 5135617.52 184.94
-9755173.77 5135619.57 181.55
-9755182.00 5135614.66 183.75
-9755177.27 5135618.73 181.53
-9755175.81 5135620.78 181.60
-9755175.52 5135622.83 181.58
-9755171.42 5135625.74 188.08
-9755167.24 5135627.41 190.09
-9755170.39 5135627.01 186.49
-9755170.21 5135626.97 187.92
-9755168.50 5135626.21 186.64
-9755167.82 5135626.38 185.85
-9755167.38 5135625.83 186.34
-9755170.47 5135625.57 185.86
-9755169.59 5135627.07 188.33
-9755165.39 5135627.80 188.71
-9755168.77 5135626.11 187.75
-9755168.37 5135627.60 181.45
-9755163.40 5135625.78 181.35
-9755164.31 5135628.08 188.60
-9755166.11 5135627.78 188.61
-9755167.64 5135627.26 188.73
-9755165.56 5135627.79 186.74
-9755166.47 5135627.71 189.06
-9755168.01 5135628.17 190.84
-9755168.77 5135620.71 181.48
-9755167.56 5135619.83 181.47
-9755170.85 5135615.68 181.50
-9755170.88 5135612.45 181.49
-9755164.63 5135619.55 181.34
-9755162.90 5135617.13 181.32
-9755168.80 5135612.13 181.48
-9755167.57 5135618.92 181.45
-9755168.45 5135622.47 181.48
-9755167.55 5135621.60 181.46
-9755161.07 5135620.09 181.33
-9755161.38 5135620.98 181.33
-9755169.97 5135610.06 181.48
-9755161.76 5135610.01 181.28
-9755161.40 5135609.99 181.28
-9755177.37 5135602.66 181.53
-9755176.18 5135604.76 181.52
-9755171.17 5135607.98 181.48
-9755164.06 5135608.81 181.43
-9755167.93 5135608.87 181.45
-9755167.95 5135603.87 181.47
-9755156.35 5135625.29 184.74
-9755155.98 5135627.29 185.37
-9755154.91 5135626.58 186.73
-9755155.31 5135624.97 184.73
-9755155.67 5135626.41 184.58
-9755156.40 5135625.53 184.61
-9755155.17 5135626.56 186.88
-9755155.14 5135627.40 187.87
-9755154.86 5135626.35 186.82
-9755156.86 5135627.28 185.32
-9755155.20 5135625.23 186.88
-9755150.39 5135627.79 187.14
-9755147.84 5135626.24 186.86
-9755149.85 5135626.59 187.20
-9755146.37 5135628.13 187.45
-9755149.57 5135626.79 187.41
-9755153.94 5135625.67 187.42
-9755147.26 5135625.32 186.95
-9755150.59 5135626.01 187.28
-9755147.49 5135626.57 187.25
-9755146.60 5135626.53 186.62
-9755154.37 5135626.35 186.57
-9755146.68 5135626.52 187.05
-9755145.66 5135627.38 186.89
-9755147.87 5135626.55 187.02
-9755149.89 5135625.16 185.81
-9755148.94 5135625.69 185.78
-9755149.49 5135626.85 186.83
-9755150.68 5135625.98 187.19
-9755145.72 5135627.76 186.82
-9755154.04 5135626.90 186.71
-9755153.13 5135628.02 187.60
-9755150.19 5135625.81 185.99
-9755153.21 5135626.54 186.43
-9755153.73 5135625.63 187.36
-9755147.78 5135625.82 185.48
-9755146.68 5135627.77 186.74
-9755154.34 5135627.75 187.71
-9755148.65 5135626.55 186.01
-9755146.64 5135627.14 187.10
-9755154.44 5135624.92 185.99
-9755149.38 5135627.79 188.09
-9755149.88 5135627.46 187.29
-9755148.12 5135626.51 187.45
-9755145.27 5135627.84 186.71
-9755148.11 5135625.98 186.70
-9755153.66 5135626.92 187.43
-9755146.95 5135627.41 187.22
-9755151.07 5135626.86 187.45
-9755149.91 5135627.68 187.29
-9755146.38 5135626.86 187.07
-9755153.71 5135627.75 187.31
-9755153.65 5135627.36 187.55
-9755148.33 5135625.68 185.26
-9755146.19 5135626.36 186.44
-9755146.62 5135625.33 186.96
-9755150.73 5135626.56 187.30
-9755148.36 5135626.55 186.86
-9755150.55 5135626.32 187.01
-9755151.95 5135627.18 186.89
-9755153.45 5135626.52 187.29
-9755146.50 5135625.23 184.85
-9755146.93 5135628.01 187.37
-9755149.02 5135625.22 185.08
-9755149.03 5135628.08 187.16
-9755154.36 5135626.60 187.68
-9755148.89 5135625.27 186.80
-9755147.27 5135628.13 187.46
-9755145.82 5135625.30 186.99
-9755149.89 5135626.25 187.39
-9755147.80 5135627.15 187.75
-9755147.99 5135627.41 186.75
-9755154.05 5135628.04 187.68
-9755149.52 5135625.97 186.70
-9755153.90 5135627.16 187.52
-9755147.46 5135626.23 186.58
-9755149.86 5135625.50 185.81
-9755153.92 5135627.47 187.27
-9755149.66 5135627.69 187.12
-9755150.77 5135626.89 187.17
-9755153.82 5135625.34 187.21
-9755151.63 5135625.65 186.79
-9755151.38 5135626.61 187.40
-9755147.89 5135627.18 187.46
-9755149.02 5135627.75 187.25
-9755148.74 5135626.75 187.00
-9755151.43 5135625.35 186.85
-9755147.73 5135626.34 187.16
-9755149.87 5135627.99 188.63
-9755149.53 5135626.04 185.91
-9755145.53 5135625.30 186.53
-9755152.51 5135626.60 187.13
-9755149.95 5135624.93 185.67
-9755147.83 5135625.63 186.79
-9755152.82 5135625.72 186.86
-9755148.38 5135627.41 187.54
-9755160.21 5135615.68 181.31
-9755158.44 5135614.99 181.29
-9755158.15 5135616.80 181.30
-9755160.51 5135619.51 181.32
-9755158.44 5135613.55 181.29
-9755157.22 5135620.29 181.29
-9755157.26 5135614.13 181.27
-9755155.76 5135618.26 181.27
-9755154.89 5135620.33 181.45
-9755153.99 5135625.43 187.22
-9755155.43 5135624.11 184.68
-9755158.10 5135622.72 181.29
-9755155.17 5135623.08 184.60
-9755155.64 5135623.29 184.59
-9755158.47 5135610.02 181.29
-9755148.17 5135618.35 186.37
-9755149.61 5135612.13 184.93
-9755148.72 5135619.23 186.28
-9755149.09 5135612.88 187.77
-9755148.49 5135612.64 188.34
-9755145.81 5135618.78 188.94
-9755149.03 5135617.47 184.45
-9755153.12 5135620.34 181.50
-9755148.75 5135612.95 186.72
-9755148.46 5135612.05 186.45
-9755146.57 5135615.71 184.67
-9755149.91 5135619.88 186.65
-9755145.73 5135618.50 189.46
-9755146.34 5135619.52 188.91
-9755148.49 5135612.92 186.98
-9755145.82 5135615.46 183.80
-9755147.93 5135613.27 186.26
-9755147.74 5135620.62 188.35
-9755145.49 5135620.38 189.91
-9755145.73 5135614.57 183.74
-9755149.43 5135612.02 188.41
-9755150.43 5135612.61 185.06
-9755145.71 5135616.68 188.78
-9755148.98 5135618.90 185.86
-9755145.34 5135616.82 187.85
-9755145.01 5135619.54 189.85
-9755154.00 5135614.99 181.42
-9755145.81 5135616.20 186.15
-9755149.78 5135618.38 185.77
-9755148.97 5135618.70 185.81
-9755149.03 5135614.59 184.11
-9755146.99 5135615.68 184.79
-9755148.69 5135612.09 186.82
-9755147.80 5135616.31 184.92
-9755150.88 5135612.59 185.06
-9755148.17 5135612.10 184.47
-9755147.58 5135617.13 184.98
-9755150.75 5135611.82 186.67
-9755150.52 5135610.97 185.99
-9755150.41 5135611.77 187.57
-9755150.62 5135610.49 185.19
-9755148.23 5135612.94 188.50
-9755149.43 5135612.23 185.70
-9755146.74 5135616.66 187.52
-9755151.06 5135618.27 181.51
-9755149.34 5135612.15 183.40
-9755147.33 5135616.68 186.63
-9755146.12 5135618.46 188.62
-9755149.57 5135620.33 184.45
-9755150.26 5135612.40 184.68
-9755145.21 5135615.41 184.11
-9755149.56 5135613.65 185.11
-9755147.00 5135618.45 188.81
-9755146.30 5135618.66 188.79
-9755150.15 5135617.47 183.40
-9755148.41 5135616.66 184.37
-9755148.15 5135613.01 184.30
-9755150.88 5135612.63 185.06
-9755145.73 5135615.02 185.99
-9755148.99 5135618.33 185.66
-9755146.41 5135615.88 185.96
-9755145.77 5135617.93 187.87
-9755147.02 5135619.11 188.43
-9755148.02 5135611.73 185.80
-9755149.85 5135612.06 186.73
-9755149.90 5135619.77 186.49
-9755147.26 5135617.50 188.60
-9755147.82 5135617.12 184.98
-9755147.78 5135619.16 187.85
-9755151.09 5135618.99 183.36
-9755148.97 5135611.78 186.46
-9755149.95 5135613.37 186.35
-9755146.88 5135619.41 189.09
-9755145.30 5135617.25 189.07
-9755147.86 5135619.99 188.55
-9755146.99 5135615.94 186.66
-9755146.98 5135620.22 189.57
-9755146.76 5135619.39 188.99
-9755146.65 5135618.22 188.29
-9755149.18 5135612.12 184.09
-9755146.97 5135618.23 189.18
-9755148.99 5135613.13 186.76
-9755145.24 5135615.40 185.87
-9755145.78 5135615.63 186.02
-9755148.27 5135619.77 188.17
-9755145.77 5135618.46 189.04
-9755149.10 5135612.48 184.08
-9755147.23 5135620.75 189.74
-9755149.81 5135617.37 184.79
-9755148.47 5135617.47 184.42
-9755148.69 5135611.66 184.35
-9755146.98 5135618.29 186.20
-9755147.33 5135619.41 189.46
-9755149.49 5135613.36 186.04
-9755149.06 5135613.31 185.86
-9755148.67 5135617.64 183.32
-9755149.05 5135614.20 185.07
-9755149.81 5135612.64 184.69
-9755147.40 5135619.69 188.85
-9755147.78 5135615.92 184.93
-9755147.55 5135619.51 187.59
-9755148.16 5135617.74 185.51
-9755148.48 5135613.29 186.17
-9755146.10 5135615.04 185.45
-9755145.52 5135619.06 188.88
-9755149.80 5135613.06 186.88
-9755150.55 5135612.12 184.86
-9755147.22 5135619.13 189.24
-9755147.38 5135611.88 184.65
-9755147.30 5135619.94 188.59
-9755146.41 5135619.93 189.53
-9755147.55 5135616.24 184.16
-9755147.27 5135618.98 189.05
-9755148.70 5135617.48 184.41
-9755146.65 5135619.94 189.50
-9755148.98 5135611.93 186.47
-9755150.52 5135612.93 186.19
-9755148.29 5135611.83 185.53
-9755147.86 5135618.02 186.61
-9755146.06 5135617.09 187.68
-9755147.31 5135611.79 185.08
-9755149.93 5135610.99 185.52
-9755145.79 5135619.01 189.81
-9755147.81 5135612.12 185.18
-9755144.98 5135620.74 189.53
-9755145.82 5135615.39 183.77
-9755145.71 5135615.76 184.79
-9755147.49 5135620.31 188.86
-9755145.77 5135616.16 186.67
-9755150.78 5135613.33 185.45
-9755150.21 5135617.86 183.36
-9755146.12 5135617.88 189.14
-9755146.90 5135620.85 189.03
-9755146.96 5135621.38 188.17
-9755150.45 5135624.87 186.22
-9755147.79 5135624.89 185.30
-9755151.68 5135623.70 186.02
-9755153.14 5135624.76 187.07
-9755147.60 5135621.18 188.23
-9755150.05 5135623.66 185.85
-9755146.09 5135624.57 185.19
-9755149.33 5135624.86 185.91
-9755145.30 5135621.56 188.06
-9755151.94 5135622.47 186.33
-9755147.28 5135622.07 188.00
-9755150.83 5135622.12 186.46
-9755145.90 5135621.17 188.64
-9755146.44 5135620.83 189.64
-9755148.94 5135622.41 185.82
-9755149.01 5135624.28 185.36
-9755149.94 5135621.63 184.84
-9755146.62 5135623.95 185.18
-9755150.95 5135623.71 186.52
-9755148.18 5135621.50 186.79
-9755146.35 5135624.27 185.35
-9755149.09 5135624.79 185.54
-9755149.93 5135623.70 186.21
-9755149.90 5135622.14 184.82
-9755152.52 5135622.66 183.53
-9755153.97 5135623.29 181.50
-9755151.65 5135622.80 186.24
-9755148.99 5135623.67 185.23
-9755146.53 5135624.31 185.43
-9755146.30 5135624.88 185.38
-9755152.19 5135624.86 186.64
-9755149.27 5135623.69 184.73
-9755150.74 5135623.90 186.48
-9755150.14 5135621.62 184.92
-9755147.45 5135623.66 185.30
-9755149.77 5135623.67 184.54
-9755150.17 5135622.47 185.01
-9755149.84 5135624.57 185.82
-9755152.80 5135623.88 187.28
-9755145.19 5135623.33 186.61
-9755151.28 5135622.74 185.35
-9755151.95 5135623.29 186.89
-9755154.03 5135623.62 187.02
-9755148.20 5135621.73 186.82
-9755150.21 5135622.20 184.95
-9755145.24 5135621.47 190.01
-9755148.12 5135624.55 185.31
-9755147.36 5135621.44 187.20
-9755151.90 5135624.50 186.67
-9755151.07 5135624.89 186.21
-9755151.43 5135623.51 184.18
-9755144.96 5135624.75 186.02
-9755152.00 5135623.56 186.76
-9755149.89 5135623.97 185.51
-9755151.09 5135624.79 186.32
-9755151.96 5135624.27 186.50
-9755151.09 5135621.87 186.35
-9755152.01 5135622.86 185.87
-9755145.53 5135621.43 189.09
-9755152.22 5135623.71 186.18
-9755153.10 5135624.76 187.21
-9755153.14 5135623.66 187.31
-9755146.40 5135622.13 188.01
-9755151.89 5135622.15 183.20
-9755150.54 5135621.76 185.16
-9755150.20 5135624.83 185.57
-9755149.92 5135623.95 185.50
-9755150.75 5135624.08 185.80
-9755145.80 5135622.28 188.69
-9755151.80 5135623.71 186.15
-9755151.35 5135622.85 183.93
-9755145.72 5135622.57 188.01
-9755150.66 5135622.51 185.92
-9755145.54 5135621.59 189.94
-9755151.08 5135623.35 186.04
-9755148.40 5135623.98 185.07
-9755153.12 5135622.64 183.65
-9755145.68 5135623.21 185.66
-9755151.96 5135623.44 185.41
-9755148.77 5135624.28 185.35
-9755153.14 5135623.45 186.08
-9755151.07 5135624.19 186.30
-9755146.14 5135621.19 188.99
-9755148.19 5135623.69 185.90
-9755148.42 5135624.44 186.68
-9755150.70 5135623.50 181.49
-9755145.87 5135621.48 189.10
-9755147.29 5135622.45 188.34
-9755148.88 5135624.42 186.68
-9755147.04 5135622.67 185.70
-9755151.74 5135623.90 186.27
-9755151.64 5135624.52 186.35
-9755150.40 5135624.84 185.58
-9755150.37 5135621.58 184.97
-9755149.90 5135621.93 184.81
-9755153.76 5135624.52 187.24
-9755147.24 5135624.55 185.38
-9755152.85 5135624.47 187.33
-9755154.26 5135622.58 184.18
-9755151.10 5135624.52 186.32
-9755150.82 5135609.67 181.44
-9755153.17 5135609.95 181.37
-9755154.04 5135609.67 181.25
-9755154.32 5135609.96 181.25
-9755144.57 5135625.68 186.33
-9755144.69 5135626.11 185.23
-9755144.61 5135628.16 186.54
-9755144.26 5135628.06 186.29
-9755141.93 5135625.80 182.81
-9755137.45 5135626.57 181.26
-9755136.30 5135625.00 181.26
-9755141.70 5135626.03 182.91
-9755143.94 5135624.94 185.19
-9755141.87 5135628.11 183.58
-9755141.59 5135627.31 183.58
-9755140.96 5135625.01 184.49
-9755136.24 5135627.32 181.26
-9755135.15 5135626.47 181.28
-9755145.27 5135618.67 189.82
-9755145.03 5135616.68 188.06
-9755144.96 5135619.94 189.75
-9755144.52 5135618.16 189.20
-9755144.92 5135617.26 188.94
-9755144.94 5135620.25 189.90
-9755144.64 5135618.70 189.18
-9755145.29 5135619.39 190.36
-9755144.64 5135619.93 189.28
-9755144.90 5135619.93 189.25
-9755144.85 5135617.79 188.84
-9755144.95 5135618.44 189.39
-9755144.89 5135615.38 185.99
-9755144.59 5135613.16 181.48
-9755144.89 5135616.74 187.33
-9755144.68 5135618.17 188.79
-9755144.62 5135617.03 187.89
-9755144.46 5135617.53 188.88
-9755144.45 5135615.85 186.90
-9755143.97 5135615.05 185.07
-9755142.79 5135617.57 187.06
-9755144.39 5135616.96 187.52
-9755143.12 5135615.01 185.50
-9755139.62 5135613.10 181.18
-9755143.19 5135619.09 188.24
-9755140.85 5135616.89 184.18
-9755142.58 5135619.61 187.10
-9755144.08 5135614.72 184.64
-9755143.36 5135618.85 188.36
-9755140.49 5135618.60 185.10
-9755140.76 5135618.68 185.10
-9755143.13 5135617.90 187.92
-9755140.80 5135619.19 185.35
-9755142.47 5135617.07 187.08
-9755144.30 5135617.05 187.79
-9755141.12 5135617.95 185.82
-9755139.59 5135614.92 181.19
-9755139.91 5135616.66 184.36
-9755140.79 5135620.10 185.98
-9755142.18 5135617.62 186.72
-9755142.06 5135617.93 186.78
-9755142.60 5135619.03 186.75
-9755142.62 5135618.83 186.65
-9755140.49 5135619.10 181.32
-9755143.70 5135614.18 184.65
-9755143.94 5135617.15 187.85
-9755143.42 5135617.04 186.78
-9755140.53 5135618.83 186.53
-9755142.93 5135617.12 185.08
-9755141.98 5135620.07 186.88
-9755142.29 5135615.02 185.66
-9755141.38 5135617.94 185.75
-9755139.58 5135617.44 184.43
-9755142.50 5135618.91 186.39
-9755143.65 5135619.92 188.49
-9755144.14 5135616.46 186.75
-9755141.70 5135619.12 186.47
-9755137.54 5135610.53 181.20
-9755144.05 5135618.49 189.37
-9755144.33 5135616.41 187.35
-9755144.05 5135618.79 188.92
-9755144.38 5135618.45 189.20
-9755141.70 5135616.16 184.59
-9755140.84 5135617.99 185.07
-9755142.22 5135616.25 185.28
-9755143.71 5135615.92 185.36
-9755141.98 5135616.26 185.28
-9755143.19 5135619.09 187.96
-9755143.09 5135617.99 186.62
-9755143.87 5135618.23 187.72
-9755142.32 5135615.63 182.88
-9755142.74 5135618.90 186.37
-9755141.71 5135618.27 186.25
-9755142.85 5135619.09 186.39
-9755140.83 5135616.98 185.34
-9755141.28 5135617.96 185.11
-9755144.05 5135616.87 185.62
-9755143.80 5135617.97 187.86
-9755143.68 5135615.08 185.41
-9755143.40 5135617.89 187.76
-9755144.03 5135614.97 184.95
-9755141.66 5135616.45 185.37
-9755143.71 5135620.26 189.07
-9755140.74 5135620.05 185.90
-9755142.83 5135619.62 188.10
-9755142.46 5135617.84 186.42
-9755144.04 5135618.72 189.48
-9755142.36 5135618.06 187.03
-9755144.11 5135618.44 188.91
-9755140.73 5135617.78 184.20
-9755142.66 5135614.21 185.58
-9755141.11 5135617.99 186.57
-9755143.19 5135618.18 187.95
-9755142.09 5135615.00 185.64
-9755144.10 5135614.82 184.69
-9755142.83 5135620.85 188.49
-9755142.23 5135617.77 185.42
-9755141.54 5135618.65 185.58
-9755143.11 5135617.66 186.69
-9755141.61 5135619.41 186.62
-9755142.56 5135619.42 187.04
-9755143.15 5135617.12 185.47
-9755141.02 5135617.11 185.24
-9755141.35 5135617.65 186.51
-9755137.49 5135615.21 181.22
-9755141.67 5135617.69 185.28
-9755142.44 5135619.70 186.32
-9755141.10 5135618.02 185.07
-9755143.18 5135616.29 185.36
-9755144.06 5135619.54 189.66
-9755142.00 5135615.64 185.43
-9755139.92 5135611.71 181.19
-9755144.35 5135614.24 184.68
-9755141.32 5135611.24 182.25
-9755137.87 5135615.79 181.21
-9755140.73 5135617.07 185.16
-9755142.39 5135618.30 186.61
-9755144.23 5135616.48 186.14
-9755143.17 5135619.42 186.89
-9755141.45 5135617.94 185.21
-9755143.09 5135614.20 185.55
-9755143.52 5135618.41 189.19
-9755140.50 5135620.36 185.89
-9755141.98 5135615.51 182.89
-9755144.02 5135615.04 183.90
-9755141.62 5135617.47 185.35
-9755142.21 5135617.93 186.36
-9755141.34 5135620.60 186.94
-9755141.06 5135619.60 186.05
-9755141.62 5135616.21 185.07
-9755140.78 5135618.36 185.13
-9755136.65 5135611.68 181.22
-9755142.63 5135618.71 188.11
-9755144.31 5135619.55 189.95
-9755140.46 5135616.79 185.12
-9755143.08 5135617.45 185.11
-9755141.59 5135616.72 181.37
-9755142.79 5135619.98 187.21
-9755142.50 5135617.40 185.39
-9755144.33 5135617.05 187.29
-9755140.79 5135614.95 181.34
-9755144.71 5135624.50 186.67
-9755144.85 5135621.68 189.10
-9755144.86 5135624.50 186.30
-9755144.69 5135624.19 186.20
-9755144.89 5135621.17 188.99
-9755144.84 5135624.25 186.22
-9755142.60 5135620.79 188.47
-9755142.49 5135621.05 188.50
-9755140.73 5135622.44 185.00
-9755144.13 5135621.32 189.89
-9755141.12 5135620.90 186.91
-9755143.18 5135621.69 187.84
-9755144.29 5135624.81 186.32
-9755141.76 5135621.13 187.54
-9755144.03 5135622.16 187.54
-9755142.86 5135624.86 183.94
-9755137.19 5135623.24 181.25
-9755139.97 5135623.08 184.31
-9755142.54 5135620.91 187.90
-9755141.67 5135621.78 186.47
-9755144.05 5135621.12 188.97
-9755142.27 5135620.85 187.68
-9755144.26 5135624.47 186.28
-9755141.61 5135622.06 186.43
-9755141.60 5135622.41 186.51
-9755141.30 5135622.42 186.17
-9755143.78 5135621.74 187.54
-9755143.70 5135620.87 188.95
-9755144.31 5135621.08 189.20
-9755141.93 5135622.47 186.27
-9755142.05 5135622.46 186.56
-9755143.39 5135624.84 184.71
-9755140.43 5135622.50 184.26
-9755142.58 5135621.60 186.20
-9755141.66 5135621.54 186.96
-9755142.85 5135623.62 186.13
-9755140.09 5135622.09 184.76
-9755144.34 5135620.80 189.90
-9755143.72 5135622.71 186.01
-9755143.43 5135621.96 188.70
-9755144.32 5135622.03 187.99
-9755140.43 5135624.89 184.49
-9755144.46 5135624.52 184.99
-9755143.40 5135624.64 184.64
-9755140.43 5135621.59 183.86
-9755143.99 5135624.49 186.28
-9755142.05 5135621.53 187.89
