-9755354.22 5135417.58 186.46
-9755356.03 5135419.01 186.23
-9755358.36 5135418.11 186.83
-9755359.91 5135417.86 186.86
-9755362.23 5135419.09 186.06
-9755353.77 5135417.70 186.63
-9755360.18 5135418.23 186.25
-9755352.83 5135417.55 186.67
-9755352.47 5135418.18 186.91
-9755365.68 5135427.27 183.90
-9755368.35 5135419.18 185.80
-9755362.50 5135419.13 186.04
-9755363.04 5135420.32 185.78
-9755371.35 5135422.15 185.14
-9755367.19 5135421.15 185.54
-9755369.27 5135421.19 186.00
-9755371.95 5135419.70 185.60
-9755365.71 5135424.19 184.93
-9755371.36 5135421.83 185.76
-9755367.48 5135420.86 185.57
-9755363.71 5135424.69 185.37
-9755369.74 5135419.75 185.72
-9755366.57 5135422.99 185.14
-9755365.02 5135422.64 185.80
-9755362.76 5135425.66 184.81
-9755364.53 5135422.16 185.36
-9755369.53 5135425.72 184.55
-9755372.45 5135420.43 185.47
-9755370.46 5135419.15 185.81
-9755370.81 5135419.69 185.61
-9755366.22 5135423.57 185.09
-9755365.41 5135422.35 185.35
-9755365.72 5135421.81 185.36
-9755369.01 5135424.09 185.45
-9755368.37 5135424.22 184.93
-9755370.18 5135420.79 185.53
-9755373.00 5135426.31 184.54
-9755367.17 5135424.22 184.92
-9755365.17 5135420.55 185.57
-9755367.72 5135420.01 186.24
-9755365.44 5135419.46 185.89
-9755370.42 5135420.60 186.04
-9755364.71 5135425.92 184.52
-9755372.41 5135426.35 184.53
-9755371.30 5135421.53 185.36
-9755369.01 5135422.45 185.14
-9755370.42 5135422.93 185.12
-9755371.29 5135422.31 185.70
-9755373.06 5135423.33 184.94
-9755365.43 5135423.28 185.15
-9755366.60 5135423.61 184.94
-9755364.56 5135419.99 185.78
-9755366.63 5135424.50 184.90
-9755365.40 5135426.56 184.56
-9755368.93 5135420.33 185.58
-9755365.14 5135422.36 185.35
-9755370.43 5135420.94 185.37
-9755372.52 5135422.44 185.13
-9755369.86 5135423.62 184.94
-9755366.65 5135422.13 185.36
-9755370.76 5135419.71 186.12
-9755366.59 5135425.95 184.57
-9755362.46 5135425.04 184.92
-9755367.24 5135419.20 185.80
-9755372.96 5135426.39 183.91
-9755368.39 5135420.07 185.60
-9755363.09 5135423.29 185.20
-9755363.07 5135422.94 185.31
-9755369.88 5135421.24 185.36
-9755363.95 5135422.95 185.15
-9755366.60 5135419.44 185.79
-9755371.61 5135422.77 185.03
-9755370.71 5135424.00 184.79
-9755364.24 5135422.10 185.36
-9755368.09 5135420.02 185.68
-9755370.11 5135422.11 185.66
-9755363.30 5135421.50 186.09
-9755372.18 5135422.43 185.14
-9755366.32 5135419.41 185.78
-9755372.79 5135423.99 184.75
-9755369.84 5135420.05 186.16
-9755372.53 5135425.44 184.55
-9755366.58 5135419.62 186.35
-9755365.40 5135426.31 184.56
-9755368.04 5135424.81 184.73
-9755366.77 5135424.82 184.74
-9755364.31 5135423.96 185.53
-9755365.08 5135425.98 184.64
-9755364.83 5135421.78 185.36
-9755373.06 5135422.79 185.53
-9755368.69 5135422.99 185.14
-9755365.67 5135420.29 186.21
-9755366.64 5135424.65 185.36
-9755363.36 5135422.90 185.80
-9755368.08 5135424.18 184.93
-9755371.56 5135424.83 184.74
-9755365.70 5135424.75 184.83
-9755366.61 5135423.81 185.54
-9755365.96 5135426.21 184.54
-9755367.50 5135422.47 185.15
-9755366.60 5135419.97 185.79
-9755366.35 5135421.21 185.56
-9755367.54 5135421.51 185.77
-9755372.99 5135424.79 185.14
-9755363.08 5135420.95 185.60
-9755371.88 5135420.57 185.53
-9755369.27 5135419.18 185.80
-9755364.20 5135421.47 185.59
-9755369.61 5135421.07 186.00
-9755368.37 5135422.13 185.33
-9755368.97 5135424.68 185.19
-9755373.13 5135424.77 184.72
-9755369.59 5135420.32 185.59
-9755369.23 5135423.32 184.94
-9755369.56 5135422.23 185.14
-9755365.13 5135420.91 185.56
-9755367.49 5135421.59 185.36
-9755362.99 5135421.86 185.48
-9755367.51 5135420.09 185.59
-9755370.74 5135420.06 185.59
-9755371.04 5135422.07 185.56
-9755367.18 5135425.73 184.58
-9755365.58 5135423.58 185.56
-9755371.67 5135422.54 185.63
-9755362.74 5135423.58 185.18
-9755367.18 5135426.00 184.55
-9755372.15 5135422.78 184.99
-9755364.47 5135425.02 184.97
-9755370.72 5135426.02 184.54
-9755364.25 5135419.72 185.80
-9755363.97 5135425.08 184.84
-9755366.56 5135425.97 185.14
-9755370.71 5135422.61 185.70
-9755365.77 5135420.03 185.79
-9755365.46 5135422.71 185.18
-9755364.53 5135425.69 184.74
-9755363.96 5135421.18 185.59
-9755368.63 5135424.83 184.74
-9755367.48 5135425.75 184.56
-9755362.43 5135422.41 185.41
-9755366.24 5135422.55 185.72
-9755369.27 5135420.04 185.59
-9755365.08 5135423.58 185.15
-9755363.10 5135419.60 186.40
-9755366.03 5135419.94 186.35
-9755367.48 5135424.54 184.89
-9755370.15 5135424.23 185.33
-9755373.10 5135419.44 185.58
-9755369.86 5135421.54 185.36
-9755368.12 5135421.18 185.38
-9755369.51 5135423.34 184.94
-9755373.06 5135425.11 184.56
-9755364.65 5135421.58 185.98
-9755364.47 5135422.47 185.59
-9755364.24 5135420.01 185.79
-9755370.14 5135422.46 185.14
-9755368.36 5135425.10 184.74
-9755365.96 5135425.72 184.73
-9755363.05 5135424.19 185.08
-9755370.47 5135423.36 184.94
-9755368.32 5135423.61 184.94
-9755362.47 5135424.20 185.08
-9755367.17 5135422.67 185.15
-9755369.83 5135420.30 185.58
-9755362.72 5135424.47 185.03
-9755371.37 5135424.49 185.32
-9755363.99 5135421.64 186.24
-9755371.63 5135420.31 185.58
-9755368.94 5135424.55 184.74
-9755367.14 5135424.51 185.29
-9755363.35 5135422.09 186.07
-9755369.73 5135423.05 185.44
-9755366.61 5135422.34 185.35
-9755363.94 5135421.80 185.37
-9755365.11 5135424.20 184.94
-9755363.66 5135425.11 185.15
-9755366.34 5135420.32 185.58
-9755366.27 5135424.47 184.93
-9755363.32 5135425.70 184.76
-9755368.39 5135419.45 185.79
-9755365.74 5135421.87 185.97
-9755369.76 5135426.34 184.54
-9755362.20 5135424.80 184.98
-9755353.92 5135419.04 186.22
-9755360.21 5135420.02 186.02
-9755358.04 5135419.05 186.24
-9755360.95 5135421.46 185.61
-9755361.28 5135425.68 184.75
-9755359.82 5135424.44 185.12
-9755357.80 5135419.93 186.02
-9755357.74 5135423.74 185.41
-9755356.88 5135418.99 186.23
-9755355.11 5135422.31 185.57
-9755357.76 5135425.90 184.81
-9755359.79 5135424.48 185.60
-9755356.25 5135420.54 186.01
-9755361.36 5135419.12 186.10
-9755355.94 5135421.67 185.78
-9755358.03 5135421.76 185.58
-9755359.81 5135422.64 185.38
-9755356.40 5135422.03 186.16
-9755353.36 5135419.97 186.02
-9755353.94 5135424.48 185.13
-9755357.15 5135421.41 185.79
-9755359.83 5135424.14 185.15
-9755361.87 5135424.49 185.05
-9755360.47 5135419.14 186.03
-9755361.85 5135421.72 185.58
-9755353.93 5135420.53 185.99
-9755355.67 5135425.64 184.94
-9755357.78 5135420.24 185.97
-9755355.68 5135424.45 185.16
-9755359.85 5135423.37 185.74
-9755361.86 5135425.38 184.87
-9755360.73 5135422.08 185.59
-9755354.81 5135425.52 185.57
-9755358.90 5135421.77 185.99
-9755353.51 5135420.97 186.01
-9755358.29 5135424.12 185.62
-9755358.28 5135425.06 184.97
-9755353.61 5135423.78 185.35
-9755358.94 5135420.87 185.80
-9755361.55 5135425.38 184.92
-9755359.10 5135421.49 186.15
-9755354.53 5135425.23 185.09
-9755356.90 5135419.48 186.67
-9755352.84 5135421.57 186.43
-9755352.78 5135421.42 185.77
-9755356.33 5135419.02 186.23
-9755357.53 5135422.58 185.58
-9755359.24 5135422.06 185.60
-9755359.25 5135419.67 186.03
-9755359.12 5135426.79 185.17
-9755354.14 5135421.36 186.25
-9755360.70 5135423.59 185.16
-9755360.09 5135420.55 186.46
-9755356.90 5135422.94 185.37
-9755352.64 5135420.81 186.36
-9755359.81 5135421.75 185.61
-9755361.04 5135423.31 185.21
-9755355.72 5135420.52 186.01
-9755356.88 5135419.97 186.01
-9755356.83 5135421.44 185.80
-9755357.13 5135424.67 185.17
-9755356.52 5135424.07 185.15
-9755358.92 5135424.10 185.15
-9755356.53 5135420.81 185.81
-9755353.33 5135426.17 184.92
-9755355.15 5135418.99 186.85
-9755353.97 5135425.22 185.11
-9755352.75 5135426.19 184.93
-9755358.30 5135424.13 185.16
-9755356.01 5135421.14 185.79
-9755356.21 5135423.25 185.68
-9755356.85 5135420.25 186.01
-9755353.59 5135424.68 185.15
-9755353.01 5135421.44 185.77
-9755361.00 5135419.96 185.94
-9755357.13 5135422.92 185.37
-9755357.77 5135424.16 185.15
-9755362.21 5135420.59 185.79
-9755358.94 5135420.33 186.36
-9755358.02 5135421.40 185.59
-9755355.68 5135422.02 185.59
-9755357.16 5135423.82 185.20
-9755356.30 5135419.67 186.03
-9755357.50 5135420.56 185.82
-9755359.57 5135422.25 185.50
-9755355.67 5135425.34 184.95
-9755355.17 5135426.32 184.76
-9755352.41 5135426.20 184.93
-9755356.53 5135422.35 185.58
-9755355.92 5135426.12 185.39
-9755356.90 5135423.53 185.38
-9755356.20 5135424.95 185.09
-9755360.65 5135424.42 185.61
-9755360.28 5135424.35 185.17
-9755355.15 5135425.02 185.60
-9755360.11 5135421.52 185.61
-9755357.97 5135424.66 185.15
-9755355.12 5135422.29 186.13
-9755358.83 5135424.21 185.50
-9755359.23 5135421.79 185.60
-9755360.09 5135421.18 185.65
-9755352.97 5135424.63 185.61
-9755359.23 5135424.44 185.12
-9755354.15 5135422.66 186.14
-9755355.94 5135420.27 186.02
-9755352.43 5135423.81 185.35
-9755353.07 5135419.92 186.11
-9755355.71 5135419.58 186.09
-9755353.27 5135419.68 185.85
-9755353.09 5135423.23 185.53
-9755356.70 5135422.80 186.04
-9755356.89 5135420.85 185.80
-9755353.04 5135425.26 185.15
-9755353.96 5135422.06 185.61
-9755354.81 5135423.78 185.36
-9755360.41 5135426.22 184.75
-9755352.68 5135423.51 185.83
-9755360.12 5135425.82 185.12
-9755355.14 5135421.85 185.65
-9755352.55 5135420.25 186.01
-9755355.52 5135423.01 186.01
-9755353.89 5135425.00 185.13
-9755361.28 5135424.44 184.99
-9755355.90 5135424.02 185.62
-9755358.64 5135422.82 185.81
-9755361.84 5135426.29 184.72
-9755358.05 5135422.54 185.98
-9755352.71 5135423.22 185.57
-9755358.73 5135422.42 185.43
-9755359.80 5135425.72 185.28
-9755354.82 5135424.17 185.22
-9755356.55 5135425.01 185.02
-9755353.24 5135425.66 184.96
-9755356.85 5135423.86 185.98
-9755353.01 5135422.30 185.58
-9755355.95 5135422.94 185.41
-9755352.73 5135424.06 185.35
-9755354.79 5135420.01 186.02
-9755359.10 5135424.16 185.60
-9755355.13 5135421.73 185.80
-9755353.42 5135423.32 185.35
-9755360.10 5135423.55 185.14
-9755359.20 5135425.03 184.96
-9755352.72 5135423.85 185.35
-9755360.33 5135424.14 185.61
-9755354.88 5135426.39 185.34
-9755354.53 5135419.60 186.22
-9755358.97 5135423.55 185.16
-9755353.88 5135426.20 184.92
-9755362.13 5135426.25 184.72
-9755355.99 5135425.00 185.57
-9755353.92 5135425.31 185.60
-9755358.00 5135425.03 184.97
-9755358.93 5135421.72 185.60
-9755358.34 5135426.15 185.34
-9755351.88 5135418.14 186.43
-9755350.95 5135418.05 186.53
-9755351.61 5135418.11 186.44
-9755350.20 5135418.20 186.46
-9755349.82 5135417.82 186.65
-9755349.81 5135417.51 186.65
-9755350.99 5135417.52 186.63
-9755350.72 5135417.51 186.64
-9755350.11 5135418.70 186.44
-9755352.44 5135419.59 186.21
-9755351.03 5135419.21 186.81
-9755351.92 5135417.53 186.64
-9755349.84 5135418.36 187.05
-9755346.88 5135418.59 186.63
-9755346.91 5135417.56 186.65
-9755347.98 5135418.39 186.96
-9755347.79 5135417.46 187.27
-9755348.94 5135418.08 186.63
-9755348.96 5135417.54 186.64
-9755348.03 5135419.00 186.44
-9755348.16 5135417.50 187.27
-9755352.41 5135425.84 185.34
-9755350.70 5135420.75 186.54
-9755352.28 5135419.32 186.20
-9755350.11 5135421.66 186.39
-9755350.17 5135421.38 185.94
-9755349.29 5135423.84 185.51
-9755350.71 5135426.21 184.95
-9755351.29 5135419.87 186.66
-9755350.61 5135419.54 186.65
-9755349.87 5135421.38 186.46
-9755350.03 5135422.52 186.25
-9755351.03 5135420.52 186.48
-9755352.34 5135425.26 185.73
-9755351.56 5135423.81 185.36
-9755350.30 5135424.10 185.80
-9755350.09 5135422.31 186.26
-9755350.13 5135424.73 185.78
-9755351.88 5135420.55 186.00
-9755351.87 5135422.94 185.57
-9755350.40 5135420.49 186.00
-9755350.61 5135420.45 186.65
-9755349.51 5135421.68 185.81
-9755350.68 5135425.58 185.15
-9755351.91 5135420.80 186.00
-9755349.58 5135420.80 186.01
-9755349.83 5135423.85 185.35
-9755351.27 5135420.75 186.00
-9755350.35 5135425.57 185.14
-9755349.23 5135424.42 185.38
-9755349.07 5135424.34 185.99
-9755350.61 5135421.73 186.41
-9755349.43 5135426.15 185.60
-9755351.84 5135424.38 185.36
-9755349.12 5135424.89 185.33
-9755350.06 5135425.28 185.15
-9755351.30 5135420.51 186.01
-9755350.98 5135419.31 186.24
-9755349.77 5135420.55 186.01
-9755351.05 5135424.69 185.76
-9755350.98 5135424.36 185.36
-9755352.53 5135419.71 186.70
-9755351.08 5135421.75 186.46
-9755351.85 5135424.98 185.14
-9755350.99 5135421.67 185.80
-9755350.66 5135423.68 185.93
-9755350.06 5135424.10 185.36
-9755351.26 5135425.40 185.70
-9755349.52 5135424.93 185.19
-9755350.38 5135423.77 185.36
-9755351.88 5135425.60 185.12
-9755350.09 5135422.01 185.79
-9755350.67 5135425.23 185.14
-9755349.83 5135421.88 186.40
-9755351.00 5135420.99 186.54
-9755351.59 5135421.37 185.81
-9755349.47 5135422.92 185.59
-9755345.90 5135427.06 184.97
-9755348.92 5135424.09 185.38
-9755347.74 5135418.97 186.44
-9755346.88 5135419.85 186.24
-9755349.19 5135421.70 186.42
-9755348.68 5135420.58 186.11
-9755347.49 5135424.43 185.81
-9755347.17 5135420.49 186.22
-9755347.41 5135426.10 185.13
-9755348.06 5135424.07 185.92
-9755347.73 5135426.28 185.56
-9755348.36 5135422.94 186.26
-9755348.08 5135421.34 186.02
-9755347.71 5135420.68 186.62
-9755347.33 5135425.45 185.71
-9755347.20 5135421.70 186.00
-9755348.93 5135423.54 185.97
-9755348.43 5135423.33 186.11
-9755347.70 5135424.27 185.66
-9755348.65 5135423.16 185.58
-9755346.84 5135424.93 185.39
-9755346.87 5135421.90 186.47
-9755347.52 5135421.97 185.82
-9755347.48 5135420.20 186.22
-9755347.75 5135424.93 185.72
-9755347.69 5135422.87 186.21
-9755346.92 5135421.99 185.83
-9755346.87 5135423.15 185.60
-9755347.74 5135420.46 186.23
-9755348.29 5135423.71 185.92
-9755348.95 5135419.83 186.22
-9755348.34 5135424.35 185.38
-9755348.31 5135421.68 185.99
-9755347.08 5135425.46 185.75
-9755348.01 5135425.31 185.15
-9755347.71 5135423.74 185.57
-9755348.94 5135422.90 185.58
-9755347.51 5135422.93 186.20
-9755347.43 5135425.86 185.14
-9755347.35 5135419.72 186.25
-9755347.39 5135420.77 186.04
-9755348.03 5135419.89 186.22
-9755347.51 5135419.36 186.88
-9755347.88 5135422.14 186.20
-9755348.31 5135421.83 185.83
-9755346.62 5135417.55 186.74
-9755346.03 5135418.75 186.49
-9755346.55 5135417.93 187.10
-9755345.70 5135418.68 186.63
-9755346.25 5135422.14 186.35
-9755346.72 5135422.99 186.35
-9755345.10 5135420.46 186.27
-9755345.95 5135424.03 185.60
-9755346.51 5135423.75 185.59
-9755345.62 5135422.23 185.94
-9755346.58 5135419.55 186.44
-9755346.24 5135423.22 185.62
-9755346.53 5135421.36 186.01
-9755346.50 5135421.10 186.54
-9755346.66 5135419.92 186.83
-9755346.24 5135424.94 185.37
-9755346.06 5135420.12 186.24
-9755345.89 5135425.52 185.26
-9755345.39 5135423.42 185.71
-9755345.09 5135424.94 185.42
-9755345.39 5135421.36 186.05
-9755345.95 5135422.28 185.80
-9755345.39 5135419.54 186.44
-9755346.49 5135426.14 185.14
-9755345.64 5135421.07 186.07
-9755345.98 5135421.62 186.01
-9755393.05 5135431.80 185.25
-9755392.84 5135431.75 185.26
-9755390.41 5135432.08 184.31
-9755395.30 5135432.27 185.58
-9755395.41 5135431.77 185.12
-9755391.58 5135432.01 184.51
-9755391.01 5135432.59 184.93
-9755389.52 5135431.74 184.34
-9755386.28 5135431.72 183.93
-9755387.50 5135432.12 184.04
-9755388.02 5135432.08 184.12
-9755384.51 5135431.77 183.76
-9755384.20 5135432.30 183.74
-9755384.05 5135432.52 183.72
-9755392.50 5135439.68 183.86
-9755397.41 5135443.62 184.33
-9755397.76 5135435.89 184.94
-9755389.48 5135439.51 183.33
-9755394.22 5135437.92 184.84
-9755389.52 5135437.65 184.15
-9755393.66 5135435.59 184.34
-9755395.41 5135438.60 184.35
-9755391.29 5135437.97 183.74
-9755396.20 5135437.78 185.09
-9755397.77 5135436.19 184.94
-9755390.32 5135434.72 184.01
-9755392.81 5135437.78 184.01
-9755396.58 5135435.34 184.93
-9755394.48 5135441.34 184.06
-9755392.40 5135437.15 184.57
-9755395.46 5135443.15 184.61
-9755391.15 5135437.09 184.55
-9755396.54 5135443.63 184.16
-9755391.19 5135437.14 184.33
-9755388.86 5135434.78 183.81
-9755395.19 5135437.86 184.82
-9755394.46 5135438.56 184.94
-9755391.64 5135440.28 183.67
-9755393.52 5135442.46 183.74
-9755388.78 5135441.62 183.11
-9755390.35 5135439.50 183.51
-9755392.43 5135440.34 183.76
-9755392.18 5135432.96 184.52
-9755391.88 5135435.03 184.15
-9755396.54 5135442.14 184.33
-9755395.35 5135442.43 184.13
-9755390.40 5135436.50 183.82
-9755390.36 5135437.12 183.73
-9755390.58 5135433.81 184.78
-9755393.31 5135438.29 184.12
-9755395.71 5135432.99 184.95
-9755391.04 5135432.94 184.32
-9755397.42 5135434.99 185.07
-9755392.09 5135440.40 183.74
-9755392.47 5135439.50 183.86
-9755395.37 5135435.91 184.61
-9755392.53 5135433.26 184.50
-9755397.72 5135443.64 184.33
-9755390.64 5135433.29 184.76
-9755393.28 5135436.59 184.23
-9755397.51 5135433.85 185.11
-9755389.47 5135440.59 183.85
-9755396.61 5135435.58 184.91
-9755394.07 5135437.99 184.75
-9755397.72 5135437.72 184.90
-9755390.33 5135433.31 184.13
-9755392.14 5135438.72 184.51
-9755397.62 5135441.21 184.88
-9755390.43 5135440.33 183.54
-9755393.69 5135439.20 184.13
-9755392.42 5135443.65 183.54
-9755392.14 5135436.78 184.08
-9755393.32 5135441.00 183.91
-9755391.05 5135437.18 184.25
-9755394.39 5135439.19 184.73
-9755390.01 5135439.81 183.40
-9755394.56 5135433.57 184.73
-9755393.29 5135435.43 184.31
-9755394.45 5135432.94 185.37
-9755389.98 5135442.83 183.23
-9755396.27 5135442.50 184.20
-9755391.36 5135435.89 184.05
-9755394.53 5135433.26 184.75
-9755394.42 5135443.27 184.36
-9755389.54 5135435.03 183.90
-9755389.17 5135443.01 183.09
-9755397.75 5135438.62 184.84
-9755397.77 5135432.97 185.33
-9755393.37 5135436.59 184.29
-9755394.51 5135437.38 184.32
-9755397.79 5135433.61 185.16
-9755394.57 5135439.18 184.25
-9755389.75 5135440.39 183.34
-9755396.88 5135439.22 184.64
-9755394.51 5135437.08 184.31
-9755390.41 5135433.90 184.11
-9755390.37 5135442.50 183.31
-9755396.27 5135435.85 185.37
-9755390.49 5135438.24 184.28
-9755389.79 5135437.09 183.72
-9755392.13 5135440.09 183.73
-9755394.51 5135440.71 184.13
-9755392.14 5135439.96 184.30
-9755397.21 5135442.39 184.86
-9755393.86 5135441.58 183.94
-9755392.89 5135435.03 184.89
-9755397.38 5135442.11 184.42
-9755392.41 5135441.34 183.74
-9755393.28 5135441.24 183.88
-9755397.72 5135438.34 184.86
-9755389.51 5135434.41 183.91
-9755392.50 5135439.82 184.30
-9755395.05 5135441.28 184.14
-9755389.47 5135439.24 183.37
-9755394.47 5135435.98 184.51
-9755397.78 5135433.88 185.13
-9755389.73 5135436.25 183.73
-9755396.20 5135437.54 185.09
-9755393.07 5135432.88 185.20
-9755393.06 5135433.87 184.52
-9755387.06 5135438.95 183.60
-9755385.35 5135432.96 183.73
-9755387.72 5135436.25 183.52
-9755388.31 5135436.25 183.54
-9755385.77 5135440.87 183.27
-9755387.91 5135440.31 183.08
-9755385.03 5135433.83 183.55
-9755385.45 5135439.20 182.93
-9755385.40 5135437.11 183.14
-9755385.06 5135438.91 182.79
-9755387.94 5135441.32 182.98
-9755383.08 5135433.28 183.38
-9755388.27 5135434.74 183.72
-9755387.09 5135438.59 183.16
-9755387.69 5135442.47 182.86
-9755382.51 5135443.16 181.18
-9755382.98 5135439.20 182.63
-9755388.33 5135437.16 183.51
-9755387.07 5135440.40 182.96
-9755387.75 5135435.78 184.14
-9755383.65 5135434.17 183.33
-9755384.55 5135441.65 182.91
-9755387.45 5135432.94 183.93
-9755388.36 5135432.99 184.02
-9755387.98 5135441.92 182.97
-9755387.97 5135440.70 183.01
-9755385.08 5135432.94 183.73
-9755384.17 5135439.53 182.68
-9755387.15 5135441.89 182.80
-9755385.07 5135435.85 183.29
-9755386.18 5135442.45 182.61
-9755382.95 5135438.03 182.77
-9755382.35 5135436.83 183.30
-9755385.82 5135439.95 183.37
-9755384.09 5135440.95 182.53
-9755383.57 5135442.48 182.23
-9755385.61 5135440.46 182.78
-9755384.18 5135435.37 183.25
-9755388.29 5135442.74 182.96
-9755384.20 5135437.11 183.04
-9755384.44 5135437.48 182.99
-9755382.43 5135433.88 183.34
-9755387.09 5135442.23 182.79
-9755384.37 5135439.54 183.21
-9755385.03 5135440.73 182.60
-9755383.92 5135441.59 182.41
-9755386.88 5135440.86 182.93
-9755386.51 5135443.67 182.62
-9755382.98 5135434.44 183.33
-9755388.32 5135440.71 183.14
-9755386.28 5135441.83 182.77
-9755385.05 5135442.80 182.41
-9755382.67 5135438.61 182.65
-9755388.29 5135438.05 183.35
-9755382.71 5135436.21 182.95
-9755388.35 5135435.53 184.13
-9755386.23 5135438.01 183.14
-9755387.45 5135436.97 183.86
-9755384.19 5135432.97 183.55
-9755388.29 5135439.58 183.80
-9755385.62 5135437.48 183.15
-9755392.37 5135432.14 184.61
-9755393.05 5135431.76 184.71
-9755391.57 5135431.41 184.56
-9755393.64 5135428.52 185.29
-9755396.90 5135431.70 185.33
-9755389.54 5135429.70 184.55
-9755396.94 5135428.20 185.77
-9755391.90 5135427.66 185.20
-9755391.31 5135429.67 184.85
-9755396.38 5135428.52 186.20
-9755397.02 5135427.55 186.33
-9755394.54 5135428.48 185.32
-9755394.93 5135427.29 185.57
-9755393.73 5135430.86 184.93
-9755393.67 5135430.03 185.11
-9755391.34 5135427.58 185.12
-9755392.48 5135429.72 184.93
-9755395.11 5135430.52 185.15
-9755394.95 5135427.33 186.18
-9755393.32 5135430.46 185.48
-9755397.78 5135431.35 186.03
-9755393.42 5135428.84 185.13
-9755393.70 5135427.59 185.44
-9755396.95 5135427.55 185.84
-9755391.62 5135428.71 185.02
-9755396.07 5135430.88 185.34
-9755393.68 5135429.09 185.12
-9755394.55 5135427.59 185.56
-9755395.75 5135428.14 185.55
-9755395.19 5135427.58 185.89
-9755389.57 5135427.31 184.97
-9755396.88 5135427.60 185.79
-9755394.06 5135429.00 185.30
-9755393.67 5135431.12 184.92
-9755393.70 5135429.39 185.11
-9755392.51 5135428.19 185.22
-9755388.96 5135429.66 184.53
-9755382.16 5135432.08 183.54
-9755385.42 5135430.64 184.11
-9755386.29 5135430.55 184.14
-9755386.28 5135432.04 183.92
-9755387.10 5135430.63 184.21
-9755384.17 5135431.52 183.76
-9755384.29 5135427.96 184.35
-9755386.39 5135428.86 185.00
-9755382.72 5135429.33 184.14
-9755385.38 5135427.29 184.55
-9755383.66 5135430.41 184.56
-9755387.76 5135430.88 184.31
-9755382.84 5135427.60 184.36
-9755387.84 5135427.49 185.31
-9755387.86 5135427.24 184.89
-9755388.69 5135430.47 184.96
-9755382.18 5135430.56 183.92
-9755384.23 5135429.64 184.14
-9755388.14 5135428.51 185.03
-9755383.32 5135431.21 183.76
-9755386.23 5135428.85 184.44
-9755383.54 5135431.14 184.27
-9755387.92 5135428.39 185.24
-9755385.44 5135428.74 184.33
-9755387.46 5135429.73 184.36
-9755387.18 5135430.30 184.32
-9755388.32 5135429.01 184.58
-9755383.71 5135430.30 184.39
-9755382.73 5135428.54 184.26
-9755385.74 5135427.22 185.18
-9755384.25 5135428.01 184.81
-9755383.37 5135429.99 184.44
-9755375.65 5135431.70 183.63
-9755382.15 5135431.41 183.75
-9755381.30 5135432.36 183.52
-9755381.25 5135431.45 183.70
-9755382.08 5135435.36 182.98
-9755381.31 5135439.08 182.95
-9755379.71 5135437.70 182.63
-9755382.07 5135441.64 181.14
-9755380.25 5135438.81 182.55
-9755381.24 5135439.53 181.12
-9755377.92 5135434.71 183.02
-9755378.32 5135435.37 182.60
-9755376.01 5135433.70 184.39
-9755377.26 5135434.70 183.40
-9755375.67 5135432.61 183.62
-9755378.02 5135438.87 183.57
-9755377.78 5135438.63 181.16
-9755375.60 5135439.10 183.58
-9755378.62 5135435.41 182.59
-9755376.81 5135433.62 181.08
-9755376.47 5135439.10 183.58
-9755376.75 5135438.37 181.16
-9755377.68 5135437.07 181.85
-9755378.02 5135435.96 182.37
-9755379.82 5135438.30 182.57
-9755378.82 5135436.80 181.95
-9755382.12 5135434.44 183.14
-9755381.05 5135439.68 183.33
-9755379.47 5135432.89 183.43
-9755377.40 5135435.45 182.16
-9755378.59 5135435.04 182.76
-9755378.85 5135436.88 181.89
-9755377.05 5135437.12 181.55
-9755378.91 5135433.21 183.64
-9755381.50 5135439.70 182.55
-9755377.16 5135437.99 181.62
-9755382.10 5135441.59 182.48
-9755377.12 5135436.76 181.78
-9755377.96 5135438.49 196.06
-9755380.08 5135437.05 182.74
-9755377.72 5135436.79 183.25
-9755378.10 5135438.43 186.70
-9755374.75 5135433.64 181.11
-9755374.64 5135442.49 181.18
-9755375.12 5135432.94 183.63
-9755374.11 5135439.11 183.59
-9755374.72 5135440.11 181.16
-9755373.86 5135433.43 184.18
-9755374.77 5135433.44 184.38
-9755373.52 5135439.70 183.59
-9755373.00 5135431.71 183.64
-9755371.83 5135431.98 183.63
-9755373.90 5135435.36 181.12
-9755371.47 5135434.17 181.11
-9755371.79 5135433.88 181.13
-9755371.50 5135441.89 181.18
-9755371.46 5135435.35 181.12
-9755372.67 5135435.38 181.12
-9755382.17 5135427.31 184.44
-9755379.28 5135427.09 184.29
-9755378.91 5135430.85 183.66
-9755380.94 5135430.51 183.83
-9755375.68 5135430.06 184.58
-9755378.93 5135427.55 183.87
-9755378.63 5135429.62 183.86
-9755377.20 5135427.28 183.88
-9755381.29 5135427.89 184.29
-9755379.84 5135427.56 184.26
-9755378.05 5135427.25 183.87
-9755377.20 5135428.98 184.55
-9755380.39 5135429.71 183.92
-9755381.27 5135429.05 184.06
-9755381.01 5135429.64 183.95
-9755379.56 5135428.46 184.06
-9755375.70 5135427.59 183.88
-9755375.06 5135430.49 184.26
-9755373.35 5135430.51 183.63
-9755373.90 5135426.95 183.90
-9755373.95 5135429.32 183.86
-9755373.33 5135428.41 183.87
-9755375.06 5135428.80 184.53
-9755374.77 5135429.70 184.59
-9755374.72 5135429.93 183.82
-9755373.94 5135427.52 183.90
-9755374.77 5135430.54 183.65
-9755373.57 5135429.66 183.85
-9755373.06 5135427.27 183.89
-9755372.73 5135427.23 183.88
-9755371.74 5135428.88 184.51
-9755372.47 5135428.64 184.27
-9755396.09 5135417.41 187.34
-9755389.64 5135418.59 186.43
-9755393.94 5135418.15 186.95
-9755389.57 5135419.23 186.41
-9755391.70 5135418.10 186.67
-9755396.40 5135419.51 187.46
-9755391.82 5135418.52 187.24
-9755394.91 5135418.05 187.11
-9755394.05 5135418.12 187.47
-9755397.02 5135417.76 187.95
-9755394.39 5135418.93 186.88
-9755396.96 5135418.84 187.26
-9755394.03 5135419.19 187.44
-9755391.47 5135418.82 187.09
-9755393.67 5135418.11 186.91
-9755394.04 5135418.38 186.89
-9755395.83 5135418.37 187.11
-9755394.61 5135418.97 186.89
-9755389.58 5135418.03 187.18
-9755393.71 5135419.28 186.73
-9755394.01 5135418.58 187.47
-9755389.65 5135417.72 186.66
-9755388.75 5135417.48 186.66
-9755386.37 5135418.12 186.40
-9755387.55 5135419.22 186.22
-9755385.46 5135417.42 186.44
-9755387.85 5135417.78 186.44
-9755386.04 5135418.91 186.23
-9755387.52 5135418.86 186.84
-9755387.84 5135418.56 186.91
-9755382.38 5135417.90 186.64
-9755384.97 5135418.84 186.15
-9755389.70 5135422.17 186.37
-9755394.23 5135423.84 186.58
-9755392.83 5135421.65 186.21
-9755396.07 5135419.60 186.98
-9755389.54 5135420.55 186.11
-9755393.67 5135425.23 185.79
-9755393.69 5135426.70 185.59
-9755396.12 5135421.63 186.65
-9755390.52 5135420.97 186.20
-9755397.55 5135420.10 187.09
-9755392.84 5135419.91 186.61
-9755390.25 5135421.04 186.02
-9755396.99 5135423.46 186.51
-9755393.63 5135419.35 187.19
-9755395.76 5135425.50 186.02
-9755389.06 5135425.22 185.07
-9755397.31 5135420.62 187.45
-9755389.55 5135423.45 185.60
-9755397.62 5135421.03 186.90
-9755390.70 5135423.95 186.18
-9755392.26 5135426.31 185.83
-9755388.96 5135425.23 185.35
-9755390.45 5135425.51 185.36
-9755390.41 5135426.40 185.20
-9755397.53 5135426.41 186.12
-9755392.08 5135422.08 186.65
-9755396.60 5135426.43 186.00
-9755394.29 5135423.11 186.23
-9755390.21 5135423.11 185.78
-9755396.07 5135421.25 187.30
-9755396.09 5135419.81 186.90
-9755394.92 5135426.41 185.78
-9755392.26 5135423.11 186.00
-9755389.58 5135424.24 185.57
-9755396.42 5135419.82 187.03
-9755395.74 5135427.01 185.77
-9755390.77 5135421.58 186.61
-9755392.02 5135423.93 186.26
-9755396.60 5135421.37 186.73
-9755388.76 5135421.01 186.01
-9755391.94 5135424.75 185.60
-9755391.92 5135426.07 185.44
-9755394.94 5135424.01 186.17
-9755394.38 5135421.11 186.49
-9755391.61 5135426.36 185.36
-9755396.79 5135425.99 186.66
-9755392.80 5135423.67 186.00
-9755390.85 5135423.08 186.37
-9755393.72 5135420.61 186.57
-9755393.76 5135423.43 186.02
-9755395.55 5135421.87 186.64
-9755393.69 5135425.81 185.75
-9755392.84 5135425.12 186.33
-9755390.81 5135421.64 186.00
-9755392.54 5135424.35 186.35
-9755388.77 5135421.64 185.81
-9755392.81 5135421.92 186.21
-9755393.51 5135423.16 186.07
-9755387.56 5135419.87 186.03
-9755388.63 5135421.31 186.36
-9755386.34 5135424.25 185.15
-9755387.95 5135419.84 186.66
-9755386.32 5135423.96 185.32
-9755384.87 5135421.09 185.77
-9755383.40 5135420.71 185.71
-9755383.15 5135419.82 185.84
-9755385.54 5135424.09 185.75
-9755383.72 5135420.37 185.79
-9755387.79 5135423.41 185.45
-9755385.45 5135422.78 185.37
-9755383.38 5135425.51 184.77
-9755382.55 5135423.11 185.21
-9755383.70 5135423.13 185.29
-9755387.84 5135424.28 185.37
-9755387.98 5135423.54 185.42
-9755386.35 5135422.84 185.44
-9755387.79 5135421.02 185.98
-9755386.25 5135425.24 184.95
-9755385.43 5135424.29 185.15
-9755384.17 5135424.27 185.80
-9755388.43 5135423.85 185.85
-9755385.98 5135424.27 185.55
-9755385.44 5135421.90 185.60
-9755386.64 5135419.48 186.06
-9755387.50 5135423.76 185.37
-9755385.89 5135423.72 185.75
-9755387.49 5135426.44 184.95
-9755388.38 5135421.43 186.23
-9755387.22 5135420.74 185.95
-9755383.43 5135422.21 185.45
-9755383.83 5135422.75 185.87
-9755385.51 5135422.57 185.38
-9755384.55 5135422.53 185.39
-9755382.49 5135422.23 185.37
-9755385.77 5135424.31 185.15
-9755386.05 5135425.52 184.95
-9755385.88 5135423.75 185.65
-9755384.20 5135425.59 184.78
-9755385.45 5135425.47 184.95
-9755382.21 5135423.70 185.08
-9755385.85 5135424.02 185.56
-9755386.95 5135422.21 185.59
-9755388.71 5135423.16 185.56
-9755384.27 5135423.08 185.37
-9755379.29 5135417.67 186.03
-9755377.29 5135417.42 186.61
-9755377.25 5135418.60 185.81
-9755377.26 5135417.72 186.00
-9755378.95 5135417.42 186.12
-9755378.98 5135418.61 185.88
-9755376.34 5135417.74 186.04
-9755382.05 5135418.91 185.89
-9755377.82 5135417.71 186.03
-9755378.73 5135417.67 186.02
-9755380.07 5135418.80 186.11
-9755375.76 5135417.68 186.04
-9755380.45 5135418.88 185.81
-9755374.32 5135418.87 185.79
-9755373.76 5135417.80 186.50
-9755379.27 5135426.66 185.16
-9755377.21 5135425.78 184.53
-9755378.07 5135424.29 185.34
-9755381.11 5135424.75 185.37
-9755381.32 5135420.04 185.58
-9755378.06 5135424.85 184.74
-9755377.80 5135421.03 185.39
-9755376.03 5135421.25 185.36
-9755380.55 5135424.00 184.68
-9755376.62 5135423.02 185.03
-9755381.36 5135420.38 185.58
-9755378.07 5135424.86 185.21
-9755378.86 5135419.50 186.25
-9755381.00 5135425.54 184.63
-9755381.33 5135424.23 184.92
-9755381.28 5135425.55 184.72
-9755377.19 5135423.93 184.79
-9755381.05 5135423.97 184.95
-9755381.33 5135424.60 184.80
-9755378.07 5135419.44 185.78
-9755381.41 5135421.60 185.37
-9755379.32 5135424.00 184.90
-9755377.49 5135426.41 183.86
-9755378.08 5135423.93 184.82
-9755379.30 5135424.05 184.82
-9755379.29 5135421.94 185.82
-9755376.00 5135423.97 184.84
-9755381.29 5135421.34 185.36
-9755377.20 5135420.98 185.38
-9755378.98 5135421.03 185.37
-9755375.42 5135424.55 184.73
-9755373.97 5135425.12 184.54
-9755375.43 5135421.84 185.22
-9755374.08 5135421.39 185.21
-9755375.16 5135420.70 185.39
-9755373.96 5135423.98 184.72
-9755373.68 5135421.84 185.14
-9755374.60 5135419.78 185.57
-9755373.89 5135422.71 184.94
-9755373.99 5135424.26 184.72
-9755373.33 5135426.32 184.54
-9755373.38 5135423.64 184.93
-9755375.12 5135426.35 185.17
-9755372.24 5135418.89 185.79
-9755372.21 5135418.89 185.80
-9755372.50 5135418.39 186.25
-9755373.09 5135418.55 185.79
-9755372.20 5135417.34 186.02
-9755373.06 5135417.32 186.47
-9755371.95 5135421.82 185.17
-9755372.46 5135422.60 185.10
-9755373.06 5135424.22 184.74
-9755371.59 5135422.63 185.57
-9755372.60 5135423.80 184.85
-9755373.07 5135420.95 185.37
-9755373.08 5135426.38 185.16
-9755371.84 5135423.95 185.22
-9755372.18 5135420.62 185.39
-9755373.02 5135421.90 185.66
-9755368.31 5135431.38 183.62
-9755362.97 5135431.35 183.63
-9755367.73 5135431.38 183.61
-9755369.76 5135431.75 183.63
-9755366.23 5135432.53 183.61
-9755360.33 5135431.43 183.66
-9755360.10 5135431.39 183.69
-9755358.25 5135432.17 183.65
-9755353.30 5135431.61 183.86
-9755366.53 5135432.00 183.62
-9755366.55 5135432.55 183.61
-9755368.90 5135432.54 183.61
-9755366.53 5135435.79 181.91
-9755368.51 5135438.89 181.96
-9755369.45 5135438.84 181.97
-9755370.68 5135432.62 183.63
-9755366.55 5135432.88 183.61
-9755369.13 5135435.07 181.11
-9755363.27 5135433.39 183.61
-9755369.74 5135433.77 183.61
-9755363.26 5135436.66 182.05
-9755369.79 5135433.16 183.62
-9755369.06 5135440.33 181.68
-9755368.57 5135433.94 181.11
-9755367.39 5135436.81 181.12
-9755363.54 5135436.17 182.05
-9755365.33 5135439.76 181.98
-9755366.67 5135435.84 181.88
-9755370.64 5135433.77 183.63
-9755370.54 5135435.81 181.52
-9755369.21 5135433.78 183.59
-9755362.32 5135443.30 181.22
-9755363.25 5135434.62 183.61
-9755369.60 5135433.47 184.24
-9755364.09 5135440.01 181.15
-9755366.79 5135439.93 183.58
-9755364.44 5135433.77 183.60
-9755365.32 5135435.63 181.11
-9755370.63 5135434.42 181.11
-9755352.67 5135432.16 183.68
-9755354.18 5135432.16 183.66
-9755359.17 5135432.54 183.64
-9755357.41 5135432.50 183.65
-9755362.32 5135439.13 181.11
-9755354.17 5135440.51 183.58
-9755355.91 5135432.51 183.63
-9755357.08 5135435.33 181.12
-9755359.11 5135435.82 181.20
-9755357.32 5135442.09 181.18
-9755354.15 5135435.57 181.10
-9755361.12 5135441.24 181.20
-9755354.94 5135439.19 181.11
-9755354.94 5135443.27 181.21
-9755355.05 5135435.18 183.62
-9755358.28 5135436.67 181.94
-9755352.88 5135442.09 181.18
-9755357.05 5135439.35 181.63
-9755359.17 5135434.63 183.65
-9755357.68 5135434.60 183.64
-9755358.59 5135433.71 184.18
-9755361.21 5135435.07 183.63
-9755355.60 5135437.02 182.04
-9755361.13 5135438.83 181.12
-9755355.86 5135441.08 183.56
-9755352.92 5135435.07 184.23
-9755356.38 5135441.20 181.17
-9755361.76 5135435.07 181.09
-9755356.17 5135440.50 183.58
-9755370.34 5135431.37 183.64
-9755370.64 5135430.81 183.64
-9755364.48 5135431.30 184.55
-9755366.60 5135429.97 184.38
-9755364.13 5135430.47 183.84
-9755371.26 5135429.20 184.29
-9755365.49 5135430.16 184.56
-9755368.64 5135427.21 183.90
-9755363.01 5135428.40 183.91
-9755362.42 5135428.99 183.88
-9755362.48 5135426.82 184.60
-9755363.06 5135427.46 185.30
-9755370.22 5135429.80 184.59
-9755368.28 5135428.38 183.89
-9755364.00 5135430.48 184.58
-9755363.56 5135430.42 184.43
-9755365.65 5135428.36 183.90
-9755369.77 5135427.53 183.88
-9755369.87 5135429.65 184.33
-9755367.73 5135430.54 183.84
-9755363.14 5135427.98 185.18
-9755366.51 5135429.59 183.86
-9755365.72 5135427.79 183.91
-9755363.00 5135430.46 183.84
-9755363.32 5135427.16 184.55
-9755367.76 5135430.30 184.58
-9755362.42 5135431.14 183.68
-9755371.30 5135428.42 183.87
-9755367.74 5135429.54 184.48
-9755365.03 5135428.41 183.90
-9755371.05 5135428.96 184.50
-9755363.61 5135427.13 184.54
-9755358.31 5135427.99 184.55
-9755356.66 5135428.58 184.55
-9755356.25 5135430.54 184.26
-9755359.16 5135430.32 184.56
-9755360.30 5135430.46 184.50
-9755359.45 5135430.43 183.87
-9755356.41 5135430.87 184.48
-9755358.64 5135427.15 184.55
-9755361.23 5135429.89 184.22
-9755356.47 5135429.28 183.90
-9755360.68 5135427.14 184.55
-9755361.56 5135429.82 184.27
-9755353.30 5135427.69 184.62
-9755362.09 5135428.07 183.90
-9755358.85 5135427.20 184.55
-9755357.53 5135426.84 185.14
-9755358.64 5135429.73 184.53
-9755353.26 5135428.55 184.56
-9755355.35 5135429.52 183.91
-9755355.40 5135428.75 184.53
-9755354.53 5135428.86 183.90
-9755358.25 5135431.01 184.61
-9755358.30 5135429.25 183.90
-9755360.65 5135430.46 183.84
-9755355.04 5135429.23 183.92
-9755358.99 5135430.90 184.50
-9755355.93 5135428.83 185.18
-9755353.38 5135429.16 183.92
-9755357.94 5135427.23 184.54
-9755352.71 5135429.24 183.92
-9755361.56 5135428.00 185.18
-9755360.11 5135430.20 184.50
-9755357.44 5135427.43 184.55
-9755355.37 5135427.35 185.15
-9755361.59 5135427.14 184.54
-9755357.07 5135431.30 183.85
-9755360.64 5135429.24 183.89
-9755357.39 5135428.89 183.91
-9755355.32 5135428.08 184.56
-9755359.55 5135427.17 184.55
-9755357.40 5135430.14 183.89
-9755359.48 5135428.99 183.90
-9755356.52 5135430.97 183.87
-9755360.62 5135428.35 183.90
-9755349.45 5135432.13 183.83
-9755347.96 5135432.08 183.87
-9755347.66 5135431.81 184.11
-9755349.99 5135437.60 182.60
-9755349.44 5135436.31 183.31
-9755349.71 5135439.60 181.71
-9755350.13 5135440.82 181.62
-9755349.39 5135435.97 183.48
-9755349.67 5135436.31 183.43
-9755351.03 5135440.20 181.25
-9755349.39 5135435.39 183.63
-9755349.13 5135437.48 182.75
-9755352.01 5135439.68 181.09
-9755351.68 5135440.74 183.58
-9755350.90 5135434.23 183.64
-9755349.72 5135437.22 183.15
-9755352.06 5135433.03 183.63
-9755350.89 5135435.42 184.39
-9755349.39 5135437.00 182.98
-9755349.34 5135438.16 182.42
-9755347.55 5135441.90 183.54
-9755348.21 5135439.13 181.20
-9755348.75 5135441.34 183.58
-9755347.71 5135432.54 181.73
-9755347.57 5135433.70 181.73
-9755347.35 5135436.72 181.14
-9755346.78 5135432.89 181.13
-9755347.55 5135433.74 181.14
-9755347.59 5135435.11 181.69
-9755346.15 5135433.73 181.13
-9755346.09 5135442.03 181.19
-9755345.21 5135443.22 181.23
-9755350.98 5135427.68 184.73
-9755351.24 5135430.33 183.90
-9755350.04 5135426.80 184.94
-9755351.26 5135429.43 185.20
-9755352.04 5135427.06 185.23
-9755350.32 5135427.99 184.73
-9755351.56 5135426.88 184.77
-9755347.56 5135431.12 181.51
-9755347.98 5135430.36 183.90
-9755348.21 5135430.10 183.90
-9755348.78 5135429.37 184.22
-9755347.66 5135430.47 181.15
-9755347.37 5135430.26 184.46
-9755347.09 5135428.00 184.74
-9755347.91 5135430.21 184.75
-9755347.41 5135426.77 184.95
-9755345.34 5135429.18 184.61
-9755346.52 5135430.46 181.19
-9755345.89 5135429.77 184.80
-9755345.91 5135430.18 181.16
-9755346.19 5135427.24 184.65
-9755366.50 5135418.51 186.57
-9755364.02 5135418.69 186.53
-9755368.11 5135418.53 186.01
-9755370.17 5135418.22 186.00
-9755370.15 5135418.50 186.00
-9755362.84 5135418.90 186.60
-9755362.76 5135418.75 186.06
-9755364.86 5135418.50 186.01
-9755363.95 5135418.56 186.01
-9755363.69 5135417.44 186.27
-9755368.70 5135417.35 186.22
-9755364.28 5135418.18 186.21
-9755363.08 5135418.92 186.53
-9755371.03 5135418.23 186.02
-9755364.34 5135417.34 186.24
-9755369.89 5135417.36 186.22
-9755363.08 5135418.09 186.72
-9755356.64 5135418.12 186.44
-9755361.93 5135418.78 186.15
-9755361.88 5135418.18 186.25
-9755357.52 5135418.14 186.42
-9755356.04 5135418.13 186.45
-9755356.68 5135417.34 186.44
-9755356.62 5135418.44 186.26
-9755368.96 5135419.13 185.79
-9755371.04 5135422.17 185.14
-9755363.43 5135420.71 185.61
-9755367.81 5135420.62 185.58
-9755363.63 5135422.05 185.36
-9755366.89 5135423.93 184.93
-9755368.97 5135420.61 185.58
-9755371.37 5135419.80 185.59
-9755366.27 5135421.82 185.36
-9755366.02 5135420.68 185.57
-9755369.89 5135420.65 185.58
-9755367.79 5135421.47 185.36
-9755367.77 5135423.92 184.93
-9755366.50 5135422.97 185.81
-9755369.83 5135424.22 184.76
-9755367.78 5135419.74 185.79
-9755368.93 5135423.01 185.15
-9755362.81 5135420.03 185.79
-9755363.64 5135424.49 184.95
-9755369.23 5135421.94 185.74
-9755364.85 5135425.96 184.69
-9755365.39 5135426.06 184.58
-9755363.04 5135424.79 184.95
-9755362.80 5135422.07 185.46
-9755365.09 5135422.72 185.32
-9755363.06 5135423.89 185.12
-9755363.69 5135420.69 185.61
-9755371.43 5135426.77 185.18
-9755370.71 5135419.45 185.80
-9755368.03 5135425.09 184.73
-9755366.61 5135419.75 185.79
-9755370.73 5135421.91 185.15
-9755369.83 5135424.83 184.74
-9755366.26 5135422.69 185.13
-9755370.66 5135422.39 185.72
-9755364.85 5135420.01 185.78
-9755364.85 5135420.94 185.57
-9755369.07 5135422.16 185.16
-9755364.50 5135426.29 184.55
-9755359.52 5135423.85 185.16
-9755361.00 5135424.77 184.93
-9755355.08 5135425.60 184.94
-9755358.35 5135424.70 185.07
-9755353.33 5135420.18 185.99
-9755360.73 5135419.34 186.03
-9755355.97 5135425.96 184.95
-9755361.60 5135423.87 185.17
-9755355.38 5135425.61 184.93
-9755358.95 5135419.33 186.03
-9755362.17 5135422.63 185.39
-9755358.63 5135420.56 185.81
-9755355.98 5135421.83 185.58
-9755360.99 5135425.92 184.76
-9755358.18 5135419.39 186.04
-9755355.47 5135425.05 185.09
-9755360.72 5135419.53 186.57
-9755359.84 5135423.24 185.38
-9755361.32 5135419.33 186.06
-9755361.59 5135425.51 184.85
-9755356.32 5135421.41 185.79
-9755352.88 5135425.62 184.99
-9755357.44 5135423.51 185.38
-9755360.75 5135423.29 185.18
-9755357.45 5135422.31 185.58
-9755357.13 5135425.57 184.94
-9755354.21 5135424.98 185.13
-9755357.48 5135424.13 185.16
-9755353.56 5135423.24 185.82
-9755356.61 5135422.62 185.60
-9755360.35 5135423.85 185.15
-9755357.22 5135419.35 186.70
-9755356.52 5135423.54 185.38
-9755358.55 5135421.47 185.60
-9755355.28 5135421.87 185.60
-9755355.33 5135422.34 186.11
-9755353.84 5135425.37 185.03
-9755361.92 5135421.46 185.63
-9755358.30 5135425.62 184.96
-9755359.52 5135422.97 185.38
-9755360.42 5135419.36 186.03
-9755361.59 5135421.51 185.65
-9755358.68 5135420.22 186.01
-9755361.60 5135425.11 184.95
-9755359.23 5135424.32 185.62
-9755357.80 5135422.37 185.58
-9755355.40 5135423.22 185.37
-9755359.01 5135420.76 186.25
-9755353.28 5135425.90 184.93
-9755360.31 5135421.07 185.72
-9755358.31 5135424.46 185.15
-9755353.31 5135425.50 185.10
-9755357.87 5135423.51 185.15
-9755357.48 5135421.75 185.61
-9755359.51 5135425.35 184.96
-9755357.49 5135422.09 185.58
-9755360.05 5135426.30 185.22
-9755355.40 5135420.80 185.84
-9755353.41 5135424.33 185.28
-9755358.33 5135423.57 185.34
-9755356.61 5135419.94 186.01
-9755352.67 5135425.56 184.99
-9755352.67 5135423.42 185.51
-9755355.39 5135424.71 185.15
-9755353.32 5135422.60 185.56
-9755360.25 5135420.04 185.86
-9755351.88 5135417.75 186.63
-9755350.09 5135418.44 186.44
-9755348.14 5135418.93 187.03
-9755351.00 5135424.75 185.21
-9755352.12 5135425.67 184.97
-9755349.14 5135425.02 185.16
-9755351.28 5135425.73 185.01
-9755351.62 5135424.68 185.16
-9755351.04 5135420.24 186.12
-9755350.04 5135425.00 185.16
-9755350.94 5135423.44 185.54
-9755350.11 5135420.22 186.22
-9755349.23 5135420.77 186.01
-9755350.72 5135419.32 186.79
-9755350.08 5135422.90 185.57
-9755351.87 5135424.74 185.14
-9755349.57 5135422.31 185.79
-9755350.43 5135424.06 185.36
-9755351.26 5135420.78 186.53
-9755351.25 5135422.23 185.77
-9755346.88 5135421.35 186.00
-9755347.17 5135421.38 186.01
-9755348.89 5135425.06 185.15
-9755348.37 5135422.26 185.79
-9755347.45 5135423.48 185.60
-9755348.08 5135421.79 185.91
-9755347.38 5135425.21 185.21
-9755347.04 5135425.26 185.22
-9755345.99 5135418.96 186.45
-9755346.32 5135418.66 186.64
-9755345.94 5135424.29 185.54
-9755346.56 5135421.03 186.02
-9755346.58 5135419.78 186.28
-9755345.10 5135419.90 186.41
-9755346.27 5135419.88 186.25
-9755345.47 5135419.87 186.75
-9755346.23 5135419.82 186.83
-9755346.52 5135425.60 185.16
-9755345.97 5135423.18 185.73
-9755394.06 5135458.83 182.64
-9755394.08 5135458.51 182.76
-9755394.11 5135458.82 182.65
-9755390.83 5135459.10 182.19
-9755393.19 5135458.54 182.61
-9755397.45 5135458.83 183.68
-9755396.66 5135459.14 183.04
-9755385.47 5135458.55 181.73
-9755392.91 5135467.65 182.41
-9755390.78 5135466.82 181.69
-9755392.92 5135462.95 182.21
-9755392.01 5135459.74 182.24
-9755394.93 5135462.98 182.58
-9755393.40 5135464.75 182.20
-9755391.66 5135461.24 182.17
-9755396.43 5135460.27 182.96
-9755390.74 5135466.54 181.70
-9755395.54 5135460.59 182.78
-9755391.40 5135462.72 182.03
-9755393.98 5135461.15 182.47
-9755393.68 5135464.15 182.23
-9755394.32 5135469.16 182.05
-9755392.61 5135460.91 182.26
-9755391.95 5135465.08 182.52
-9755396.20 5135463.09 183.25
-9755394.91 5135461.46 182.60
-9755393.47 5135460.90 182.42
-9755397.80 5135469.22 182.60
-9755393.75 5135466.81 182.12
-9755388.74 5135463.30 181.55
-9755395.83 5135463.22 182.60
-9755397.71 5135459.48 183.75
-9755392.53 5135465.07 182.02
-9755391.97 5135463.31 182.02
-9755397.03 5135461.16 183.43
-9755390.45 5135463.83 181.84
-9755397.03 5135464.16 182.79
-9755388.74 5135465.31 181.52
-9755396.05 5135469.24 182.27
-9755394.29 5135465.04 182.28
-9755391.64 5135468.32 181.71
-9755395.27 5135466.61 182.34
-9755394.84 5135468.30 182.77
-9755390.16 5135461.81 181.85
-9755394.90 5135469.84 182.05
-9755397.17 5135469.53 183.08
-9755396.17 5135468.06 183.00
-9755396.17 5135464.16 182.63
-9755396.96 5135466.26 182.60
-9755394.04 5135465.89 182.24
-9755397.59 5135459.67 183.16
-9755392.90 5135459.42 182.40
-9755391.96 5135464.74 182.53
-9755394.06 5135462.68 182.39
-9755392.02 5135459.47 182.82
-9755388.71 5135463.87 181.50
-9755390.83 5135468.55 182.00
-9755394.62 5135463.84 182.41
-9755389.89 5135460.60 181.87
-9755392.34 5135465.94 181.94
-9755397.57 5135461.78 182.98
-9755390.76 5135461.77 181.98
-9755396.16 5135463.29 183.24
-9755394.65 5135460.60 182.62
-9755392.81 5135467.20 181.94
-9755390.19 5135460.53 182.45
-9755394.58 5135469.21 182.05
-9755390.80 5135460.03 182.05
-9755395.59 5135462.64 182.61
-9755394.57 5135462.68 182.44
-9755391.42 5135469.14 182.18
-9755389.29 5135468.01 181.57
-9755382.58 5135459.10 181.25
-9755384.63 5135462.98 181.28
-9755383.39 5135466.78 181.32
-9755386.43 5135460.60 181.52
-9755388.47 5135461.82 181.69
-9755388.71 5135461.22 182.29
-9755387.04 5135461.86 181.53
-9755387.86 5135464.20 181.33
-9755385.99 5135465.91 181.29
-9755387.29 5135461.81 181.51
-9755386.99 5135461.84 181.72
-9755386.66 5135459.43 181.53
-9755387.55 5135462.96 181.54
-9755383.71 5135461.77 181.25
-9755385.46 5135465.05 181.29
-9755384.89 5135463.87 181.26
-9755396.16 5135458.75 183.45
-9755389.64 5135457.65 182.04
-9755390.82 5135457.61 182.23
-9755391.23 5135457.36 182.33
-9755390.86 5135457.62 182.23
-9755396.21 5135457.89 183.05
-9755386.70 5135457.91 181.68
-9755384.72 5135457.32 181.72
-9755384.73 5135456.45 181.51
-9755384.69 5135457.66 181.72
-9755376.38 5135458.80 181.30
-9755378.75 5135464.71 181.32
-9755379.61 5135466.76 181.34
-9755378.98 5135468.00 181.34
-9755379.27 5135465.02 181.34
-9755375.16 5135462.60 181.31
-9755372.19 5135464.69 181.31
-9755380.49 5135457.32 181.28
-9755389.95 5135456.73 182.21
-9755390.53 5135445.42 183.06
-9755396.22 5135444.45 184.62
-9755392.99 5135443.69 183.55
-9755391.21 5135444.53 183.20
-9755396.21 5135445.72 183.92
-9755391.75 5135445.69 183.21
-9755391.52 5135444.55 183.36
-9755397.44 5135446.02 184.13
-9755392.92 5135445.71 183.44
-9755393.57 5135445.77 183.53
-9755388.84 5135443.99 182.97
-9755395.42 5135445.71 183.83
-9755394.48 5135444.51 183.74
-9755392.66 5135445.18 183.49
-9755395.31 5135446.04 183.74
-9755393.30 5135445.13 183.55
-9755382.44 5135445.17 182.15
-9755382.20 5135444.57 182.19
-9755385.10 5135443.91 182.41
-9755382.34 5135444.50 182.23
-9755382.94 5135444.53 182.08
-9755387.41 5135444.84 182.65
-9755385.59 5135443.69 182.44
-9755387.05 5135445.75 182.45
-9755387.63 5135444.52 182.77
-9755385.03 5135445.46 182.28
-9755386.20 5135444.56 182.51
-9755382.67 5135444.51 182.15
-9755388.21 5135444.98 183.30
-9755387.08 5135445.13 182.59
-9755388.30 5135444.52 182.83
-9755384.42 5135443.68 182.26
-9755387.20 5135446.08 183.04
-9755382.92 5135445.78 182.15
-9755383.83 5135444.84 182.17
-9755392.42 5135446.31 183.33
-9755394.43 5135451.09 183.34
-9755390.03 5135451.97 182.58
-9755393.30 5135446.64 183.39
-9755395.23 5135452.87 183.30
-9755389.51 5135450.30 183.11
-9755396.20 5135451.04 183.54
-9755395.28 5135452.29 183.36
-9755391.99 5135454.92 182.62
-9755392.07 5135452.26 182.79
-9755397.35 5135452.65 183.60
-9755396.50 5135446.33 183.92
-9755394.49 5135451.63 183.75
-9755392.05 5135453.81 183.29
-9755397.40 5135453.12 184.14
-9755388.77 5135455.59 182.05
-9755396.10 5135452.53 183.98
-9755397.36 5135450.21 183.76
-9755397.37 5135456.41 183.39
-9755391.91 5135456.45 182.45
-9755388.75 5135456.22 182.04
-9755394.97 5135455.22 183.12
-9755391.81 5135449.05 182.97
-9755392.02 5135455.80 182.60
-9755397.10 5135449.87 183.76
-9755394.54 5135452.84 183.74
-9755389.13 5135451.07 182.46
-9755393.54 5135451.98 183.14
-9755389.90 5135446.94 182.84
-9755390.88 5135451.11 182.75
-9755395.32 5135446.32 183.72
-9755396.70 5135454.13 183.40
-9755392.88 5135455.59 182.76
-9755395.40 5135451.08 183.44
-9755393.49 5135454.34 183.42
-9755389.96 5135452.88 182.42
-9755389.14 5135448.46 182.59
-9755394.92 5135452.69 183.73
-9755390.00 5135448.70 182.78
-9755388.78 5135452.91 182.26
-9755389.73 5135449.83 183.15
-9755388.80 5135449.89 182.40
-9755393.24 5135451.36 183.08
-9755392.00 5135455.54 182.60
-9755390.29 5135456.45 182.23
-9755396.99 5135452.00 184.13
-9755391.44 5135454.37 182.59
-9755394.12 5135448.71 183.39
-9755393.86 5135452.87 183.01
-9755389.36 5135454.37 182.22
-9755391.51 5135446.90 183.78
-9755396.78 5135448.98 183.83
-9755389.93 5135449.31 183.22
-9755390.04 5135450.24 182.61
-9755388.77 5135453.79 182.23
-9755392.04 5135447.19 183.75
-9755395.00 5135451.01 183.93
