-9755596.23 5135761.36 192.12
-9755597.71 5135766.69 191.75
-9755597.32 5135760.75 192.64
-9755597.70 5135759.82 191.34
-9755588.92 5135762.21 191.06
-9755591.12 5135761.21 192.39
-9755591.23 5135765.76 188.44
-9755590.26 5135759.08 191.42
-9755592.85 5135758.48 188.52
-9755593.67 5135756.91 188.40
-9755595.43 5135760.65 181.80
-9755590.46 5135763.32 190.21
-9755597.39 5135766.54 191.17
-9755595.84 5135764.15 192.90
-9755596.97 5135757.03 191.16
-9755590.96 5135756.79 185.98
-9755594.25 5135764.20 192.52
-9755591.82 5135765.18 192.24
-9755596.02 5135761.68 191.17
-9755594.50 5135759.99 187.90
-9755596.88 5135767.25 189.46
-9755588.27 5135764.50 189.52
-9755588.64 5135765.69 187.02
-9755589.21 5135761.68 181.63
-9755591.72 5135763.37 190.07
-9755590.15 5135763.25 191.12
-9755595.95 5135761.66 190.61
-9755590.39 5135765.60 188.16
-9755594.18 5135761.71 181.90
-9755596.51 5135759.95 189.41
-9755592.94 5135761.79 191.87
-9755592.72 5135763.91 181.87
-9755597.30 5135759.01 190.64
-9755596.00 5135766.33 190.72
-9755592.73 5135762.89 189.15
-9755597.35 5135758.02 187.58
-9755595.59 5135756.62 188.95
-9755594.95 5135755.92 189.89
-9755588.66 5135758.35 186.96
-9755588.87 5135761.76 185.91
-9755594.33 5135761.68 190.01
-9755590.67 5135761.91 190.43
-9755588.38 5135766.97 189.13
-9755597.38 5135756.89 188.90
-9755595.42 5135757.89 188.59
-9755596.21 5135767.26 189.72
-9755593.74 5135765.21 191.37
-9755595.67 5135766.79 191.50
-9755591.64 5135763.94 192.01
-9755592.10 5135765.41 190.00
-9755593.99 5135757.86 186.95
-9755594.35 5135766.06 191.44
-9755591.68 5135758.99 189.80
-9755593.10 5135763.74 191.26
-9755592.41 5135765.86 181.85
-9755593.37 5135758.96 189.67
-9755595.91 5135762.74 190.75
-9755594.34 5135764.84 190.93
-9755594.11 5135762.14 191.72
-9755596.87 5135759.85 191.38
-9755597.41 5135766.08 191.47
-9755597.79 5135760.46 191.33
-9755589.87 5135761.28 190.80
-9755596.92 5135761.44 191.99
-9755593.65 5135763.06 190.20
-9755589.03 5135765.31 189.86
-9755588.95 5135757.73 186.73
-9755592.92 5135765.95 191.84
-9755596.44 5135762.51 192.12
-9755595.62 5135756.28 188.29
-9755593.73 5135767.21 191.88
-9755593.19 5135756.91 188.44
-9755592.44 5135765.23 181.83
-9755590.73 5135757.75 191.40
-9755589.85 5135758.31 189.84
-9755594.89 5135767.31 191.18
-9755597.20 5135756.16 186.98
-9755590.80 5135758.29 190.81
-9755593.42 5135763.70 190.91
-9755589.13 5135766.39 188.84
-9755596.41 5135756.09 187.74
-9755597.78 5135761.39 189.05
-9755592.31 5135763.56 191.65
-9755591.09 5135762.51 191.19
-9755597.16 5135766.85 181.92
-9755587.19 5135759.11 186.86
-9755593.13 5135759.73 189.66
-9755590.94 5135766.43 190.44
-9755595.51 5135756.26 189.31
-9755595.78 5135756.78 190.50
-9755593.47 5135766.79 190.97
-9755594.19 5135764.88 191.70
-9755597.76 5135758.90 191.31
-9755592.85 5135760.15 190.26
-9755597.74 5135757.31 188.62
-9755588.08 5135765.13 189.31
-9755592.18 5135766.75 188.03
-9755592.55 5135762.25 191.57
-9755590.42 5135762.77 191.43
-9755596.45 5135764.22 192.71
-9755589.67 5135761.30 190.09
-9755596.70 5135762.96 191.61
-9755596.46 5135766.19 191.65
-9755596.13 5135762.22 192.19
-9755597.25 5135765.42 191.61
-9755590.82 5135759.43 191.42
-9755593.31 5135765.99 192.87
-9755596.06 5135763.96 191.37
-9755586.59 5135766.65 189.89
-9755591.21 5135759.34 188.87
-9755597.74 5135758.79 181.76
-9755590.07 5135765.85 181.67
-9755592.95 5135758.91 191.06
-9755596.09 5135762.29 191.02
-9755595.49 5135760.79 185.14
-9755591.32 5135758.17 190.70
-9755587.22 5135760.16 187.30
-9755590.69 5135761.28 192.24
-9755595.84 5135755.76 189.00
-9755593.28 5135762.25 190.49
-9755594.31 5135766.43 192.65
-9755597.19 5135759.13 185.58
-9755597.23 5135764.80 192.08
-9755593.66 5135762.18 191.84
-9755591.59 5135766.39 189.24
-9755598.14 5135759.88 184.80
-9755597.19 5135764.16 181.91
-9755590.40 5135763.85 191.27
-9755593.93 5135763.35 188.81
-9755588.35 5135757.83 181.59
-9755590.15 5135757.63 191.15
-9755586.97 5135765.71 189.56
-9755595.57 5135767.19 190.29
-9755594.75 5135756.11 189.46
-9755593.24 5135759.43 191.35
-9755598.16 5135767.37 188.72
-9755588.76 5135767.23 190.61
-9755587.50 5135766.14 190.57
-9755596.67 5135756.74 188.23
-9755593.07 5135762.02 190.62
-9755596.65 5135756.72 186.64
-9755596.62 5135765.51 191.42
-9755589.63 5135759.40 187.60
-9755590.24 5135764.19 190.62
-9755594.94 5135763.69 187.33
-9755593.57 5135765.59 190.54
-9755587.87 5135760.01 187.03
-9755598.12 5135766.33 191.49
-9755586.94 5135764.89 188.79
-9755587.16 5135760.54 187.36
-9755594.07 5135755.81 189.31
-9755595.39 5135761.15 192.29
-9755593.66 5135759.52 191.35
-9755597.45 5135767.30 190.80
-9755596.62 5135759.88 191.57
-9755591.06 5135764.86 190.60
-9755589.06 5135763.94 188.91
-9755596.70 5135758.17 191.13
-9755594.56 5135758.57 186.95
-9755595.99 5135765.00 191.52
-9755591.64 5135760.68 192.03
-9755592.16 5135764.28 189.50
-9755594.50 5135765.99 192.17
-9755591.92 5135764.23 191.64
-9755591.58 5135766.98 189.86
-9755588.95 5135765.54 189.85
-9755587.41 5135758.24 186.37
-9755596.46 5135760.40 192.23
-9755594.92 5135758.43 187.72
-9755594.12 5135765.48 192.30
-9755597.15 5135759.71 181.86
-9755590.10 5135757.67 187.37
-9755592.74 5135757.73 190.64
-9755595.28 5135762.53 192.16
-9755589.95 5135765.51 188.14
-9755597.47 5135763.36 187.79
-9755592.19 5135764.42 190.09
-9755589.00 5135761.05 187.80
-9755593.05 5135759.28 189.78
-9755591.54 5135767.13 190.31
-9755591.97 5135760.64 191.75
-9755593.17 5135766.74 191.24
-9755586.57 5135763.55 188.49
-9755592.72 5135761.34 188.89
-9755597.71 5135759.13 188.86
-9755587.53 5135763.17 187.55
-9755594.85 5135765.63 189.32
-9755590.76 5135759.25 189.97
-9755593.99 5135756.05 189.95
-9755594.22 5135759.05 190.21
-9755592.50 5135761.57 190.06
-9755597.19 5135759.25 185.51
-9755596.75 5135763.38 190.70
-9755591.30 5135758.67 191.70
-9755594.58 5135759.59 191.48
-9755590.77 5135757.41 190.75
-9755593.71 5135757.82 190.52
-9755595.45 5135758.13 190.45
-9755587.42 5135759.94 187.07
-9755591.59 5135756.11 186.26
-9755587.29 5135760.34 185.80
-9755597.58 5135758.06 187.58
-9755593.40 5135758.38 185.85
-9755592.47 5135761.90 190.84
-9755596.12 5135764.83 192.78
-9755592.81 5135764.25 191.90
-9755589.77 5135765.90 188.02
-9755589.52 5135760.71 186.14
-9755590.74 5135756.90 190.68
-9755588.32 5135762.33 188.63
-9755598.05 5135761.42 191.97
-9755597.25 5135759.83 191.51
-9755591.39 5135764.35 192.12
-9755589.79 5135760.36 190.93
-9755592.19 5135760.01 190.31
-9755592.41 5135760.27 181.76
-9755594.38 5135760.93 190.30
-9755592.35 5135755.91 186.03
-9755588.40 5135766.92 190.66
-9755597.85 5135764.29 191.01
-9755596.29 5135759.96 188.39
-9755596.10 5135765.97 191.66
-9755596.08 5135761.10 191.17
-9755597.55 5135764.93 190.10
-9755589.01 5135757.27 187.93
-9755596.20 5135765.93 181.94
-9755596.29 5135762.93 192.37
-9755597.77 5135762.63 191.77
-9755592.47 5135766.04 192.04
-9755595.71 5135759.50 190.54
-9755598.02 5135760.78 191.76
-9755594.39 5135762.08 191.52
-9755594.94 5135757.97 187.11
-9755594.24 5135764.96 182.02
-9755592.08 5135764.79 191.58
-9755594.03 5135763.90 191.97
-9755593.12 5135757.02 181.71
-9755590.13 5135767.30 189.41
-9755589.56 5135761.68 191.04
-9755587.45 5135764.87 189.47
-9755592.76 5135766.75 190.37
-9755589.40 5135762.19 186.68
-9755593.85 5135761.12 192.37
-9755590.43 5135766.75 181.65
-9755592.82 5135762.14 191.88
-9755591.11 5135757.67 190.70
-9755595.93 5135764.71 187.51
-9755597.06 5135761.02 192.59
-9755597.75 5135761.82 192.96
-9755597.28 5135756.64 190.02
-9755593.34 5135760.94 191.76
-9755593.60 5135759.63 190.11
-9755589.40 5135760.96 191.23
-9755597.46 5135758.69 191.29
-9755594.65 5135761.25 192.25
-9755587.49 5135761.70 186.43
-9755597.44 5135763.13 189.03
-9755593.99 5135764.30 191.65
-9755596.60 5135757.30 188.74
-9755594.91 5135756.59 186.24
-9755591.70 5135759.22 189.90
-9755587.46 5135765.79 189.93
-9755593.35 5135763.85 192.52
-9755597.81 5135761.17 191.16
-9755594.40 5135766.71 191.48
-9755596.89 5135762.83 192.65
-9755589.87 5135767.00 189.69
-9755597.25 5135765.55 190.18
-9755597.87 5135766.03 190.63
-9755592.27 5135762.47 189.10
-9755587.50 5135764.43 189.41
-9755597.37 5135765.07 190.45
-9755593.08 5135756.67 189.24
-9755597.23 5135766.87 191.73
-9755588.62 5135760.57 187.28
-9755591.22 5135764.49 188.44
-9755593.42 5135765.17 190.60
-9755592.00 5135759.20 190.18
-9755597.83 5135766.17 190.30
-9755591.24 5135759.00 189.85
-9755592.70 5135764.07 187.92
-9755588.01 5135764.40 188.89
-9755591.23 5135766.51 181.86
-9755598.53 5135765.82 188.87
-9755597.84 5135761.19 189.23
-9755591.66 5135760.12 189.67
-9755593.63 5135760.09 189.80
-9755593.26 5135766.51 181.92
-9755594.56 5135766.94 190.73
-9755596.04 5135763.45 193.48
-9755594.54 5135764.63 189.44
-9755597.03 5135758.99 191.08
-9755592.83 5135755.92 185.49
-9755596.35 5135763.86 192.44
-9755597.09 5135764.19 193.12
-9755597.11 5135763.52 181.92
-9755592.82 5135757.63 191.66
-9755598.57 5135762.28 190.74
-9755596.01 5135761.82 181.87
-9755593.94 5135763.61 192.30
-9755590.67 5135761.74 192.04
-9755593.99 5135756.07 188.76
-9755588.08 5135760.56 187.28
-9755594.25 5135756.45 185.24
-9755593.09 5135758.95 188.26
-9755596.58 5135757.86 188.46
-9755589.20 5135766.77 188.60
-9755589.25 5135762.81 189.12
-9755592.04 5135758.02 191.79
-9755587.85 5135764.40 189.51
-9755589.24 5135757.95 187.66
-9755596.92 5135762.41 192.48
-9755595.38 5135765.72 191.34
-9755594.51 5135764.45 192.23
-9755589.56 5135766.49 189.39
-9755591.06 5135764.58 191.06
-9755597.53 5135760.89 192.12
-9755592.77 5135761.76 190.90
-9755587.86 5135758.24 185.18
-9755592.37 5135756.51 185.36
-9755594.97 5135756.48 188.10
-9755591.52 5135763.32 190.97
-9755595.36 5135757.58 181.79
-9755596.50 5135758.18 189.14
-9755597.37 5135760.14 191.74
-9755595.44 5135760.74 190.56
-9755587.91 5135764.62 187.00
-9755588.92 5135757.83 187.41
-9755595.37 5135760.08 191.58
-9755593.23 5135763.45 192.19
-9755593.07 5135767.11 191.85
-9755590.23 5135757.65 190.74
-9755594.00 5135763.52 192.53
-9755589.91 5135762.77 189.87
-9755595.53 5135761.35 189.80
-9755594.18 5135764.25 193.03
-9755593.33 5135759.77 187.89
-9755594.83 5135766.10 191.74
-9755586.89 5135762.58 189.02
-9755591.96 5135755.61 185.63
-9755593.94 5135766.84 192.07
-9755589.86 5135766.16 189.66
-9755591.31 5135759.81 191.72
-9755592.71 5135764.40 187.56
-9755594.59 5135761.73 192.20
-9755592.79 5135765.96 192.30
-9755596.31 5135763.34 191.46
-9755587.48 5135763.75 187.87
-9755594.93 5135764.05 190.70
-9755594.91 5135763.58 192.33
-9755587.69 5135763.06 185.80
-9755594.85 5135759.05 189.37
-9755597.12 5135765.92 181.92
-9755590.49 5135765.38 191.26
-9755593.12 5135763.47 191.31
-9755595.44 5135756.92 189.31
-9755593.92 5135759.31 190.19
-9755594.53 5135758.30 186.61
-9755592.07 5135766.67 189.90
-9755597.71 5135756.27 187.26
-9755595.04 5135761.47 185.13
-9755588.33 5135762.19 188.91
-9755592.19 5135764.58 190.58
-9755589.75 5135763.18 187.77
-9755587.86 5135763.24 187.84
-9755592.10 5135765.95 181.84
-9755594.35 5135767.32 189.28
-9755592.78 5135761.40 190.02
-9755597.84 5135759.62 191.07
-9755598.02 5135767.10 181.79
-9755590.48 5135766.76 188.38
-9755593.21 5135756.79 185.32
-9755597.26 5135766.84 186.48
-9755591.65 5135767.33 188.10
-9755592.50 5135766.50 192.23
-9755587.84 5135762.31 188.05
-9755589.88 5135759.55 190.36
-9755592.77 5135759.21 186.38
-9755593.72 5135761.87 191.89
-9755588.34 5135762.33 187.53
-9755596.00 5135759.29 191.55
-9755591.91 5135759.20 190.52
-9755596.04 5135762.92 193.24
-9755595.27 5135757.86 190.46
-9755588.99 5135763.09 189.32
-9755597.75 5135764.56 191.03
-9755593.61 5135763.45 191.89
-9755597.30 5135761.27 192.22
-9755587.40 5135758.99 186.01
-9755592.88 5135755.71 189.34
-9755594.47 5135761.94 191.52
-9755594.86 5135766.98 189.14
-9755594.47 5135761.29 191.58
-9755593.21 5135757.83 190.58
-9755590.68 5135756.15 185.61
-9755598.11 5135757.50 189.13
-9755592.19 5135766.24 192.67
-9755594.19 5135763.44 187.88
-9755588.99 5135762.52 191.13
-9755586.92 5135763.16 188.56
-9755587.72 5135767.21 189.56
-9755597.30 5135760.16 192.33
-9755588.67 5135763.21 188.62
-9755597.46 5135755.77 189.54
-9755592.78 5135756.47 185.29
-9755593.23 5135759.26 190.80
-9755596.97 5135764.70 192.69
-9755594.20 5135767.05 192.08
-9755593.32 5135763.97 192.03
-9755595.01 5135761.64 189.70
-9755598.02 5135762.85 192.47
-9755591.31 5135766.71 188.09
-9755591.43 5135755.74 185.99
-9755588.35 5135767.15 190.25
-9755597.09 5135760.02 181.86
-9755590.11 5135764.85 189.89
-9755597.61 5135762.98 192.18
-9755588.29 5135766.27 187.46
-9755592.79 5135761.44 192.05
-9755594.07 5135765.01 192.55
-9755592.85 5135757.98 190.94
-9755587.42 5135762.21 181.62
-9755593.37 5135760.89 188.99
-9755589.04 5135759.17 186.75
-9755589.74 5135762.26 191.27
-9755591.65 5135764.24 190.29
-9755586.83 5135762.19 185.05
-9755593.61 5135759.11 187.78
-9755586.62 5135765.93 189.75
-9755594.92 5135755.79 189.18
-9755590.70 5135766.09 189.65
-9755596.85 5135759.80 192.26
-9755595.49 5135761.98 187.21
-9755596.12 5135756.85 189.68
-9755595.69 5135761.16 190.65
-9755593.05 5135759.51 188.80
-9755589.98 5135762.79 191.60
-9755588.69 5135757.38 186.77
-9755597.50 5135757.70 191.70
-9755588.64 5135765.73 188.99
-9755597.56 5135758.07 188.72
-9755592.84 5135762.10 191.05
-9755592.37 5135760.81 189.43
-9755595.40 5135760.31 188.49
-9755589.58 5135763.80 189.82
-9755596.92 5135756.10 188.47
-9755590.77 5135765.49 189.39
-9755594.65 5135766.59 190.82
-9755591.67 5135761.38 190.21
-9755597.42 5135756.20 186.38
-9755591.29 5135759.80 190.58
-9755594.98 5135763.23 192.55
-9755587.80 5135764.95 187.06
-9755591.93 5135755.96 185.74
-9755597.17 5135757.58 189.16
-9755588.22 5135763.10 189.95
-9755590.55 5135756.98 190.93
-9755589.89 5135761.34 190.08
-9755595.43 5135760.64 191.63
-9755595.67 5135762.85 181.97
-9755597.01 5135760.74 192.59
-9755598.19 5135765.06 190.39
-9755593.72 5135765.48 189.22
-9755588.68 5135766.05 190.17
-9755594.16 5135764.12 182.06
-9755591.25 5135760.21 188.20
-9755590.32 5135761.36 181.65
-9755590.13 5135763.53 191.60
-9755588.61 5135766.13 188.92
-9755592.74 5135758.64 186.64
-9755587.22 5135758.32 185.35
-9755590.39 5135766.66 189.63
-9755594.18 5135762.60 191.16
-9755596.35 5135761.80 192.49
-9755587.99 5135762.71 187.98
-9755596.12 5135764.07 192.65
-9755591.89 5135760.28 189.66
-9755594.27 5135767.19 190.74
-9755596.31 5135756.78 181.82
-9755591.75 5135765.62 192.34
-9755597.77 5135763.42 191.24
-9755591.07 5135759.20 190.70
-9755593.31 5135766.42 189.23
-9755596.38 5135759.87 191.68
-9755590.80 5135758.91 191.08
-9755595.30 5135765.94 192.15
-9755593.05 5135762.51 192.20
-9755587.12 5135758.47 186.20
-9755587.73 5135765.96 187.22
-9755596.47 5135761.78 188.86
-9755594.87 5135760.34 190.94
-9755588.38 5135767.22 190.90
-9755589.54 5135757.62 188.01
-9755596.31 5135760.60 187.98
-9755594.49 5135756.95 188.39
-9755597.97 5135763.54 181.76
-9755587.50 5135762.22 189.18
-9755593.70 5135760.50 190.91
-9755597.74 5135765.53 190.75
-9755588.35 5135758.97 181.61
-9755595.93 5135760.51 191.63
-9755596.79 5135766.49 181.91
-9755593.55 5135765.12 190.52
-9755596.26 5135758.82 188.67
-9755592.76 5135765.01 181.89
-9755587.47 5135763.40 188.39
-9755591.32 5135762.74 190.65
-9755597.54 5135756.92 188.06
-9755589.00 5135762.41 190.60
-9755597.59 5135756.70 187.57
-9755592.96 5135766.00 192.57
-9755593.59 5135758.48 189.54
-9755596.80 5135765.57 190.16
-9755589.53 5135761.78 181.63
-9755594.89 5135765.94 192.16
-9755598.08 5135766.66 188.71
-9755596.78 5135761.90 189.73
-9755587.57 5135764.35 188.86
-9755600.58 5135767.35 181.78
-9755599.48 5135767.35 189.53
-9755600.74 5135767.36 188.67
-9755598.83 5135768.19 189.47
-9755599.00 5135768.60 186.41
-9755599.52 5135767.54 191.43
-9755606.53 5135768.04 181.85
-9755599.92 5135767.52 188.96
-9755600.32 5135770.57 187.42
-9755598.38 5135769.12 188.54
-9755604.17 5135767.42 181.82
-9755598.65 5135771.12 189.92
-9755602.18 5135768.02 181.81
-9755600.14 5135768.11 189.14
-9755607.99 5135779.29 181.98
-9755601.13 5135779.54 181.91
-9755599.34 5135768.53 189.20
-9755600.56 5135768.19 185.86
-9755601.58 5135768.30 181.81
-9755604.53 5135773.36 181.90
-9755601.16 5135769.84 181.82
-9755598.91 5135771.47 181.79
-9755604.16 5135773.97 181.91
-9755606.51 5135771.53 181.89
-9755599.26 5135767.54 189.09
-9755605.36 5135772.15 181.91
-9755599.54 5135770.02 189.34
-9755599.87 5135767.48 188.50
-9755608.57 5135778.11 181.98
-9755599.47 5135767.54 189.63
-9755598.93 5135769.97 189.49
-9755600.17 5135767.64 189.64
-9755601.77 5135778.14 181.92
-9755598.25 5135770.80 186.51
-9755600.33 5135768.07 185.80
-9755598.75 5135769.77 189.50
-9755605.31 5135775.10 181.93
-9755603.56 5135775.76 181.92
-9755599.32 5135769.76 189.31
-9755598.82 5135767.64 188.82
-9755600.94 5135768.37 181.80
-9755599.04 5135769.82 189.03
-9755604.38 5135775.09 181.92
-9755599.89 5135768.16 189.31
-9755607.67 5135780.20 181.98
-9755602.62 5135778.68 181.95
-9755607.42 5135768.30 181.86
-9755598.55 5135768.49 189.71
-9755603.01 5135775.15 181.89
-9755600.41 5135767.80 190.40
-9755604.73 5135768.30 181.85
-9755598.69 5135769.87 185.70
-9755600.98 5135768.05 188.47
-9755598.60 5135768.50 190.34
-9755598.63 5135770.24 189.47
-9755598.93 5135771.23 188.82
-9755598.60 5135767.54 189.36
-9755598.87 5135778.66 181.85
-9755599.50 5135768.69 186.01
-9755598.82 5135769.83 185.85
-9755608.29 5135777.48 181.96
-9755607.70 5135775.49 181.94
-9755608.60 5135776.67 181.95
-9755598.93 5135770.37 185.86
-9755598.52 5135771.14 188.57
-9755598.62 5135769.29 191.14
-9755598.23 5135768.40 188.35
-9755603.63 5135767.76 181.83
-9755599.57 5135767.62 191.09
-9755599.71 5135771.84 181.81
-9755602.67 5135773.06 181.87
-9755598.23 5135770.45 186.49
-9755598.58 5135771.52 181.77
-9755598.64 5135769.17 189.69
-9755599.01 5135771.20 189.89
-9755599.45 5135770.88 185.10
-9755599.23 5135767.92 188.58
-9755598.94 5135770.38 189.35
-9755600.74 5135767.62 188.66
-9755599.58 5135768.01 186.33
-9755598.57 5135771.40 185.32
-9755598.96 5135770.55 188.70
-9755605.05 5135776.32 181.96
-9755598.93 5135767.84 190.62
-9755605.94 5135771.59 181.89
-9755598.95 5135771.35 185.30
-9755601.44 5135778.08 181.90
-9755608.25 5135775.41 181.94
-9755598.93 5135768.14 190.26
-9755598.42 5135768.18 189.71
-9755599.45 5135777.14 181.86
-9755599.56 5135770.39 189.38
-9755600.73 5135768.34 185.89
-9755599.81 5135768.04 189.05
-9755600.12 5135769.49 186.68
-9755601.06 5135767.64 188.47
-9755601.22 5135777.77 181.89
-9755607.71 5135779.53 181.99
-9755599.78 5135770.27 187.11
-9755603.58 5135779.81 181.96
-9755605.42 5135770.99 181.88
-9755608.58 5135773.04 181.92
-9755598.25 5135770.58 189.89
-9755607.13 5135774.54 181.91
-9755602.70 5135767.74 181.82
-9755599.64 5135767.91 189.56
-9755603.20 5135778.91 181.94
-9755600.95 5135771.49 181.81
-9755605.63 5135775.75 181.94
-9755598.56 5135770.01 186.93
-9755605.33 5135779.58 181.97
-9755598.81 5135774.54 181.80
-9755603.57 5135769.20 181.84
-9755598.81 5135770.75 185.62
-9755601.22 5135770.33 181.82
-9755599.47 5135769.37 188.89
-9755598.78 5135771.62 185.54
-9755599.46 5135769.35 185.47
-9755605.35 5135770.65 181.87
-9755607.99 5135771.31 181.91
-9755598.32 5135770.01 186.45
-9755605.40 5135770.09 181.86
-9755598.76 5135769.47 186.83
-9755605.05 5135771.60 181.89
-9755608.54 5135778.68 181.98
-9755598.92 5135767.61 190.58
-9755608.01 5135768.70 181.88
-9755600.37 5135772.48 181.83
-9755602.72 5135773.89 181.88
-9755598.94 5135769.64 186.50
-9755598.97 5135768.52 189.41
-9755600.59 5135774.82 181.84
-9755598.35 5135771.38 189.94
-9755600.63 5135767.60 185.67
-9755600.09 5135770.79 185.88
-9755603.25 5135779.84 181.96
-9755600.94 5135768.17 185.78
-9755603.54 5135768.91 181.84
-9755600.98 5135769.83 186.43
-9755601.17 5135778.69 181.90
-9755607.09 5135777.53 181.94
-9755606.80 5135769.81 181.88
-9755598.32 5135771.79 185.11
-9755598.37 5135770.47 185.81
-9755599.20 5135769.53 186.75
-9755605.05 5135777.46 181.95
-9755603.01 5135774.80 181.89
-9755600.33 5135774.19 181.84
-9755603.58 5135769.49 181.83
-9755599.54 5135769.15 186.30
-9755598.25 5135769.77 186.21
-9755598.56 5135769.17 181.74
-9755592.95 5135767.33 189.87
-9755591.86 5135767.35 181.87
-9755598.28 5135771.66 189.93
-9755596.55 5135767.65 186.75
-9755598.27 5135769.06 190.36
-9755598.12 5135771.34 185.12
-9755594.15 5135770.48 189.73
-9755590.65 5135768.49 189.91
-9755598.20 5135772.41 181.80
-9755596.03 5135767.93 189.95
-9755593.28 5135769.38 189.90
-9755589.25 5135768.10 189.01
-9755596.55 5135767.41 181.92
-9755592.10 5135772.37 189.02
-9755595.80 5135768.05 189.16
-9755591.15 5135772.25 188.53
-9755598.27 5135775.69 181.87
-9755596.78 5135767.87 189.38
-9755598.03 5135769.97 187.03
-9755597.93 5135775.09 181.93
-9755596.50 5135770.65 189.56
-9755587.01 5135766.77 189.59
-9755597.73 5135771.54 185.18
-9755595.94 5135771.72 187.30
-9755595.60 5135778.04 182.03
-9755596.25 5135770.23 190.16
-9755598.14 5135771.47 189.48
-9755594.29 5135773.17 183.97
-9755598.16 5135778.92 181.94
-9755597.48 5135768.81 188.51
-9755591.57 5135771.71 188.73
-9755594.51 5135773.95 184.02
-9755591.87 5135769.77 187.53
-9755590.66 5135775.65 181.75
-9755594.01 5135767.44 189.67
-9755595.77 5135769.45 189.76
-9755596.32 5135769.35 189.78
-9755591.25 5135780.06 186.64
-9755588.62 5135767.63 190.24
-9755595.91 5135770.68 188.62
-9755589.61 5135770.15 189.41
-9755591.53 5135768.28 188.65
-9755588.78 5135780.05 181.77
-9755591.47 5135772.99 188.48
-9755597.74 5135768.95 191.27
-9755592.45 5135770.59 188.10
-9755591.58 5135770.58 187.79
-9755594.88 5135771.72 189.16
-9755592.76 5135769.79 186.98
-9755596.18 5135773.52 185.25
-9755598.07 5135769.51 190.78
-9755588.80 5135768.00 190.65
-9755593.19 5135775.05 181.95
-9755596.50 5135770.58 190.54
-9755597.04 5135777.09 186.83
-9755596.59 5135770.76 189.52
-9755598.03 5135768.25 181.82
-9755593.36 5135768.44 189.70
-9755591.23 5135773.02 185.77
-9755588.07 5135768.00 190.29
-9755589.14 5135768.72 190.14
-9755592.06 5135773.88 186.73
-9755596.44 5135779.81 182.05
-9755587.33 5135775.28 181.73
-9755596.48 5135769.16 187.37
-9755592.00 5135779.16 181.95
-9755594.61 5135768.06 189.61
-9755598.32 5135770.91 185.85
-9755594.76 5135768.40 189.56
-9755590.40 5135770.19 190.02
-9755591.23 5135770.84 188.17
-9755588.77 5135777.97 181.76
-9755596.81 5135775.13 186.50
-9755592.01 5135772.48 189.61
-9755590.88 5135771.10 188.55
-9755587.97 5135768.43 189.76
-9755597.59 5135769.24 186.67
-9755590.28 5135770.02 187.11
-9755588.82 5135775.04 181.75
-9755588.28 5135768.63 188.57
-9755596.73 5135776.56 186.86
-9755594.74 5135774.55 185.25
-9755589.95 5135772.61 186.47
-9755591.26 5135767.53 189.86
-9755589.87 5135769.92 189.32
-9755589.14 5135770.06 188.43
-9755590.34 5135769.86 187.14
-9755590.10 5135769.61 190.56
-9755596.01 5135770.03 188.58
-9755591.07 5135767.78 190.64
-9755589.12 5135769.96 181.68
-9755588.77 5135768.12 190.35
-9755590.69 5135768.66 189.90
-9755597.98 5135771.51 181.89
-9755589.80 5135769.84 189.51
-9755594.12 5135771.48 181.92
-9755594.13 5135768.83 189.96
-9755593.29 5135767.16 191.32
-9755591.40 5135774.66 185.30
-9755597.23 5135771.57 186.22
-9755593.87 5135768.08 191.20
-9755597.08 5135768.38 190.57
-9755595.45 5135771.34 189.68
-9755596.90 5135769.31 190.04
-9755596.51 5135772.89 186.45
-9755597.96 5135772.73 181.88
-9755597.24 5135769.25 190.66
-9755591.96 5135768.82 187.67
-9755591.76 5135772.43 188.39
-9755591.45 5135779.79 181.93
-9755588.37 5135767.81 189.77
-9755590.83 5135767.54 190.22
-9755594.37 5135773.33 185.94
-9755589.98 5135776.50 181.74
-9755592.24 5135771.80 188.08
-9755596.91 5135771.99 189.14
-9755594.80 5135772.04 189.05
-9755591.38 5135767.61 188.13
-9755588.86 5135769.30 189.01
-9755596.46 5135774.72 181.98
-9755590.42 5135772.05 187.35
-9755597.12 5135769.99 189.95
-9755597.49 5135770.05 189.01
-9755596.02 5135771.98 186.92
-9755595.97 5135770.42 190.55
-9755592.17 5135770.70 188.48
-9755593.16 5135774.34 186.33
-9755591.47 5135769.30 189.07
-9755591.25 5135771.84 186.38
-9755593.66 5135768.10 191.28
-9755590.58 5135777.44 181.76
-9755594.77 5135773.39 185.16
-9755596.32 5135769.48 188.09
-9755594.85 5135768.00 191.29
-9755587.44 5135767.99 187.87
-9755588.35 5135769.98 189.13
-9755595.94 5135775.65 182.00
-9755592.91 5135771.79 181.89
-9755596.11 5135767.93 186.93
-9755596.17 5135773.61 185.46
-9755597.67 5135773.04 181.93
-9755590.71 5135769.29 190.12
-9755590.43 5135774.22 185.04
-9755596.95 5135767.76 186.82
-9755591.99 5135771.36 187.29
-9755590.30 5135771.08 189.75
-9755597.18 5135769.55 189.82
-9755596.92 5135774.91 186.03
-9755597.99 5135770.35 189.10
-9755593.83 5135779.98 185.42
-9755593.68 5135774.51 187.57
-9755597.82 5135771.49 188.40
-9755597.07 5135768.60 181.93
-9755591.34 5135769.66 188.35
-9755593.93 5135768.41 189.46
-9755594.77 5135767.88 189.39
-9755595.61 5135779.54 182.03
-9755597.47 5135772.31 185.01
-9755597.47 5135768.93 191.25
-9755592.08 5135772.91 189.30
-9755590.06 5135770.55 186.93
-9755595.60 5135776.25 182.01
-9755592.89 5135769.26 186.81
-9755586.97 5135769.12 189.05
-9755591.55 5135773.43 185.11
-9755594.54 5135773.09 189.39
-9755597.47 5135770.01 187.12
-9755593.64 5135771.18 189.29
-9755597.96 5135776.59 181.97
-9755591.21 5135771.82 186.81
-9755597.19 5135769.21 186.67
-9755591.52 5135769.19 188.45
-9755594.32 5135769.13 190.15
-9755595.54 5135768.38 189.83
-9755594.54 5135773.16 185.11
-9755594.77 5135773.07 187.43
-9755589.37 5135769.99 190.43
-9755594.84 5135771.44 188.93
-9755598.12 5135770.40 189.52
-9755594.07 5135769.74 188.97
-9755590.69 5135773.13 186.43
-9755593.66 5135774.05 188.41
-9755595.80 5135771.69 189.71
-9755590.02 5135771.51 181.70
-9755591.67 5135771.52 187.15
-9755588.30 5135768.50 189.07
-9755597.46 5135769.14 188.51
-9755593.66 5135767.66 189.58
-9755588.81 5135777.66 181.75
-9755593.54 5135770.60 181.94
-9755588.35 5135769.76 190.59
-9755597.10 5135772.45 181.96
-9755591.33 5135772.80 187.05
-9755594.40 5135770.03 181.94
-9755593.57 5135770.86 189.88
-9755597.40 5135771.42 185.15
-9755598.05 5135769.01 190.89
-9755588.93 5135769.32 190.29
-9755590.01 5135771.73 188.98
-9755597.46 5135773.42 186.11
-9755591.81 5135772.37 181.89
-9755596.61 5135773.61 187.28
-9755588.25 5135770.91 181.70
-9755596.45 5135772.54 187.11
-9755591.32 5135768.08 190.42
-9755592.26 5135775.30 184.26
-9755593.93 5135772.51 186.59
-9755596.75 5135769.79 188.67
-9755588.02 5135768.49 189.54
-9755589.78 5135768.12 189.99
-9755590.41 5135771.47 186.97
-9755593.69 5135768.06 186.96
-9755594.42 5135769.39 189.38
-9755593.61 5135769.68 189.74
-9755587.37 5135769.99 181.70
-9755597.43 5135768.90 189.33
-9755588.67 5135768.12 189.67
-9755588.42 5135770.59 189.61
-9755592.33 5135776.20 181.94
-9755591.18 5135772.98 181.85
-9755589.59 5135769.92 189.85
-9755593.98 5135775.54 186.15
-9755588.49 5135767.50 190.27
-9755587.79 5135769.13 187.73
-9755590.58 5135768.93 190.51
-9755587.10 5135771.80 181.70
-9755596.40 5135770.00 190.68
-9755588.00 5135769.70 187.74
-9755588.03 5135768.66 189.54
-9755596.80 5135772.98 181.97
-9755594.94 5135767.71 189.29
-9755595.74 5135770.49 187.31
-9755597.73 5135770.79 188.71
-9755594.06 5135767.94 189.50
-9755590.11 5135771.40 189.64
-9755589.46 5135770.44 190.23
-9755596.34 5135767.82 189.66
-9755597.70 5135771.41 186.24
-9755591.27 5135769.72 181.85
-9755592.53 5135771.79 188.66
-9755592.08 5135767.42 188.02
-9755587.49 5135767.98 190.43
-9755597.03 5135775.79 187.20
-9755590.96 5135771.49 181.75
-9755594.50 5135772.80 186.62
-9755597.16 5135769.47 181.94
-9755597.95 5135772.51 185.18
-9755597.91 5135771.65 186.20
-9755592.70 5135769.68 188.03
-9755590.95 5135769.05 188.77
-9755597.81 5135768.70 191.19
-9755590.67 5135768.04 190.26
-9755596.60 5135771.39 186.59
-9755587.03 5135773.29 181.71
-9755587.43 5135767.48 189.43
-9755590.31 5135769.98 186.80
-9755592.94 5135773.01 181.91
-9755594.43 5135777.44 182.01
-9755590.41 5135771.46 189.73
-9755588.03 5135767.67 181.66
-9755592.60 5135768.29 181.83
-9755592.47 5135769.13 181.88
-9755588.44 5135769.90 190.04
-9755594.43 5135770.50 189.73
-9755587.51 5135769.60 188.83
-9755590.62 5135767.96 188.28
-9755589.61 5135779.23 181.77
-9755594.23 5135768.44 190.16
-9755591.29 5135772.06 187.08
-9755590.68 5135771.98 187.36
-9755594.81 5135769.38 188.93
-9755591.21 5135768.22 181.87
-9755590.72 5135769.20 187.71
-9755597.36 5135771.33 186.52
-9755596.25 5135771.83 181.96
-9755595.36 5135775.17 185.75
-9755596.10 5135770.33 190.14
-9755590.28 5135770.63 186.80
-9755593.27 5135774.53 187.92
-9755589.82 5135768.71 189.58
-9755590.00 5135770.47 188.45
-9755587.10 5135769.97 189.63
-9755590.43 5135771.11 189.51
-9755589.17 5135770.97 188.39
-9755596.81 5135775.36 186.00
-9755587.13 5135770.08 189.39
-9755588.33 5135769.42 189.10
-9755587.93 5135776.79 181.74
-9755590.13 5135768.50 188.36
-9755597.76 5135769.84 188.78
-9755593.90 5135774.38 188.30
-9755589.64 5135769.37 189.78
-9755597.06 5135778.69 182.03
-9755589.43 5135768.52 188.97
-9755594.84 5135775.48 186.47
-9755589.20 5135768.82 188.55
-9755594.55 5135773.50 185.50
-9755596.58 5135772.10 187.20
-9755590.59 5135779.50 181.77
-9755594.41 5135779.51 182.00
-9755593.98 5135770.11 190.09
-9755595.29 5135771.72 189.12
-9755590.33 5135768.99 188.51
-9755596.50 5135769.96 189.25
-9755596.31 5135773.09 186.34
-9755593.40 5135769.59 190.15
-9755597.67 5135773.47 186.08
-9755590.54 5135770.00 189.63
-9755596.87 5135769.47 188.89
-9755589.63 5135771.62 190.63
-9755592.39 5135777.13 181.95
-9755588.59 5135768.45 188.79
-9755591.64 5135773.78 188.29
-9755590.50 5135768.79 189.47
-9755595.40 5135769.38 188.79
-9755597.62 5135770.73 185.72
-9755593.22 5135776.20 181.97
-9755592.08 5135770.56 188.56
-9755593.66 5135767.52 191.12
-9755591.49 5135774.00 185.10
-9755596.09 5135769.13 189.37
-9755591.24 5135771.19 187.86
-9755594.40 5135768.45 189.39
-9755598.09 5135770.86 188.60
-9755596.03 5135774.73 187.18
-9755597.02 5135769.99 186.97
-9755597.69 5135771.56 181.92
-9755597.67 5135768.25 190.69
-9755596.28 5135769.68 190.21
-9755596.51 5135770.33 181.95
-9755593.90 5135773.59 185.12
-9755594.50 5135772.47 183.78
-9755596.32 5135769.76 189.27
-9755590.47 5135768.97 190.55
-9755588.81 5135778.32 181.76
-9755591.92 5135772.36 189.29
-9755596.33 5135769.11 189.75
-9755587.33 5135770.62 181.69
-9755592.11 5135770.01 187.42
-9755598.02 5135769.50 181.81
-9755587.17 5135767.36 188.04
-9755591.05 5135773.20 188.94
-9755597.38 5135770.39 187.12
-9755591.91 5135767.62 190.21
-9755596.89 5135767.52 191.48
-9755591.42 5135773.14 188.92
-9755590.68 5135772.07 188.88
-9755588.57 5135768.33 190.12
-9755597.23 5135770.64 186.85
-9755590.62 5135769.92 187.45
-9755587.65 5135767.94 181.67
-9755588.65 5135769.59 190.56
-9755592.17 5135773.77 184.94
-9755595.63 5135769.19 188.79
-9755595.54 5135767.81 189.98
-9755596.00 5135768.94 189.80
-9755595.27 5135779.38 185.71
-9755588.00 5135767.17 190.68
-9755596.30 5135775.14 186.24
-9755590.72 5135769.76 189.70
-9755588.37 5135769.53 190.00
-9755597.93 5135779.80 181.99
-9755596.30 5135772.89 188.09
-9755586.90 5135767.87 189.33
-9755597.49 5135768.16 190.21
-9755590.53 5135770.59 187.33
-9755587.38 5135768.78 181.68
-9755595.34 5135772.46 187.25
-9755591.59 5135771.27 187.62
-9755597.97 5135771.02 189.33
-9755592.85 5135775.97 186.48
-9755596.01 5135773.25 186.91
-9755593.61 5135770.37 188.99
-9755595.30 5135769.07 190.04
-9755592.35 5135777.42 181.95
-9755593.59 5135772.00 185.10
-9755596.23 5135769.77 181.94
-9755595.66 5135767.44 191.19
-9755588.61 5135770.51 190.68
-9755591.15 5135770.82 189.55
-9755591.13 5135774.90 185.29
-9755589.22 5135771.67 190.39
-9755594.88 5135771.60 187.34
-9755596.50 5135776.55 182.00
-9755589.00 5135767.63 189.38
-9755595.62 5135773.03 187.15
-9755586.79 5135769.77 187.35
-9755595.96 5135768.54 189.30
-9755597.90 5135771.67 184.66
-9755593.70 5135767.99 191.97
-9755593.89 5135771.77 181.91
-9755596.47 5135771.56 186.63
-9755594.52 5135776.59 186.10
-9755594.23 5135772.62 189.25
-9755595.00 5135779.81 182.03
-9755594.62 5135771.79 187.34
-9755597.57 5135768.46 191.17
-9755590.64 5135771.15 189.48
-9755594.73 5135772.97 185.89
-9755597.09 5135771.52 186.52
-9755597.70 5135768.21 189.65
-9755596.61 5135768.30 186.82
-9755592.72 5135767.64 181.84
-9755591.88 5135768.17 187.89
-9755589.87 5135769.06 190.13
-9755590.58 5135770.64 188.80
-9755590.07 5135767.51 188.74
-9755595.70 5135774.66 185.87
-9755595.94 5135774.71 185.88
-9755587.98 5135770.04 188.34
-9755590.47 5135770.92 186.94
-9755595.36 5135768.86 190.04
-9755594.87 5135768.98 189.50
-9755594.41 5135776.57 182.00
-9755598.13 5135768.07 191.11
-9755590.02 5135770.80 188.98
-9755590.36 5135772.05 181.71
-9755587.19 5135769.06 187.54
-9755588.89 5135769.88 189.08
-9755595.77 5135771.12 190.49
-9755594.64 5135774.33 185.27
-9755593.99 5135767.89 191.04
-9755597.57 5135768.27 187.83
-9755596.00 5135770.08 189.27
-9755589.92 5135769.58 189.03
-9755585.85 5135780.69 181.76
-9755586.08 5135783.97 181.79
-9755586.13 5135785.40 181.81
-9755584.90 5135780.92 181.76
-9755585.78 5135783.91 181.78
-9755585.52 5135781.86 181.77
-9755583.85 5135780.39 181.74
-9755583.15 5135784.21 181.77
-9755584.07 5135782.37 181.77
-9755575.75 5135785.33 181.75
-9755576.99 5135779.99 181.71
-9755572.57 5135780.51 181.70
-9755578.18 5135780.01 181.70
-9755560.77 5135779.88 181.73
-9755563.16 5135779.93 181.74
-9755568.16 5135779.94 181.72
-9755574.86 5135785.01 181.76
-9755577.63 5135780.35 181.70
-9755582.31 5135784.76 181.77
-9755575.22 5135783.22 181.75
-9755573.47 5135782.95 181.73
-9755571.90 5135785.30 181.74
-9755577.52 5135784.44 181.75
-9755579.93 5135781.50 181.73
-9755576.33 5135785.35 181.76
-9755575.17 5135784.79 181.75
-9755572.58 5135784.69 181.74
-9755573.46 5135782.08 181.74
-9755578.20 5135781.16 181.72
-9755582.92 5135783.06 181.76
-9755582.61 5135783.01 181.76
-9755573.42 5135784.76 181.76
-9755575.50 5135781.19 181.72
-9755577.27 5135782.10 181.75
-9755574.94 5135781.70 181.72
-9755573.73 5135783.23 181.75
-9755575.81 5135781.51 181.73
-9755578.21 5135782.71 181.75
-9755580.79 5135782.66 181.75
-9755575.84 5135782.12 181.75
-9755571.67 5135785.07 181.76
-9755577.23 5135783.87 181.75
-9755577.79 5135782.39 181.74
-9755564.26 5135785.29 181.77
-9755571.61 5135784.71 181.76
-9755560.71 5135785.24 181.78
-9755563.09 5135783.14 181.75
-9755569.90 5135783.50 181.75
-9755562.24 5135785.23 181.73
-9755570.77 5135780.88 181.72
-9755570.19 5135781.43 181.74
-9755568.16 5135784.97 181.75
-9755561.65 5135781.44 181.75
-9755564.04 5135784.10 181.76
-9755565.77 5135783.78 181.75
-9755561.08 5135784.63 181.76
-9755565.75 5135784.35 181.74
-9755565.16 5135781.68 181.73
-9755562.24 5135782.92 181.75
-9755571.09 5135782.39 181.73
-9755563.10 5135782.57 181.75
-9755563.71 5135784.11 181.76
-9755568.46 5135783.25 181.75
-9755568.52 5135782.58 181.74
-9755559.91 5135781.71 181.75
-9755571.11 5135782.95 181.73
-9755566.65 5135781.13 181.73
-9755562.82 5135782.04 181.75
-9755565.16 5135782.62 181.76
-9755563.43 5135782.03 181.75
-9755567.22 5135784.98 181.75
-9755568.75 5135783.77 181.75
-9755563.11 5135783.71 181.75
-9755563.42 5135783.19 181.75
-9755563.38 5135781.12 181.74
-9755564.92 5135780.18 181.73
-9755566.91 5135782.88 181.72
-9755561.65 5135782.58 181.76
-9755558.39 5135781.11 181.74
-9755558.41 5135782.60 181.73
-9755558.42 5135784.34 181.76
-9755557.57 5135783.73 181.75
-9755586.52 5135763.72 188.35
-9755586.92 5135764.68 188.41
-9755586.31 5135759.39 185.29
-9755585.78 5135760.51 187.40
-9755586.20 5135760.27 187.32
-9755585.29 5135759.46 185.82
-9755585.82 5135764.91 188.17
-9755585.78 5135759.62 186.50
-9755586.67 5135758.84 186.40
-9755586.30 5135765.50 188.23
-9755586.08 5135760.79 187.64
-9755585.48 5135759.62 187.31
-9755586.29 5135766.04 189.89
-9755586.26 5135761.15 187.58
-9755586.45 5135761.19 187.52
-9755585.48 5135761.82 187.70
-9755586.29 5135760.19 186.35
-9755585.53 5135762.20 188.08
-9755586.51 5135766.42 188.82
-9755586.31 5135758.47 187.29
-9755585.86 5135758.09 186.47
-9755585.93 5135766.46 189.28
-9755585.15 5135761.09 187.93
-9755586.30 5135759.28 187.02
-9755586.37 5135764.26 188.21
-9755586.91 5135767.37 187.72
-9755586.48 5135758.23 186.39
-9755587.42 5135757.57 187.64
-9755586.56 5135760.58 187.26
-9755586.25 5135766.35 190.04
-9755586.48 5135764.74 188.63
-9755585.44 5135761.08 187.96
-9755586.27 5135762.70 186.46
-9755586.68 5135757.53 186.53
-9755586.34 5135762.20 186.55
-9755585.92 5135758.17 187.22
-9755585.98 5135758.40 186.43
-9755586.60 5135764.77 186.75
-9755586.54 5135758.75 185.11
-9755586.04 5135766.06 190.02
-9755586.39 5135759.12 186.92
-9755586.09 5135759.46 186.56
-9755586.21 5135758.28 187.29
-9755586.62 5135761.51 186.49
-9755586.52 5135764.55 188.19
-9755586.25 5135758.52 186.40
-9755586.66 5135761.96 189.05
-9755586.15 5135765.46 188.87
-9755585.41 5135758.10 187.18
-9755585.98 5135766.05 189.24
-9755585.33 5135757.64 187.18
-9755586.37 5135765.10 189.89
-9755586.33 5135760.94 186.57
-9755585.74 5135760.16 187.34
-9755586.62 5135759.52 186.18
-9755586.59 5135758.47 186.67
-9755585.32 5135759.81 185.91
-9755585.98 5135761.71 187.99
-9755585.22 5135759.48 186.71
-9755584.81 5135761.12 187.65
-9755584.85 5135761.66 187.96
-9755585.36 5135756.05 181.57
-9755583.23 5135762.94 181.61
-9755584.21 5135764.32 181.62
-9755584.95 5135762.06 187.96
-9755583.95 5135757.29 181.57
-9755584.77 5135760.20 181.59
-9755583.65 5135758.43 181.56
-9755584.81 5135758.21 187.28
-9755586.57 5135768.47 189.12
-9755587.03 5135767.90 181.67
-9755586.18 5135771.51 181.69
-9755586.39 5135778.20 181.73
-9755584.92 5135773.29 181.71
-9755585.54 5135771.50 181.70
-9755586.44 5135777.99 181.74
-9755585.59 5135774.71 181.72
-9755586.41 5135779.21 181.77
-9755585.28 5135779.17 181.74
-9755586.75 5135773.00 181.71
-9755584.99 5135771.48 181.68
-9755585.30 5135776.46 181.72
-9755583.28 5135771.72 181.68
-9755585.02 5135775.33 181.71
-9755583.81 5135769.06 181.67
-9755583.81 5135777.40 181.71
-9755584.11 5135771.16 181.67
-9755584.73 5135773.84 181.71
-9755584.11 5135772.31 181.68
-9755583.74 5135779.47 181.73
-9755584.45 5135769.08 181.67
-9755583.79 5135771.46 181.68
-9755580.94 5135760.26 181.59
-9755580.91 5135763.19 181.61
-9755583.07 5135760.17 181.58
-9755574.11 5135763.06 181.64
-9755578.26 5135759.89 181.59
-9755578.87 5135758.38 181.57
-9755573.25 5135758.08 181.62
-9755580.93 5135762.55 181.61
-9755574.20 5135760.48 181.62
-9755582.42 5135761.42 181.59
-9755573.80 5135760.16 181.62
-9755575.07 5135764.31 181.64
-9755576.27 5135759.87 181.60
-9755581.52 5135758.44 181.59
-9755580.95 5135756.41 181.57
-9755574.72 5135761.64 181.63
-9755577.41 5135762.29 181.62
-9755582.16 5135756.09 181.56
-9755577.38 5135759.89 181.60
-9755577.45 5135761.93 181.61
-9755582.20 5135757.19 181.58
-9755579.20 5135759.02 181.58
-9755577.14 5135759.31 181.59
-9755580.59 5135766.71 181.64
-9755575.97 5135758.68 181.61
-9755574.69 5135766.67 181.65
-9755579.78 5135758.75 181.58
-9755578.95 5135759.29 181.58
-9755575.03 5135763.39 181.64
-9755579.70 5135766.70 181.62
-9755572.14 5135766.44 181.66
-9755574.73 5135760.46 181.62
-9755573.86 5135766.38 181.65
-9755575.09 5135757.74 181.61
-9755581.28 5135757.24 181.57
-9755573.57 5135762.26 181.64
-9755574.12 5135764.28 181.63
-9755572.43 5135761.63 181.66
-9755572.63 5135765.17 181.65
-9755577.10 5135761.65 181.60
-9755575.09 5135759.29 181.61
-9755577.17 5135759.96 181.59
-9755576.54 5135764.90 181.63
-9755575.37 5135763.39 181.63
-9755578.05 5135758.37 181.58
-9755582.20 5135758.70 181.58
-9755575.10 5135760.14 181.61
-9755575.83 5135766.65 181.65
-9755574.14 5135761.03 181.64
-9755577.44 5135764.35 181.62
-9755573.04 5135756.56 181.61
-9755573.60 5135761.04 181.64
-9755573.29 5135760.14 181.62
-9755581.55 5135766.72 181.64
-9755580.04 5135763.45 181.60
-9755573.27 5135765.19 181.64
-9755576.53 5135757.15 181.59
-9755575.03 5135758.68 181.61
-9755580.71 5135758.66 181.58
-9755576.48 5135761.97 181.60
-9755574.96 5135763.08 181.64
-9755571.87 5135757.78 181.59
-9755570.68 5135759.78 181.63
-9755561.77 5135763.33 181.62
-9755569.47 5135758.37 181.62
-9755570.88 5135765.76 181.66
-9755565.61 5135757.73 181.62
-9755568.57 5135761.03 181.66
-9755571.83 5135759.28 181.62
-9755566.52 5135765.18 181.64
-9755565.99 5135755.98 181.62
-9755569.12 5135761.91 181.64
-9755564.39 5135758.05 181.63
-9755560.01 5135759.74 181.63
-9755571.51 5135763.10 181.65
-9755562.36 5135763.91 181.64
-9755560.58 5135764.00 181.64
-9755569.49 5135758.93 181.63
-9755563.01 5135760.07 181.62
-9755560.60 5135759.18 181.61
-9755571.23 5135763.40 181.65
-9755559.16 5135760.07 181.60
-9755570.36 5135760.16 181.63
-9755559.38 5135765.04 181.64
-9755561.19 5135757.40 181.61
-9755567.38 5135757.14 181.62
-9755567.96 5135759.26 181.63
-9755567.69 5135759.47 181.63
-9755559.11 5135758.00 181.60
-9755569.40 5135760.73 181.62
-9755561.77 5135759.78 181.63
-9755559.16 5135763.94 181.63
-9755564.75 5135757.43 181.61
-9755571.18 5135760.19 181.63
-9755565.65 5135759.85 181.64
-9755570.06 5135765.13 181.66
-9755565.30 5135763.41 181.63
-9755564.12 5135756.54 181.62
-9755562.69 5135763.08 181.64
-9755570.66 5135756.63 181.62
-9755559.99 5135766.33 181.64
-9755570.30 5135763.42 181.66
-9755570.94 5135758.63 181.62
-9755561.79 5135762.17 181.64
-9755565.60 5135762.76 181.64
-9755564.07 5135765.75 181.65
-9755569.73 5135756.64 181.62
-9755570.07 5135758.34 181.63
-9755569.14 5135761.61 181.64
-9755559.17 5135756.82 181.58
-9755571.01 5135758.93 181.62
-9755566.48 5135763.91 181.64
-9755566.20 5135758.91 181.62
-9755564.15 5135760.65 181.63
-9755564.76 5135761.95 181.64
-9755558.53 5135763.66 181.63
-9755562.44 5135756.49 181.60
-9755563.52 5135766.59 181.65
-9755568.01 5135760.12 181.62
-9755561.17 5135765.65 181.65
-9755563.23 5135766.26 181.63
-9755563.87 5135756.84 181.62
-9755560.01 5135760.36 181.62
-9755563.27 5135757.13 181.63
-9755559.99 5135762.72 181.63
-9755559.11 5135761.86 181.62
-9755570.38 5135763.95 181.66
-9755560.02 5135761.84 181.63
-9755557.92 5135762.98 181.62
-9755558.49 5135765.98 181.64
-9755559.16 5135755.92 181.58
-9755558.29 5135764.76 181.64
-9755557.63 5135761.79 181.62
-9755557.90 5135766.54 181.65
-9755557.98 5135759.76 181.60
-9755569.39 5135766.64 181.65
-9755573.54 5135766.66 181.64
-9755582.09 5135766.73 181.64
-9755574.04 5135772.90 181.67
-9755578.87 5135767.54 181.63
-9755583.20 5135777.02 181.72
-9755582.97 5135770.83 181.68
-9755575.85 5135775.83 181.70
-9755576.77 5135777.34 181.69
-9755581.75 5135777.09 181.72
-9755574.97 5135778.19 181.72
-9755578.18 5135778.52 181.70
-9755574.08 5135769.06 181.66
-9755577.33 5135776.47 181.68
-9755580.59 5135772.35 181.69
-9755578.17 5135774.96 181.66
-9755579.16 5135768.16 181.64
-9755575.60 5135770.52 181.67
-9755579.95 5135769.01 181.66
-9755582.61 5135769.95 181.67
-9755574.13 5135775.57 181.69
-9755581.44 5135776.24 181.70
-9755572.33 5135773.16 181.66
-9755577.31 5135779.12 181.70
-9755580.00 5135774.66 181.68
-9755578.49 5135768.16 181.63
-9755573.74 5135777.05 181.70
-9755572.59 5135776.99 181.71
-9755574.74 5135767.60 181.66
-9755574.10 5135773.82 181.68
-9755579.67 5135777.92 181.69
-9755579.96 5135777.98 181.70
-9755580.57 5135773.49 181.67
-9755572.57 5135771.36 181.66
-9755577.30 5135776.17 181.69
-9755574.04 5135777.64 181.71
-9755572.34 5135768.77 181.65
-9755575.02 5135768.45 181.65
-9755582.89 5135776.54 181.71
-9755582.64 5135774.74 181.69
-9755578.55 5135771.40 181.65
-9755575.55 5135774.63 181.69
-9755580.27 5135776.45 181.69
-9755578.24 5135771.75 181.67
-9755571.76 5135768.11 181.65
-9755575.88 5135768.72 181.66
-9755581.49 5135768.45 181.66
-9755578.84 5135770.30 181.65
-9755580.62 5135776.75 181.69
-9755575.33 5135769.06 181.67
-9755575.93 5135772.28 181.69
-9755581.75 5135771.71 181.69
-9755580.59 5135767.90 181.66
-9755573.19 5135776.43 181.69
-9755582.02 5135769.11 181.67
-9755572.69 5135770.85 181.67
-9755572.04 5135768.16 181.66
-9755579.70 5135770.50 181.66
-9755578.21 5135779.43 181.70
-9755576.41 5135779.41 181.71
-9755577.98 5135773.19 181.66
-9755573.49 5135769.27 181.66
-9755581.46 5135774.97 181.70
-9755578.45 5135774.09 181.66
-9755578.23 5135772.90 181.65
-9755573.85 5135767.52 181.66
-9755582.31 5135777.11 181.71
-9755579.67 5135774.71 181.68
-9755577.34 5135767.57 181.65
-9755582.11 5135771.44 181.68
-9755577.70 5135769.11 181.63
-9755577.23 5135779.73 181.71
-9755575.87 5135767.57 181.64
-9755573.55 5135767.57 181.66
-9755578.79 5135769.03 181.64
-9755571.66 5135779.39 181.70
-9755580.82 5135769.08 181.66
-9755571.70 5135778.50 181.70
-9755572.62 5135776.42 181.70
-9755582.00 5135774.71 181.69
-9755580.00 5135772.37 181.66
-9755580.00 5135767.57 181.65
-9755559.38 5135766.88 181.63
-9755567.65 5135766.96 181.64
-9755560.25 5135766.59 181.64
-9755572.35 5135773.48 181.67
-9755564.09 5135766.89 181.66
-9755561.96 5135779.86 181.73
-9755560.77 5135778.69 181.71
-9755565.85 5135771.68 181.67
-9755565.25 5135774.61 181.68
-9755569.11 5135772.53 181.66
-9755569.32 5135778.82 181.70
-9755564.37 5135772.48 181.69
-9755563.47 5135771.39 181.68
-9755566.98 5135772.26 181.67
-9755560.82 5135768.71 181.66
-9755568.80 5135775.54 181.68
-9755568.72 5135778.15 181.70
-9755570.61 5135770.50 181.67
-9755561.09 5135770.78 181.67
-9755565.53 5135775.58 181.70
-9755562.58 5135771.30 181.67
-9755566.15 5135772.23 181.68
-9755559.64 5135769.83 181.68
-9755567.30 5135768.68 181.65
-9755559.09 5135772.20 181.69
-9755568.47 5135777.93 181.70
-9755567.59 5135772.25 181.67
-9755558.45 5135769.81 181.66
-9755560.78 5135775.48 181.72
-9755559.96 5135769.26 181.67
-9755567.88 5135777.34 181.70
-9755562.59 5135776.13 181.70
-9755559.94 5135776.61 181.73
-9755563.80 5135769.85 181.68
-9755563.49 5135776.68 181.71
-9755561.43 5135776.39 181.69
-9755568.79 5135767.56 181.66
-9755559.05 5135770.73 181.67
-9755559.31 5135771.90 181.69
-9755562.33 5135773.75 181.70
-9755563.18 5135768.11 181.65
-9755564.71 5135768.93 181.66
-9755565.84 5135770.13 181.65
-9755570.89 5135768.71 181.66
-9755569.14 5135770.51 181.66
-9755561.10 5135772.81 181.69
-9755564.04 5135775.44 181.69
-9755560.48 5135773.98 181.70
-9755564.91 5135770.14 181.65
-9755559.32 5135774.53 181.70
-9755570.87 5135777.66 181.69
-9755559.70 5135767.46 181.65
-9755564.39 5135771.91 181.68
-9755559.34 5135773.38 181.69
-9755565.51 5135776.33 181.70
-9755571.12 5135774.66 181.68
-9755562.66 5135774.87 181.69
-9755562.91 5135768.32 181.66
-9755571.16 5135767.53 181.66
-9755567.65 5135770.73 181.66
-9755570.24 5135777.29 181.69
-9755567.58 5135770.22 181.68
-9755566.96 5135779.08 181.72
-9755571.20 5135769.93 181.66
-9755569.70 5135773.12 181.67
-9755567.55 5135778.48 181.70
-9755567.28 5135776.75 181.70
-9755563.18 5135771.61 181.69
-9755567.01 5135773.15 181.68
-9755565.85 5135768.99 181.64
-9755561.43 5135770.78 181.69
-9755561.44 5135773.96 181.70
-9755570.53 5135774.08 181.67
-9755568.84 5135770.75 181.66
-9755564.07 5135774.60 181.69
-9755564.63 5135773.14 181.69
-9755561.95 5135774.62 181.71
-9755563.18 5135773.64 181.69
-9755561.42 5135769.83 181.68
-9755563.23 5135772.51 181.69
-9755567.31 5135777.59 181.71
-9755558.37 5135776.00 181.70
-9755557.54 5135777.83 181.70
-9755558.24 5135774.85 181.70
-9755557.61 5135775.72 181.68
-9755557.61 5135772.19 181.67
-9755558.22 5135767.48 181.66
-9755558.17 5135773.14 181.68
-9755558.25 5135768.58 181.66
-9755557.57 5135776.29 181.69
-9755558.15 5135772.21 181.68
-9755557.58 5135766.58 181.63
-9755556.97 5135783.14 181.73
-9755556.00 5135784.89 181.75
-9755557.02 5135768.41 181.63
-9755557.58 5135769.56 181.65
-9755556.71 5135769.85 181.64
-9755556.69 5135777.78 181.69
-9755556.76 5135763.88 181.62
-9755556.70 5135766.30 181.62
-9755556.75 5135761.51 181.61
-9755556.16 5135755.61 181.55
-9755556.70 5135771.00 181.65
-9755556.10 5135778.63 181.71
-9755556.64 5135773.36 181.68
-9755603.09 5135753.52 181.65
-9755601.34 5135753.49 181.60
-9755599.96 5135754.12 186.32
-9755601.03 5135754.12 181.62
-9755595.27 5135753.76 188.03
-9755596.86 5135754.02 188.93
-9755596.07 5135753.64 189.06
-9755595.15 5135753.94 189.31
-9755587.46 5135753.74 181.55
