-9755330.51 5135340.64 181.33
-9755326.33 5135348.03 181.54
-9755334.59 5135348.37 181.56
-9755331.03 5135343.00 181.41
-9755331.04 5135349.22 181.58
-9755334.89 5135339.80 181.32
-9755325.18 5135349.78 181.58
-9755332.49 5135348.66 181.56
-9755328.97 5135347.49 181.54
-9755324.56 5135343.57 181.39
-9755332.20 5135345.72 181.51
-9755324.31 5135340.06 181.30
-9755325.13 5135350.68 181.58
-9755327.53 5135349.23 181.58
-9755330.50 5135345.42 181.50
-9755328.43 5135345.64 181.48
-9755329.54 5135350.11 181.58
-9755326.33 5135348.35 181.55
-9755334.85 5135348.09 181.55
-9755328.11 5135343.91 181.44
-9755325.12 5135346.22 181.51
-9755333.72 5135339.75 181.32
-9755324.83 5135348.29 181.54
-9755324.59 5135341.84 181.31
-9755327.53 5135345.94 181.50
-9755332.56 5135341.04 181.34
-9755334.60 5135348.70 181.57
-9755321.61 5135351.29 181.58
-9755323.32 5135361.31 181.72
-9755320.99 5135351.55 181.60
-9755323.05 5135354.55 181.64
-9755320.64 5135358.11 181.66
-9755322.75 5135354.50 181.64
-9755320.96 5135363.71 181.68
-9755320.92 5135361.89 181.70
-9755321.55 5135361.33 181.69
-9755322.17 5135354.53 181.63
-9755321.81 5135363.43 181.69
-9755322.43 5135363.63 182.12
-9755322.13 5135361.04 181.70
-9755321.89 5135353.93 181.62
-9755322.77 5135357.48 181.67
-9755320.68 5135353.92 181.62
-9755320.90 5135364.56 181.67
-9755313.63 5135351.62 185.16
-9755315.11 5135351.64 185.18
-9755311.29 5135352.24 185.04
-9755317.12 5135352.17 181.65
-9755317.02 5135351.54 181.66
-9755317.28 5135351.48 183.14
-9755312.73 5135352.20 185.16
-9755313.09 5135351.63 185.16
-9755312.19 5135351.34 185.15
-9755316.32 5135351.34 185.18
-9755317.17 5135351.41 183.89
-9755311.09 5135351.97 185.01
-9755317.27 5135352.30 184.14
-9755311.89 5135352.26 185.15
-9755310.49 5135357.71 185.40
-9755315.65 5135359.54 181.98
-9755312.15 5135354.57 185.13
-9755316.83 5135357.12 181.65
-9755317.41 5135352.97 183.66
-9755317.58 5135352.82 184.03
-9755311.25 5135364.05 185.14
-9755312.41 5135359.92 185.10
-9755311.58 5135359.83 185.86
-9755317.37 5135362.20 181.65
-9755315.16 5135356.74 184.27
-9755315.65 5135356.47 184.24
-9755310.64 5135359.31 185.11
-9755310.35 5135362.86 185.66
-9755315.10 5135356.44 184.92
-9755317.36 5135353.20 184.15
-9755312.16 5135359.91 185.74
-9755320.38 5135358.95 181.66
-9755310.13 5135360.29 185.13
-9755314.51 5135359.04 185.11
-9755312.69 5135364.38 185.14
-9755315.58 5135361.56 181.66
-9755313.65 5135354.84 185.13
-9755315.67 5135359.69 181.94
-9755311.53 5135360.21 185.11
-9755313.90 5135354.86 184.62
-9755316.24 5135356.52 181.64
-9755313.04 5135358.73 185.11
-9755312.16 5135363.78 185.13
-9755313.61 5135357.25 185.11
-9755315.38 5135358.74 181.64
-9755310.62 5135362.03 185.15
-9755315.49 5135359.61 181.64
-9755319.46 5135359.88 181.66
-9755313.08 5135354.83 185.10
-9755315.60 5135359.50 184.69
-9755310.35 5135356.94 185.66
-9755315.33 5135356.30 181.64
-9755313.86 5135363.47 185.11
-9755316.22 5135359.82 181.64
-9755318.27 5135353.88 181.62
-9755317.44 5135352.72 183.34
-9755310.37 5135359.01 185.10
-9755316.30 5135359.16 182.01
-9755313.58 5135355.58 185.12
-9755315.72 5135358.15 184.26
-9755310.34 5135356.93 185.08
-9755315.37 5135358.39 181.66
-9755313.62 5135360.23 185.10
-9755312.71 5135361.41 185.11
-9755316.23 5135363.10 182.37
-9755314.48 5135363.19 185.11
-9755315.12 5135357.29 184.32
-9755315.39 5135354.79 181.62
-9755313.62 5135362.30 185.11
-9755310.66 5135361.10 185.13
-9755310.63 5135363.67 185.17
-9755316.52 5135362.74 182.37
-9755310.11 5135364.53 186.34
-9755316.02 5135356.29 181.64
-9755316.00 5135364.09 185.86
-9755314.79 5135364.07 186.59
-9755311.53 5135358.13 185.08
-9755316.25 5135364.45 181.68
-9755310.36 5135359.90 185.13
-9755312.71 5135362.30 185.12
-9755311.87 5135353.09 185.14
-9755317.14 5135356.59 181.65
-9755310.64 5135362.33 185.67
-9755312.42 5135362.90 185.12
-9755316.54 5135364.09 184.87
-9755315.64 5135361.43 185.12
-9755314.84 5135353.14 185.17
-9755311.59 5135362.77 185.90
-9755316.57 5135358.96 181.63
-9755314.84 5135353.75 185.17
-9755316.83 5135360.41 181.65
-9755315.67 5135360.22 185.10
-9755315.13 5135364.32 186.59
-9755312.18 5135358.48 185.10
-9755315.69 5135363.21 185.11
-9755318.60 5135354.77 181.62
-9755315.72 5135352.25 185.18
-9755317.40 5135361.90 181.65
-9755317.19 5135353.72 185.19
-9755310.31 5135358.37 186.14
-9755317.76 5135353.98 185.16
-9755317.44 5135353.20 182.55
-9755313.63 5135359.31 185.11
-9755312.13 5135362.85 185.13
-9755315.96 5135357.07 184.25
-9755315.38 5135361.12 185.12
-9755316.00 5135362.34 184.89
-9755317.48 5135353.60 183.55
-9755318.61 5135359.49 181.66
-9755317.13 5135361.02 181.65
-9755314.50 5135354.66 184.33
-9755316.19 5135357.72 181.64
-9755320.09 5135355.43 181.64
-9755312.44 5135356.43 184.21
-9755311.00 5135364.03 185.82
-9755315.66 5135356.25 181.64
-9755316.23 5135361.69 184.85
-9755316.25 5135364.34 185.56
-9755314.82 5135354.95 184.91
-9755317.24 5135352.37 181.64
-9755315.93 5135359.51 181.71
-9755315.66 5135353.96 181.64
-9755314.47 5135361.11 185.11
-9755310.34 5135359.03 185.63
-9755314.82 5135356.10 184.91
-9755315.73 5135355.53 184.26
-9755312.13 5135364.58 186.62
-9755315.40 5135361.29 181.66
-9755313.05 5135357.56 185.10
-9755312.79 5135352.82 185.16
-9755315.29 5135358.24 184.29
-9755315.10 5135355.71 184.86
-9755318.58 5135362.19 181.66
-9755317.36 5135353.52 182.63
-9755312.13 5135360.17 185.85
-9755309.81 5135357.53 185.11
-9755316.27 5135360.73 181.64
-9755316.23 5135353.63 181.66
-9755314.78 5135354.94 184.29
-9755310.66 5135358.12 185.11
-9755310.68 5135354.41 181.61
-9755315.69 5135360.25 184.68
-9755315.12 5135353.13 185.18
-9755315.75 5135353.56 181.69
-9755316.54 5135362.86 181.66
-9755313.16 5135354.74 184.24
-9755314.82 5135356.39 184.92
-9755312.17 5135353.71 185.15
-9755315.37 5135354.16 181.65
-9755316.01 5135354.35 185.16
-9755315.77 5135363.03 182.37
-9755316.28 5135361.25 181.66
-9755317.65 5135353.12 183.61
-9755310.41 5135362.79 186.18
-9755318.89 5135359.53 181.65
-9755314.80 5135363.49 185.11
-9755315.67 5135358.30 181.65
-9755313.05 5135354.28 185.15
-9755318.60 5135352.47 181.60
-9755315.65 5135354.77 181.62
-9755317.14 5135353.85 181.66
-9755323.47 5135337.39 181.27
-9755323.37 5135348.34 181.55
-9755323.67 5135346.81 181.50
-9755323.08 5135343.26 181.39
-9755323.42 5135343.31 181.39
-9755323.40 5135339.14 181.29
-9755323.44 5135340.07 181.29
-9755321.35 5135349.79 181.55
-9755320.99 5135348.30 181.52
-9755321.63 5135341.49 181.31
-9755322.78 5135350.10 181.57
-9755322.17 5135347.15 181.51
-9755322.47 5135347.12 181.51
-9755322.47 5135348.26 181.52
-9755321.05 5135343.87 181.40
-9755322.27 5135341.77 181.32
-9755322.21 5135347.45 181.51
-9755321.09 5135339.99 181.30
-9755321.31 5135346.23 181.47
-9755321.37 5135343.27 181.37
-9755313.79 5135338.24 185.91
-9755313.73 5135337.86 188.40
-9755313.80 5135337.63 186.43
-9755310.84 5135338.83 186.05
-9755313.14 5135338.41 188.12
-9755313.70 5135338.79 186.59
-9755313.48 5135337.20 189.20
-9755316.71 5135337.99 185.80
-9755310.55 5135338.55 186.31
-9755311.37 5135338.96 185.02
-9755313.61 5135337.88 186.49
-9755313.16 5135338.51 187.60
-9755313.90 5135337.43 186.91
-9755313.18 5135338.19 188.13
-9755312.96 5135338.34 185.73
-9755310.84 5135338.19 187.61
-9755311.96 5135338.90 185.30
-9755315.59 5135337.66 186.53
-9755316.11 5135337.01 186.64
-9755314.24 5135337.21 188.51
-9755315.33 5135337.59 186.99
-9755312.16 5135338.81 187.46
-9755314.04 5135337.36 188.14
-9755315.20 5135337.90 186.43
-9755311.91 5135338.42 187.76
-9755315.26 5135337.04 186.20
-9755312.94 5135338.23 188.13
-9755314.01 5135337.89 188.01
-9755312.31 5135338.96 186.18
-9755315.75 5135338.96 185.40
-9755312.85 5135338.39 188.61
-9755312.58 5135338.20 187.29
-9755314.67 5135337.13 188.64
-9755312.83 5135338.80 185.65
-9755314.53 5135337.54 187.95
-9755313.16 5135338.58 185.92
-9755312.95 5135338.70 187.60
-9755314.35 5135337.36 187.34
-9755310.60 5135338.18 187.93
-9755317.28 5135337.46 185.35
-9755313.88 5135337.75 188.13
-9755311.96 5135337.79 188.14
-9755311.98 5135337.86 189.49
-9755316.81 5135338.17 185.34
-9755316.13 5135336.87 186.82
-9755312.19 5135337.60 187.72
-9755316.44 5135337.67 186.21
-9755317.27 5135337.43 186.10
-9755316.47 5135337.09 186.51
-9755316.45 5135338.00 186.14
-9755314.23 5135338.49 187.52
-9755317.03 5135337.97 181.46
-9755312.34 5135336.91 189.20
-9755313.20 5135338.39 188.82
-9755313.14 5135338.57 186.47
-9755317.14 5135337.20 185.52
-9755314.89 5135338.01 185.65
-9755313.39 5135338.75 187.56
-9755315.58 5135336.76 187.38
-9755312.90 5135338.57 186.47
-9755310.61 5135337.52 188.20
-9755309.96 5135337.56 187.82
-9755313.87 5135337.10 189.93
-9755311.13 5135338.52 187.67
-9755310.79 5135338.51 187.65
-9755314.76 5135338.39 187.58
-9755314.42 5135337.99 186.65
-9755315.20 5135337.67 185.68
-9755315.01 5135337.61 186.75
-9755314.47 5135336.91 188.28
-9755314.09 5135337.03 188.97
-9755314.83 5135337.36 186.22
-9755315.18 5135338.81 185.60
-9755313.71 5135337.07 190.13
-9755310.23 5135337.82 187.47
-9755315.02 5135338.33 185.75
-9755311.19 5135337.32 189.68
-9755317.24 5135337.53 181.25
-9755315.22 5135337.79 185.97
-9755316.04 5135338.77 185.86
-9755314.44 5135337.27 188.18
-9755312.26 5135336.95 188.20
-9755314.07 5135337.45 189.34
-9755312.73 5135337.25 189.94
-9755313.56 5135338.24 186.21
-9755320.19 5135337.67 181.26
-9755311.96 5135338.74 181.25
-9755315.21 5135339.00 184.62
-9755313.89 5135341.11 181.78
-9755319.58 5135341.46 181.31
-9755319.60 5135348.28 181.53
-9755313.77 5135340.47 181.90
-9755312.78 5135346.62 185.17
-9755317.73 5135346.79 181.51
-9755313.43 5135340.33 185.89
-9755316.11 5135344.58 184.13
-9755316.89 5135347.13 181.52
-9755312.84 5135339.68 181.27
-9755315.20 5135343.30 181.43
-9755320.17 5135341.19 181.32
-9755315.45 5135340.27 181.27
-9755312.18 5135339.67 185.68
-9755315.45 5135339.11 181.26
-9755319.25 5135349.76 181.56
-9755311.11 5135339.03 185.14
-9755317.88 5135338.81 181.27
-9755314.25 5135340.50 181.92
-9755316.36 5135346.16 183.30
-9755313.97 5135346.01 185.18
-9755313.14 5135340.61 185.93
-9755318.73 5135340.58 181.29
-9755313.04 5135340.52 185.35
-9755313.12 5135344.79 185.18
-9755316.42 5135348.09 181.56
-9755315.89 5135343.28 184.47
-9755316.96 5135348.42 183.94
-9755314.02 5135339.09 181.26
-9755316.07 5135343.55 181.63
-9755312.78 5135348.39 185.16
-9755311.65 5135340.05 186.13
-9755315.48 5135346.35 185.19
-9755317.14 5135350.59 182.04
-9755317.09 5135350.77 183.41
-9755311.34 5135341.06 183.49
-9755313.47 5135339.14 185.67
-9755316.38 5135350.02 181.70
-9755310.74 5135344.23 185.14
-9755317.85 5135339.71 181.28
-9755312.19 5135348.65 185.16
-9755313.13 5135341.08 183.50
-9755315.20 5135343.08 185.18
-9755314.71 5135339.56 185.09
-9755316.93 5135350.63 182.87
-9755312.49 5135350.71 185.16
-9755314.59 5135343.04 185.20
-9755312.24 5135346.29 185.16
-9755320.16 5135347.10 181.49
-9755313.69 5135340.35 185.37
-9755312.21 5135350.41 185.15
-9755312.82 5135339.37 187.89
-9755316.29 5135345.28 181.50
-9755316.77 5135347.89 182.68
-9755316.61 5135347.08 181.53
-9755313.41 5135341.41 181.30
-9755312.00 5135341.68 181.72
-9755315.45 5135340.60 181.28
-9755313.12 5135341.17 181.29
-9755313.19 5135339.01 188.04
-9755312.74 5135349.25 185.16
-9755310.51 5135350.11 185.28
-9755316.88 5135348.53 182.65
-9755316.30 5135345.46 183.46
-9755317.23 5135348.62 181.58
-9755313.12 5135339.94 181.24
-9755313.19 5135340.05 185.99
-9755315.18 5135339.24 185.44
-9755313.79 5135343.01 184.38
-9755316.37 5135345.90 183.13
-9755319.00 5135343.84 181.40
-9755318.66 5135348.28 181.54
-9755312.80 5135340.93 185.36
-9755316.92 5135348.03 183.75
-9755310.45 5135343.90 185.12
-9755311.62 5135348.98 185.15
-9755316.58 5135346.33 183.68
-9755313.08 5135350.18 185.16
-9755312.01 5135339.68 186.14
-9755316.81 5135348.49 183.53
-9755312.81 5135346.30 185.17
-9755316.62 5135348.14 184.07
-9755316.62 5135349.01 185.19
-9755312.80 5135349.86 185.17
-9755318.40 5135346.25 181.49
-9755317.53 5135342.34 181.31
-9755314.89 5135344.59 185.19
-9755319.22 5135347.13 181.50
-9755310.77 5135348.94 185.18
-9755315.33 5135339.49 185.39
-9755313.99 5135347.50 185.18
-9755316.34 5135342.06 181.28
-9755313.09 5135340.46 181.96
-9755316.78 5135348.07 183.08
-9755311.94 5135347.45 185.15
-9755318.72 5135347.13 181.51
-9755312.32 5135340.53 182.27
-9755313.96 5135341.75 181.29
-9755311.06 5135345.09 185.14
-9755311.63 5135339.68 186.10
-9755314.22 5135350.44 185.18
-9755316.86 5135348.97 183.02
-9755315.74 5135345.39 181.52
-9755318.69 5135343.56 181.39
-9755313.09 5135345.10 185.17
-9755311.03 5135339.79 186.40
-9755317.51 5135349.73 181.58
-9755317.20 5135349.43 181.58
-9755317.18 5135344.72 181.44
-9755320.45 5135346.18 181.48
-9755313.06 5135339.73 181.24
-9755316.96 5135343.83 181.39
-9755313.44 5135340.65 185.59
-9755313.14 5135339.10 185.67
-9755312.48 5135348.98 185.15
-9755314.86 5135339.54 184.95
-9755313.08 5135340.79 182.16
-9755310.67 5135341.26 183.47
-9755317.48 5135347.09 181.52
-9755315.70 5135344.70 181.66
-9755314.04 5135343.37 185.18
-9755310.44 5135345.14 185.10
-9755318.08 5135342.07 181.31
-9755313.67 5135346.86 185.18
-9755312.95 5135340.62 182.00
-9755317.48 5135341.46 181.30
-9755317.80 5135345.87 181.48
-9755316.92 5135347.74 181.55
-9755311.06 5135339.51 184.82
-9755312.85 5135340.54 183.48
-9755313.11 5135343.63 185.17
-9755316.27 5135343.57 181.40
-9755318.09 5135348.02 181.55
-9755316.31 5135348.53 181.64
-9755316.65 5135347.31 183.59
-9755311.03 5135348.38 185.11
-9755316.34 5135339.37 181.27
-9755316.40 5135346.76 184.54
-9755313.66 5135350.75 185.16
-9755313.13 5135347.50 185.17
-9755316.33 5135345.99 181.51
-9755316.66 5135348.56 183.55
-9755314.38 5135339.41 185.95
-9755313.79 5135339.91 185.30
-9755316.62 5135348.12 183.08
-9755311.55 5135339.75 185.72
-9755311.30 5135341.68 183.46
-9755314.55 5135339.94 181.27
-9755316.07 5135344.37 184.13
-9755313.74 5135339.97 181.27
-9755318.65 5135348.61 181.55
-9755312.60 5135340.53 182.58
-9755317.42 5135350.62 181.60
-9755316.86 5135348.19 181.55
-9755316.32 5135344.40 181.47
-9755320.13 5135350.65 181.58
-9755316.37 5135345.43 185.20
-9755310.10 5135348.25 181.37
-9755319.55 5135347.67 181.52
-9755317.22 5135347.48 185.19
-9755317.17 5135345.95 181.48
-9755316.54 5135347.13 183.43
-9755312.59 5135340.67 185.44
-9755313.10 5135349.54 185.17
-9755311.93 5135341.87 182.76
-9755312.54 5135340.86 182.59
-9755313.11 5135348.64 185.16
-9755316.64 5135347.45 181.53
-9755316.39 5135346.89 185.20
-9755312.09 5135339.39 185.29
-9755317.16 5135350.03 182.69
-9755311.03 5135350.19 185.11
-9755315.18 5135346.97 185.18
-9755316.34 5135346.21 181.52
-9755311.10 5135340.37 186.08
-9755311.60 5135347.18 185.15
-9755316.66 5135349.00 183.48
-9755315.72 5135350.74 185.18
-9755316.65 5135345.72 185.20
-9755313.73 5135340.55 181.29
-9755315.77 5135343.09 185.20
-9755315.78 5135344.82 185.19
-9755344.97 5135337.15 181.32
-9755338.57 5135325.30 181.22
-9755344.44 5135325.35 181.26
-9755343.56 5135324.48 181.25
-9755331.20 5135325.29 181.19
-9755328.51 5135324.66 181.24
-9755334.43 5135325.27 181.19
-9755331.21 5135325.00 181.21
-9755324.68 5135324.66 181.34
-9755335.31 5135325.32 181.19
-9755325.52 5135325.25 181.25
-9755332.94 5135325.01 181.20
-9755336.78 5135325.62 181.20
-9755337.34 5135332.39 181.23
-9755340.01 5135330.93 181.25
-9755339.39 5135337.16 181.30
-9755341.16 5135335.99 181.28
-9755337.66 5135326.21 181.22
-9755339.43 5135328.58 181.24
-9755343.25 5135329.17 181.26
-9755338.19 5135325.89 181.22
-9755342.65 5135326.55 181.27
-9755338.54 5135328.31 181.23
-9755340.32 5135330.11 181.27
-9755342.61 5135336.87 181.29
-9755343.26 5135329.50 181.26
-9755338.47 5135336.56 181.29
-9755342.05 5135334.20 181.26
-9755343.19 5135336.31 181.29
-9755337.61 5135331.53 181.23
-9755340.86 5135330.04 181.26
-9755344.41 5135327.14 181.30
-9755338.54 5135328.57 181.24
-9755341.75 5135330.65 181.26
-9755344.56 5135331.61 186.15
-9755344.08 5135335.71 181.29
-9755339.67 5135331.56 181.24
-9755337.06 5135330.98 181.23
-9755344.78 5135333.06 186.32
-9755343.53 5135328.59 181.29
-9755338.52 5135331.29 181.22
-9755337.31 5135335.08 181.27
-9755340.90 5135330.65 181.27
-9755344.99 5135331.89 185.29
-9755342.66 5135328.57 181.26
-9755342.64 5135327.72 181.27
-9755342.33 5135330.10 181.27
-9755344.22 5135331.87 185.85
-9755345.00 5135333.23 185.53
-9755342.36 5135328.60 181.25
-9755342.06 5135333.32 181.25
-9755342.04 5135329.76 181.27
-9755342.67 5135326.25 181.27
-9755344.95 5135333.87 184.44
-9755340.03 5135329.18 181.25
-9755344.10 5135333.95 181.26
-9755339.66 5135330.93 181.26
-9755343.50 5135336.26 181.30
-9755342.28 5135336.55 181.29
-9755342.34 5135327.67 181.27
-9755340.90 5135331.57 181.22
-9755337.63 5135330.66 181.25
-9755341.20 5135327.40 181.26
-9755344.91 5135330.25 185.36
-9755332.06 5135325.00 181.21
-9755328.74 5135336.61 185.45
-9755328.77 5135328.96 185.35
-9755330.91 5135333.11 189.63
-9755333.51 5135334.29 185.43
-9755333.29 5135330.14 185.80
-9755327.97 5135333.92 184.76
-9755331.91 5135329.21 185.02
-9755331.69 5135333.93 186.85
-9755334.07 5135331.98 184.97
-9755330.33 5135334.82 187.07
-9755328.59 5135333.75 187.59
-9755334.13 5135327.94 181.23
-9755332.03 5135333.77 188.15
-9755328.87 5135327.78 185.13
-9755332.34 5135334.18 186.58
-9755332.95 5135331.05 186.56
-9755333.27 5135331.53 186.57
-9755323.76 5135331.48 181.19
-9755331.70 5135334.24 187.32
-9755332.87 5135334.86 185.38
-9755330.09 5135333.15 190.17
-9755333.42 5135331.06 186.51
-9755336.15 5135335.12 181.27
-9755333.29 5135332.20 186.05
-9755331.79 5135329.80 186.34
-9755330.60 5135331.14 188.44
-9755332.58 5135329.39 185.03
-9755334.15 5135331.47 185.25
-9755331.28 5135333.88 188.12
-9755332.00 5135334.01 185.32
-9755331.66 5135330.28 187.54
-9755333.55 5135331.24 185.79
-9755333.77 5135333.93 184.93
-9755331.52 5135333.15 189.10
-9755328.89 5135329.89 187.57
-9755330.95 5135330.11 187.44
-9755324.96 5135333.38 183.74
-9755333.03 5135333.03 185.85
-9755334.37 5135335.37 181.28
-9755327.85 5135332.73 186.57
-9755327.63 5135335.63 186.29
-9755332.26 5135333.46 188.17
-9755334.35 5135336.52 181.28
-9755331.90 5135334.87 184.98
-9755333.83 5135327.69 181.23
-9755335.32 5135326.20 181.20
-9755327.88 5135330.03 186.46
-9755331.80 5135336.03 185.38
-9755324.74 5135333.39 184.30
-9755327.06 5135331.84 186.43
-9755332.93 5135332.75 185.54
-9755332.02 5135335.24 184.38
-9755330.02 5135333.31 189.71
-9755331.71 5135335.50 185.22
-9755329.71 5135330.57 188.16
-9755328.22 5135334.19 186.84
-9755331.04 5135335.07 186.35
-9755330.25 5135334.65 188.69
-9755330.95 5135333.49 189.19
-9755334.38 5135330.65 181.26
-9755333.79 5135334.23 181.26
-9755331.71 5135332.86 185.21
-9755330.86 5135335.94 186.26
-9755326.09 5135334.20 184.76
-9755332.60 5135332.62 186.70
-9755332.46 5135329.00 185.86
-9755330.00 5135335.32 186.81
-9755332.37 5135333.18 187.30
-9755327.55 5135336.51 181.26
-9755332.90 5135331.68 184.85
-9755332.02 5135332.70 187.30
-9755330.57 5135335.07 187.39
-9755333.54 5135330.53 185.13
-9755328.82 5135336.05 185.60
-9755331.75 5135335.71 184.47
-9755332.95 5135330.95 186.08
-9755334.21 5135333.49 184.12
-9755332.74 5135334.90 184.38
-9755325.60 5135332.99 185.16
-9755331.52 5135334.02 188.54
-9755332.86 5135334.99 181.27
-9755335.30 5135331.49 181.24
-9755330.82 5135336.02 185.55
-9755333.00 5135330.91 181.26
-9755331.79 5135326.19 181.19
-9755331.75 5135334.79 187.18
-9755330.89 5135329.52 186.33
-9755324.61 5135333.53 183.95
-9755330.57 5135329.25 186.27
-9755333.76 5135334.77 181.27
-9755330.04 5135330.55 189.18
-9755330.81 5135335.66 181.26
-9755333.54 5135332.16 185.29
-9755330.06 5135336.33 185.79
-9755332.13 5135334.29 186.62
-9755326.39 5135334.97 184.76
-9755328.83 5135329.92 188.01
-9755332.91 5135331.34 184.90
-9755329.63 5135329.92 187.68
-9755336.76 5135331.53 181.24
-9755326.75 5135335.19 184.22
-9755330.59 5135328.31 181.20
-9755332.89 5135333.33 187.13
-9755334.14 5135331.00 185.43
-9755330.58 5135326.69 181.18
-9755332.05 5135330.84 187.70
-9755329.48 5135331.69 188.92
-9755329.37 5135326.44 181.18
-9755330.81 5135334.28 188.22
-9755332.91 5135332.73 186.53
-9755333.23 5135331.63 187.03
-9755332.09 5135334.44 186.76
-9755327.99 5135336.87 186.48
-9755332.98 5135329.69 185.11
-9755323.77 5135328.75 181.16
-9755331.66 5135334.77 186.78
-9755332.96 5135331.85 186.38
-9755332.04 5135333.66 186.93
-9755332.01 5135334.89 186.13
-9755332.62 5135336.53 181.28
-9755331.82 5135335.16 185.69
-9755332.84 5135333.29 185.83
-9755335.26 5135332.14 181.24
-9755333.47 5135333.69 184.92
-9755330.90 5135335.69 186.40
-9755333.79 5135333.17 184.39
-9755332.66 5135332.79 187.31
-9755329.71 5135329.42 187.34
-9755331.12 5135335.36 185.91
-9755327.84 5135333.85 186.31
-9755332.59 5135328.50 181.23
-9755330.59 5135334.99 187.86
-9755326.42 5135334.55 184.85
-9755333.22 5135333.37 185.33
-9755331.68 5135330.51 187.57
-9755333.33 5135334.03 185.15
-9755330.28 5135326.16 181.18
-9755331.28 5135332.87 184.45
-9755336.75 5135327.03 181.21
-9755333.26 5135330.71 185.75
-9755329.82 5135330.57 186.83
-9755329.76 5135329.19 185.39
-9755327.19 5135333.29 186.87
-9755331.51 5135332.32 188.92
-9755324.66 5135327.31 181.14
-9755328.00 5135334.46 185.00
-9755328.82 5135336.31 186.20
-9755333.70 5135334.79 184.03
-9755335.30 5135327.71 181.23
-9755331.81 5135331.87 188.88
-9755329.43 5135332.93 189.95
-9755325.47 5135333.48 183.51
-9755332.04 5135335.52 184.15
-9755333.75 5135333.10 185.11
-9755331.43 5135335.27 185.03
-9755330.02 5135331.33 188.19
-9755331.27 5135331.42 187.71
-9755331.19 5135330.63 187.20
-9755330.88 5135332.23 190.00
-9755333.54 5135332.42 181.26
-9755333.24 5135335.77 183.72
-9755332.86 5135336.85 181.28
-9755331.37 5135335.16 185.81
-9755325.81 5135336.50 181.26
-9755331.78 5135335.29 187.23
-9755331.98 5135335.39 186.32
-9755331.25 5135334.44 186.42
-9755330.82 5135334.77 186.54
-9755332.58 5135333.04 185.92
-9755332.24 5135334.32 185.81
-9755327.61 5135334.48 185.95
-9755329.40 5135328.65 185.30
-9755333.72 5135331.67 185.05
-9755330.10 5135329.54 186.16
-9755333.09 5135332.71 185.08
-9755334.08 5135332.38 181.25
-9755331.60 5135333.35 185.49
-9755332.12 5135333.98 186.61
-9755333.76 5135332.18 185.80
-9755328.20 5135333.30 186.89
-9755329.47 5135328.84 184.80
-9755331.42 5135333.12 184.67
-9755331.44 5135331.72 188.70
-9755328.58 5135330.25 187.18
-9755330.31 5135330.38 186.91
-9755332.09 5135330.69 187.18
-9755325.86 5135334.33 184.50
-9755329.97 5135333.72 189.23
-9755330.02 5135336.24 186.71
-9755327.30 5135331.20 186.79
-9755332.08 5135333.88 187.48
-9755332.94 5135328.96 185.17
-9755330.05 5135333.93 186.94
-9755334.07 5135331.76 184.31
-9755332.47 5135332.67 186.66
-9755328.73 5135336.93 185.42
-9755330.63 5135328.93 185.60
-9755328.49 5135332.18 186.52
-9755331.02 5135332.68 188.21
-9755331.72 5135331.35 186.53
-9755334.27 5135333.79 183.92
-9755326.17 5135326.16 181.17
-9755327.69 5135331.44 187.35
-9755329.75 5135335.90 186.19
-9755326.76 5135333.34 186.28
-9755334.13 5135332.69 184.74
-9755329.39 5135336.63 186.46
-9755332.98 5135333.57 185.34
-9755332.86 5135329.80 184.95
-9755329.78 5135337.22 185.86
-9755333.57 5135333.08 185.63
-9755332.38 5135331.56 186.81
-9755327.75 5135336.41 186.68
-9755329.70 5135334.05 188.58
-9755329.50 5135331.58 190.03
-9755332.96 5135332.39 186.87
-9755327.61 5135332.71 186.90
-9755330.93 5135331.42 188.84
-9755330.01 5135335.91 186.98
-9755326.97 5135333.99 185.77
-9755331.93 5135332.83 185.19
-9755331.99 5135328.54 185.54
-9755334.40 5135329.40 181.23
-9755325.93 5135332.73 186.14
-9755333.89 5135331.67 184.56
-9755333.56 5135331.55 186.56
-9755325.29 5135333.97 184.61
-9755332.03 5135335.55 184.84
-9755327.67 5135330.40 186.54
-9755332.62 5135333.74 185.38
-9755332.37 5135335.27 185.04
-9755336.11 5135331.81 181.25
-9755330.90 5135328.34 185.14
-9755330.88 5135330.61 187.78
-9755325.29 5135326.13 181.19
-9755333.79 5135331.09 186.02
-9755331.11 5135335.95 186.11
-9755332.27 5135334.84 185.01
-9755330.58 5135331.13 189.06
-9755331.95 5135334.64 188.12
-9755330.16 5135328.94 185.62
-9755331.72 5135335.46 184.84
-9755334.72 5135330.90 181.25
-9755333.17 5135331.55 181.25
-9755332.95 5135328.82 181.22
-9755332.05 5135330.36 186.35
-9755333.46 5135329.70 181.23
-9755325.57 5135326.45 181.17
-9755330.32 5135331.31 187.20
-9755332.04 5135329.88 186.32
-9755323.78 5135326.12 181.20
-9755324.95 5135332.47 184.55
-9755331.70 5135336.52 181.28
-9755332.93 5135331.52 187.11
-9755336.17 5135330.93 181.24
-9755333.50 5135334.22 181.26
-9755332.12 5135335.11 185.34
-9755330.81 5135332.30 189.56
-9755332.90 5135336.20 181.28
-9755331.78 5135332.99 186.75
-9755333.80 5135332.75 184.73
-9755325.58 5135334.91 184.13
-9755326.92 5135334.21 185.72
-9755330.61 5135335.93 186.45
-9755330.13 5135332.82 190.70
-9755332.92 5135329.48 185.72
-9755333.81 5135331.82 181.25
-9755331.17 5135329.67 186.77
-9755331.38 5135334.94 184.25
-9755333.75 5135335.65 181.26
-9755333.46 5135331.98 184.97
-9755336.76 5135332.68 181.25
-9755326.35 5135333.64 186.18
-9755333.54 5135330.94 186.23
-9755333.27 5135333.38 185.81
-9755328.78 5135336.22 186.72
-9755333.35 5135331.80 186.57
-9755331.72 5135333.05 185.49
-9755328.87 5135336.79 186.11
-9755331.77 5135333.51 188.79
-9755332.45 5135333.83 186.00
-9755325.61 5135332.51 185.02
-9755332.34 5135326.45 181.20
-9755333.28 5135329.81 185.89
-9755329.19 5135336.30 185.24
-9755331.79 5135335.25 184.29
-9755335.22 5135336.52 181.29
-9755334.48 5135330.81 185.19
-9755329.69 5135336.71 186.00
-9755330.35 5135336.12 184.25
-9755333.21 5135331.57 184.79
-9755324.87 5135334.47 183.55
-9755326.54 5135334.00 183.93
-9755331.47 5135335.47 185.05
-9755332.09 5135334.87 186.40
-9755332.10 5135333.30 187.08
-9755328.56 5135335.01 185.12
-9755331.28 5135335.64 187.28
-9755329.43 5135331.10 189.46
-9755333.36 5135333.11 187.04
-9755333.80 5135329.19 181.22
-9755332.98 5135330.62 186.49
-9755331.68 5135335.66 181.27
-9755326.71 5135331.78 186.75
-9755330.31 5135330.80 189.16
-9755326.96 5135333.85 185.80
-9755328.00 5135336.38 186.05
-9755332.97 5135335.56 184.69
-9755329.92 5135331.63 190.41
-9755333.35 5135333.72 186.72
-9755329.18 5135331.79 188.00
-9755331.89 5135332.71 187.57
-9755329.98 5135333.19 187.76
-9755331.94 5135335.27 184.79
-9755329.69 5135335.10 186.91
-9755331.43 5135333.08 185.44
-9755332.90 5135334.44 181.26
-9755325.56 5135329.38 181.17
-9755330.70 5135336.16 185.11
-9755333.60 5135334.29 184.75
-9755330.92 5135336.34 183.96
-9755328.56 5135328.66 184.57
-9755330.79 5135335.89 186.83
-9755331.69 5135335.16 184.91
-9755334.10 5135330.01 184.83
-9755330.54 5135330.81 188.60
-9755331.53 5135334.98 187.56
-9755325.46 5135331.11 184.77
-9755341.83 5135312.07 184.79
-9755341.54 5135312.07 186.05
-9755344.12 5135312.53 185.37
-9755344.86 5135311.96 187.87
-9755344.93 5135312.33 186.62
-9755340.12 5135311.99 181.26
-9755343.58 5135312.11 185.61
-9755343.42 5135312.40 186.04
-9755341.33 5135312.02 186.11
-9755343.36 5135312.30 185.83
-9755343.72 5135312.06 186.96
-9755341.90 5135312.17 183.35
-9755329.94 5135312.10 189.80
-9755330.13 5135312.13 188.36
-9755336.04 5135311.90 183.56
-9755335.37 5135312.35 184.20
-9755330.15 5135312.50 189.33
-9755335.11 5135311.92 181.42
-9755335.65 5135312.09 184.07
-9755325.35 5135311.92 188.39
-9755328.99 5135312.08 189.89
-9755336.17 5135311.93 181.34
-9755329.36 5135312.04 188.39
-9755326.66 5135311.96 189.37
-9755326.01 5135312.41 189.45
-9755330.33 5135312.15 189.79
-9755329.24 5135312.02 191.02
-9755331.24 5135312.18 187.90
-9755327.19 5135311.91 188.58
-9755335.36 5135311.93 184.07
-9755333.11 5135311.99 184.60
-9755335.15 5135312.30 184.20
-9755332.54 5135312.25 181.67
-9755330.87 5135312.34 184.69
-9755334.49 5135312.23 181.44
-9755331.66 5135312.51 188.00
-9755329.48 5135312.40 190.40
-9755329.81 5135312.02 189.94
-9755336.35 5135312.04 185.86
-9755333.92 5135312.33 185.28
-9755331.86 5135312.01 184.81
-9755338.62 5135312.59 181.30
-9755344.32 5135311.91 187.79
-9755341.76 5135324.47 181.25
-9755343.23 5135314.42 186.42
-9755344.52 5135318.62 185.69
-9755344.76 5135319.46 185.17
-9755343.70 5135318.19 188.29
-9755336.85 5135312.56 181.35
-9755343.24 5135313.21 185.82
-9755344.01 5135316.17 188.56
-9755344.42 5135317.32 187.76
-9755344.91 5135317.91 188.08
-9755340.96 5135315.08 185.32
-9755336.29 5135312.48 184.17
-9755344.25 5135313.25 186.39
-9755344.79 5135318.35 187.99
-9755342.50 5135317.21 183.84
-9755341.77 5135323.86 181.24
-9755344.73 5135319.74 185.80
-9755344.93 5135316.21 186.25
-9755340.92 5135321.51 181.18
-9755337.74 5135312.46 184.25
-9755339.44 5135318.51 181.22
-9755344.87 5135316.16 189.21
-9755344.29 5135316.69 187.90
-9755343.61 5135319.56 184.75
-9755344.60 5135315.16 188.84
-9755341.86 5135320.89 181.18
-9755342.99 5135323.57 181.24
-9755345.06 5135319.09 188.23
-9755343.24 5135311.93 186.94
-9755344.56 5135320.05 185.28
-9755344.05 5135313.71 188.11
-9755338.35 5135316.14 181.27
-9755344.57 5135320.36 185.99
-9755343.52 5135314.14 185.27
-9755343.57 5135319.96 186.50
-9755344.20 5135318.45 188.32
-9755344.60 5135318.52 185.41
-9755344.73 5135320.62 185.97
-9755344.86 5135319.18 187.25
-9755343.10 5135313.59 187.36
-9755337.37 5135319.11 181.25
-9755344.27 5135317.96 185.86
-9755344.52 5135317.53 185.24
-9755341.55 5135317.79 184.38
-9755343.36 5135316.12 187.03
-9755337.13 5135317.00 181.30
-9755338.56 5135324.12 181.20
-9755341.54 5135318.42 184.84
-9755339.14 5135324.15 181.21
-9755339.15 5135319.10 181.20
-9755344.54 5135319.20 185.16
-9755343.09 5135318.28 184.80
-9755336.79 5135322.02 181.21
-9755337.47 5135312.74 184.11
-9755340.23 5135315.23 185.32
-9755338.57 5135319.67 181.21
-9755343.31 5135320.35 181.18
-9755343.24 5135318.05 186.37
-9755343.70 5135317.24 188.75
-9755342.57 5135313.93 185.16
-9755344.48 5135317.63 188.70
-9755338.54 5135323.82 181.21
-9755344.18 5135322.06 181.23
-9755343.97 5135317.59 188.69
-9755343.76 5135314.96 188.50
-9755343.70 5135320.65 185.95
-9755345.02 5135319.62 184.09
-9755344.18 5135316.46 187.13
-9755344.76 5135319.41 186.11
-9755342.17 5135319.14 186.48
-9755344.76 5135316.58 186.06
-9755340.94 5135317.74 184.54
-9755344.78 5135319.03 185.11
-9755341.81 5135319.46 185.51
-9755343.40 5135317.93 188.33
-9755343.97 5135312.97 185.87
-9755342.64 5135319.79 185.72
-9755344.42 5135314.62 187.25
-9755337.66 5135317.28 181.27
-9755341.56 5135317.64 184.65
-9755344.28 5135314.10 187.20
-9755343.30 5135319.17 186.33
-9755344.70 5135316.27 185.64
-9755342.45 5135318.68 185.81
-9755339.45 5135322.99 181.20
-9755340.74 5135314.53 185.06
-9755344.81 5135319.88 185.15
-9755343.67 5135319.20 185.24
-9755341.23 5135322.39 181.20
-9755344.00 5135320.93 185.80
-9755344.26 5135314.89 188.90
-9755343.13 5135319.94 184.81
-9755344.18 5135321.01 186.20
-9755344.87 5135317.04 187.73
-9755345.07 5135312.87 186.82
-9755344.87 5135315.00 187.90
-9755341.90 5135312.72 186.36
-9755343.62 5135318.97 185.51
-9755344.48 5135322.70 181.24
-9755341.81 5135322.98 181.22
-9755342.73 5135315.26 186.36
-9755343.77 5135316.33 188.10
-9755344.53 5135318.64 187.28
-9755344.05 5135314.90 188.71
-9755344.88 5135320.33 186.97
-9755342.81 5135316.85 187.13
-9755336.82 5135315.81 181.34
-9755344.46 5135314.21 186.27
-9755344.82 5135314.83 186.00
-9755343.35 5135313.69 188.01
-9755340.07 5135321.50 181.18
-9755344.57 5135315.79 188.53
-9755337.72 5135318.80 181.24
-9755342.77 5135317.95 186.35
-9755344.49 5135319.99 181.22
-9755341.93 5135316.69 187.57
-9755342.38 5135323.54 181.24
-9755325.39 5135312.40 189.98
-9755324.72 5135324.35 181.39
-9755329.15 5135319.31 186.73
-9755331.65 5135315.85 187.20
-9755336.79 5135320.88 181.23
-9755330.39 5135312.50 188.28
-9755330.68 5135315.63 189.82
-9755328.22 5135319.49 189.16
-9755331.62 5135313.42 188.63
-9755324.83 5135318.26 190.72
-9755336.84 5135315.55 181.34
-9755335.89 5135324.42 181.21
-9755325.64 5135316.72 190.74
-9755332.61 5135318.26 186.80
-9755325.39 5135320.19 188.01
-9755332.17 5135317.90 187.10
-9755328.37 5135319.27 189.82
-9755330.12 5135316.31 188.88
-9755328.35 5135320.73 188.30
-9755325.94 5135314.52 189.79
-9755328.43 5135319.22 189.05
-9755332.92 5135317.10 185.96
-9755331.83 5135313.20 185.82
-9755330.06 5135315.72 190.05
-9755328.89 5135317.76 188.86
-9755324.75 5135319.20 188.76
-9755330.40 5135321.43 187.50
-9755331.70 5135312.59 184.64
-9755330.34 5135312.16 188.34
-9755326.30 5135312.37 190.21
-9755330.12 5135315.02 189.38
-9755327.51 5135317.44 189.67
-9755335.46 5135312.80 184.14
-9755329.91 5135317.86 188.18
-9755333.04 5135315.14 181.62
-9755331.31 5135312.89 187.90
-9755330.09 5135319.28 187.85
-9755333.06 5135315.87 187.16
-9755326.83 5135320.18 188.85
-9755331.78 5135318.96 183.71
-9755327.86 5135312.28 190.64
-9755333.32 5135316.12 187.13
-9755330.62 5135314.41 190.02
-9755331.15 5135318.74 183.78
-9755328.98 5135315.13 189.92
-9755325.22 5135312.96 189.36
-9755332.40 5135318.22 186.05
-9755329.12 5135319.53 188.31
-9755331.86 5135318.20 187.18
-9755328.70 5135316.98 189.65
-9755328.89 5135316.06 189.25
-9755335.13 5135312.67 184.19
-9755330.07 5135318.73 181.75
-9755324.02 5135317.72 189.96
-9755328.08 5135314.58 189.85
-9755328.06 5135317.77 189.69
-9755329.01 5135320.09 187.28
-9755332.71 5135320.52 181.46
-9755329.67 5135320.31 187.88
-9755327.07 5135318.55 189.36
-9755327.22 5135317.47 190.63
-9755332.50 5135315.78 187.79
-9755324.52 5135317.08 190.87
-9755329.69 5135316.76 187.05
-9755328.17 5135314.43 189.35
-9755326.85 5135320.80 186.87
-9755333.05 5135315.02 185.57
-9755329.68 5135321.73 187.66
-9755332.46 5135318.77 185.96
-9755331.29 5135314.93 185.88
-9755326.86 5135320.31 186.98
-9755327.57 5135319.39 189.85
-9755327.20 5135315.07 190.21
-9755325.37 5135321.41 186.93
-9755330.09 5135317.85 187.53
-9755326.88 5135314.11 190.63
-9755330.25 5135315.41 189.62
-9755331.84 5135312.78 188.52
-9755325.42 5135319.15 190.34
-9755331.48 5135324.38 181.22
-9755328.41 5135316.48 190.50
-9755325.07 5135313.62 190.04
-9755330.03 5135320.23 187.59
-9755325.39 5135320.37 189.47
-9755333.30 5135313.83 184.23
-9755331.24 5135313.68 185.08
-9755335.93 5135320.57 181.26
-9755331.76 5135328.34 185.57
-9755329.42 5135321.40 181.61
-9755329.77 5135313.16 187.57
-9755332.23 5135315.79 187.38
-9755330.15 5135317.77 189.11
-9755326.81 5135316.84 190.21
-9755333.07 5135315.39 184.08
-9755325.25 5135320.40 187.56
-9755329.51 5135316.70 188.96
-9755333.15 5135315.89 186.75
-9755325.43 5135313.57 190.02
-9755324.51 5135320.44 188.46
-9755331.13 5135315.10 185.50
-9755327.23 5135313.26 190.08
-9755325.96 5135316.23 190.45
-9755327.46 5135319.24 189.29
-9755330.16 5135313.57 190.50
-9755331.28 5135314.67 185.73
-9755330.23 5135314.47 190.44
-9755330.37 5135317.88 187.42
-9755332.15 5135313.81 185.75
-9755329.53 5135317.16 188.98
-9755328.44 5135314.57 189.69
-9755331.57 5135317.89 187.30
-9755327.14 5135319.12 190.02
-9755326.03 5135314.17 190.49
-9755330.81 5135314.55 188.90
-9755333.10 5135315.23 185.24
-9755329.27 5135316.56 189.73
-9755328.48 5135313.27 189.41
-9755332.20 5135314.10 185.75
-9755330.41 5135317.56 187.41
-9755329.64 5135318.44 186.96
-9755327.39 5135318.88 189.33
-9755336.82 5135316.14 181.34
-9755324.49 5135314.66 190.38
-9755328.64 5135314.25 190.04
-9755325.38 5135319.93 187.53
-9755330.38 5135316.65 187.24
-9755325.06 5135320.76 187.60
-9755336.24 5135316.10 181.36
-9755325.41 5135315.35 191.06
-9755332.56 5135315.42 185.63
-9755335.30 5135323.83 181.20
-9755327.10 5135319.16 190.53
-9755327.43 5135318.29 190.65
-9755332.17 5135318.42 187.08
-9755332.81 5135313.60 184.39
-9755328.02 5135319.50 189.81
-9755333.02 5135316.25 184.04
-9755332.41 5135316.66 186.97
-9755325.05 5135318.92 189.85
-9755329.51 5135313.04 190.36
-9755333.61 5135314.58 181.58
-9755328.73 5135319.89 188.09
-9755328.61 5135316.20 190.87
-9755330.89 5135320.05 186.28
-9755325.94 5135320.21 187.07
-9755333.87 5135317.87 181.48
-9755328.60 5135317.76 188.62
-9755332.70 5135315.52 181.67
-9755331.22 5135319.95 181.62
-9755330.98 5135320.33 187.79
-9755326.29 5135320.33 189.63
-9755323.70 5135319.09 187.59
-9755326.85 5135320.76 188.49
-9755326.24 5135319.52 189.49
-9755329.49 5135319.35 188.26
-9755324.54 5135318.34 189.40
-9755325.40 5135319.91 187.98
-9755330.43 5135316.31 188.82
-9755332.43 5135315.42 189.21
-9755328.27 5135314.54 189.25
-9755333.91 5135313.41 184.75
-9755328.33 5135316.04 190.06
-9755330.13 5135313.02 190.52
-9755328.59 5135321.13 187.55
-9755329.61 5135312.61 189.73
-9755327.11 5135320.44 188.78
-9755330.07 5135319.83 183.74
-9755331.64 5135315.72 189.15
-9755332.14 5135318.82 186.65
-9755330.71 5135317.57 188.65
-9755329.74 5135315.91 188.72
-9755329.80 5135316.56 189.82
-9755325.12 5135317.69 190.94
-9755331.06 5135313.55 185.83
-9755328.64 5135318.65 189.17
-9755336.32 5135313.42 184.36
-9755331.46 5135313.61 184.88
-9755331.99 5135312.97 184.87
-9755332.47 5135314.43 185.15
-9755333.03 5135312.57 184.93
-9755330.20 5135320.74 186.38
-9755331.04 5135315.41 189.81
-9755326.91 5135315.63 190.26
-9755331.28 5135319.08 187.27
-9755327.20 5135314.50 188.65
-9755330.87 5135319.57 183.57
-9755329.17 5135316.87 189.69
-9755331.87 5135319.04 186.15
-9755330.39 5135321.20 186.21
-9755332.69 5135316.62 187.81
-9755331.30 5135317.04 187.33
-9755329.19 5135320.15 189.00
-9755332.12 5135313.19 184.66
-9755327.69 5135317.34 190.85
-9755329.22 5135319.28 189.13
-9755335.36 5135316.13 181.41
-9755328.66 5135319.66 188.38
-9755331.65 5135314.08 185.82
-9755328.91 5135316.61 188.87
-9755331.84 5135314.38 185.75
-9755324.47 5135317.35 190.16
-9755328.81 5135318.58 181.89
-9755334.45 5135321.46 181.30
-9755325.13 5135321.14 187.53
-9755331.29 5135316.62 188.92
-9755326.89 5135319.80 189.40
-9755326.81 5135319.87 187.07
-9755332.38 5135314.96 185.67
-9755328.41 5135314.98 189.21
-9755324.51 5135321.16 185.58
-9755325.63 5135312.83 187.15
-9755333.61 5135315.76 181.58
-9755331.04 5135313.31 188.86
-9755326.34 5135313.30 190.62
-9755326.22 5135320.66 188.19
-9755331.31 5135319.59 187.14
-9755326.66 5135313.20 190.60
-9755329.73 5135316.31 188.41
-9755329.01 5135314.50 189.93
-9755329.57 5135315.32 190.28
-9755328.04 5135318.12 187.50
-9755327.08 5135319.95 188.15
-9755327.17 5135316.18 190.56
-9755333.35 5135317.60 186.72
-9755331.09 5135315.24 185.91
-9755335.44 5135313.28 184.26
-9755335.91 5135312.72 184.67
-9755335.65 5135322.62 181.22
-9755330.30 5135318.98 183.86
-9755327.64 5135321.22 186.63
-9755333.08 5135312.65 185.66
-9755330.72 5135317.85 187.42
-9755331.50 5135319.51 183.62
-9755331.01 5135319.86 188.62
-9755329.29 5135319.29 188.31
-9755323.98 5135314.99 190.58
-9755331.86 5135316.06 187.53
-9755325.92 5135319.79 189.27
-9755332.23 5135315.26 185.86
-9755330.39 5135321.08 187.50
-9755330.99 5135313.65 188.85
-9755332.56 5135313.79 184.46
-9755331.79 5135318.26 186.83
-9755332.40 5135318.72 181.58
-9755328.60 5135318.96 188.53
-9755331.36 5135313.33 188.66
-9755329.24 5135319.95 187.91
-9755330.94 5135318.56 185.96
-9755325.61 5135319.95 187.42
-9755325.99 5135319.81 189.76
-9755329.26 5135320.82 187.13
-9755326.79 5135322.90 181.53
-9755331.57 5135313.55 185.84
-9755325.08 5135319.61 187.68
-9755327.09 5135320.81 181.81
-9755333.14 5135314.43 185.50
-9755324.84 5135317.79 190.25
-9755325.02 5135320.83 185.57
-9755325.12 5135316.21 190.63
-9755325.97 5135316.79 190.04
-9755327.13 5135317.19 190.38
-9755330.99 5135319.21 183.72
-9755328.06 5135319.17 189.85
-9755324.46 5135313.07 189.69
-9755325.99 5135319.21 190.34
-9755333.29 5135317.91 181.55
-9755327.44 5135320.21 188.46
-9755329.24 5135313.04 190.36
-9755333.35 5135317.92 185.86
-9755325.12 5135317.08 190.74
-9755333.56 5135323.80 181.23
-9755330.06 5135315.40 188.75
-9755332.75 5135318.30 185.91
-9755323.98 5135319.71 188.87
-9755332.12 5135316.95 181.68
-9755334.63 5135312.91 185.42
-9755331.96 5135314.66 186.41
-9755328.05 5135316.20 190.71
-9755333.31 5135314.62 185.32
-9755324.77 5135320.30 185.65
-9755329.49 5135317.27 187.12
-9755334.43 5135322.06 181.28
-9755329.49 5135320.78 187.83
-9755330.32 5135312.73 187.58
-9755330.93 5135319.93 187.89
-9755326.77 5135319.90 188.16
-9755332.47 5135315.21 186.94
-9755332.42 5135312.70 184.63
-9755330.42 5135317.78 189.10
-9755329.24 5135315.45 189.13
-9755330.64 5135318.65 183.86
-9755323.86 5135314.33 188.21
-9755328.42 5135317.18 189.43
-9755331.58 5135319.31 188.57
-9755331.86 5135312.91 185.69
-9755332.33 5135319.96 186.00
-9755331.57 5135313.00 184.98
-9755332.79 5135313.96 184.31
-9755331.96 5135315.21 189.24
-9755332.12 5135317.58 181.67
-9755333.83 5135323.23 181.24
-9755331.34 5135314.19 189.11
-9755324.73 5135320.72 188.48
-9755325.99 5135319.20 189.46
-9755329.61 5135313.49 190.82
-9755326.01 5135317.84 190.51
-9755331.33 5135319.00 183.81
-9755329.92 5135314.14 190.23
-9755330.46 5135316.62 188.76
-9755328.90 5135318.63 189.02
-9755333.59 5135322.36 181.27
-9755332.69 5135314.94 186.93
-9755328.39 5135315.99 190.69
-9755328.39 5135313.28 190.14
-9755328.87 5135321.41 187.46
-9755327.55 5135319.28 188.62
-9755330.00 5135316.61 189.85
-9755325.74 5135319.81 189.07
-9755330.76 5135319.90 183.43
-9755330.31 5135320.30 186.40
-9755332.51 5135315.11 189.56
-9755335.11 5135314.91 181.45
-9755332.10 5135319.63 181.55
-9755331.51 5135314.97 185.87
-9755324.09 5135314.34 189.94
-9755328.68 5135316.22 189.70
-9755334.52 5135313.44 181.48
-9755333.42 5135315.40 183.94
-9755331.31 5135313.66 188.79
-9755331.84 5135314.59 188.31
-9755325.28 5135315.15 190.55
-9755331.28 5135313.76 185.84
-9755331.19 5135319.67 187.05
-9755332.10 5135316.94 183.93
-9755335.05 5135315.22 181.45
-9755332.77 5135314.13 185.60
-9755334.47 5135319.07 181.38
-9755330.34 5135317.41 188.41
-9755335.05 5135315.81 181.43
-9755331.58 5135315.10 189.35
-9755333.40 5135315.33 185.51
-9755326.17 5135323.44 181.48
-9755333.29 5135317.92 187.00
-9755328.28 5135317.76 188.81
-9755330.75 5135313.10 187.57
-9755328.03 5135314.21 188.45
-9755331.00 5135319.50 188.30
-9755330.20 5135314.31 189.68
-9755336.84 5135318.21 181.29
-9755324.02 5135319.49 188.89
-9755330.47 5135313.66 188.92
-9755324.53 5135320.44 188.15
-9755332.15 5135318.45 186.74
-9755331.36 5135314.86 189.38
-9755330.95 5135320.87 186.26
-9755332.86 5135316.72 185.96
-9755325.01 5135321.06 181.89
-9755333.02 5135313.47 184.83
-9755332.23 5135316.80 186.19
-9755324.50 5135321.35 187.46
-9755328.69 5135317.55 188.92
-9755323.95 5135317.19 188.17
-9755333.28 5135316.71 186.30
-9755327.74 5135316.31 189.87
-9755331.84 5135316.28 188.99
-9755324.01 5135315.60 189.74
-9755330.06 5135319.47 183.83
-9755327.97 5135317.04 190.74
-9755333.24 5135316.07 184.00
-9755324.24 5135318.55 190.80
-9755325.84 5135313.02 189.10
-9755328.37 5135314.17 189.96
-9755328.96 5135317.91 187.92
-9755325.90 5135319.07 189.64
-9755336.27 5135315.83 181.36
-9755331.43 5135313.40 185.22
-9755334.17 5135322.95 181.23
-9755332.98 5135319.61 181.49
-9755326.93 5135314.42 189.72
-9755331.28 5135319.49 183.78
-9755330.38 5135319.77 183.66
-9755331.29 5135317.27 187.38
-9755330.28 5135315.12 188.98
-9755324.50 5135319.84 188.35
-9755331.48 5135319.15 186.09
-9755330.42 5135318.77 188.39
-9755332.74 5135313.68 181.66
-9755326.29 5135318.28 190.13
-9755327.89 5135316.29 189.19
-9755327.95 5135320.16 186.62
-9755325.20 5135313.39 189.67
-9755335.96 5135313.72 181.40
-9755332.46 5135313.54 185.63
-9755332.09 5135318.54 186.72
-9755328.94 5135317.44 189.78
-9755330.15 5135316.21 190.02
-9755325.51 5135319.53 190.33
-9755327.16 5135319.86 188.49
-9755330.78 5135313.63 190.81
-9755325.12 5135314.14 190.46
-9755336.19 5135318.21 181.31
-9755333.37 5135315.64 184.04
-9755333.02 5135316.13 187.09
-9755333.56 5135319.06 181.47
-9755333.02 5135316.56 184.01
-9755330.14 5135315.07 190.91
-9755332.98 5135318.59 185.78
-9755324.72 5135318.56 190.69
-9755325.35 5135320.79 187.52
-9755332.99 5135315.97 184.04
-9755331.30 5135318.13 186.90
-9755331.59 5135319.08 187.22
-9755332.38 5135322.62 181.32
-9755328.87 5135321.73 181.58
-9755324.53 5135315.65 190.57
-9755329.21 5135316.58 188.94
-9755333.55 5135321.73 181.31
-9755327.56 5135313.96 189.20
-9755331.01 5135318.73 187.30
-9755332.99 5135315.29 185.57
-9755324.01 5135321.69 187.45
-9755325.13 5135319.12 190.77
-9755323.37 5135317.09 190.71
-9755333.33 5135316.40 186.78
-9755330.04 5135321.45 186.96
-9755327.18 5135319.46 190.56
-9755332.20 5135315.05 186.94
-9755331.61 5135314.84 189.74
-9755332.42 5135318.48 186.74
-9755325.96 5135316.84 189.68
-9755324.75 5135322.54 181.67
-9755327.04 5135319.87 187.45
-9755325.37 5135322.05 186.85
-9755328.86 5135317.52 188.54
-9755324.86 5135319.43 190.83
-9755323.89 5135317.11 190.74
-9755331.50 5135313.26 184.97
-9755331.47 5135323.49 181.30
-9755330.92 5135319.60 181.67
-9755333.40 5135318.13 185.85
-9755329.09 5135316.29 189.17
-9755325.18 5135320.45 189.13
-9755331.18 5135319.94 186.93
-9755332.86 5135316.95 184.16
-9755328.33 5135320.46 188.30
-9755330.01 5135322.03 181.48
-9755327.20 5135315.31 189.93
-9755331.59 5135314.20 188.56
-9755326.28 5135321.19 189.31
-9755335.39 5135313.78 181.43
-9755328.54 5135324.10 181.30
-9755326.14 5135322.04 186.62
-9755332.50 5135315.95 184.17
-9755331.58 5135319.33 186.08
-9755331.45 5135313.74 189.77
-9755327.48 5135316.20 190.31
-9755328.93 5135319.00 188.45
-9755329.50 5135321.94 186.67
-9755331.56 5135318.38 188.74
-9755331.31 5135316.01 189.85
-9755326.06 5135315.01 190.47
-9755332.63 5135316.32 183.99
-9755331.66 5135315.00 186.49
-9755328.59 5135320.12 189.21
-9755326.26 5135317.71 190.82
-9755329.52 5135318.76 187.87
-9755328.29 5135321.95 181.58
-9755325.07 5135319.33 189.78
-9755330.09 5135320.27 186.48
-9755330.31 5135320.93 186.33
-9755324.83 5135313.51 188.99
-9755330.46 5135319.51 188.48
-9755335.34 5135321.41 181.26
-9755331.27 5135316.06 189.06
-9755330.22 5135318.47 188.39
-9755332.98 5135316.95 181.60
-9755330.34 5135316.26 189.92
-9755325.79 5135316.13 190.95
-9755327.09 5135321.97 181.64
-9755333.37 5135316.17 186.28
-9755326.88 5135312.96 190.18
-9755330.06 5135318.66 188.97
-9755327.79 5135314.04 189.06
-9755325.41 5135320.55 186.34
-9755331.34 5135315.79 186.21
-9755336.83 5135314.63 181.35
-9755328.43 5135316.64 188.89
-9755332.40 5135314.14 185.69
-9755323.72 5135318.06 189.84
-9755327.17 5135316.79 188.65
-9755322.61 5135325.57 181.26
-9755323.17 5135334.98 181.23
-9755321.42 5135337.37 181.26
-9755321.20 5135325.22 181.34
-9755323.51 5135327.28 181.18
-9755324.03 5135334.07 183.94
-9755321.13 5135329.97 181.14
-9755321.44 5135326.95 181.16
-9755322.07 5135330.60 181.17
-9755322.82 5135333.55 181.20
-9755321.43 5135327.57 181.16
-9755322.03 5135336.52 181.25
-9755321.99 5135332.61 181.16
-9755322.61 5135332.35 181.17
-9755323.19 5135334.10 181.22
-9755322.33 5135328.15 181.18
-9755322.22 5135334.18 184.74
-9755322.24 5135332.96 181.17
-9755320.81 5135330.84 181.15
-9755321.41 5135332.60 181.17
-9755322.57 5135333.23 181.19
-9755318.80 5135324.85 181.51
-9755317.06 5135324.89 181.54
-9755320.27 5135324.91 181.45
-9755314.42 5135324.29 181.72
-9755314.99 5135324.27 181.72
-9755316.47 5135324.26 181.71
-9755315.27 5135325.20 181.55
-9755311.14 5135325.12 181.67
-9755316.10 5135337.02 187.03
-9755315.53 5135335.45 188.07
-9755320.50 5135331.75 181.18
-9755311.74 5135331.08 187.52
-9755312.59 5135336.60 189.13
-9755310.57 5135325.44 181.62
-9755313.01 5135328.59 185.29
-9755311.78 5135330.77 187.65
-9755316.13 5135337.10 185.50
-9755316.41 5135333.51 186.87
-9755316.28 5135336.37 187.14
-9755317.30 5135335.69 185.32
-9755311.08 5135334.83 188.99
-9755317.57 5135332.62 185.15
-9755317.69 5135333.29 185.22
-9755316.99 5135332.59 185.70
-9755311.73 5135332.06 187.66
-9755315.67 5135334.31 189.00
-9755312.34 5135331.99 189.25
-9755314.62 5135336.38 187.18
-9755315.23 5135332.84 187.63
-9755315.86 5135329.38 181.16
-9755314.41 5135330.54 186.28
-9755318.23 5135335.09 184.76
-9755313.46 5135335.21 190.94
-9755319.60 5135336.47 181.24
-9755314.71 5135335.08 190.18
-9755317.06 5135331.21 184.43
-9755312.24 5135333.41 185.22
-9755316.73 5135331.48 184.88
-9755317.61 5135333.92 185.69
-9755311.66 5135333.26 189.14
-9755321.12 5135328.50 181.18
