-9755135.60 5135510.06 189.18
-9755136.35 5135516.29 181.26
-9755135.92 5135519.70 184.92
-9755136.64 5135521.97 188.31
-9755136.01 5135519.18 185.15
-9755134.30 5135512.70 181.28
-9755136.30 5135512.29 186.84
-9755134.41 5135511.55 187.68
-9755135.16 5135514.56 181.26
-9755135.71 5135520.77 186.71
-9755136.45 5135513.53 190.16
-9755134.44 5135521.13 186.93
-9755135.27 5135512.21 187.47
-9755134.98 5135521.05 186.67
-9755136.05 5135513.11 190.08
-9755136.67 5135517.20 181.26
-9755134.85 5135521.31 186.93
-9755135.80 5135513.61 188.72
-9755134.36 5135512.11 185.34
-9755135.74 5135512.19 181.26
-9755135.59 5135512.17 187.44
-9755136.61 5135521.37 181.26
-9755135.03 5135512.67 189.38
-9755135.77 5135520.19 186.58
-9755136.43 5135512.71 181.26
-9755136.05 5135522.31 187.20
-9755135.41 5135515.43 181.27
-9755134.42 5135512.15 188.08
-9755135.82 5135521.96 187.48
-9755136.08 5135513.61 181.27
-9755135.43 5135521.92 181.24
-9755136.09 5135522.55 187.16
-9755135.79 5135512.85 189.42
-9755134.85 5135511.75 185.62
-9755134.42 5135512.66 189.46
-9755136.05 5135521.38 187.15
-9755135.50 5135514.55 181.26
-9755136.05 5135517.53 181.27
-9755134.39 5135511.81 187.50
-9755135.50 5135519.62 186.51
-9755134.26 5135522.18 181.26
-9755135.82 5135519.03 185.63
-9755134.90 5135511.84 188.21
-9755136.15 5135512.68 187.12
-9755134.39 5135512.57 185.35
-9755134.90 5135512.13 185.60
-9755135.82 5135519.85 186.71
-9755134.84 5135519.26 181.27
-9755134.99 5135512.78 189.82
-9755134.27 5135514.50 181.26
-9755134.87 5135521.60 181.25
-9755135.95 5135522.23 187.59
-9755135.21 5135513.92 181.27
-9755134.87 5135512.48 187.70
-9755134.28 5135520.17 181.25
-9755136.13 5135512.28 189.91
-9755135.27 5135511.60 187.44
-9755134.65 5135512.19 188.01
-9755135.12 5135515.16 181.26
-9755135.26 5135513.66 188.31
-9755135.49 5135513.66 181.26
-9755135.09 5135511.44 189.85
-9755136.01 5135513.91 188.73
-9755135.91 5135511.78 188.34
-9755135.85 5135511.78 188.05
-9755135.85 5135512.73 186.08
-9755134.86 5135521.96 187.11
-9755136.32 5135513.50 189.77
-9755135.43 5135512.16 188.03
-9755146.42 5135500.96 181.32
-9755146.11 5135502.73 181.31
-9755139.06 5135509.47 186.92
-9755137.64 5135507.58 189.17
-9755138.26 5135507.69 189.82
-9755145.05 5135509.09 188.47
-9755139.36 5135509.22 188.55
-9755138.17 5135506.81 188.21
-9755139.04 5135509.47 189.63
-9755144.75 5135509.26 188.47
-9755140.86 5135508.88 188.14
-9755139.28 5135509.56 185.43
-9755136.79 5135509.43 188.37
-9755138.30 5135506.50 188.41
-9755142.90 5135505.71 181.31
-9755142.68 5135509.51 189.25
-9755138.01 5135507.93 189.76
-9755143.80 5135503.04 181.31
-9755141.76 5135502.98 181.41
-9755137.60 5135507.39 189.04
-9755141.45 5135502.68 182.03
-9755143.22 5135506.57 181.31
-9755138.11 5135508.22 188.78
-9755139.09 5135507.99 188.95
-9755139.66 5135502.96 181.54
-9755139.61 5135504.75 181.95
-9755137.38 5135508.94 188.41
-9755136.98 5135503.02 181.29
-9755137.70 5135508.61 188.24
-9755136.72 5135504.74 181.29
-9755137.64 5135508.53 188.77
-9755138.78 5135505.63 181.70
-9755141.16 5135509.44 188.31
-9755138.87 5135508.83 185.79
-9755138.51 5135499.97 181.43
-9755137.37 5135500.45 191.27
-9755139.75 5135503.02 182.17
-9755140.90 5135501.84 182.02
-9755136.74 5135501.82 181.31
-9755137.58 5135501.28 181.32
-9755137.69 5135507.07 188.33
-9755138.21 5135506.16 188.56
-9755142.35 5135508.43 187.16
-9755140.91 5135508.59 188.13
-9755138.21 5135507.96 189.39
-9755138.94 5135508.84 189.65
-9755141.54 5135508.40 186.52
-9755137.02 5135507.66 188.38
-9755139.33 5135508.51 189.42
-9755139.04 5135507.59 185.05
-9755140.54 5135508.97 181.43
-9755140.85 5135500.64 181.46
-9755136.94 5135509.53 181.27
-9755139.38 5135509.40 189.58
-9755137.97 5135507.06 189.22
-9755138.14 5135508.17 184.90
-9755138.19 5135506.53 189.22
-9755137.03 5135508.95 188.36
-9755139.31 5135508.04 188.92
-9755142.44 5135509.26 188.96
-9755144.32 5135509.12 185.69
-9755138.53 5135508.08 189.28
-9755144.92 5135508.34 187.84
-9755137.02 5135503.58 181.29
-9755139.40 5135508.54 188.00
-9755139.98 5135504.53 181.56
-9755145.00 5135499.75 181.33
-9755137.53 5135507.92 185.46
-9755137.60 5135507.68 188.20
-9755144.13 5135503.29 181.32
-9755139.51 5135508.80 189.31
-9755142.89 5135506.93 181.31
-9755140.88 5135503.64 181.48
-9755141.91 5135503.47 181.72
-9755140.57 5135501.51 182.00
-9755141.74 5135509.39 188.35
-9755145.08 5135509.50 186.11
-9755137.34 5135501.23 192.23
-9755140.79 5135501.83 181.48
-9755144.71 5135508.91 186.30
-9755138.62 5135500.76 191.29
-9755141.73 5135504.80 181.44
-9755139.97 5135508.84 189.64
-9755137.53 5135508.98 181.29
-9755144.65 5135503.01 181.32
-9755140.25 5135502.41 181.53
-9755139.29 5135509.51 181.41
-9755137.64 5135507.03 189.26
-9755142.04 5135501.54 181.31
-9755139.37 5135509.08 189.57
-9755143.72 5135506.31 181.30
-9755140.16 5135506.94 185.18
-9755142.36 5135508.07 187.30
-9755137.56 5135504.47 181.29
-9755142.54 5135508.68 187.09
-9755140.84 5135503.30 182.03
-9755137.59 5135508.52 189.54
-9755137.93 5135501.57 181.34
-9755139.08 5135507.63 188.35
-9755136.72 5135509.39 188.02
-9755139.39 5135508.60 189.74
-9755137.59 5135502.44 181.28
-9755141.60 5135508.55 187.40
-9755137.37 5135506.73 188.19
-9755138.68 5135507.49 189.14
-9755139.99 5135509.14 184.78
-9755137.33 5135508.18 189.48
-9755138.92 5135500.75 192.20
-9755142.34 5135509.24 190.27
-9755137.07 5135507.77 188.90
-9755137.85 5135508.74 184.72
-9755140.18 5135508.46 185.58
-9755137.37 5135508.87 188.08
-9755138.17 5135509.48 181.33
-9755139.00 5135509.08 185.13
-9755139.12 5135501.92 182.75
-9755138.76 5135504.79 181.62
-9755141.87 5135508.05 187.34
-9755139.95 5135508.31 189.31
-9755136.95 5135508.00 188.31
-9755138.02 5135500.41 191.28
-9755138.71 5135509.43 189.49
-9755138.83 5135508.56 189.42
-9755136.57 5135499.87 191.26
-9755143.27 5135509.15 190.26
-9755142.34 5135508.92 190.44
-9755139.35 5135502.14 181.52
-9755142.83 5135508.08 187.25
-9755136.75 5135502.72 181.29
-9755138.30 5135507.34 189.76
-9755140.52 5135509.35 182.26
-9755142.35 5135507.82 187.60
-9755137.12 5135501.10 191.67
-9755138.13 5135508.49 189.45
-9755138.46 5135508.97 185.46
-9755139.39 5135508.68 188.36
-9755139.07 5135508.53 188.00
-9755139.69 5135508.95 185.34
-9755137.06 5135508.55 188.31
-9755140.61 5135509.12 189.93
-9755142.67 5135509.43 190.35
-9755137.42 5135508.72 189.55
-9755144.08 5135504.81 181.32
-9755143.34 5135508.28 188.78
-9755137.44 5135501.53 191.38
-9755139.76 5135508.44 189.31
-9755144.90 5135504.20 181.31
-9755141.68 5135507.92 186.48
-9755136.46 5135508.02 188.53
-9755141.43 5135509.02 187.42
-9755144.05 5135505.71 181.30
-9755142.94 5135508.62 188.73
-9755140.34 5135507.23 186.02
-9755142.38 5135500.31 181.30
-9755139.66 5135504.68 183.80
-9755138.75 5135503.89 181.58
-9755139.45 5135503.81 182.52
-9755140.06 5135506.40 185.30
-9755138.79 5135508.08 185.20
-9755137.11 5135507.38 189.07
-9755138.22 5135506.50 181.34
-9755137.55 5135506.53 188.21
-9755137.65 5135507.61 189.67
-9755139.61 5135503.26 183.47
-9755144.04 5135500.94 181.32
-9755140.74 5135507.15 186.07
-9755143.16 5135502.74 181.32
-9755140.03 5135509.28 191.27
-9755139.94 5135509.22 181.42
-9755136.71 5135507.48 187.81
-9755138.55 5135507.23 184.99
-9755138.29 5135501.32 192.20
-9755144.28 5135509.43 188.30
-9755136.66 5135506.31 181.28
-9755140.86 5135505.66 181.45
-9755140.58 5135502.42 182.02
-9755138.97 5135507.89 185.67
-9755137.83 5135506.24 181.29
-9755144.34 5135508.74 188.84
-9755137.59 5135508.14 189.48
-9755134.72 5135509.48 188.69
-9755135.15 5135507.68 187.03
-9755136.09 5135506.54 181.30
-9755136.14 5135504.13 181.31
-9755134.35 5135508.94 188.99
-9755134.40 5135508.18 188.83
-9755135.10 5135500.75 191.30
-9755134.79 5135508.26 188.52
-9755136.45 5135508.59 187.97
-9755135.34 5135500.41 191.28
-9755134.77 5135501.99 189.74
-9755135.84 5135508.54 188.77
-9755136.09 5135507.98 181.30
-9755134.41 5135501.60 185.25
-9755134.94 5135508.89 187.64
-9755134.42 5135501.98 185.25
-9755135.00 5135508.05 188.30
-9755134.98 5135508.47 188.84
-9755135.20 5135507.41 187.06
-9755135.12 5135507.57 187.68
-9755136.07 5135505.64 181.31
-9755135.46 5135508.00 188.25
-9755135.30 5135508.79 188.77
-9755134.40 5135507.99 187.52
-9755134.97 5135507.81 187.20
-9755135.30 5135509.43 188.88
-9755135.55 5135507.11 188.05
-9755135.63 5135508.19 188.35
-9755134.28 5135503.56 181.30
-9755134.92 5135509.56 189.66
-9755134.69 5135506.18 181.29
-9755134.76 5135501.31 192.18
-9755135.93 5135500.70 191.27
-9755135.44 5135507.19 187.46
-9755135.22 5135506.23 181.30
-9755136.04 5135507.92 188.47
-9755135.92 5135502.76 181.30
-9755135.22 5135509.16 181.27
-9755134.50 5135501.73 189.28
-9755135.89 5135508.70 188.72
-9755135.66 5135509.32 189.43
-9755135.85 5135507.65 188.12
-9755134.48 5135501.10 189.28
-9755134.74 5135501.13 189.28
-9755135.28 5135509.14 188.60
-9755135.18 5135508.00 181.28
-9755134.50 5135508.67 187.56
-9755135.22 5135501.80 181.31
-9755135.50 5135501.49 181.27
-9755134.44 5135502.01 190.19
-9755135.61 5135501.03 191.30
-9755134.92 5135509.42 187.81
-9755135.04 5135500.96 191.30
-9755186.63 5135497.98 186.20
-9755181.30 5135496.70 182.29
-9755178.87 5135494.33 183.43
-9755179.84 5135494.88 181.62
-9755178.90 5135494.39 182.27
-9755179.67 5135494.48 186.03
-9755180.11 5135495.51 181.60
-9755180.11 5135494.98 181.61
-9755181.30 5135496.54 185.56
-9755185.16 5135495.32 186.18
-9755181.26 5135494.89 184.60
-9755177.19 5135495.80 181.52
-9755180.43 5135494.71 186.48
-9755179.57 5135494.51 185.04
-9755181.93 5135494.12 186.17
-9755179.01 5135494.87 186.29
-9755186.32 5135495.66 186.20
-9755175.70 5135496.38 181.49
-9755183.98 5135496.18 186.17
-9755181.63 5135495.80 183.59
-9755181.60 5135495.44 184.07
-9755176.52 5135494.62 181.53
-9755181.90 5135495.89 186.44
-9755177.46 5135496.41 181.52
-9755180.78 5135495.00 185.92
-9755177.16 5135494.63 181.54
-9755179.69 5135494.80 185.12
-9755176.04 5135494.61 181.53
-9755178.67 5135494.36 182.40
-9755181.40 5135495.68 183.87
-9755182.23 5135494.12 186.17
-9755183.41 5135495.35 186.19
-9755181.31 5135496.14 182.79
-9755178.62 5135497.30 181.53
-9755181.26 5135497.61 183.47
-9755181.08 5135495.28 185.74
-9755181.04 5135497.75 185.61
-9755181.40 5135496.13 181.91
-9755181.08 5135496.74 186.44
-9755181.06 5135498.06 184.88
-9755183.94 5135497.42 186.17
-9755181.20 5135494.93 185.07
-9755185.47 5135494.43 186.18
-9755181.04 5135494.67 186.47
-9755184.56 5135496.28 186.16
-9755181.32 5135495.35 183.86
-9755181.36 5135495.53 183.23
-9755175.13 5135495.55 181.50
-9755180.97 5135497.21 183.33
-9755181.38 5135495.62 182.15
-9755180.16 5135494.87 186.20
-9755177.61 5135494.04 186.18
-9755181.32 5135495.90 186.04
-9755183.35 5135497.97 186.17
-9755185.11 5135497.11 186.19
-9755180.49 5135495.02 181.64
-9755178.92 5135496.43 181.55
-9755181.33 5135496.51 186.47
-9755181.55 5135495.56 185.30
-9755176.84 5135496.65 181.51
-9755179.69 5135494.61 182.52
-9755181.13 5135496.59 183.12
-9755177.25 5135494.04 182.27
-9755180.18 5135494.68 182.34
-9755180.20 5135494.69 184.17
-9755181.16 5135496.88 184.87
-9755180.99 5135496.18 186.47
-9755175.33 5135497.62 181.49
-9755178.06 5135494.63 181.56
-9755181.26 5135494.90 183.44
-9755179.39 5135494.76 185.84
-9755181.05 5135497.35 182.91
-9755181.32 5135496.10 183.80
-9755181.16 5135496.14 182.54
-9755185.45 5135497.68 186.20
-9755177.48 5135494.37 182.44
-9755181.12 5135498.03 184.26
-9755181.32 5135495.38 185.90
-9755181.10 5135495.02 183.43
-9755181.88 5135495.58 186.20
-9755181.91 5135497.68 186.20
-9755181.15 5135497.91 181.65
-9755179.31 5135494.43 186.47
-9755181.29 5135496.33 181.66
-9755180.27 5135494.77 183.84
-9755177.80 5135494.11 186.48
-9755179.87 5135494.69 185.59
-9755178.95 5135494.49 186.06
-9755178.24 5135494.04 181.66
-9755184.27 5135497.17 186.18
-9755178.35 5135495.47 181.56
-9755179.46 5135494.68 181.60
-9755174.75 5135496.08 181.48
-9755179.35 5135494.86 185.11
-9755184.27 5135495.62 186.20
-9755177.34 5135494.08 185.04
-9755179.58 5135495.20 181.58
-9755181.09 5135496.52 183.47
-9755179.63 5135494.79 183.61
-9755181.34 5135495.22 185.50
-9755179.82 5135494.62 182.07
-9755181.05 5135497.80 182.75
-9755181.06 5135494.82 184.30
-9755179.86 5135495.78 181.58
-9755177.85 5135494.46 184.65
-9755182.19 5135495.90 186.20
-9755181.09 5135497.66 186.21
-9755175.12 5135494.01 181.51
-9755185.15 5135495.02 186.18
-9755174.75 5135496.98 181.48
-9755181.66 5135495.37 184.58
-9755186.60 5135499.82 186.20
-9755186.28 5135500.09 186.21
-9755180.99 5135498.35 184.16
-9755180.94 5135499.80 183.57
-9755180.99 5135498.18 183.59
-9755176.81 5135500.24 181.53
-9755181.02 5135498.14 181.62
-9755177.47 5135500.22 181.54
-9755180.49 5135500.03 185.50
-9755180.05 5135498.76 181.60
-9755180.70 5135499.99 182.57
-9755176.89 5135498.74 181.53
-9755180.96 5135498.11 184.36
-9755180.46 5135499.46 185.17
-9755181.07 5135498.25 185.62
-9755184.54 5135498.63 186.19
-9755182.44 5135498.25 186.19
-9755180.66 5135499.66 182.10
-9755180.60 5135500.03 182.07
-9755180.98 5135498.57 181.92
-9755185.46 5135498.90 186.21
-9755176.56 5135499.64 181.51
-9755180.78 5135498.64 185.83
-9755182.47 5135499.75 186.16
-9755180.94 5135499.27 183.16
-9755181.17 5135498.34 185.75
-9755178.94 5135499.65 181.55
-9755180.62 5135498.88 186.09
-9755175.68 5135498.77 181.52
-9755177.97 5135498.19 181.53
-9755182.18 5135499.73 186.17
-9755180.99 5135499.57 184.57
-9755182.45 5135498.85 186.19
-9755174.76 5135499.34 181.50
-9755181.38 5135498.62 186.19
-9755180.74 5135498.64 185.80
-9755180.71 5135500.01 186.47
-9755180.99 5135498.34 185.24
-9755179.21 5135498.19 181.55
-9755180.74 5135499.05 184.75
-9755180.75 5135499.04 182.27
-9755181.01 5135498.83 184.28
-9755186.00 5135498.56 186.21
-9755183.31 5135498.31 186.17
-9755180.99 5135498.70 183.50
-9755182.78 5135499.17 186.18
-9755180.96 5135499.20 186.15
-9755180.72 5135499.18 185.17
-9755180.74 5135499.14 184.01
-9755175.64 5135493.91 184.01
-9755176.86 5135493.87 186.18
-9755186.38 5135491.49 186.20
-9755175.60 5135493.42 182.74
-9755175.56 5135492.99 184.30
-9755183.99 5135490.86 186.18
-9755176.40 5135491.72 186.19
-9755175.65 5135493.31 183.58
-9755175.99 5135493.74 183.16
-9755175.73 5135492.95 185.10
-9755176.00 5135491.49 182.16
-9755176.91 5135491.14 186.16
-9755175.89 5135492.95 184.90
-9755178.66 5135493.77 186.48
-9755176.91 5135491.07 186.44
-9755176.32 5135493.81 186.17
-9755185.48 5135492.43 186.17
-9755175.93 5135492.44 184.24
-9755176.15 5135493.18 186.24
-9755175.87 5135493.54 181.71
-9755176.92 5135492.04 186.16
-9755176.09 5135491.27 184.29
-9755185.48 5135493.27 186.17
-9755174.81 5135491.89 181.76
-9755176.06 5135491.42 182.77
-9755175.65 5135493.02 183.03
-9755174.84 5135493.39 181.56
-9755176.28 5135491.32 183.98
-9755184.29 5135491.25 186.19
-9755180.77 5135492.37 186.14
-9755180.76 5135491.47 186.15
-9755176.08 5135492.32 186.47
-9755184.00 5135491.50 186.17
-9755176.07 5135491.46 184.87
-9755178.12 5135492.03 186.16
-9755175.97 5135491.67 183.07
-9755175.54 5135492.73 182.77
-9755176.01 5135491.47 185.98
-9755175.54 5135493.74 182.79
-9755175.87 5135493.86 186.12
-9755179.63 5135491.75 186.15
-9755176.27 5135490.97 184.45
-9755176.33 5135490.85 186.17
-9755175.97 5135493.76 182.18
-9755176.06 5135491.76 184.36
-9755174.81 5135491.33 181.66
-9755175.57 5135493.59 183.58
-9755178.69 5135493.50 186.15
-9755177.24 5135493.99 183.56
-9755178.97 5135492.94 186.13
-9755175.47 5135493.31 182.05
-9755179.27 5135492.34 186.13
-9755182.80 5135492.66 186.17
-9755185.80 5135492.41 186.18
-9755185.44 5135493.60 186.18
-9755175.74 5135492.93 186.11
-9755176.32 5135491.52 183.07
-9755176.26 5135493.69 181.58
-9755175.18 5135491.32 181.51
-9755177.80 5135493.23 186.15
-9755175.54 5135492.63 186.06
-9755184.61 5135491.21 186.18
-9755177.17 5135493.48 186.17
-9755177.21 5135491.46 186.16
-9755175.90 5135493.21 183.69
-9755175.13 5135490.81 181.51
-9755175.98 5135492.27 182.20
-9755184.59 5135493.54 186.18
-9755175.52 5135493.56 185.11
-9755182.85 5135492.98 186.18
-9755177.51 5135493.76 186.16
-9755181.05 5135493.23 186.15
-9755175.70 5135492.03 185.83
-9755177.21 5135492.37 186.16
-9755179.29 5135491.73 186.15
-9755175.70 5135491.38 181.54
-9755176.27 5135491.91 182.01
-9755180.44 5135490.86 186.15
-9755176.10 5135491.00 184.99
-9755179.02 5135490.89 186.14
-9755179.27 5135492.95 186.13
-9755176.89 5135493.21 186.18
-9755183.71 5135493.24 186.19
-9755183.13 5135492.11 186.17
-9755176.00 5135491.53 181.92
-9755175.75 5135492.54 183.18
-9755183.11 5135490.80 187.45
-9755180.18 5135492.92 186.15
-9755175.71 5135493.17 182.48
-9755174.20 5135496.96 181.49
-9755173.61 5135496.07 181.49
-9755174.19 5135494.61 181.50
-9755173.63 5135495.23 181.50
-9755174.43 5135497.90 181.48
-9755173.63 5135496.97 181.47
-9755173.55 5135497.84 181.49
-9755173.30 5135499.95 181.49
-9755174.50 5135498.45 181.50
-9755173.65 5135493.21 181.57
-9755174.20 5135490.66 181.52
-9755173.91 5135491.35 181.55
-9755174.25 5135493.69 181.55
-9755173.59 5135491.99 181.57
-9755186.68 5135482.89 186.17
-9755186.75 5135477.50 187.65
-9755186.74 5135476.92 187.64
-9755186.72 5135479.85 182.83
-9755186.69 5135478.46 183.16
-9755186.59 5135478.53 183.51
-9755186.56 5135478.71 183.44
-9755186.74 5135476.03 187.64
-9755186.18 5135474.81 187.65
-9755186.28 5135478.63 187.85
-9755186.43 5135478.39 183.63
-9755186.66 5135479.16 182.83
-9755178.35 5135483.03 183.75
-9755186.71 5135483.47 186.18
-9755178.82 5135480.02 184.90
-9755183.75 5135478.88 182.78
-9755183.42 5135476.54 181.66
-9755180.82 5135476.17 182.51
-9755184.99 5135480.91 186.47
-9755185.19 5135479.42 182.78
-9755178.66 5135482.53 184.65
-9755178.35 5135482.36 186.14
-9755180.50 5135478.94 182.69
-9755183.76 5135473.99 180.38
-9755184.03 5135475.73 181.68
-9755183.79 5135473.65 180.38
-9755177.91 5135478.00 182.49
-9755176.40 5135473.58 180.98
-9755178.77 5135480.46 186.45
-9755178.71 5135476.24 182.41
-9755178.12 5135477.11 182.42
-9755177.74 5135478.27 181.89
-9755180.51 5135476.21 182.47
-9755186.13 5135481.59 186.02
-9755181.33 5135477.67 182.72
-9755178.16 5135483.75 186.45
-9755177.26 5135473.94 180.87
-9755179.37 5135479.61 182.34
-9755178.99 5135480.54 185.88
-9755178.87 5135481.04 185.58
-9755185.09 5135473.98 187.64
-9755180.21 5135482.27 186.14
-9755179.93 5135478.28 181.41
-9755179.03 5135480.19 182.22
-9755179.31 5135479.21 182.19
-9755178.47 5135477.13 182.42
-9755186.19 5135473.66 187.65
-9755178.87 5135481.18 183.79
-9755178.17 5135483.85 181.98
-9755178.82 5135480.80 184.82
-9755184.59 5135473.46 180.40
-9755184.42 5135477.35 183.40
-9755178.84 5135480.02 183.83
-9755175.54 5135475.62 181.22
-9755184.08 5135477.40 187.13
-9755178.99 5135480.56 184.89
-9755178.16 5135474.21 181.27
-9755183.75 5135482.58 186.16
-9755177.48 5135476.68 181.26
-9755180.30 5135479.20 182.69
-9755176.76 5135478.01 182.53
-9755185.25 5135478.95 182.41
-9755177.55 5135479.83 181.43
-9755178.69 5135482.99 184.33
-9755183.18 5135475.77 180.41
-9755184.73 5135474.83 186.03
-9755185.78 5135478.62 183.36
-9755183.74 5135476.48 185.36
-9755181.95 5135478.89 182.70
-9755178.70 5135484.00 186.46
-9755184.02 5135479.16 182.80
-9755186.40 5135478.50 183.20
-9755182.87 5135473.68 180.37
-9755185.88 5135481.99 186.43
-9755177.97 5135483.12 185.85
-9755184.65 5135483.81 186.17
-9755177.99 5135478.61 181.67
-9755177.85 5135477.63 182.44
-9755183.17 5135473.96 180.37
-9755183.77 5135475.18 180.39
-9755183.38 5135476.59 180.43
-9755176.96 5135477.40 182.45
-9755178.16 5135474.78 181.31
-9755176.38 5135474.81 181.20
-9755185.79 5135480.08 182.80
-9755181.32 5135482.62 186.14
-9755178.19 5135483.35 184.29
-9755178.18 5135482.23 186.47
-9755179.00 5135480.94 183.54
-9755181.09 5135480.83 186.43
-9755181.77 5135480.21 186.44
-9755185.48 5135478.52 183.21
-9755178.13 5135483.85 184.16
-9755178.63 5135482.14 182.43
-9755183.46 5135481.39 186.43
-9755177.57 5135476.53 182.39
-9755177.87 5135481.55 181.44
-9755177.49 5135482.47 181.44
-9755178.10 5135483.76 185.18
-9755185.62 5135473.67 187.64
-9755178.19 5135483.14 186.46
-9755176.08 5135474.67 182.18
-9755183.65 5135476.75 185.07
-9755177.49 5135483.38 181.50
-9755184.97 5135475.14 188.01
-9755180.20 5135475.69 181.36
-9755186.75 5135478.59 182.80
-9755182.61 5135476.58 181.48
-9755178.20 5135483.30 181.45
-9755184.33 5135483.81 186.55
-9755180.53 5135481.39 186.15
-9755176.98 5135480.94 181.43
-9755184.02 5135476.34 186.55
-9755185.85 5135478.04 181.56
-9755178.92 5135480.76 182.40
-9755184.94 5135474.06 180.42
-9755177.28 5135483.04 181.46
-9755182.30 5135475.77 180.41
-9755184.36 5135481.67 186.44
-9755178.63 5135482.27 183.58
-9755184.36 5135480.74 186.45
-9755178.33 5135483.15 181.50
-9755184.58 5135480.15 182.77
-9755178.24 5135482.25 183.52
-9755181.40 5135480.48 186.46
-9755178.18 5135475.99 182.38
-9755180.25 5135480.83 186.15
-9755180.40 5135476.78 182.67
-9755177.56 5135484.28 186.43
-9755182.58 5135481.11 186.16
-9755184.04 5135474.90 187.55
-9755178.48 5135483.28 183.22
-9755181.11 5135483.47 186.14
-9755175.43 5135483.36 181.47
-9755177.79 5135478.52 182.62
-9755185.14 5135477.62 185.55
-9755176.94 5135481.61 181.44
-9755180.87 5135482.22 187.28
-9755176.03 5135478.60 181.38
-9755177.54 5135478.08 182.51
-9755175.99 5135484.28 181.48
-9755178.36 5135483.12 182.40
-9755182.03 5135483.46 186.15
-9755183.85 5135477.12 182.52
-9755176.02 5135483.33 181.45
-9755175.78 5135483.93 181.46
-9755183.71 5135477.29 184.93
-9755184.35 5135478.32 182.74
-9755179.41 5135479.60 181.99
-9755177.86 5135483.74 185.61
-9755183.95 5135476.73 184.82
-9755175.19 5135476.54 181.28
-9755175.95 5135475.91 181.57
-9755178.48 5135475.95 182.40
-9755178.76 5135482.55 186.45
-9755185.47 5135480.45 182.82
-9755178.51 5135482.70 183.71
-9755178.43 5135482.55 181.50
-9755181.46 5135475.98 181.48
-9755184.93 5135481.43 186.45
-9755185.20 5135478.64 182.45
-9755181.69 5135480.81 186.15
-9755183.70 5135477.08 183.94
-9755177.23 5135484.55 181.48
-9755178.74 5135475.12 182.44
-9755178.12 5135478.61 182.51
-9755184.74 5135474.53 188.02
-9755185.27 5135479.75 182.77
-9755176.93 5135478.55 182.51
-9755177.82 5135484.24 183.46
-9755183.43 5135478.91 182.80
-9755178.64 5135482.02 183.26
-9755176.08 5135477.17 182.44
-9755175.17 5135476.56 182.40
-9755177.19 5135480.40 181.42
-9755182.10 5135483.30 187.27
-9755179.62 5135476.21 182.46
-9755178.50 5135482.13 181.80
-9755175.54 5135477.14 182.44
-9755181.96 5135474.02 180.40
-9755184.66 5135483.47 186.17
-9755183.80 5135476.11 185.14
-9755183.82 5135477.21 186.54
-9755184.35 5135473.44 180.38
-9755180.33 5135475.95 182.48
-9755181.99 5135482.55 187.28
-9755179.18 5135480.16 185.73
-9755181.40 5135478.33 182.71
-9755178.74 5135481.07 186.46
-9755184.88 5135477.55 183.40
-9755180.50 5135483.74 186.15
-9755179.20 5135480.13 183.02
-9755179.26 5135476.80 182.43
-9755179.37 5135476.21 182.46
-9755182.55 5135476.87 183.09
-9755176.99 5135475.61 182.33
-9755177.59 5135475.62 182.37
-9755186.17 5135475.10 187.64
-9755184.39 5135474.96 184.99
-9755186.18 5135475.45 187.65
-9755186.18 5135476.00 187.65
-9755184.58 5135478.14 182.74
-9755185.20 5135473.80 184.99
-9755186.18 5135476.32 187.66
-9755178.88 5135479.97 185.71
-9755181.70 5135481.71 186.14
-9755183.73 5135475.01 182.81
-9755178.33 5135481.81 183.13
-9755183.09 5135477.42 183.08
-9755177.81 5135484.27 181.51
-9755179.30 5135475.11 181.34
-9755184.28 5135477.95 183.36
-9755178.19 5135483.00 183.93
-9755186.23 5135479.38 182.78
-9755183.74 5135476.46 184.27
-9755180.22 5135475.66 180.69
-9755178.77 5135481.37 186.46
-9755185.21 5135477.97 186.56
-9755176.40 5135481.04 181.44
-9755183.76 5135483.51 186.16
-9755183.50 5135476.61 187.26
-9755183.77 5135476.46 184.18
-9755179.36 5135473.65 180.63
-9755176.62 5135477.37 182.44
-9755178.09 5135483.26 181.73
-9755177.32 5135482.53 181.44
-9755183.42 5135477.06 183.08
-9755174.88 5135479.81 181.42
-9755179.16 5135480.53 185.49
-9755178.73 5135479.46 182.33
-9755184.69 5135476.62 187.68
-9755178.69 5135480.74 181.45
-9755184.68 5135476.03 187.68
-9755183.59 5135479.17 182.80
-9755180.17 5135478.96 181.45
-9755175.41 5135477.93 182.44
-9755184.59 5135474.18 181.63
-9755181.46 5135479.91 186.45
-9755184.66 5135477.61 185.49
-9755183.98 5135476.77 184.27
-9755184.70 5135476.91 187.67
-9755178.68 5135481.35 181.44
-9755178.18 5135473.92 180.73
-9755180.39 5135476.70 182.07
-9755178.34 5135483.74 184.32
-9755182.22 5135482.87 186.15
-9755176.38 5135474.49 181.19
-9755183.22 5135475.87 181.45
-9755178.51 5135481.35 181.85
-9755178.03 5135482.76 181.90
-9755182.27 5135484.07 186.15
-9755182.52 5135478.39 182.75
-9755176.89 5135483.35 181.47
-9755186.19 5135478.56 188.02
-9755183.76 5135476.59 180.43
-9755177.87 5135484.24 182.95
-9755184.24 5135477.19 185.64
-9755184.65 5135483.45 187.30
-9755179.64 5135478.03 181.40
-9755185.54 5135473.35 186.84
-9755176.97 5135474.84 181.21
-9755184.62 5135473.98 181.63
-9755183.86 5135476.83 186.74
-9755178.62 5135482.83 183.09
-9755185.42 5135477.82 183.48
-9755179.28 5135479.99 185.29
-9755183.70 5135477.47 183.13
-9755185.30 5135474.22 188.01
-9755177.88 5135476.78 182.41
-9755184.37 5135476.59 187.99
-9755183.52 5135483.47 187.28
-9755180.43 5135479.18 182.69
-9755184.64 5135475.25 185.00
-9755183.21 5135479.22 182.82
-9755182.48 5135476.89 182.77
-9755180.23 5135480.21 186.46
-9755177.25 5135481.84 181.45
-9755179.39 5135482.59 186.14
-9755181.09 5135473.95 180.48
-9755185.30 5135473.19 186.30
-9755176.94 5135483.68 181.49
-9755180.20 5135483.47 186.15
-9755182.91 5135480.81 186.46
-9755184.35 5135474.32 180.39
-9755178.94 5135480.65 183.67
-9755177.83 5135484.40 184.29
-9755183.43 5135483.69 187.27
-9755182.29 5135476.56 180.36
-9755178.22 5135483.07 183.64
-9755180.66 5135478.02 182.65
-9755183.72 5135476.50 183.33
-9755178.68 5135476.54 182.41
-9755175.49 5135476.82 182.42
-9755182.86 5135474.92 180.38
-9755175.50 5135475.89 182.35
-9755178.46 5135479.17 182.33
-9755182.31 5135480.12 186.46
-9755181.11 5135474.86 180.47
-9755180.24 5135479.88 182.76
-9755180.53 5135473.40 180.56
-9755175.21 5135474.51 181.21
-9755180.41 5135478.59 181.73
-9755177.21 5135477.14 182.44
-9755182.52 5135478.93 182.76
-9755177.21 5135478.47 182.55
-9755178.43 5135480.12 181.44
-9755178.65 5135484.21 186.46
-9755176.90 5135484.25 181.46
-9755178.30 5135483.34 182.41
-9755181.43 5135483.49 186.15
-9755184.08 5135474.98 184.91
-9755182.56 5135484.04 186.16
-9755185.29 5135473.91 186.56
-9755183.16 5135478.95 182.79
-9755181.70 5135479.20 182.73
-9755186.67 5135486.18 186.18
-9755186.64 5135489.71 186.20
-9755186.69 5135487.62 186.19
-9755184.96 5135484.38 187.28
-9755177.85 5135484.61 181.56
-9755186.10 5135490.30 186.20
-9755176.89 5135488.11 182.44
-9755181.99 5135487.04 186.16
-9755177.28 5135485.84 184.15
-9755176.94 5135489.07 184.07
-9755184.80 5135488.31 186.78
-9755176.86 5135488.07 181.87
-9755183.53 5135490.61 186.54
-9755185.19 5135484.37 186.18
-9755177.52 5135485.51 186.25
-9755176.46 5135489.80 185.60
-9755178.98 5135489.11 186.15
-9755176.33 5135486.66 181.48
-9755177.37 5135486.47 186.04
-9755181.93 5135490.29 186.17
-9755186.67 5135486.73 186.19
-9755178.15 5135486.45 186.14
-9755176.98 5135488.36 183.80
-9755176.28 5135490.45 181.91
-9755186.09 5135487.65 186.18
-9755180.18 5135488.19 186.14
-9755177.57 5135486.10 186.46
-9755182.50 5135489.75 186.19
-9755176.83 5135489.45 184.36
-9755177.22 5135487.60 186.45
-9755183.46 5135489.30 187.45
-9755180.80 5135487.30 186.14
-9755177.41 5135486.81 183.51
-9755179.00 5135488.77 186.14
-9755180.14 5135489.69 186.15
-9755178.12 5135484.92 186.45
-9755177.82 5135487.59 186.15
-9755184.62 5135487.04 186.18
-9755184.87 5135489.08 187.30
-9755176.83 5135489.89 183.98
-9755182.15 5135490.57 186.72
-9755182.87 5135489.93 187.45
-9755185.74 5135489.73 186.19
-9755177.35 5135486.58 184.18
-9755176.91 5135486.94 181.50
-9755176.64 5135488.29 183.01
-9755182.23 5135490.51 187.45
-9755177.20 5135486.76 182.74
-9755185.15 5135489.70 186.18
-9755180.50 5135486.45 186.13
-9755184.89 5135488.75 187.31
-9755177.17 5135488.18 185.00
-9755177.53 5135485.86 185.06
-9755176.37 5135489.80 185.23
-9755182.84 5135490.34 186.17
-9755175.79 5135486.60 181.47
-9755186.05 5135488.55 186.19
-9755184.62 5135490.81 187.46
-9755176.93 5135489.06 186.46
-9755177.79 5135485.14 181.58
-9755177.31 5135486.41 183.16
-9755179.60 5135488.21 186.13
-9755177.52 5135486.05 181.86
-9755180.47 5135488.84 186.15
-9755178.75 5135486.40 186.13
-9755176.90 5135489.06 182.05
-9755182.50 5135490.60 186.17
-9755183.13 5135489.64 187.41
-9755182.90 5135489.55 186.51
-9755177.24 5135486.42 186.45
-9755177.84 5135484.28 185.84
-9755177.00 5135488.01 184.08
-9755175.37 5135489.94 181.51
-9755177.84 5135485.03 183.97
-9755185.49 5135490.35 186.19
-9755177.10 5135487.44 182.27
-9755177.35 5135485.62 183.08
-9755177.26 5135487.67 184.32
-9755185.54 5135486.75 186.18
-9755176.91 5135487.86 181.53
-9755177.78 5135484.83 183.66
-9755178.70 5135487.92 186.14
-9755177.36 5135485.52 184.95
-9755177.18 5135487.23 181.71
-9755179.90 5135489.07 186.15
-9755177.87 5135487.00 186.16
-9755176.60 5135489.11 184.96
-9755177.61 5135485.33 181.96
-9755175.38 5135487.81 181.47
-9755176.91 5135486.06 181.49
-9755182.54 5135488.51 186.17
-9755183.45 5135490.49 186.20
-9755175.14 5135488.98 181.51
-9755184.55 5135486.42 187.27
-9755183.43 5135489.33 186.56
-9755184.28 5135487.91 186.53
-9755177.12 5135487.05 185.27
-9755184.57 5135489.40 187.46
-9755179.02 5135484.93 186.15
-9755181.36 5135489.67 186.16
-9755176.78 5135489.52 181.53
-9755182.27 5135484.98 186.16
-9755184.93 5135486.40 187.27
-9755184.62 5135485.88 186.17
-9755183.16 5135489.30 187.42
-9755175.21 5135487.21 181.48
-9755175.39 5135485.71 181.46
-9755177.22 5135486.48 184.80
-9755176.57 5135485.52 181.48
-9755176.84 5135489.31 181.52
-9755175.44 5135487.60 181.48
-9755184.61 5135484.97 186.17
-9755175.73 5135484.22 181.47
-9755185.50 5135485.79 187.32
-9755177.03 5135486.59 181.50
-9755177.33 5135486.27 184.24
-9755176.95 5135487.77 182.62
-9755180.17 5135487.96 186.14
-9755177.22 5135485.81 186.45
-9755183.50 5135485.86 186.17
-9755176.90 5135488.80 185.79
-9755177.42 5135485.45 183.98
-9755176.84 5135489.25 182.55
-9755185.52 5135489.10 186.18
-9755178.99 5135490.00 186.16
-9755181.65 5135490.01 186.17
-9755178.69 5135487.01 186.14
-9755177.53 5135485.85 185.72
-9755185.51 5135487.07 186.18
-9755184.32 5135488.45 187.31
-9755177.19 5135490.56 186.17
-9755177.24 5135485.73 181.48
-9755176.90 5135489.69 183.39
-9755179.34 5135486.69 186.14
-9755176.96 5135489.96 186.46
-9755182.00 5135487.60 186.16
-9755176.68 5135488.70 184.03
-9755181.38 5135485.84 186.15
-9755181.40 5135487.59 186.14
-9755174.84 5135485.15 181.48
-9755181.05 5135487.91 186.15
-9755176.27 5135484.79 181.48
-9755182.55 5135485.54 186.17
-9755177.26 5135485.96 185.00
-9755175.44 5135486.03 181.47
-9755176.33 5135490.40 182.65
-9755175.43 5135489.53 181.51
-9755177.18 5135487.13 183.50
-9755180.49 5135485.54 186.14
-9755184.48 5135488.69 186.91
-9755176.94 5135488.14 186.08
-9755183.12 5135487.91 186.17
-9755182.59 5135485.83 186.17
-9755177.17 5135485.85 185.61
-9755176.79 5135490.05 183.01
-9755177.20 5135487.05 185.77
-9755180.48 5135487.61 186.14
-9755177.52 5135487.48 183.33
-9755185.14 5135489.34 187.00
-9755182.25 5135488.23 186.16
-9755176.89 5135488.78 181.53
-9755176.07 5135489.95 186.01
-9755176.60 5135488.89 182.98
-9755184.33 5135485.86 186.16
-9755182.57 5135489.91 187.45
-9755178.04 5135484.70 185.41
-9755175.18 5135486.57 181.48
-9755177.06 5135487.48 185.44
-9755182.27 5135490.55 186.17
-9755183.99 5135488.77 187.29
-9755177.29 5135486.06 185.99
-9755177.83 5135485.02 185.02
-9755175.76 5135485.64 181.47
-9755178.13 5135484.31 186.19
-9755176.54 5135490.55 181.51
-9755179.65 5135484.62 186.14
-9755176.77 5135490.02 181.92
-9755177.16 5135486.42 181.84
-9755184.59 5135488.75 187.31
-9755177.50 5135488.46 186.46
-9755185.29 5135486.97 187.30
-9755177.25 5135487.50 181.51
-9755176.99 5135487.56 182.63
-9755185.52 5135484.89 186.18
-9755180.19 5135489.08 186.15
-9755181.69 5135485.52 186.14
-9755177.87 5135485.41 184.93
-9755185.54 5135486.18 186.17
-9755179.30 5135487.88 186.13
-9755176.36 5135490.30 184.59
-9755174.19 5135474.65 181.65
-9755174.93 5135477.41 182.42
-9755174.94 5135475.91 181.26
-9755174.93 5135482.19 181.46
-9755174.59 5135477.75 181.37
-9755174.00 5135483.40 181.47
-9755174.89 5135481.01 181.45
-9755173.98 5135481.03 181.45
-9755174.04 5135477.49 181.35
-9755173.95 5135481.87 181.45
-9755174.82 5135474.19 182.25
-9755174.00 5135474.72 182.33
-9755173.95 5135483.06 181.47
-9755174.59 5135477.70 182.42
-9755174.11 5135476.89 181.67
-9755174.01 5135478.09 181.37
-9755174.65 5135476.61 181.29
-9755173.59 5135475.84 182.33
-9755173.45 5135476.45 182.39
-9755174.86 5135483.96 181.48
-9755174.26 5135475.03 181.26
-9755174.33 5135473.90 181.17
-9755173.83 5135475.30 182.32
-9755174.31 5135474.27 182.31
-9755173.96 5135484.52 181.48
-9755174.61 5135486.29 181.49
-9755174.30 5135487.24 181.49
-9755173.97 5135485.43 181.49
-9755173.12 5135492.63 181.60
-9755160.62 5135500.16 181.38
-9755172.45 5135493.98 181.48
-9755167.17 5135495.46 181.44
-9755166.54 5135496.34 181.43
-9755167.07 5135494.63 181.44
-9755168.93 5135496.12 181.44
-9755170.70 5135496.39 181.46
-9755164.48 5135494.85 181.41
-9755172.11 5135496.66 181.47
-9755172.46 5135495.52 181.48
-9755165.41 5135496.32 181.41
-9755169.47 5135497.85 181.44
-9755165.63 5135496.66 181.41
-9755168.94 5135493.98 181.46
-9755172.13 5135497.55 181.48
-9755163.86 5135496.89 181.41
-9755168.89 5135497.24 181.44
-9755167.07 5135497.24 181.43
-9755163.90 5135494.25 181.42
-9755168.92 5135495.21 181.45
-9755170.69 5135495.48 181.46
-9755165.36 5135493.99 181.42
-9755167.73 5135495.41 181.44
-9755167.96 5135496.36 181.44
-9755171.84 5135495.79 181.48
-9755171.51 5135497.84 181.46
-9755170.38 5135496.65 181.45
-9755164.78 5135494.55 181.41
-9755170.39 5135494.90 181.46
-9755167.42 5135496.97 181.43
-9755165.65 5135495.75 181.42
-9755172.67 5135498.12 181.48
-9755172.68 5135499.03 181.48
-9755169.44 5135499.88 181.45
-9755164.74 5135499.92 181.41
-9755171.54 5135499.91 181.47
-9755166.22 5135498.12 181.41
-9755167.35 5135499.04 181.43
-9755172.38 5135498.15 181.48
-9755169.77 5135499.35 181.44
-9755171.50 5135498.45 181.46
-9755167.08 5135499.62 181.43
-9755160.90 5135494.87 181.38
-9755163.31 5135498.10 181.39
-9755160.68 5135494.23 181.38
-9755163.03 5135496.30 181.39
-9755160.96 5135494.51 181.40
-9755160.62 5135496.91 181.38
-9755162.71 5135495.45 181.40
-9755161.84 5135494.51 181.40
-9755158.27 5135494.83 181.38
-9755155.96 5135494.84 181.37
-9755156.79 5135497.17 181.36
-9755157.71 5135493.97 181.38
-9755156.78 5135494.85 181.37
-9755162.68 5135499.60 181.39
-9755161.20 5135499.60 181.38
-9755159.13 5135499.84 181.37
-9755160.34 5135499.29 181.38
-9755161.46 5135498.40 181.38
-9755159.14 5135499.28 181.36
-9755162.40 5135499.92 181.37
-9755157.71 5135498.95 181.37
-9755158.24 5135498.35 181.36
-9755157.36 5135498.68 181.36
-9755157.12 5135498.32 181.35
-9755157.09 5135498.97 181.37
-9755159.12 5135497.77 181.37
-9755158.55 5135499.84 181.37
-9755173.06 5135491.41 181.50
-9755173.03 5135493.16 181.50
-9755170.39 5135493.73 181.48
-9755172.17 5135492.81 181.49
-9755170.39 5135492.82 181.51
-9755170.98 5135492.21 181.62
-9755171.86 5135492.86 181.48
-9755170.62 5135491.67 181.62
-9755169.54 5135493.37 181.47
-9755164.17 5135493.07 181.43
-9755172.17 5135493.72 181.49
-9755164.20 5135492.17 181.42
-9755169.49 5135490.96 181.46
-9755168.25 5135493.07 181.44
-9755165.98 5135493.11 181.42
-9755169.50 5135491.87 181.47
-9755172.14 5135491.97 181.48
-9755163.93 5135493.38 181.42
-9755168.92 5135490.70 181.68
-9755167.18 5135492.84 181.43
-9755169.78 5135491.37 181.49
-9755171.82 5135491.98 181.61
-9755168.89 5135493.40 181.47
-9755171.54 5135494.01 181.47
-9755166.81 5135492.21 181.42
-9755169.51 5135493.69 181.46
-9755165.70 5135490.95 181.43
-9755170.67 5135493.37 181.48
-9755168.62 5135493.40 181.46
-9755168.35 5135492.20 181.45
-9755168.02 5135491.67 181.45
-9755165.61 5135493.71 181.42
-9755165.06 5135492.19 181.42
-9755169.51 5135492.53 181.51
-9755166.22 5135494.30 181.41
-9755159.82 5135491.59 181.39
-9755161.53 5135492.77 181.40
-9755160.69 5135491.29 181.41
-9755161.61 5135491.26 181.40
-9755163.61 5135490.71 181.43
-9755160.08 5135492.18 181.39
-9755159.20 5135490.67 181.40
-9755162.47 5135490.70 181.42
-9755158.32 5135492.18 181.39
-9755158.31 5135491.27 181.39
-9755157.67 5135493.01 181.38
-9755157.12 5135493.61 181.37
-9755157.74 5135490.65 181.39
-9755155.61 5135496.62 181.36
-9755150.61 5135496.57 181.35
-9755155.32 5135495.67 181.37
-9755154.47 5135494.82 181.38
-9755150.89 5135497.76 181.33
-9755148.87 5135495.62 181.34
-9755152.95 5135495.10 181.36
-9755155.07 5135495.38 181.37
-9755147.35 5135495.29 181.34
-9755154.15 5135497.46 181.36
-9755152.97 5135495.99 181.35
-9755152.08 5135495.67 181.34
-9755152.94 5135498.02 181.34
-9755155.03 5135496.28 181.35
-9755153.02 5135496.56 181.35
-9755153.82 5135497.72 181.36
-9755146.20 5135496.52 181.32
-9755149.97 5135496.53 181.34
-9755147.35 5135497.72 181.32
-9755149.16 5135494.46 181.35
-9755151.22 5135495.36 181.35
-9755147.99 5135497.12 181.33
-9755149.75 5135496.84 181.34
-9755147.69 5135495.38 181.33
-9755149.72 5135494.46 181.34
-9755150.63 5135495.91 181.35
-9755154.15 5135496.58 181.36
-9755149.75 5135495.92 181.34
-9755151.25 5135496.24 181.35
-9755148.26 5135497.69 181.33
-9755155.33 5135498.96 181.36
-9755146.18 5135499.45 181.31
-9755146.50 5135499.20 181.32
-9755153.21 5135499.52 181.34
-9755150.03 5135498.61 181.33
-9755150.26 5135498.92 181.34
-9755151.78 5135499.25 181.34
-9755150.55 5135499.82 181.32
-9755153.29 5135493.34 181.37
-9755150.03 5135493.90 181.37
-9755146.48 5135493.58 181.34
-9755148.25 5135493.02 181.35
-9755150.09 5135491.51 181.36
-9755151.21 5135493.87 181.36
-9755147.69 5135492.12 181.35
-9755147.11 5135493.00 181.34
-9755153.86 5135493.55 181.37
-9755153.04 5135491.49 181.38
-9755150.62 5135493.63 181.37
-9755153.89 5135493.05 181.37
-9755148.91 5135490.34 181.37
-9755150.58 5135490.93 181.37
-9755152.43 5135492.38 181.37
-9755152.37 5135491.81 181.37
-9755150.94 5135492.95 181.35
-9755149.77 5135490.36 181.37
-9755147.12 5135490.65 181.37
-9755151.83 5135490.66 181.38
-9755151.53 5135493.31 181.36
-9755150.63 5135490.60 181.38
-9755146.51 5135492.95 181.34
-9755173.48 5135475.63 182.33
-9755173.14 5135475.02 181.23
-9755173.10 5135475.64 182.34
-9755173.39 5135481.59 181.46
-9755172.94 5135475.07 182.33
-9755173.13 5135475.93 182.35
-9755173.14 5135474.16 182.30
-9755173.41 5135474.85 181.23
-9755172.93 5135476.78 182.37
-9755172.79 5135483.02 181.47
-9755167.24 5135483.34 181.46
-9755165.41 5135480.05 181.45
-9755172.88 5135476.47 182.37
-9755164.61 5135475.32 181.46
-9755164.04 5135478.00 181.47
-9755165.78 5135475.61 181.45
-9755171.34 5135481.25 181.45
-9755172.60 5135474.77 182.32
-9755167.86 5135475.33 181.35
-9755168.69 5135479.77 181.43
-9755164.60 5135479.47 181.46
-9755167.25 5135473.83 181.38
-9755171.17 5135475.22 182.31
-9755172.83 5135483.67 181.46
-9755172.17 5135474.27 181.49
-9755172.85 5135481.89 181.43
-9755168.16 5135479.78 181.44
-9755169.01 5135475.65 181.30
-9755167.78 5135483.90 181.45
-9755171.08 5135477.11 181.30
-9755171.34 5135479.46 181.41
-9755166.30 5135483.33 181.46
-9755170.49 5135479.50 181.39
-9755165.20 5135477.39 181.46
-9755169.83 5135479.45 181.40
-9755167.24 5135479.47 181.43
-9755164.84 5135478.89 181.46
-9755172.31 5135476.47 181.83
-9755169.85 5135482.18 181.45
-9755164.84 5135481.51 181.45
-9755163.96 5135483.26 181.45
-9755167.78 5135481.26 181.44
-9755166.93 5135473.54 181.38
-9755167.84 5135478.06 181.41
-9755171.79 5135474.14 182.33
-9755166.92 5135475.62 181.41
-9755172.29 5135475.56 182.34
-9755164.55 5135480.60 181.45
-9755170.80 5135480.12 181.42
-9755167.89 5135474.78 181.34
-9755165.70 5135483.30 181.45
-9755167.48 5135480.99 181.45
-9755172.53 5135480.72 181.44
-9755169.83 5135481.24 181.45
-9755172.22 5135475.85 181.58
-9755171.39 5135477.74 181.33
-9755171.76 5135474.99 182.29
-9755167.80 5135479.18 181.42
-9755171.93 5135480.69 181.44
-9755171.35 5135474.44 182.09
-9755171.90 5135481.87 181.45
-9755168.69 5135482.99 181.46
-9755169.28 5135479.21 181.40
-9755165.20 5135474.40 181.44
-9755169.56 5135483.63 181.46
-9755164.00 5135479.12 181.46
-9755172.22 5135483.63 181.47
-9755171.04 5135478.63 181.37
-9755171.30 5135482.75 181.46
-9755166.34 5135477.09 181.46
-9755167.17 5135484.24 181.45
-9755171.11 5135474.78 181.23
-9755169.63 5135473.59 181.25
-9755165.41 5135481.26 181.45
-9755172.93 5135474.62 181.49
-9755165.76 5135476.79 181.46
-9755163.69 5135483.02 181.45
-9755172.01 5135473.29 181.24
-9755165.76 5135478.87 181.46
-9755171.07 5135483.05 181.46
-9755171.93 5135479.78 181.42
-9755166.32 5135478.61 181.47
-9755169.60 5135474.77 181.26
-9755163.97 5135484.16 181.45
-9755167.27 5135476.20 181.41
-9755164.59 5135478.58 181.46
-9755166.87 5135483.02 181.46
-9755171.98 5135477.44 181.33
-9755171.98 5135475.62 182.30
-9755164.82 5135481.82 181.45
-9755168.73 5135480.96 181.44
-9755167.27 5135474.74 181.39
-9755169.00 5135476.51 181.33
-9755168.41 5135475.88 181.35
-9755173.62 5135489.58 181.49
-9755168.12 5135484.80 181.46
-9755169.28 5135484.19 181.46
-9755172.73 5135489.61 181.48
-9755165.68 5135487.46 181.43
-9755171.89 5135488.68 181.48
-9755169.55 5135489.53 181.46
-9755170.13 5135484.19 181.46
-9755170.72 5135484.21 181.47
-9755165.72 5135490.15 181.43
-9755172.21 5135485.71 181.48
-9755167.19 5135486.85 181.44
-9755164.79 5135485.06 181.45
-9755165.14 5135485.67 181.44
-9755167.45 5135488.92 181.46
-9755166.24 5135489.84 181.44
-9755171.27 5135486.93 181.47
-9755167.15 5135488.91 181.45
-9755168.62 5135490.42 181.45
-9755164.81 5135489.47 181.43
-9755163.94 5135485.67 181.44
-9755171.31 5135485.42 181.48
-9755169.82 5135485.15 181.47
-9755171.88 5135487.79 181.49
-9755168.04 5135490.17 181.44
-9755168.95 5135490.14 181.46
-9755170.11 5135488.08 181.47
-9755171.03 5135489.81 181.47
-9755165.43 5135485.09 181.44
-9755171.67 5135484.23 181.45
-9755167.73 5135488.35 181.46
-9755168.34 5135486.29 181.46
-9755163.72 5135477.38 181.46
-9755163.11 5135474.99 181.48
-9755160.48 5135476.78 181.46
-9755161.63 5135473.49 181.47
-9755162.74 5135483.35 181.44
-9755163.71 5135478.87 181.46
-9755163.11 5135481.84 181.45
-9755160.44 5135478.23 181.45
-9755163.73 5135474.71 181.45
-9755163.12 5135481.51 181.46
-9755159.88 5135476.43 181.46
-9755162.16 5135483.89 181.44
-9755161.06 5135482.37 181.46
-9755159.55 5135480.62 181.44
-9755159.22 5135480.61 181.44
-9755161.65 5135476.76 181.46
-9755160.43 5135482.98 181.43
-9755159.24 5135482.42 181.44
-9755163.10 5135483.57 181.45
-9755160.69 5135484.18 181.43
-9755160.74 5135482.96 181.44
-9755160.73 5135477.67 181.45
-9755163.10 5135474.67 181.47
-9755159.57 5135477.36 181.44
-9755160.42 5135481.20 181.44
-9755161.64 5135475.00 181.47
-9755160.71 5135483.86 181.44
-9755161.69 5135479.79 181.44
-9755159.54 5135479.39 181.44
-9755162.23 5135477.08 181.45
-9755159.53 5135483.55 181.43
-9755163.12 5135479.42 181.47
-9755160.15 5135477.66 181.44
-9755162.19 5135480.63 181.45
-9755159.86 5135479.68 181.44
-9755159.61 5135475.30 181.46
-9755159.92 5135473.76 181.46
-9755159.60 5135474.70 181.46
-9755161.08 5135478.22 181.46
-9755155.70 5135483.02 181.41
-9755157.88 5135473.43 181.44
-9755156.06 5135474.08 181.43
-9755156.31 5135480.02 181.43
-9755155.75 5135473.48 181.44
-9755157.20 5135475.01 181.43
-9755156.29 5135483.28 181.40
-9755158.41 5135474.08 181.45
-9755158.11 5135481.20 181.43
-9755157.17 5135483.55 181.41
-9755156.07 5135474.99 181.43
-9755158.66 5135482.97 181.43
-9755157.48 5135476.14 181.43
-9755157.19 5135480.32 181.43
-9755157.46 5135482.96 181.41
-9755156.64 5135473.84 181.45
-9755159.04 5135473.22 181.47
-9755156.58 5135483.59 181.40
-9755158.43 5135474.98 181.44
-9755158.95 5135480.26 181.44
-9755157.53 5135475.59 181.44
-9755158.67 5135473.52 181.47
-9755157.76 5135479.97 181.42
-9755155.72 5135481.21 181.43
-9755157.52 5135481.21 181.43
-9755156.60 5135476.51 181.44
-9755156.66 5135473.45 181.44
-9755163.59 5135489.80 181.42
-9755160.40 5135484.13 181.44
-9755161.28 5135490.06 181.41
-9755161.57 5135489.48 181.40
-9755160.75 5135488.93 181.40
-9755161.59 5135486.56 181.43
-9755161.61 5135484.14 181.44
-9755161.29 5135485.33 181.43
-9755163.07 5135485.08 181.44
-9755161.57 5135484.77 181.42
-9755159.23 5135486.57 181.40
-9755163.05 5135488.03 181.41
-9755158.95 5135486.25 181.41
-9755155.99 5135484.14 181.40
-9755155.69 5135489.76 181.39
-9755157.50 5135485.67 181.41
-9755158.34 5135488.33 181.39
-9755158.94 5135485.33 181.41
-9755157.76 5135486.27 181.40
-9755158.05 5135485.03 181.41
-9755155.68 5135488.86 181.39
-9755158.07 5135484.75 181.41
-9755157.45 5135488.03 181.40
-9755158.96 5135487.12 181.41
-9755157.74 5135488.88 181.40
-9755158.31 5135486.52 181.41
-9755156.87 5135485.64 181.41
-9755156.56 5135487.70 181.39
-9755155.96 5135487.38 181.40
-9755156.61 5135486.81 181.41
-9755156.27 5135489.16 181.39
-9755158.35 5135484.16 181.42
-9755147.37 5135490.36 181.36
-9755150.72 5135474.65 181.39
-9755154.56 5135474.95 181.43
-9755150.40 5135481.74 181.41
-9755152.49 5135476.41 181.40
-9755147.47 5135475.51 181.37
-9755151.64 5135479.68 181.39
-9755146.87 5135477.27 181.38
-9755147.53 5135472.83 181.38
-9755154.52 5135481.79 181.40
-9755148.91 5135482.05 181.39
-9755154.22 5135483.54 181.40
-9755148.97 5135474.07 181.39
-9755146.89 5135473.42 181.37
-9755147.80 5135478.46 181.41
-9755148.94 5135479.07 181.41
-9755152.50 5135479.08 181.40
-9755152.51 5135473.17 181.41
-9755153.97 5135475.25 181.41
-9755156.05 5135478.55 181.42
-9755149.82 5135481.77 181.40
-9755150.41 5135482.64 181.40
-9755151.29 5135483.23 181.40
-9755148.29 5135478.20 181.40
-9755148.97 5135477.05 181.39
-9755147.49 5135478.23 181.40
-9755150.76 5135474.12 181.40
-9755149.86 5135479.67 181.40
-9755154.02 5135474.66 181.41
-9755146.34 5135476.69 181.37
-9755148.95 5135473.11 181.39
-9755152.45 5135479.99 181.40
-9755148.96 5135477.91 181.40
-9755148.03 5135479.91 181.41
-9755148.30 5135481.46 181.40
-9755154.01 5135477.34 181.41
-9755148.98 5135474.64 181.38
-9755146.58 5135479.37 181.38
-9755153.05 5135481.77 181.41
-9755146.59 5135480.28 181.40
-9755150.44 5135478.50 181.40
-9755155.44 5135481.75 181.41
-9755149.49 5135483.83 181.40
-9755153.97 5135481.74 181.40
-9755148.94 5135475.80 181.39
-9755150.69 5135482.39 181.39
-9755154.51 5135480.56 181.41
-9755154.85 5135478.48 181.43
-9755148.94 5135479.38 181.40
-9755153.35 5135484.12 181.39
-9755154.90 5135477.03 181.43
-9755153.99 5135473.18 181.43
-9755153.00 5135481.47 181.41
-9755147.48 5135479.35 181.42
-9755150.45 5135476.12 181.39
-9755150.46 5135473.17 181.40
-9755152.17 5135483.50 181.40
-9755147.68 5135490.58 181.37
-9755152.18 5135487.35 181.38
-9755154.80 5135488.27 181.39
-9755149.16 5135489.75 181.37
-9755147.48 5135484.73 181.38
-9755149.75 5135487.06 181.38
-9755154.75 5135490.36 181.36
-9755147.99 5135487.33 181.38
-9755153.31 5135488.27 181.39
-9755154.21 5135490.39 181.38
-9755154.53 5135487.39 181.41
-9755147.73 5135486.73 181.38
-9755153.64 5135487.41 181.39
-9755149.78 5135485.03 181.38
-9755151.57 5135489.14 181.39
-9755148.03 5135489.73 181.37
-9755152.44 5135485.56 181.39
-9755149.77 5135486.25 181.38
-9755153.91 5135487.06 181.38
-9755149.79 5135485.28 181.39
-9755153.00 5135486.48 181.39
-9755152.11 5135489.71 181.39
-9755147.72 5135487.97 181.38
-9755151.27 5135489.77 181.37
-9755152.17 5135484.73 181.39
-9755147.43 5135485.85 181.39
-9755153.94 5135484.98 181.40
-9755151.27 5135488.28 181.38
-9755149.77 5135488.21 181.37
-9755147.99 5135488.24 181.38
-9755154.83 5135484.75 181.39
-9755151.54 5135489.78 181.37
-9755152.69 5135488.25 181.37
-9755146.48 5135494.47 181.34
-9755146.52 5135492.65 181.34
-9755145.61 5135494.16 181.33
-9755138.33 5135495.10 191.96
-9755137.47 5135497.10 191.98
-9755143.24 5135496.56 181.32
-9755138.63 5135495.81 191.71
-9755138.11 5135496.20 191.97
-9755141.80 5135497.40 182.90
