-9755152.21 5135565.23 181.31
-9755145.70 5135561.50 189.47
-9755147.62 5135566.29 189.01
-9755147.73 5135565.52 186.21
-9755154.10 5135565.59 186.13
-9755146.09 5135558.27 186.08
-9755145.87 5135565.68 188.21
-9755148.80 5135564.65 186.46
-9755154.70 5135565.26 186.73
-9755152.93 5135557.54 181.32
-9755147.52 5135566.15 181.30
-9755155.19 5135563.23 186.17
-9755152.61 5135556.36 181.32
-9755147.35 5135557.46 181.32
-9755154.06 5135558.50 181.32
-9755146.43 5135560.15 181.31
-9755146.31 5135560.96 189.92
-9755152.54 5135561.14 181.30
-9755154.64 5135563.77 181.34
-9755146.76 5135555.49 185.73
-9755147.92 5135565.05 186.35
-9755146.41 5135555.23 185.82
-9755149.30 5135564.65 181.31
-9755146.65 5135565.77 181.31
-9755154.05 5135557.62 181.31
-9755148.73 5135562.32 181.33
-9755150.57 5135563.22 181.31
-9755145.78 5135562.25 181.35
-9755147.65 5135562.54 188.06
-9755151.45 5135557.52 181.31
-9755154.90 5135565.03 186.73
-9755149.59 5135564.30 181.31
-9755148.53 5135565.57 186.04
-9755154.04 5135565.59 181.31
-9755146.84 5135564.94 189.64
-9755146.17 5135555.56 185.91
-9755155.52 5135562.03 181.30
-9755148.49 5135565.52 187.89
-9755155.21 5135564.47 185.91
-9755145.78 5135559.05 181.34
-9755146.75 5135565.76 188.05
-9755149.03 5135565.11 189.77
-9755153.43 5135564.68 181.32
-9755149.97 5135562.61 181.33
-9755154.69 5135564.09 186.92
-9755146.77 5135556.38 185.50
-9755146.42 5135562.18 181.35
-9755149.10 5135565.10 186.57
-9755148.47 5135560.18 181.33
-9755148.12 5135565.92 186.42
-9755147.82 5135565.17 189.10
-9755145.52 5135562.32 181.34
-9755150.24 5135563.15 181.31
-9755147.89 5135560.81 181.32
-9755145.84 5135555.79 185.95
-9755151.05 5135563.22 181.30
-9755147.22 5135565.83 181.31
-9755154.98 5135560.52 181.30
-9755146.63 5135556.48 184.72
-9755151.69 5135562.86 181.31
-9755154.91 5135564.99 181.32
-9755148.47 5135558.16 181.33
-9755145.72 5135564.31 181.32
-9755149.32 5135562.25 181.32
-9755149.94 5135560.76 181.33
-9755147.66 5135565.97 188.86
-9755148.73 5135563.20 181.33
-9755150.82 5135560.24 181.32
-9755150.46 5135564.93 181.30
-9755154.57 5135564.24 186.62
-9755152.03 5135557.58 181.31
-9755145.93 5135555.89 186.39
-9755152.85 5135561.46 181.31
-9755151.38 5135559.05 181.30
-9755153.76 5135557.88 181.31
-9755150.87 5135555.18 181.33
-9755146.48 5135560.31 189.87
-9755147.57 5135561.35 181.34
-9755145.54 5135562.20 188.14
-9755153.24 5135556.95 181.31
-9755145.74 5135564.59 181.32
-9755146.31 5135564.04 188.17
-9755147.28 5135562.29 187.90
-9755150.81 5135561.68 181.32
-9755145.96 5135564.04 188.75
-9755154.73 5135563.29 186.32
-9755146.15 5135563.02 189.87
-9755148.70 5135565.55 181.31
-9755145.85 5135560.02 189.85
-9755146.45 5135564.56 189.92
-9755148.76 5135558.13 181.31
-9755145.81 5135564.97 190.29
-9755154.97 5135564.20 185.86
-9755147.31 5135557.29 181.32
-9755154.75 5135555.26 181.31
-9755145.56 5135566.30 189.84
-9755154.67 5135564.37 187.73
-9755151.41 5135560.53 181.32
-9755149.56 5135564.99 186.48
-9755146.53 5135554.41 184.54
-9755146.75 5135563.47 181.32
-9755145.55 5135563.88 189.03
-9755147.23 5135563.62 189.07
-9755146.82 5135565.12 188.82
-9755147.87 5135566.15 186.54
-9755145.86 5135556.62 186.62
-9755148.79 5135556.66 181.32
-9755151.13 5135557.24 181.31
-9755154.91 5135563.08 186.26
-9755154.20 5135564.75 186.94
-9755153.46 5135560.54 181.31
-9755145.88 5135561.20 190.47
-9755149.12 5135556.97 181.33
-9755147.26 5135565.32 186.13
-9755146.14 5135559.74 189.82
-9755154.36 5135555.80 181.31
-9755148.46 5135563.80 181.33
-9755147.80 5135565.82 181.30
-9755145.87 5135563.70 188.67
-9755153.71 5135562.32 181.31
-9755148.81 5135556.34 181.32
-9755145.84 5135557.82 181.35
-9755150.22 5135555.74 181.34
-9755154.04 5135559.95 181.32
-9755145.91 5135565.41 188.17
-9755147.65 5135562.26 181.34
-9755148.17 5135555.74 181.34
-9755152.65 5135554.89 181.33
-9755146.73 5135563.70 189.09
-9755146.34 5135566.15 181.31
-9755148.12 5135563.24 188.36
-9755152.57 5135562.03 181.30
-9755145.87 5135560.25 189.88
-9755145.82 5135563.76 187.53
-9755148.59 5135565.79 188.82
-9755148.13 5135566.06 181.29
-9755154.90 5135567.00 181.31
-9755145.86 5135566.98 189.18
-9755154.32 5135567.05 181.31
-9755145.87 5135566.66 188.20
-9755147.94 5135567.12 189.35
-9755145.73 5135567.35 190.64
-9755147.95 5135566.47 186.62
-9755148.12 5135566.96 181.29
-9755147.05 5135567.16 190.07
-9755145.60 5135566.96 189.83
-9755147.07 5135566.61 190.77
-9755147.24 5135566.57 188.41
-9755148.49 5135566.66 188.85
-9755146.75 5135566.57 189.00
-9755146.34 5135566.62 188.76
-9755146.67 5135566.89 181.28
-9755146.31 5135566.67 189.59
-9755146.66 5135566.38 188.67
-9755153.14 5135566.73 181.30
-9755145.62 5135567.81 189.21
-9755145.06 5135568.29 189.91
-9755145.25 5135567.44 189.77
-9755145.10 5135572.34 181.25
-9755145.46 5135573.58 181.26
-9755145.59 5135568.75 188.39
-9755145.12 5135569.72 186.76
-9755145.31 5135567.20 188.79
-9755143.74 5135567.41 190.21
-9755142.15 5135569.62 181.50
-9755139.82 5135567.38 186.57
-9755137.19 5135567.30 186.13
-9755144.34 5135569.02 188.36
-9755135.97 5135572.31 181.34
-9755139.33 5135569.43 185.97
-9755144.32 5135569.47 188.45
-9755141.81 5135569.65 184.88
-9755139.32 5135567.65 186.03
-9755144.92 5135569.23 186.00
-9755142.22 5135570.44 187.72
-9755141.72 5135570.29 184.82
-9755142.25 5135568.14 181.47
-9755139.83 5135574.66 181.44
-9755142.71 5135568.31 189.36
-9755141.48 5135567.32 187.05
-9755144.03 5135567.54 189.37
-9755142.48 5135569.62 181.48
-9755144.28 5135571.40 181.32
-9755143.11 5135570.69 184.48
-9755140.79 5135571.11 187.62
-9755144.56 5135568.11 188.32
-9755144.08 5135567.87 188.17
-9755142.70 5135570.65 184.72
-9755144.61 5135568.32 189.68
-9755144.83 5135572.62 181.26
-9755140.19 5135567.84 186.32
-9755142.57 5135567.73 188.94
-9755141.41 5135567.88 188.53
-9755143.83 5135568.10 190.08
-9755143.42 5135567.92 186.34
-9755137.51 5135569.63 181.35
-9755143.48 5135570.36 185.63
-9755140.32 5135568.17 186.80
-9755142.35 5135569.62 186.11
-9755136.61 5135569.05 181.36
-9755140.72 5135574.09 181.48
-9755141.87 5135569.07 188.20
-9755140.76 5135567.81 189.41
-9755140.41 5135569.74 185.53
-9755138.20 5135567.54 186.47
-9755137.21 5135568.88 186.14
-9755140.10 5135569.07 181.47
-9755138.63 5135569.06 186.06
-9755139.42 5135569.50 188.84
-9755136.48 5135567.58 185.90
-9755142.35 5135569.82 184.75
-9755142.53 5135568.31 189.96
-9755136.99 5135568.18 186.29
-9755140.02 5135568.22 186.42
-9755144.91 5135571.79 181.26
-9755140.56 5135567.77 188.59
-9755143.13 5135568.23 181.44
-9755136.62 5135568.41 181.35
-9755140.43 5135572.03 181.44
-9755143.97 5135574.97 181.42
-9755140.71 5135573.20 181.44
-9755136.64 5135567.33 187.19
-9755141.66 5135569.04 187.38
-9755143.19 5135569.40 190.09
-9755139.99 5135569.32 188.83
-9755137.17 5135574.66 181.34
-9755143.38 5135570.49 184.58
-9755144.47 5135567.39 186.63
-9755140.75 5135570.82 181.48
-9755144.07 5135569.47 185.86
-9755139.64 5135568.70 188.88
-9755144.71 5135568.99 188.53
-9755141.09 5135569.37 187.88
-9755139.53 5135573.77 181.42
-9755141.12 5135568.24 189.07
-9755141.70 5135567.59 181.47
-9755143.79 5135567.93 186.43
-9755142.58 5135568.95 187.49
-9755137.23 5135570.52 181.34
-9755137.50 5135567.19 186.51
-9755144.62 5135567.10 189.97
-9755139.55 5135570.37 185.76
-9755144.79 5135573.85 181.26
-9755141.46 5135567.89 190.59
-9755140.76 5135567.50 188.37
-9755141.30 5135567.99 186.92
-9755142.22 5135567.73 190.03
-9755137.82 5135569.04 181.36
-9755139.24 5135568.99 188.94
-9755139.34 5135569.43 185.48
-9755143.16 5135572.48 184.31
-9755141.05 5135570.90 187.50
-9755136.88 5135574.28 181.34
-9755141.01 5135568.10 186.92
-9755144.42 5135569.27 189.00
-9755143.96 5135573.19 181.43
-9755141.32 5135568.07 188.54
-9755143.09 5135567.27 181.40
-9755140.47 5135570.77 183.94
-9755137.65 5135567.22 186.66
-9755144.05 5135567.84 190.74
-9755139.33 5135569.07 185.64
-9755144.00 5135568.66 190.41
-9755140.26 5135567.43 189.09
-9755141.65 5135569.29 181.51
-9755142.56 5135567.60 181.42
-9755141.90 5135567.31 187.38
-9755143.36 5135568.66 189.91
-9755142.52 5135572.29 181.48
-9755140.10 5135573.79 181.44
-9755143.14 5135569.34 185.69
-9755136.93 5135567.28 186.70
-9755140.73 5135569.37 181.48
-9755141.07 5135569.93 181.51
-9755142.33 5135571.62 183.99
-9755139.05 5135567.89 181.36
-9755142.24 5135568.74 181.51
-9755143.54 5135567.44 189.17
-9755142.60 5135568.42 190.41
-9755143.23 5135570.43 184.72
-9755144.01 5135569.61 188.98
-9755142.74 5135571.96 184.12
-9755139.86 5135568.46 181.44
-9755140.72 5135572.43 183.90
-9755141.22 5135568.91 188.88
-9755136.32 5135573.17 181.33
-9755144.84 5135569.87 189.27
-9755137.17 5135567.85 186.16
-9755140.71 5135568.15 181.46
-9755142.64 5135567.47 185.21
-9755139.90 5135568.58 185.67
-9755143.99 5135568.22 181.41
-9755142.00 5135567.87 187.46
-9755143.13 5135567.80 189.72
-9755141.70 5135567.83 181.47
-9755144.49 5135569.70 185.88
-9755137.74 5135567.43 189.22
-9755142.52 5135571.78 184.79
-9755139.59 5135567.39 186.10
-9755138.35 5135574.35 181.34
-9755141.66 5135569.78 184.86
-9755142.58 5135570.73 184.49
-9755140.72 5135572.61 181.46
-9755139.30 5135567.83 181.42
-9755137.74 5135567.35 181.38
-9755140.79 5135573.04 183.90
-9755136.09 5135567.92 186.40
-9755140.79 5135567.54 186.98
-9755138.98 5135570.83 185.68
-9755142.49 5135572.63 181.49
-9755139.25 5135569.58 181.39
-9755141.37 5135568.14 187.14
-9755140.76 5135568.79 188.67
-9755136.88 5135575.28 181.32
-9755143.96 5135571.70 181.42
-9755136.90 5135568.77 181.34
-9755140.14 5135569.01 185.83
-9755142.17 5135574.68 181.49
-9755143.43 5135567.37 189.97
-9755139.02 5135568.73 185.47
-9755136.91 5135568.22 186.75
-9755143.98 5135571.56 184.19
-9755142.23 5135568.62 189.91
-9755143.40 5135571.35 184.41
-9755142.32 5135567.77 187.44
-9755136.57 5135568.21 186.00
-9755139.60 5135568.04 188.83
-9755143.38 5135569.44 185.72
-9755139.20 5135574.64 181.33
-9755142.33 5135568.20 187.51
-9755140.82 5135567.36 186.97
-9755138.78 5135567.35 186.90
-9755140.79 5135571.57 183.52
-9755137.42 5135571.67 181.34
-9755134.24 5135574.02 181.35
-9755135.97 5135574.61 181.34
-9755135.13 5135567.44 181.33
-9755134.29 5135570.46 181.34
-9755134.83 5135571.94 181.34
-9755134.53 5135573.77 181.34
-9755134.88 5135567.89 181.35
-9755134.27 5135568.08 181.34
-9755134.48 5135569.60 181.35
-9755135.15 5135569.33 181.35
-9755135.71 5135574.10 181.34
-9755134.87 5135570.81 181.35
-9755135.18 5135568.43 181.37
-9755145.67 5135556.67 186.02
-9755145.25 5135563.30 188.10
-9755145.56 5135556.73 186.41
-9755145.55 5135559.72 185.44
-9755145.55 5135563.18 188.42
-9755145.47 5135561.37 181.35
-9755145.56 5135565.01 186.12
-9755144.93 5135559.62 181.39
-9755145.71 5135561.30 190.89
-9755145.10 5135555.54 185.72
-9755145.28 5135562.94 187.71
-9755145.32 5135555.43 185.20
-9755145.57 5135566.57 188.14
-9755145.61 5135554.52 186.60
-9755145.55 5135559.91 189.81
-9755145.25 5135556.60 185.72
-9755144.96 5135565.93 190.34
-9755145.11 5135554.65 184.86
-9755145.57 5135557.63 186.22
-9755145.19 5135561.99 181.36
-9755144.98 5135560.61 190.65
-9755145.29 5135561.88 190.67
-9755145.04 5135561.68 189.53
-9755145.31 5135563.01 191.06
-9755145.57 5135556.80 184.96
-9755145.35 5135555.56 185.98
-9755145.02 5135554.41 185.65
-9755145.25 5135563.13 188.45
-9755145.00 5135555.76 185.76
-9755144.97 5135562.89 188.16
-9755145.00 5135562.68 190.40
-9755145.43 5135558.42 185.24
-9755145.16 5135561.66 188.35
-9755140.69 5135567.21 186.45
-9755143.21 5135566.85 190.27
-9755140.53 5135558.28 186.76
-9755144.05 5135556.36 186.69
-9755143.99 5135562.88 190.88
-9755142.49 5135557.50 186.85
-9755142.57 5135562.60 181.68
-9755144.33 5135564.52 189.97
-9755140.03 5135557.51 186.81
-9755143.21 5135565.71 189.98
-9755141.70 5135560.94 189.97
-9755139.42 5135565.02 186.33
-9755140.79 5135559.18 188.06
-9755144.91 5135560.73 188.44
-9755140.65 5135556.05 186.92
-9755144.14 5135560.91 188.42
-9755139.32 5135558.11 187.37
-9755141.74 5135560.75 189.26
-9755140.93 5135555.85 184.41
-9755142.72 5135555.06 185.13
-9755140.56 5135558.75 187.10
-9755143.49 5135557.29 186.85
-9755143.21 5135555.56 185.29
-9755144.37 5135562.21 189.10
-9755142.60 5135561.94 188.78
-9755142.35 5135558.45 187.18
-9755140.56 5135559.25 187.55
-9755143.02 5135560.06 189.99
-9755139.68 5135555.81 184.09
-9755140.30 5135555.88 183.99
-9755142.28 5135558.27 187.94
-9755137.53 5135557.54 186.88
-9755137.83 5135564.23 188.20
-9755142.29 5135559.64 186.87
-9755139.70 5135559.25 186.51
-9755144.64 5135555.72 181.52
-9755137.38 5135561.96 187.03
-9755143.54 5135561.34 189.28
-9755140.30 5135560.77 187.93
-9755143.93 5135566.24 190.95
-9755142.60 5135558.95 187.51
-9755138.44 5135563.02 189.00
-9755142.25 5135562.25 181.68
-9755143.60 5135558.92 187.56
-9755141.79 5135566.23 189.59
-9755142.64 5135565.80 190.43
-9755139.12 5135564.84 188.86
-9755137.64 5135561.50 186.49
-9755143.59 5135563.07 189.66
-9755141.45 5135565.96 190.58
-9755137.28 5135561.06 185.58
-9755142.31 5135561.34 187.82
-9755143.97 5135562.48 189.69
-9755139.36 5135561.41 186.17
-9755143.52 5135565.88 189.88
-9755136.96 5135565.06 188.45
-9755140.10 5135558.41 187.35
-9755139.29 5135558.81 187.02
-9755143.00 5135556.58 186.03
-9755138.96 5135565.11 188.10
-9755141.68 5135562.86 185.59
-9755143.28 5135558.78 185.55
-9755141.31 5135559.90 188.05
-9755142.93 5135561.88 188.53
-9755138.72 5135564.90 189.38
-9755140.97 5135559.77 187.67
-9755139.37 5135555.90 184.14
-9755142.57 5135565.20 188.61
-9755142.35 5135564.14 190.16
-9755138.81 5135558.29 187.35
-9755138.49 5135561.05 189.23
-9755143.24 5135559.18 188.98
-9755139.44 5135556.87 187.69
-9755143.02 5135557.02 185.58
-9755144.39 5135555.88 185.76
-9755136.02 5135565.10 189.21
-9755144.92 5135554.41 185.31
-9755139.05 5135562.05 189.91
-9755139.71 5135560.89 189.73
-9755139.01 5135558.95 181.34
-9755143.27 5135557.93 186.90
-9755140.27 5135559.26 187.61
-9755139.33 5135557.47 187.00
-9755142.53 5135564.53 189.20
-9755143.25 5135555.24 186.73
-9755144.86 5135558.16 185.35
-9755143.07 5135557.18 188.88
-9755141.16 5135563.83 190.24
-9755144.67 5135556.36 181.53
-9755143.44 5135562.07 189.50
-9755144.71 5135558.08 186.53
-9755136.37 5135563.44 188.50
-9755143.50 5135562.17 189.93
-9755142.29 5135556.28 185.89
-9755140.59 5135565.71 189.43
-9755136.07 5135564.26 187.99
-9755144.45 5135561.39 190.98
-9755137.84 5135565.72 187.34
-9755141.16 5135557.21 181.71
-9755143.50 5135562.95 189.47
-9755144.41 5135557.11 185.47
-9755140.53 5135563.01 189.79
-9755138.42 5135562.43 189.58
-9755144.02 5135563.26 190.62
-9755140.63 5135555.89 184.09
-9755144.04 5135562.14 188.64
-9755142.65 5135566.28 189.52
-9755142.91 5135561.64 188.07
-9755142.94 5135563.26 191.23
-9755144.87 5135555.17 186.98
-9755136.95 5135562.02 185.15
-9755141.46 5135557.46 181.57
-9755139.47 5135565.61 186.04
-9755142.65 5135556.69 185.74
-9755140.01 5135557.49 187.69
-9755137.32 5135563.02 188.93
-9755144.19 5135554.97 185.55
-9755142.56 5135557.51 181.66
-9755139.34 5135562.88 187.54
-9755139.39 5135555.67 183.53
-9755137.86 5135560.82 185.50
-9755144.73 5135563.65 188.35
-9755136.93 5135558.96 181.33
-9755142.60 5135563.04 181.70
-9755140.32 5135559.72 187.61
-9755144.35 5135559.21 188.10
-9755144.40 5135561.35 189.67
-9755143.48 5135555.40 186.34
-9755143.00 5135565.45 189.69
-9755136.02 5135562.31 187.65
-9755144.51 5135558.92 187.32
-9755136.93 5135562.64 187.42
-9755140.28 5135565.03 188.32
-9755142.32 5135563.22 188.42
-9755142.28 5135556.31 181.61
-9755140.80 5135562.85 187.60
-9755136.69 5135560.38 181.35
-9755140.27 5135558.09 186.77
-9755142.92 5135559.16 189.58
-9755143.15 5135556.21 186.30
-9755136.82 5135562.86 188.50
-9755142.20 5135562.93 185.44
-9755144.43 5135556.60 187.97
-9755138.17 5135560.57 185.51
-9755140.42 5135556.46 184.01
-9755144.34 5135556.50 185.61
-9755140.12 5135557.01 186.91
-9755143.95 5135560.74 190.95
-9755142.30 5135559.30 186.98
-9755139.04 5135560.10 181.36
-9755139.66 5135562.23 187.36
-9755136.06 5135561.60 181.35
-9755137.60 5135564.50 188.21
-9755143.60 5135554.92 184.97
-9755138.26 5135560.83 188.96
-9755144.37 5135562.13 190.50
-9755141.70 5135556.60 186.69
-9755143.21 5135556.49 185.43
-9755143.14 5135557.42 181.50
-9755139.99 5135562.42 188.28
-9755142.35 5135557.88 187.69
-9755140.87 5135564.80 188.97
-9755142.19 5135558.66 186.88
-9755139.02 5135558.32 181.33
-9755144.04 5135556.62 181.53
-9755141.44 5135561.27 189.86
-9755138.83 5135564.03 189.63
-9755142.67 5135562.36 189.91
-9755136.79 5135562.33 186.53
-9755139.29 5135558.80 186.28
-9755141.74 5135564.55 187.90
-9755142.31 5135558.09 181.51
-9755140.03 5135554.99 183.95
-9755141.71 5135557.48 181.57
-9755143.53 5135560.06 189.36
-9755139.76 5135563.99 188.64
-9755137.27 5135562.21 186.45
-9755140.25 5135564.13 187.80
-9755140.49 5135555.04 184.01
-9755138.94 5135564.47 189.67
-9755142.27 5135555.40 186.27
-9755142.35 5135565.47 188.23
-9755139.02 5135565.49 187.71
-9755143.02 5135560.13 188.83
-9755144.01 5135556.20 187.47
-9755139.06 5135559.01 186.16
-9755142.29 5135560.94 184.11
-9755138.67 5135562.47 187.41
-9755139.11 5135562.89 187.57
-9755140.90 5135561.60 187.46
-9755143.85 5135554.96 185.11
-9755136.07 5135558.32 181.34
-9755142.64 5135556.92 188.62
-9755139.81 5135562.38 186.67
-9755144.44 5135563.56 188.28
-9755136.33 5135563.94 185.91
-9755142.96 5135563.65 188.96
-9755138.47 5135562.54 187.54
-9755142.86 5135559.75 184.84
-9755143.38 5135557.24 185.56
-9755140.72 5135562.47 189.88
-9755142.65 5135564.21 189.75
-9755136.01 5135564.61 181.37
-9755137.65 5135562.80 188.83
-9755139.02 5135563.08 186.50
-9755142.14 5135563.26 184.28
-9755139.21 5135565.04 187.80
-9755143.43 5135565.12 189.02
-9755142.72 5135564.95 189.17
-9755143.96 5135559.73 187.77
-9755138.78 5135564.48 189.30
-9755137.19 5135562.93 186.56
-9755136.32 5135563.70 186.51
-9755136.98 5135561.44 186.52
-9755144.69 5135556.64 186.45
-9755144.86 5135562.30 181.34
-9755138.46 5135559.26 185.80
-9755144.32 5135562.25 189.82
-9755143.23 5135555.70 181.57
-9755139.01 5135555.39 181.34
-9755143.99 5135556.36 181.54
-9755143.55 5135555.70 187.29
-9755144.16 5135562.98 189.78
-9755144.36 5135557.15 188.80
-9755136.89 5135562.46 188.61
-9755138.09 5135561.73 186.96
-9755143.76 5135556.60 187.18
-9755137.12 5135563.74 188.96
-9755138.45 5135562.89 187.04
-9755142.23 5135559.45 189.81
-9755144.89 5135561.99 190.54
-9755144.04 5135560.34 191.19
-9755137.82 5135564.28 188.98
-9755138.76 5135560.80 181.34
-9755140.86 5135558.95 187.18
-9755143.46 5135560.58 190.22
-9755141.19 5135562.91 185.99
-9755144.80 5135561.57 189.27
-9755143.29 5135557.54 186.87
-9755144.52 5135563.73 181.33
-9755136.39 5135562.54 187.46
-9755137.52 5135557.17 181.31
-9755142.68 5135563.54 189.76
-9755142.66 5135555.06 181.70
-9755139.86 5135563.12 186.34
-9755139.38 5135564.26 188.05
-9755142.90 5135561.26 188.18
-9755138.71 5135564.16 188.67
-9755139.65 5135555.69 181.42
-9755143.00 5135558.69 186.82
-9755138.20 5135560.87 185.53
-9755141.54 5135558.69 187.09
-9755137.21 5135561.51 188.95
-9755142.97 5135554.63 184.99
-9755137.27 5135563.91 187.17
-9755143.81 5135555.54 185.32
-9755136.74 5135565.99 189.32
-9755137.06 5135561.40 189.65
-9755143.17 5135558.64 186.34
-9755142.51 5135559.96 186.86
-9755142.06 5135557.24 186.78
-9755143.46 5135565.54 181.51
-9755140.06 5135559.18 188.46
-9755140.84 5135561.25 189.63
-9755144.47 5135561.48 190.45
-9755137.02 5135561.61 186.61
-9755138.11 5135565.49 181.35
-9755139.26 5135560.02 186.68
-9755142.25 5135564.76 188.78
-9755143.70 5135556.32 186.39
-9755142.65 5135557.33 185.61
-9755142.52 5135561.34 181.57
-9755136.69 5135564.13 185.50
-9755142.94 5135557.65 187.70
-9755141.34 5135560.77 188.66
-9755141.95 5135560.74 181.53
-9755141.69 5135561.02 187.70
-9755139.63 5135559.81 181.45
-9755140.63 5135560.93 187.96
-9755143.41 5135557.30 189.18
-9755143.51 5135557.23 187.88
-9755139.11 5135560.68 190.43
-9755136.35 5135562.01 186.77
-9755140.33 5135557.20 187.17
-9755139.40 5135562.17 189.35
-9755144.05 5135559.80 185.93
-9755136.63 5135565.85 181.35
-9755138.51 5135566.00 189.08
-9755140.75 5135560.23 187.55
-9755142.58 5135558.83 186.98
-9755137.55 5135563.09 181.35
-9755136.67 5135557.17 181.33
-9755140.83 5135561.01 181.54
-9755140.67 5135562.95 188.74
-9755137.87 5135562.33 187.19
-9755143.45 5135560.93 190.64
-9755143.49 5135558.33 185.52
-9755142.70 5135566.15 190.47
-9755141.96 5135564.79 189.01
-9755140.48 5135559.74 187.55
-9755141.43 5135564.41 189.32
-9755136.13 5135560.46 185.87
-9755142.01 5135561.97 184.03
-9755139.29 5135561.72 186.62
-9755139.45 5135562.04 185.87
-9755137.27 5135564.92 181.38
-9755137.55 5135561.36 181.33
-9755144.33 5135557.76 181.50
-9755142.16 5135566.19 190.87
-9755145.05 5135555.19 181.49
-9755142.94 5135560.68 186.79
-9755141.69 5135562.16 181.66
-9755143.19 5135556.03 181.56
-9755144.21 5135558.42 185.39
-9755142.51 5135558.92 181.49
-9755143.92 5135556.37 185.10
-9755142.11 5135563.93 188.06
-9755140.56 5135563.96 187.52
-9755143.70 5135565.42 189.64
-9755143.31 5135554.69 185.29
-9755139.34 5135555.73 181.41
-9755141.97 5135558.68 186.81
-9755143.57 5135560.88 189.82
-9755140.11 5135559.56 186.50
-9755141.38 5135565.74 189.54
-9755140.70 5135566.05 186.87
-9755141.45 5135561.07 188.91
-9755139.31 5135558.45 188.20
-9755143.88 5135554.81 181.62
-9755143.11 5135554.94 184.70
-9755140.06 5135560.32 186.39
-9755144.05 5135558.08 181.51
-9755143.22 5135557.48 189.20
-9755137.24 5135563.95 186.85
-9755136.95 5135559.83 181.35
-9755143.08 5135563.00 189.49
-9755144.14 5135558.02 188.63
-9755144.04 5135557.47 187.71
-9755144.37 5135554.37 185.29
-9755142.58 5135562.18 187.73
-9755137.55 5135558.01 181.31
-9755136.12 5135564.02 186.30
-9755143.93 5135558.07 188.35
-9755142.68 5135559.89 184.84
-9755140.19 5135562.27 181.52
-9755140.27 5135565.67 189.49
-9755141.44 5135564.61 189.00
-9755139.50 5135557.18 184.32
-9755144.58 5135556.08 185.93
-9755144.64 5135560.74 181.39
-9755137.77 5135563.32 188.52
-9755142.03 5135555.68 181.63
-9755135.95 5135560.97 186.73
-9755142.58 5135561.94 189.84
-9755141.70 5135560.49 181.51
-9755142.67 5135562.50 190.29
-9755143.21 5135555.14 181.58
-9755138.50 5135555.73 181.32
-9755143.20 5135557.55 185.59
-9755141.73 5135562.02 185.93
-9755141.66 5135563.63 181.69
-9755142.60 5135560.03 190.25
-9755139.27 5135562.54 181.44
-9755137.31 5135558.37 181.34
-9755143.21 5135555.72 186.27
-9755144.29 5135554.94 185.14
-9755139.89 5135562.10 189.37
-9755138.76 5135556.81 187.13
-9755142.20 5135562.48 189.49
-9755144.66 5135554.56 186.13
-9755142.24 5135557.18 187.82
-9755138.40 5135565.64 188.93
-9755143.41 5135565.29 191.10
-9755137.56 5135562.18 181.34
-9755142.59 5135565.09 185.15
-9755138.23 5135560.04 185.57
-9755139.89 5135565.22 188.56
-9755140.54 5135560.45 187.27
-9755142.87 5135558.20 185.22
-9755143.58 5135554.84 185.00
-9755137.65 5135557.04 187.09
-9755142.59 5135561.82 189.35
-9755142.55 5135559.59 181.50
-9755139.26 5135565.35 188.53
-9755143.22 5135559.01 181.52
-9755144.09 5135556.65 185.52
-9755141.54 5135563.77 185.33
-9755139.49 5135563.85 188.27
-9755144.73 5135563.00 190.28
-9755142.70 5135554.40 184.63
-9755144.46 5135559.24 188.90
-9755141.35 5135555.13 181.66
-9755143.98 5135555.50 185.59
-9755142.34 5135562.28 186.70
-9755144.42 5135563.50 189.00
-9755136.44 5135564.61 188.09
-9755136.61 5135564.73 186.82
-9755142.53 5135563.27 189.87
-9755142.90 5135560.24 184.68
-9755142.98 5135565.25 188.33
-9755144.31 5135559.89 187.57
-9755137.35 5135565.96 188.92
-9755140.66 5135561.75 190.04
-9755136.02 5135565.62 189.15
-9755138.09 5135562.25 181.35
-9755141.75 5135558.56 187.80
-9755143.65 5135562.44 189.95
-9755142.25 5135565.78 187.79
-9755143.86 5135557.19 188.50
-9755143.49 5135563.08 190.91
-9755144.68 5135564.49 190.13
-9755144.16 5135555.19 186.50
-9755138.42 5135563.74 181.35
-9755143.12 5135558.94 185.39
-9755143.25 5135558.48 185.53
-9755142.87 5135565.57 185.40
-9755142.04 5135560.60 190.34
-9755142.60 5135564.46 190.16
-9755142.41 5135562.70 188.65
-9755137.71 5135561.47 185.59
-9755141.63 5135560.79 181.52
-9755144.39 5135556.65 181.53
-9755139.67 5135562.17 186.65
-9755141.33 5135558.15 186.66
-9755143.19 5135565.76 189.42
-9755144.11 5135556.70 186.69
-9755141.02 5135560.82 185.98
-9755136.71 5135562.01 186.35
-9755142.52 5135562.74 189.84
-9755141.98 5135562.80 184.23
-9755141.43 5135558.95 181.45
-9755138.51 5135563.86 188.56
-9755140.30 5135558.10 187.16
-9755144.05 5135555.70 181.51
-9755143.98 5135557.62 186.60
-9755139.95 5135556.02 181.42
-9755139.33 5135565.73 189.13
-9755143.02 5135560.90 188.82
-9755139.28 5135561.32 181.43
-9755140.25 5135562.09 189.13
-9755142.34 5135561.09 186.44
-9755138.42 5135561.02 181.35
-9755141.01 5135563.99 181.61
-9755141.71 5135563.63 187.26
-9755139.36 5135556.57 181.41
-9755140.28 5135565.59 185.87
-9755142.19 5135564.50 184.95
-9755140.19 5135563.39 181.56
-9755141.52 5135559.19 190.12
-9755138.18 5135558.04 186.46
-9755142.82 5135560.59 184.38
-9755138.96 5135559.55 186.82
-9755141.99 5135565.72 188.63
-9755143.63 5135557.94 187.68
-9755139.09 5135559.97 186.60
-9755144.39 5135556.81 188.88
-9755144.08 5135555.16 185.56
-9755143.18 5135563.92 189.30
-9755144.74 5135554.38 186.48
-9755140.25 5135566.33 189.43
-9755143.59 5135558.41 186.75
-9755140.25 5135560.66 186.59
-9755142.76 5135564.64 185.53
-9755140.28 5135556.70 183.93
-9755139.78 5135561.37 188.17
-9755136.05 5135564.90 186.25
-9755144.68 5135555.21 185.75
-9755141.15 5135557.59 187.04
-9755143.50 5135563.78 190.04
-9755143.67 5135559.08 185.73
-9755140.59 5135556.45 184.49
-9755136.15 5135562.04 186.70
-9755142.98 5135561.76 190.73
-9755137.29 5135561.84 189.41
-9755139.95 5135560.49 181.46
-9755139.04 5135556.61 181.32
-9755137.64 5135561.69 185.22
-9755142.17 5135562.99 184.49
-9755141.36 5135560.71 188.96
-9755143.59 5135556.92 188.51
-9755140.14 5135565.68 186.56
-9755144.01 5135565.05 189.32
-9755143.45 5135556.11 185.90
-9755144.42 5135565.50 187.72
-9755143.24 5135559.27 188.55
-9755142.92 5135563.33 190.53
-9755137.61 5135564.18 186.78
-9755136.05 5135565.50 181.36
-9755142.34 5135563.56 190.70
-9755139.95 5135562.74 189.17
-9755136.38 5135564.76 188.64
-9755142.14 5135558.64 187.10
-9755142.60 5135564.40 185.12
-9755144.63 5135565.09 189.07
-9755143.48 5135565.22 186.02
-9755140.74 5135559.87 181.48
-9755142.29 5135565.10 189.88
-9755137.28 5135564.19 188.43
-9755143.85 5135562.47 191.25
-9755140.27 5135558.78 188.20
-9755142.54 5135560.84 189.70
-9755144.07 5135555.14 181.50
-9755142.38 5135559.74 187.47
-9755143.36 5135559.05 185.39
-9755142.88 5135554.79 181.58
-9755142.20 5135554.38 184.56
-9755143.54 5135555.09 186.25
-9755138.23 5135563.30 188.59
-9755142.32 5135556.87 181.56
-9755139.22 5135560.61 186.19
-9755140.80 5135557.70 181.56
-9755137.61 5135555.99 181.30
-9755137.63 5135556.93 186.35
-9755144.12 5135556.90 185.44
-9755142.86 5135561.32 187.71
-9755138.50 5135555.38 181.31
-9755141.38 5135560.73 187.65
-9755140.57 5135563.34 188.41
-9755143.04 5135563.69 190.04
-9755136.15 5135562.25 188.72
-9755138.07 5135556.58 181.31
-9755143.89 5135560.00 190.76
-9755141.56 5135556.91 186.14
-9755139.93 5135564.18 189.84
-9755139.86 5135559.13 186.18
-9755139.91 5135565.23 181.46
-9755138.98 5135561.76 185.61
-9755142.44 5135562.31 187.13
-9755139.58 5135556.42 183.95
-9755137.44 5135561.63 186.96
-9755138.19 5135564.59 185.21
-9755141.41 5135562.28 187.42
-9755143.12 5135559.65 185.26
-9755143.45 5135560.76 181.55
-9755143.10 5135565.67 190.58
-9755143.11 5135559.53 188.96
-9755140.51 5135557.46 187.99
-9755142.00 5135554.70 184.21
-9755142.59 5135559.51 189.07
-9755143.45 5135557.79 181.51
-9755138.99 5135560.40 186.19
-9755141.15 5135560.31 189.19
-9755142.25 5135555.15 181.69
-9755142.91 5135560.83 187.96
-9755140.28 5135556.42 184.50
-9755140.00 5135563.30 189.16
-9755136.65 5135564.82 186.40
-9755142.68 5135564.18 190.17
-9755140.78 5135554.57 181.61
-9755144.37 5135555.69 181.52
-9755137.35 5135562.80 187.40
-9755137.15 5135563.98 186.63
-9755141.43 5135555.67 186.79
-9755142.84 5135559.73 185.24
-9755140.16 5135562.23 186.15
-9755142.61 5135563.23 191.20
-9755142.91 5135558.92 187.94
-9755141.54 5135560.25 187.79
-9755144.12 5135555.10 184.76
-9755137.51 5135562.98 188.43
-9755140.28 5135558.99 181.46
-9755137.47 5135564.63 181.37
-9755136.77 5135562.12 186.89
-9755139.13 5135561.28 188.30
-9755138.78 5135562.07 185.67
-9755137.68 5135561.43 185.15
-9755142.32 5135565.83 189.08
-9755143.10 5135554.26 185.99
-9755139.58 5135561.75 186.03
-9755143.75 5135558.15 186.93
-9755138.16 5135557.79 185.78
-9755136.67 5135556.31 181.31
-9755136.04 5135564.85 181.35
-9755141.20 5135563.71 185.44
-9755141.43 5135563.17 185.46
-9755142.46 5135558.60 188.70
-9755138.25 5135565.69 188.88
-9755143.47 5135565.73 188.77
-9755142.00 5135556.82 181.74
-9755139.69 5135557.21 181.40
-9755138.14 5135557.43 181.32
-9755143.17 5135556.58 187.02
-9755144.36 5135555.82 185.13
-9755144.08 5135560.74 187.29
-9755139.33 5135560.96 189.51
-9755141.43 5135560.07 189.25
-9755141.70 5135566.10 191.05
-9755140.26 5135556.86 187.53
-9755144.03 5135557.48 181.51
-9755140.31 5135557.20 181.49
-9755137.05 5135560.79 186.58
-9755144.10 5135563.75 187.79
-9755138.41 5135556.32 181.30
-9755138.49 5135559.00 181.34
-9755140.19 5135561.35 181.50
-9755136.72 5135564.03 181.36
-9755138.10 5135560.77 181.34
-9755136.51 5135560.48 185.77
-9755138.54 5135565.10 188.93
-9755141.54 5135558.77 187.91
-9755138.43 5135564.51 189.41
-9755136.44 5135558.37 181.35
-9755139.41 5135559.62 186.14
-9755139.63 5135564.52 187.84
-9755136.70 5135563.71 186.33
-9755144.08 5135564.51 187.99
-9755139.44 5135566.18 185.91
-9755141.32 5135565.73 187.16
-9755140.25 5135555.52 187.27
-9755142.40 5135565.77 188.62
-9755144.68 5135555.49 185.53
-9755136.13 5135562.26 181.34
-9755144.66 5135565.69 186.25
-9755145.17 5135566.58 188.14
-9755145.11 5135566.69 188.59
-9755145.23 5135566.54 188.78
-9755145.17 5135566.76 181.30
-9755138.41 5135566.99 181.36
-9755139.71 5135566.66 189.32
-9755142.53 5135566.09 181.51
-9755142.89 5135567.22 190.41
-9755137.64 5135566.41 186.55
-9755141.71 5135567.22 188.86
-9755137.05 5135566.49 189.03
-9755143.67 5135567.21 181.41
-9755140.84 5135566.47 186.97
-9755138.23 5135566.00 189.02
-9755143.06 5135567.16 188.95
-9755143.99 5135566.89 189.13
-9755143.46 5135566.60 190.36
-9755137.57 5135567.23 186.12
-9755136.56 5135566.50 186.32
-9755138.79 5135567.01 186.07
-9755142.42 5135567.43 188.85
-9755144.13 5135566.70 189.78
-9755143.08 5135566.60 188.37
-9755140.77 5135566.48 186.91
-9755139.07 5135567.13 189.75
-9755138.91 5135566.68 186.33
-9755142.37 5135567.23 187.40
-9755143.79 5135566.70 190.99
-9755137.02 5135566.92 185.92
-9755142.04 5135566.56 188.70
-9755138.67 5135566.47 186.33
-9755140.46 5135566.64 181.47
-9755140.71 5135566.37 181.50
-9755136.02 5135566.33 181.36
-9755141.11 5135567.06 189.25
-9755137.15 5135566.42 186.63
-9755142.42 5135566.77 187.28
-9755139.68 5135567.03 186.17
-9755138.25 5135566.67 186.99
-9755140.81 5135566.58 188.96
-9755142.66 5135566.32 188.42
-9755138.40 5135567.06 187.31
-9755140.18 5135565.98 181.45
-9755143.12 5135565.82 185.40
-9755143.55 5135566.54 189.88
-9755137.33 5135567.00 186.12
-9755141.10 5135566.39 188.92
-9755144.90 5135566.96 181.29
-9755142.02 5135567.05 187.50
-9755143.42 5135566.75 191.21
-9755139.02 5135566.66 181.37
-9755136.69 5135566.14 185.86
-9755140.95 5135567.02 186.96
-9755142.37 5135566.47 189.73
-9755142.76 5135566.50 190.95
-9755143.99 5135566.99 181.39
-9755142.63 5135566.76 185.26
-9755144.30 5135566.99 186.39
-9755142.89 5135566.70 181.45
-9755136.04 5135560.76 181.34
-9755135.10 5135565.50 186.46
-9755135.68 5135563.82 186.05
-9755135.61 5135563.79 186.44
-9755135.23 5135562.55 181.35
-9755135.59 5135564.57 186.04
-9755135.19 5135561.79 181.33
-9755134.35 5135556.81 181.35
-9755135.82 5135562.92 185.99
-9755135.86 5135562.71 188.93
-9755134.30 5135558.69 181.34
-9755135.59 5135565.43 186.22
-9755135.58 5135560.69 186.88
-9755135.46 5135562.18 181.34
-9755134.25 5135564.62 181.35
-9755135.79 5135555.08 181.32
-9755135.50 5135563.97 181.37
-9755135.57 5135563.04 188.17
-9755134.28 5135565.75 181.35
-9755134.95 5135559.53 181.33
-9755134.26 5135560.52 181.33
-9755135.09 5135565.44 181.34
-9755135.26 5135563.62 181.35
-9755135.08 5135566.92 181.35
-9755134.59 5135566.65 181.35
-9755186.89 5135552.52 186.28
-9755183.04 5135552.52 186.26
-9755175.69 5135552.45 186.26
-9755185.40 5135552.49 186.26
-9755182.18 5135552.76 186.26
-9755180.09 5135552.45 186.27
-9755184.53 5135552.49 186.27
-9755180.38 5135552.74 186.25
-9755186.23 5135554.27 186.27
-9755186.00 5135553.96 186.26
-9755186.62 5135553.39 186.28
-9755186.59 5135553.11 186.28
-9755185.97 5135553.08 186.26
-9755181.27 5135554.55 186.57
-9755179.48 5135552.74 186.25
-9755178.84 5135554.21 186.48
-9755174.44 5135552.99 186.27
-9755179.79 5135554.77 186.19
-9755178.03 5135554.24 186.25
-9755177.14 5135554.28 186.55
-9755183.31 5135554.24 186.57
-9755175.33 5135554.26 186.54
-9755180.69 5135553.36 186.24
-9755174.48 5135554.21 186.37
-9755182.14 5135553.95 186.24
-9755176.55 5135553.01 186.26
-9755184.86 5135554.29 186.55
-9755185.41 5135553.08 186.25
-9755176.56 5135553.28 186.26
-9755179.23 5135553.94 186.22
-9755185.71 5135554.58 186.58
-9755183.62 5135553.07 186.25
-9755184.21 5135552.49 186.27
-9755180.80 5135554.34 186.55
-9755183.35 5135554.80 186.25
-9755184.52 5135553.35 186.25
-9755185.98 5135553.68 186.25
-9755175.66 5135554.21 186.28
-9755181.89 5135554.26 186.24
-9755175.65 5135553.62 186.27
-9755181.32 5135554.22 186.56
-9755180.38 5135553.07 186.25
-9755185.13 5135554.27 186.26
-9755180.98 5135554.25 186.24
-9755174.49 5135553.90 186.27
-9755185.38 5135553.68 186.25
-9755174.76 5135554.47 186.30
-9755183.92 5135553.96 186.25
-9755175.99 5135553.03 186.27
-9755185.99 5135552.16 186.28
-9755186.29 5135550.74 186.29
-9755186.62 5135550.13 186.30
-9755186.29 5135549.83 186.30
-9755186.30 5135550.10 186.30
-9755176.37 5135550.41 186.46
-9755182.46 5135550.71 186.29
-9755184.51 5135550.68 186.29
-9755175.66 5135549.14 186.33
-9755180.68 5135549.78 186.31
-9755176.70 5135550.17 185.90
-9755180.73 5135549.20 186.32
-9755176.85 5135551.81 186.28
-9755178.05 5135548.89 186.32
-9755175.09 5135549.79 186.31
-9755178.85 5135549.27 186.61
-9755176.86 5135548.53 186.33
-9755178.01 5135550.29 187.70
-9755176.26 5135549.77 186.19
-9755183.93 5135550.68 186.29
-9755179.64 5135549.52 186.62
-9755183.93 5135550.10 186.29
-9755177.24 5135549.99 186.24
-9755176.24 5135549.46 186.35
-9755177.19 5135551.25 186.28
-9755181.28 5135549.20 186.32
-9755177.16 5135549.72 187.75
-9755179.30 5135549.11 187.60
-9755182.49 5135548.92 186.33
-9755176.02 5135548.85 186.32
-9755178.92 5135550.88 188.10
-9755177.73 5135550.63 186.28
-9755180.09 5135551.28 186.29
-9755185.17 5135551.01 186.28
-9755183.34 5135550.99 186.29
-9755181.90 5135550.07 186.31
-9755184.25 5135550.95 186.28
-9755184.24 5135549.23 186.31
-9755176.00 5135550.62 186.47
-9755183.64 5135552.16 186.27
-9755177.17 5135548.59 186.33
-9755175.07 5135550.64 186.30
-9755180.73 5135548.31 186.34
-9755176.03 5135549.69 186.51
-9755184.52 5135548.60 186.34
-9755176.28 5135548.86 186.33
-9755178.07 5135549.39 186.34
-9755183.39 5135549.23 186.32
-9755177.14 5135551.86 186.27
-9755174.79 5135548.55 186.33
-9755175.70 5135550.02 186.36
-9755183.06 5135549.24 186.32
-9755179.85 5135549.19 187.64
-9755182.75 5135552.15 186.27
-9755180.15 5135549.40 187.66
-9755180.15 5135548.90 186.33
-9755184.26 5135550.41 186.29
-9755179.21 5135550.92 188.10
-9755181.00 5135551.25 186.28
-9755177.17 5135549.52 186.33
-9755184.56 5135551.84 186.27
-9755178.35 5135550.67 186.28
-9755175.99 5135551.83 186.28
-9755177.75 5135550.99 186.28
-9755181.88 5135548.90 186.33
-9755178.35 5135549.21 187.86
-9755177.16 5135552.13 186.26
-9755174.48 5135551.82 186.28
-9755175.69 5135548.29 186.33
-9755184.53 5135549.78 186.31
-9755181.88 5135551.87 186.27
-9755177.80 5135549.77 186.33
-9755175.69 5135549.80 186.33
-9755185.10 5135551.93 186.27
-9755176.00 5135550.26 187.77
-9755176.96 5135550.85 187.75
-9755178.92 5135549.76 188.02
-9755180.98 5135548.31 186.34
-9755176.97 5135550.19 186.41
-9755180.96 5135552.15 186.26
-9755181.87 5135550.98 186.29
-9755179.78 5135551.56 186.28
-9755181.29 5135550.36 186.29
-9755178.33 5135549.70 187.78
-9755173.15 5135552.49 185.32
-9755173.31 5135552.68 186.56
-9755173.13 5135552.67 185.72
-9755172.78 5135552.45 185.91
-9755173.07 5135552.56 184.93
-9755173.19 5135553.74 184.30
-9755173.23 5135554.30 184.17
-9755173.10 5135553.79 182.29
-9755173.07 5135554.58 183.72
-9755172.93 5135553.04 184.75
-9755174.52 5135553.59 186.27
-9755172.95 5135554.14 182.33
-9755173.22 5135553.71 185.77
-9755173.04 5135553.04 186.24
-9755173.09 5135553.35 184.94
-9755173.01 5135552.65 182.09
-9755173.27 5135553.57 186.55
-9755173.05 5135553.47 182.28
-9755173.19 5135553.42 184.33
-9755173.25 5135553.10 184.76
-9755173.27 5135553.87 186.57
-9755173.03 5135552.80 185.85
-9755173.88 5135553.28 186.28
-9755173.17 5135554.02 185.08
-9755172.98 5135553.06 185.19
-9755172.96 5135553.49 181.64
-9755173.24 5135554.13 181.67
-9755173.02 5135553.54 182.75
-9755173.07 5135554.11 182.12
-9755173.26 5135553.79 181.67
-9755173.29 5135554.28 185.14
-9755173.10 5135553.07 183.54
-9755172.10 5135554.74 181.65
-9755173.60 5135553.58 186.29
-9755173.11 5135553.73 183.99
-9755173.01 5135553.48 183.71
-9755173.24 5135552.93 185.74
-9755172.68 5135553.39 185.88
-9755173.38 5135552.28 185.26
-9755173.14 5135551.94 185.13
-9755174.20 5135550.07 186.30
-9755173.05 5135552.20 183.49
-9755173.01 5135549.72 186.58
-9755172.85 5135549.38 185.96
-9755173.25 5135552.06 185.79
-9755173.04 5135552.24 184.27
-9755173.91 5135551.82 186.28
-9755173.06 5135548.54 186.34
-9755173.61 5135550.65 186.28
-9755173.08 5135550.86 183.92
-9755172.99 5135549.65 183.26
-9755173.29 5135551.10 183.45
-9755173.16 5135551.89 183.74
-9755173.09 5135548.64 184.70
-9755173.51 5135552.24 186.52
-9755173.10 5135549.27 182.69
-9755172.91 5135551.74 182.98
-9755173.06 5135549.22 184.58
-9755173.03 5135549.85 184.83
-9755173.37 5135551.94 182.52
-9755173.12 5135548.86 182.69
-9755173.06 5135550.25 182.84
-9755173.25 5135551.86 184.11
-9755173.23 5135551.32 185.25
-9755173.09 5135551.50 181.95
-9755174.51 5135550.95 186.29
-9755173.37 5135550.14 183.67
-9755173.02 5135550.81 182.46
-9755172.99 5135550.37 183.50
-9755173.64 5135551.81 186.28
-9755173.13 5135549.30 184.81
-9755173.37 5135550.08 185.34
-9755173.05 5135550.89 181.62
-9755173.03 5135550.95 185.55
-9755173.41 5135549.88 184.86
-9755173.01 5135549.02 185.10
-9755173.35 5135549.06 183.44
-9755173.28 5135549.38 181.68
-9755173.11 5135550.39 185.45
-9755173.31 5135548.98 182.32
-9755173.72 5135551.71 181.64
-9755173.13 5135550.92 184.89
-9755173.19 5135548.34 183.62
-9755173.19 5135549.76 183.44
-9755173.09 5135549.58 183.97
-9755173.29 5135550.57 183.26
-9755173.21 5135549.07 181.90
-9755173.30 5135550.46 184.89
-9755173.31 5135552.10 184.03
-9755173.08 5135550.12 184.17
-9755173.24 5135551.62 185.71
-9755173.04 5135552.25 184.82
-9755172.98 5135550.51 182.89
-9755173.61 5135550.36 181.67
-9755173.24 5135551.38 183.79
-9755173.36 5135548.37 184.11
-9755173.08 5135549.34 183.06
-9755173.30 5135549.25 185.54
-9755173.00 5135552.01 182.26
-9755172.71 5135551.49 181.62
-9755173.20 5135549.76 185.29
-9755173.02 5135548.92 183.98
-9755173.59 5135550.97 186.48
-9755173.10 5135551.05 183.26
-9755173.54 5135549.67 181.64
-9755173.03 5135551.38 184.62
-9755173.24 5135551.48 184.29
-9755173.27 5135551.92 184.21
-9755173.12 5135550.99 184.54
-9755173.23 5135551.50 181.64
-9755173.19 5135549.18 183.54
-9755172.75 5135549.98 186.12
-9755173.17 5135548.60 185.31
-9755173.65 5135550.89 181.49
-9755173.37 5135551.48 185.27
-9755173.62 5135551.22 186.28
-9755173.06 5135552.33 182.83
-9755173.36 5135549.00 184.02
-9755173.04 5135550.10 183.72
-9755173.21 5135548.49 184.46
-9755173.09 5135551.34 185.55
-9755173.68 5135548.27 186.32
-9755172.99 5135549.07 183.57
-9755173.93 5135548.83 186.32
-9755173.14 5135550.43 184.23
-9755173.00 5135552.02 181.62
-9755186.67 5135532.52 188.97
-9755186.68 5135534.58 188.97
-9755186.72 5135531.05 188.97
-9755186.69 5135536.65 188.97
-9755186.42 5135536.66 188.97
-9755186.69 5135529.86 181.92
-9755186.74 5135533.42 188.98
-9755186.38 5135530.81 181.69
-9755186.49 5135530.09 181.87
-9755186.39 5135529.35 182.21
-9755186.40 5135536.07 188.98
-9755186.85 5135531.66 181.71
-9755186.75 5135530.76 188.98
-9755186.92 5135531.35 181.70
-9755186.38 5135536.97 188.98
-9755186.73 5135533.98 188.98
-9755186.19 5135530.46 188.99
-9755186.12 5135531.38 181.69
-9755185.86 5135531.03 188.97
-9755178.79 5135529.87 188.78
-9755185.82 5135529.57 181.84
-9755182.31 5135533.40 188.95
-9755186.11 5135531.16 181.68
-9755181.96 5135535.45 188.92
-9755178.73 5135535.15 188.94
-9755175.21 5135536.02 188.94
-9755176.11 5135532.77 188.95
-9755177.56 5135536.61 188.92
-9755185.24 5135536.03 188.93
-9755179.57 5135536.36 188.94
-9755186.09 5135534.59 188.96
-9755185.25 5135529.98 188.98
-9755174.89 5135536.04 181.59
-9755178.48 5135532.75 188.95
-9755179.35 5135535.43 188.95
-9755183.69 5135529.93 188.92
-9755185.64 5135530.13 188.80
-9755180.50 5135533.92 188.97
-9755183.43 5135529.87 181.87
-9755182.11 5135530.29 188.35
-9755180.50 5135532.43 188.96
-9755177.25 5135535.72 188.92
-9755182.56 5135529.87 181.88
-9755176.13 5135535.99 188.92
-9755185.21 5135535.45 188.96
-9755176.71 5135530.06 188.81
-9755175.18 5135536.90 188.93
-9755176.72 5135531.85 188.94
-9755180.55 5135533.35 188.97
-9755183.09 5135530.13 181.83
-9755175.51 5135532.45 188.95
-9755182.55 5135535.19 188.93
-9755179.65 5135534.55 188.95
-9755174.92 5135536.70 181.60
-9755185.24 5135531.65 181.69
-9755175.13 5135532.55 181.62
-9755176.99 5135530.96 188.95
-9755184.98 5135531.61 188.96
-9755184.86 5135531.09 181.67
-9755180.04 5135529.57 188.66
-9755184.83 5135531.76 181.68
-9755184.66 5135533.98 188.96
-9755181.13 5135534.56 188.95
-9755184.33 5135531.12 181.68
-9755184.38 5135532.50 188.95
-9755178.18 5135537.54 188.98
-9755180.27 5135529.27 188.56
-9755180.25 5135532.46 188.96
-9755185.56 5135532.80 188.96
-9755185.87 5135536.96 188.97
-9755184.60 5135529.93 181.87
-9755177.61 5135529.51 188.61
-9755177.05 5135536.60 188.92
-9755180.52 5135536.91 188.98
-9755184.00 5135529.87 181.86
-9755182.89 5135534.87 188.93
-9755184.65 5135531.05 188.96
-9755183.12 5135531.06 181.67
-9755175.23 5135532.46 188.95
-9755182.61 5135531.30 188.96
-9755176.37 5135530.14 188.92
-9755184.31 5135534.55 188.94
-9755174.93 5135534.50 188.93
-9755174.78 5135534.63 181.60
-9755182.58 5135535.75 188.93
-9755183.18 5135533.37 188.94
-9755176.15 5135530.66 188.95
-9755175.52 5135533.34 188.94
-9755175.25 5135532.17 188.95
-9755185.32 5135530.23 188.13
-9755175.17 5135534.00 181.61
-9755181.80 5135529.80 188.94
-9755184.61 5135535.73 188.95
-9755185.53 5135533.69 188.96
-9755185.14 5135529.88 181.94
-9755185.84 5135530.75 188.98
-9755179.37 5135530.68 188.96
-9755184.51 5135539.08 181.60
-9755180.88 5135529.51 188.87
-9755183.16 5135535.17 188.93
-9755179.61 5135535.75 188.96
-9755175.50 5135535.70 188.92
-9755178.19 5135533.69 188.93
-9755177.26 5135536.01 188.91
-9755182.28 5135535.75 188.93
-9755185.26 5135533.97 188.95
-9755184.67 5135529.05 182.25
-9755186.08 5135536.08 188.97
-9755184.65 5135532.84 188.95
-9755184.06 5135534.91 188.93
-9755176.70 5135529.55 188.61
-9755183.44 5135536.07 188.92
-9755179.04 5135536.61 188.93
-9755182.56 5135532.47 188.95
-9755177.02 5135531.26 188.95
-9755179.97 5135532.80 188.96
-9755184.65 5135534.89 188.95
-9755185.81 5135529.98 181.80
-9755185.54 5135529.90 181.87
-9755184.37 5135532.81 188.95
-9755182.59 5135533.98 188.94
-9755174.65 5135530.65 188.94
-9755183.75 5135536.96 188.92
-9755178.49 5135529.26 188.45
-9755176.11 5135533.06 188.94
-9755185.51 5135536.05 188.94
-9755182.59 5135530.77 188.97
-9755185.86 5135533.69 188.96
-9755179.69 5135531.01 188.96
-9755176.73 5135530.38 188.95
-9755175.21 5135533.03 188.95
-9755174.98 5135537.45 188.97
-9755177.29 5135534.56 188.93
-9755183.46 5135536.62 188.92
-9755183.17 5135535.74 188.93
-9755179.68 5135530.67 188.95
-9755178.52 5135533.32 188.94
-9755178.42 5135535.13 188.93
-9755181.45 5135530.18 188.96
-9755175.82 5135535.72 188.92
-9755176.68 5135532.78 188.94
-9755183.79 5135537.46 188.95
-9755184.67 5135533.69 188.95
-9755184.37 5135536.09 188.93
-9755184.95 5135535.78 188.95
-9755175.50 5135533.41 181.62
-9755175.52 5135529.23 188.44
-9755177.90 5135532.46 188.94
-9755183.96 5135531.72 181.66
-9755177.30 5135532.47 188.95
-9755177.59 5135531.58 188.95
-9755183.46 5135536.97 188.93
-9755183.47 5135530.99 188.95
-9755176.39 5135534.83 188.93
-9755178.75 5135534.54 188.94
-9755179.07 5135532.80 188.95
-9755182.87 5135534.58 188.93
-9755181.71 5135534.56 188.95
-9755175.22 5135534.51 188.94
-9755177.25 5135533.97 188.93
-9755180.72 5135530.67 188.32
-9755178.13 5135534.24 188.93
-9755177.63 5135530.40 188.96
-9755183.47 5135530.43 188.95
-9755175.54 5135530.39 188.95
-9755174.94 5135532.45 188.95
-9755179.02 5135537.45 188.99
-9755185.48 5135531.08 181.68
-9755179.34 5135533.39 188.94
-9755181.41 5135533.66 188.95
-9755174.60 5135529.82 188.71
-9755179.35 5135529.60 188.70
-9755180.82 5135533.69 188.96
-9755185.17 5135530.25 181.71
-9755178.47 5135533.94 188.94
-9755178.74 5135529.78 188.72
-9755180.28 5135530.42 188.96
-9755182.87 5135533.71 188.94
-9755174.64 5135533.61 188.95
-9755179.65 5135531.57 188.95
-9755175.33 5135535.79 181.59
-9755177.60 5135532.74 188.94
-9755180.55 5135530.44 188.97
-9755174.83 5135535.14 181.60
-9755183.74 5135534.03 188.93
-9755185.48 5135529.54 182.08
-9755175.54 5135529.48 188.60
-9755177.28 5135536.59 188.92
-9755181.98 5135534.86 188.93
-9755178.15 5135531.87 188.94
-9755185.26 5135531.95 181.68
-9755176.69 5135535.72 188.91
-9755180.57 5135529.63 188.89
-9755181.73 5135531.63 188.95
-9755176.39 5135536.59 188.91
-9755176.12 5135534.78 188.92
-9755177.57 5135533.69 188.93
-9755179.92 5135532.49 188.96
-9755183.14 5135531.88 188.95
-9755186.65 5135540.92 186.43
-9755186.66 5135540.34 186.45
-9755186.65 5135539.84 185.63
-9755186.34 5135540.08 186.47
-9755186.78 5135539.49 185.15
-9755183.40 5135548.33 186.34
-9755186.61 5135547.45 186.36
-9755186.92 5135539.42 185.96
-9755186.84 5135539.89 181.70
-9755186.17 5135539.91 185.31
-9755186.33 5135539.35 181.62
-9755186.44 5135539.57 183.45
-9755186.63 5135545.93 186.37
-9755186.31 5135539.84 184.59
-9755185.41 5135548.34 186.34
-9755186.15 5135539.83 184.61
-9755186.92 5135541.50 186.43
-9755186.65 5135539.49 186.35
-9755186.33 5135547.76 186.35
-9755186.07 5135542.71 186.42
-9755186.66 5135539.77 183.47
-9755186.05 5135539.99 185.36
-9755186.66 5135542.69 186.41
-9755186.05 5135541.50 186.42
-9755186.30 5135546.55 186.36
-9755186.43 5135539.52 186.21
-9755186.69 5135541.79 186.42
-9755173.94 5135548.26 186.33
-9755176.88 5135541.13 181.61
-9755186.03 5135540.11 184.81
-9755186.02 5135539.96 183.43
-9755175.43 5135544.79 185.88
-9755183.39 5135543.58 186.40
-9755180.14 5135542.89 183.17
-9755183.68 5135547.74 186.35
-9755180.41 5135542.50 182.91
-9755176.70 5135544.31 182.76
-9755185.47 5135542.43 186.43
-9755181.95 5135541.67 184.91
-9755181.26 5135542.21 184.46
-9755186.08 5135539.58 186.57
-9755178.17 5135543.55 186.43
-9755184.62 5135540.58 185.63
-9755176.10 5135544.33 182.56
-9755177.75 5135543.56 185.18
-9755181.34 5135546.81 186.37
-9755183.98 5135541.00 185.58
-9755185.20 5135540.35 185.26
-9755179.34 5135542.92 184.90
-9755178.43 5135544.74 186.38
-9755183.09 5135544.17 186.40
-9755185.71 5135546.53 186.36
-9755176.92 5135542.59 181.62
-9755181.23 5135542.38 184.18
-9755176.24 5135544.54 183.27
-9755182.17 5135541.58 185.73
-9755185.53 5135540.04 185.33
-9755180.44 5135543.56 186.40
-9755176.89 5135547.92 186.34
-9755185.42 5135545.98 186.36
-9755174.29 5135545.55 183.18
-9755182.54 5135544.16 186.40
-9755183.40 5135545.07 186.39
-9755185.48 5135539.94 184.96
-9755175.71 5135547.38 186.35
