-9755333.23 5135394.19 189.02
-9755320.81 5135394.37 189.00
-9755320.79 5135395.29 189.01
-9755318.68 5135405.40 189.00
-9755313.03 5135412.43 189.10
-9755316.19 5135415.21 188.20
-9755313.85 5135417.25 187.78
-9755312.78 5135407.39 189.03
-9755316.64 5135399.11 188.95
-9755312.21 5135405.33 189.04
-9755316.36 5135407.40 189.02
-9755313.32 5135412.44 189.06
-9755315.37 5135416.34 187.98
-9755316.23 5135412.71 189.05
-9755309.85 5135409.09 190.26
-9755313.05 5135409.44 189.04
-9755318.38 5135415.11 188.29
-9755315.11 5135407.41 189.02
-9755316.25 5135415.63 188.35
-9755312.46 5135410.71 189.06
-9755315.54 5135415.66 188.61
-9755318.68 5135400.03 188.96
-9755316.36 5135398.81 188.95
-9755316.90 5135403.30 188.96
-9755315.43 5135402.07 188.96
-9755310.08 5135405.05 189.01
-9755315.14 5135411.53 189.03
-9755311.90 5135402.93 189.03
-9755317.48 5135405.06 188.98
-9755317.79 5135410.71 189.05
-9755316.34 5135408.62 189.04
-9755312.14 5135415.74 188.22
-9755314.29 5135407.41 189.03
-9755315.09 5135414.88 188.22
-9755317.43 5135417.26 187.75
-9755317.46 5135411.60 189.04
-9755315.43 5135401.19 188.94
-9755312.81 5135400.88 188.99
-9755313.41 5135400.87 188.98
-9755315.43 5135399.18 188.95
-9755316.96 5135397.98 188.97
-9755312.50 5135400.03 189.00
-9755315.47 5135398.86 188.95
-9755314.58 5135402.35 188.97
-9755317.54 5135402.38 188.95
-9755317.52 5135395.87 188.99
-9755310.28 5135414.21 188.66
-9755318.34 5135409.24 189.05
-9755311.47 5135416.33 188.30
-9755317.96 5135416.10 188.43
-9755317.84 5135397.93 188.97
-9755318.71 5135403.00 188.96
-9755316.65 5135402.66 188.95
-9755317.48 5135403.28 188.96
-9755318.63 5135391.72 192.47
-9755311.16 5135392.99 190.19
-9755314.78 5135412.73 189.05
-9755316.27 5135412.13 189.05
-9755311.58 5135416.54 188.37
-9755314.81 5135410.35 189.05
-9755311.93 5135407.07 189.03
-9755316.04 5135406.22 189.01
-9755317.20 5135406.20 189.01
-9755316.28 5135415.47 187.96
-9755309.70 5135413.52 189.03
-9755310.42 5135414.80 189.08
-9755318.64 5135413.65 189.08
-9755316.83 5135410.68 189.04
-9755316.03 5135409.49 189.03
-9755312.53 5135399.12 188.99
-9755311.29 5135402.08 189.04
-9755312.54 5135398.25 188.99
-9755315.23 5135396.76 188.99
-9755317.01 5135394.99 188.99
-9755318.72 5135395.34 188.99
-9755318.72 5135395.57 188.99
-9755306.62 5135415.06 188.71
-9755303.60 5135415.64 188.70
-9755308.93 5135416.04 188.92
-9755305.94 5135414.98 188.39
-9755296.54 5135415.56 189.03
-9755307.40 5135414.91 188.62
-9755296.52 5135415.89 189.04
-9755305.25 5135415.70 188.98
-9755299.12 5135416.19 188.74
-9755304.50 5135415.57 188.69
-9755302.31 5135416.21 188.67
-9755307.61 5135416.25 188.90
-9755309.46 5135416.05 188.25
-9755307.13 5135416.89 188.24
-9755299.13 5135416.42 189.17
-9755300.63 5135416.25 188.70
-9755302.37 5135416.85 188.47
-9755309.22 5135415.72 188.87
-9755308.56 5135416.52 188.27
-9755293.27 5135415.89 189.04
-9755298.50 5135415.65 189.77
-9755308.62 5135408.23 189.01
-9755298.59 5135413.28 189.03
-9755299.24 5135408.21 189.02
-9755305.65 5135414.77 188.70
-9755301.34 5135408.88 189.11
-9755302.00 5135409.56 189.08
-9755296.57 5135410.29 189.01
-9755298.97 5135412.81 191.97
-9755302.13 5135411.16 189.00
-9755299.77 5135412.31 189.04
-9755305.93 5135408.26 188.99
-9755297.73 5135409.67 189.00
-9755309.24 5135408.26 189.01
-9755306.49 5135414.80 188.72
-9755305.97 5135410.62 189.02
-9755303.03 5135412.38 189.02
-9755303.01 5135410.93 189.99
-9755308.89 5135410.93 189.04
-9755301.94 5135409.07 189.00
-9755308.06 5135412.46 189.03
-9755308.90 5135412.74 189.02
-9755296.56 5135414.38 189.04
-9755301.77 5135412.22 191.97
-9755304.77 5135413.59 189.02
-9755297.70 5135414.76 189.02
-9755305.00 5135414.37 189.03
-9755305.42 5135408.23 188.99
-9755301.74 5135408.71 189.12
-9755297.71 5135414.09 189.04
-9755301.31 5135414.45 189.03
-9755302.10 5135410.28 189.00
-9755305.11 5135409.76 189.01
-9755306.25 5135412.38 189.02
-9755296.52 5135413.86 189.04
-9755302.21 5135409.13 189.90
-9755303.02 5135410.88 189.04
-9755299.83 5135408.85 189.04
-9755308.34 5135408.27 189.00
-9755297.67 5135409.21 192.02
-9755302.71 5135409.74 189.01
-9755309.31 5135413.39 189.13
-9755298.32 5135410.71 192.05
-9755305.96 5135413.32 189.02
-9755302.47 5135411.52 189.13
-9755294.18 5135407.88 188.94
-9755292.73 5135408.16 188.93
-9755294.16 5135414.42 189.03
-9755293.61 5135410.56 188.97
-9755293.03 5135414.05 189.02
-9755293.58 5135412.35 188.99
-9755292.41 5135410.53 188.96
-9755292.97 5135407.89 188.92
-9755295.03 5135411.15 188.99
-9755295.04 5135409.09 188.97
-9755294.47 5135410.87 188.98
-9755293.62 5135413.22 189.01
-9755295.68 5135409.08 188.96
-9755294.43 5135413.19 189.02
-9755293.84 5135413.21 189.02
-9755309.28 5135401.74 189.02
-9755301.04 5135397.55 189.01
-9755304.26 5135397.62 189.00
-9755308.40 5135399.12 189.02
-9755301.63 5135397.53 189.00
-9755303.99 5135397.63 189.01
-9755307.20 5135396.76 189.02
-9755300.73 5135398.71 189.01
-9755301.89 5135401.73 188.98
-9755299.82 5135402.84 189.00
-9755296.85 5135400.81 189.02
-9755309.27 5135399.97 189.03
-9755303.09 5135400.58 188.98
-9755305.15 5135400.91 188.96
-9755298.90 5135398.45 189.01
-9755304.30 5135396.92 189.02
-9755305.16 5135399.33 189.00
-9755300.99 5135400.76 188.99
-9755298.93 5135401.71 189.01
-9755298.97 5135400.21 189.03
-9755309.25 5135402.65 189.01
-9755297.77 5135400.17 189.01
-9755303.11 5135397.55 189.02
-9755304.89 5135397.58 189.00
-9755300.13 5135398.13 189.02
-9755305.73 5135397.94 189.01
-9755298.98 5135397.90 189.02
-9755298.94 5135402.89 189.01
-9755299.00 5135398.79 189.01
-9755297.78 5135399.33 189.00
-9755303.07 5135402.33 188.96
-9755296.30 5135400.81 189.00
-9755295.69 5135401.65 189.01
-9755296.06 5135399.94 189.02
-9755294.83 5135400.50 188.99
-9755292.76 5135401.68 189.01
-9755293.08 5135400.45 189.03
-9755294.54 5135400.85 189.01
-9755294.81 5135402.89 188.98
-9755292.45 5135402.84 188.99
-9755292.73 5135400.80 189.03
-9755292.45 5135401.64 189.01
-9755303.08 5135403.80 188.95
-9755308.97 5135406.19 189.00
-9755300.43 5135407.06 189.00
-9755299.81 5135404.33 189.00
-9755299.78 5135404.64 189.01
-9755307.22 5135404.11 188.97
-9755307.16 5135405.32 188.96
-9755296.94 5135405.83 188.99
-9755297.17 5135405.82 188.99
-9755298.92 5135404.38 189.01
-9755304.54 5135404.13 188.91
-9755308.37 5135404.71 188.98
-9755299.53 5135403.77 189.00
-9755297.73 5135406.73 189.00
-9755292.41 5135403.44 188.98
-9755295.73 5135403.77 189.00
-9755292.47 5135403.73 188.97
-9755293.61 5135404.33 188.97
-9755294.83 5135403.78 188.99
-9755293.92 5135407.01 188.92
-9755292.41 5135407.01 188.93
-9755295.66 5135404.34 188.99
-9755296.95 5135393.53 192.39
-9755298.12 5135393.82 192.49
-9755299.93 5135392.95 192.40
-9755296.07 5135393.52 192.38
-9755292.51 5135394.67 192.38
-9755295.51 5135393.80 192.38
-9755294.89 5135393.82 192.37
-9755299.36 5135391.78 192.35
-9755303.70 5135391.78 192.38
-9755296.70 5135391.76 192.36
-9755294.91 5135391.41 192.36
-9755292.87 5135391.72 192.34
-9755293.13 5135392.59 192.36
-9755334.92 5135404.91 189.03
-9755338.28 5135409.29 189.28
-9755338.62 5135414.80 187.55
-9755344.85 5135413.31 187.79
-9755344.77 5135410.57 188.61
-9755328.99 5135412.28 188.46
-9755323.03 5135414.22 188.21
-9755328.29 5135411.29 189.02
-9755323.37 5135408.90 189.05
-9755329.00 5135411.29 189.03
-9755331.56 5135416.17 187.57
-9755328.74 5135414.33 188.49
-9755341.73 5135403.43 189.01
-9755343.78 5135399.02 188.97
-9755330.18 5135404.26 188.99
-9755330.52 5135399.26 188.93
-9755324.03 5135397.44 189.03
-9755332.02 5135398.06 188.96
-9755329.34 5135397.45 188.95
-9755323.53 5135414.39 188.55
-9755321.29 5135408.63 189.03
-9755321.32 5135407.76 189.03
-9755315.08 5135416.31 187.99
-9755315.74 5135415.64 188.50
-9755315.94 5135415.55 188.42
-9755312.98 5135412.50 188.95
-9755320.14 5135407.13 189.01
-9755315.97 5135412.46 189.05
-9755318.67 5135400.35 188.96
-9755316.38 5135399.15 188.95
-9755316.96 5135403.03 188.95
-9755331.13 5135378.84 181.55
-9755330.51 5135378.42 183.38
-9755334.14 5135378.44 183.56
-9755334.16 5135378.12 184.11
-9755334.12 5135377.98 183.56
-9755338.53 5135387.53 192.43
-9755340.95 5135386.09 192.40
-9755341.64 5135387.47 192.54
-9755340.95 5135380.79 192.33
-9755328.53 5135379.14 181.56
-9755334.48 5135382.78 192.37
-9755333.62 5135386.97 192.40
-9755330.84 5135388.35 192.40
-9755325.63 5135384.21 192.35
-9755327.06 5135387.80 192.39
-9755333.02 5135384.28 192.37
-9755324.41 5135384.49 193.42
-9755331.79 5135389.27 192.45
-9755333.88 5135383.66 192.37
-9755332.45 5135380.98 192.39
-9755330.68 5135379.17 189.24
-9755326.22 5135381.55 192.33
-9755335.26 5135386.30 192.40
-9755328.58 5135387.12 192.39
-9755327.64 5135385.74 192.37
-9755343.79 5135396.64 188.96
-9755341.47 5135395.13 188.96
-9755338.75 5135394.24 188.98
-9755327.86 5135396.24 188.97
-9755325.84 5135395.36 189.00
-9755342.80 5135377.60 184.87
-9755343.63 5135377.57 184.31
-9755336.75 5135375.37 182.76
-9755327.71 5135370.12 184.51
-9755328.86 5135367.20 184.48
-9755329.75 5135370.43 184.49
-9755329.77 5135372.78 184.49
-9755322.94 5135387.46 192.38
-9755320.63 5135382.40 192.73
-9755321.89 5135380.60 188.55
-9755321.23 5135387.10 192.66
-9755322.27 5135395.64 189.03
-9755318.56 5135378.23 186.23
-9755317.39 5135386.81 192.37
-9755313.46 5135389.50 192.42
-9755314.72 5135385.56 194.07
-9755309.96 5135385.92 192.36
-9755318.48 5135380.33 186.23
-9755314.09 5135388.58 192.40
-9755314.65 5135381.19 186.32
-9755309.99 5135386.22 192.36
-9755318.79 5135387.19 192.37
-9755313.63 5135386.64 194.63
-9755316.43 5135388.04 192.37
-9755318.57 5135372.91 186.59
-9755329.70 5135366.29 183.13
-9755322.71 5135366.01 182.36
-9755311.49 5135365.71 186.58
-9755313.05 5135365.20 186.58
-9755312.38 5135365.45 186.58
-9755311.27 5135365.72 186.56
-9755341.60 5135415.35 187.32
-9755336.66 5135414.81 187.86
-9755332.85 5135410.54 188.69
-9755342.27 5135400.78 188.98
-9755330.48 5135400.73 188.93
-9755326.41 5135396.83 189.00
-9755312.26 5135405.02 189.05
-9755316.34 5135407.14 189.02
-9755315.21 5135401.75 188.95
-9755338.66 5135378.49 189.03
-9755330.35 5135378.47 181.58
-9755341.84 5135382.85 192.37
-9755341.83 5135382.55 192.37
-9755338.59 5135385.45 192.41
-9755333.88 5135384.29 192.37
-9755332.38 5135382.79 192.36
-9755332.14 5135388.46 192.41
-9755332.11 5135388.80 192.51
-9755327.07 5135387.17 192.39
-9755323.56 5135381.58 192.35
-9755323.55 5135385.06 193.41
-9755327.96 5135386.90 192.38
-9755342.88 5135395.72 188.95
-9755343.96 5135377.65 191.23
-9755325.90 5135372.93 181.58
-9755331.18 5135374.59 184.48
-9755315.58 5135388.61 192.39
-9755309.92 5135382.54 187.11
-9755337.84 5135405.77 189.05
-9755339.89 5135405.17 189.03
-9755336.64 5135404.87 189.04
-9755341.90 5135404.73 191.65
-9755341.39 5135405.52 189.03
-9755340.88 5135405.00 193.07
-9755337.56 5135405.16 189.04
-9755340.29 5135405.17 189.03
-9755340.19 5135404.90 189.03
-9755340.23 5135405.50 189.03
-9755338.70 5135404.85 189.03
-9755339.91 5135405.75 189.04
-9755340.55 5135404.92 189.66
-9755343.46 5135404.74 193.02
-9755341.10 5135405.17 189.03
-9755340.29 5135404.39 190.27
-9755341.70 5135405.23 189.03
-9755340.82 5135404.84 190.12
-9755343.75 5135404.90 189.03
-9755332.54 5135405.42 189.02
-9755332.54 5135405.14 189.01
-9755323.72 5135404.83 189.03
-9755330.51 5135404.87 189.00
-9755328.14 5135404.86 189.01
-9755333.45 5135404.88 189.03
-9755328.72 5135405.12 189.02
-9755330.51 5135405.71 189.01
-9755326.97 5135404.55 189.01
-9755344.04 5135405.80 189.04
-9755336.94 5135407.27 189.05
-9755344.96 5135407.51 189.64
-9755337.25 5135411.66 188.84
-9755338.44 5135410.55 188.46
-9755339.72 5135409.29 189.10
-9755341.06 5135408.49 189.23
-9755338.44 5135410.00 188.48
-9755342.26 5135410.86 188.30
-9755336.60 5135409.55 189.16
-9755340.76 5135413.88 187.78
-9755339.18 5135414.66 188.09
-9755337.44 5135412.04 188.24
-9755343.36 5135411.49 188.15
-9755341.30 5135414.70 187.56
-9755337.46 5135415.33 187.54
-9755339.21 5135410.87 188.39
-9755342.50 5135409.99 188.49
-9755336.56 5135415.32 187.54
-9755339.92 5135407.30 189.04
-9755338.72 5135410.02 188.46
-9755341.56 5135408.36 189.49
-9755340.79 5135408.54 188.71
-9755344.56 5135409.69 188.47
-9755336.17 5135414.66 187.77
-9755344.91 5135413.87 187.56
-9755344.32 5135412.32 188.46
-9755341.59 5135415.52 187.78
-9755336.31 5135414.12 187.77
-9755340.84 5135408.45 189.12
-9755337.76 5135409.03 189.04
-9755337.48 5135415.07 187.54
-9755337.84 5135416.81 187.34
-9755341.31 5135409.64 188.47
-9755339.90 5135412.38 188.02
-9755338.73 5135407.26 189.03
-9755336.56 5135411.32 188.42
-9755338.39 5135413.29 187.86
-9755337.84 5135413.87 187.78
-9755343.40 5135414.73 187.51
-9755341.94 5135409.85 189.00
-9755338.72 5135410.57 188.88
-9755340.12 5135411.69 188.63
-9755340.40 5135416.81 187.08
-9755341.32 5135414.13 187.56
-9755344.86 5135407.32 189.04
-9755337.75 5135413.73 188.35
-9755344.61 5135408.50 188.71
-9755343.77 5135406.69 189.03
-9755343.10 5135410.86 188.30
-9755336.81 5135416.97 187.50
-9755343.67 5135415.35 187.32
-9755343.12 5135409.08 188.65
-9755340.97 5135415.00 188.07
-9755337.00 5135408.11 189.04
-9755338.36 5135413.81 187.78
-9755339.32 5135407.59 189.03
-9755341.35 5135410.88 188.25
-9755342.85 5135406.39 189.04
-9755341.90 5135412.96 187.80
-9755338.66 5135415.78 187.94
-9755339.08 5135409.98 189.05
-9755337.72 5135413.50 188.38
-9755340.87 5135417.31 187.10
-9755339.94 5135407.90 189.82
-9755344.95 5135410.91 188.26
-9755340.43 5135415.10 187.51
-9755341.13 5135408.15 189.04
-9755337.56 5135407.24 189.04
-9755341.66 5135406.64 189.05
-9755336.87 5135416.21 187.32
-9755338.37 5135414.68 188.09
-9755336.95 5135406.09 189.05
-9755339.06 5135413.96 187.99
-9755343.41 5135416.26 187.16
-9755339.86 5135409.35 188.71
-9755337.55 5135406.34 189.05
-9755340.37 5135415.50 187.98
-9755338.44 5135415.79 187.94
-9755338.70 5135412.63 188.00
-9755341.04 5135415.91 187.31
-9755343.69 5135412.41 187.96
-9755344.27 5135415.65 187.25
-9755338.12 5135408.15 189.04
-9755341.34 5135416.30 187.59
-9755341.92 5135415.35 187.78
-9755342.82 5135410.54 188.38
-9755340.21 5135413.19 188.42
-9755339.87 5135414.71 187.53
-9755336.09 5135406.97 189.05
-9755342.87 5135406.96 189.05
-9755338.13 5135406.66 189.05
-9755341.88 5135416.27 187.11
-9755336.26 5135417.10 187.41
-9755337.19 5135411.03 188.49
-9755344.23 5135415.41 187.32
-9755344.02 5135407.63 189.03
-9755339.24 5135409.29 188.70
-9755338.86 5135416.45 187.34
-9755336.64 5135406.39 189.04
-9755339.57 5135410.54 188.47
-9755340.08 5135411.02 188.62
-9755339.54 5135415.93 187.32
-9755336.57 5135417.17 187.10
-9755338.68 5135406.09 189.04
-9755339.28 5135412.96 188.38
-9755337.79 5135411.72 188.23
-9755336.62 5135409.04 188.98
-9755340.16 5135408.77 188.70
-9755339.62 5135409.35 188.70
-9755339.57 5135416.21 187.30
-9755341.68 5135406.39 189.05
-9755339.58 5135406.69 189.05
-9755343.15 5135407.27 189.03
-9755336.34 5135408.42 189.04
-9755336.92 5135411.18 188.47
-9755344.97 5135408.34 189.19
-9755339.91 5135409.03 188.69
-9755337.58 5135410.52 188.47
-9755338.71 5135409.37 188.70
-9755342.82 5135409.06 188.68
-9755335.78 5135410.83 188.47
-9755342.79 5135413.85 187.68
-9755337.84 5135406.40 189.05
-9755337.48 5135414.70 187.99
-9755336.85 5135408.57 188.65
-9755340.48 5135411.74 188.26
-9755342.55 5135408.82 188.75
-9755337.55 5135407.86 189.04
-9755336.02 5135412.93 188.01
-9755326.88 5135414.94 187.92
-9755330.09 5135413.74 188.03
-9755335.94 5135416.81 187.34
-9755335.78 5135411.44 188.48
-9755325.29 5135412.99 188.91
-9755335.95 5135409.50 188.98
-9755324.56 5135412.23 189.06
-9755331.01 5135415.87 187.56
-9755335.70 5135413.23 188.01
-9755331.83 5135409.78 189.06
-9755330.09 5135414.34 188.03
-9755328.62 5135415.62 187.76
-9755332.27 5135409.92 189.28
-9755334.06 5135413.84 188.28
-9755333.65 5135414.38 187.79
-9755326.88 5135414.66 188.00
-9755330.45 5135410.76 188.71
-9755327.50 5135416.42 187.54
-9755333.44 5135409.92 188.72
-9755334.20 5135415.31 187.56
-9755330.43 5135411.39 188.47
-9755334.53 5135414.07 187.78
-9755331.55 5135414.72 187.79
-9755325.94 5135415.82 187.77
-9755333.14 5135416.31 187.67
-9755326.31 5135410.46 188.87
-9755323.66 5135417.28 187.93
-9755328.90 5135413.42 188.27
-9755332.20 5135411.71 188.49
-9755324.61 5135412.10 188.43
-9755332.77 5135414.33 187.79
-9755328.68 5135410.11 189.04
-9755325.39 5135409.81 189.05
-9755330.44 5135411.70 188.48
-9755326.59 5135407.46 189.05
-9755333.65 5135410.74 189.04
-9755327.99 5135415.81 188.16
-9755334.56 5135416.22 187.31
-9755331.59 5135415.42 187.92
-9755325.74 5135408.44 189.03
-9755334.51 5135414.66 187.78
-9755324.81 5135415.86 187.78
-9755331.90 5135414.27 188.26
-9755333.08 5135415.88 187.54
-9755323.65 5135408.09 189.06
-9755328.70 5135406.26 189.03
-9755330.09 5135416.45 187.57
-9755326.87 5135415.51 187.79
-9755325.43 5135416.43 188.19
-9755333.32 5135415.88 187.54
-9755328.42 5135411.13 188.97
-9755331.01 5135413.71 188.02
-9755334.73 5135409.87 189.06
-9755323.60 5135412.97 189.77
-9755335.42 5135416.78 187.32
-9755324.83 5135411.61 189.08
-9755323.02 5135413.14 189.76
-9755329.25 5135413.14 188.26
-9755334.05 5135410.74 189.09
-9755333.70 5135408.42 189.03
-9755323.95 5135410.45 189.06
-9755323.96 5135416.43 187.57
-9755334.32 5135406.05 189.04
-9755323.04 5135416.99 187.53
-9755330.98 5135413.10 188.26
-9755328.28 5135415.55 188.21
-9755333.08 5135415.59 187.55
-9755327.45 5135413.45 188.24
-9755334.88 5135409.04 189.06
-9755328.06 5135410.45 189.25
-9755324.25 5135412.19 189.04
-9755329.62 5135414.66 188.10
-9755333.65 5135411.65 188.46
-9755323.90 5135412.49 189.06
-9755327.71 5135415.55 187.78
-9755331.66 5135408.99 189.02
-9755330.21 5135406.91 189.03
-9755324.16 5135412.98 189.82
-9755331.36 5135410.91 188.51
-9755329.80 5135414.93 187.79
-9755329.51 5135412.23 188.46
-9755328.68 5135405.72 189.02
-9755330.99 5135408.98 189.06
-9755330.34 5135412.29 188.96
-9755328.44 5135405.73 189.02
-9755333.74 5135414.00 188.11
-9755334.51 5135410.48 188.53
-9755334.28 5135415.92 187.56
-9755330.17 5135408.69 189.04
-9755331.26 5135416.19 187.57
-9755333.73 5135411.14 188.49
-9755323.33 5135412.22 189.05
-9755329.29 5135406.94 189.04
-9755327.56 5135406.31 189.02
-9755324.18 5135416.38 188.07
-9755329.57 5135415.50 188.17
-9755330.14 5135406.02 189.02
-9755331.62 5135408.37 189.03
-9755329.49 5135416.13 187.56
-9755323.33 5135407.19 189.08
-9755323.39 5135405.96 189.04
-9755329.81 5135416.75 187.58
-9755328.69 5135408.96 189.05
-9755328.98 5135411.38 188.48
-9755325.16 5135406.90 189.04
-9755326.86 5135416.41 187.60
-9755331.92 5135416.82 187.80
-9755334.33 5135406.93 189.05
-9755326.07 5135407.72 189.03
-9755333.97 5135415.49 188.16
-9755334.29 5135415.21 188.23
-9755325.95 5135415.55 187.80
-9755323.85 5135414.82 188.50
-9755332.23 5135407.21 189.04
-9755327.83 5135406.89 189.04
-9755327.15 5135414.96 187.82
-9755328.16 5135415.27 188.31
-9755329.17 5135417.26 187.96
-9755332.82 5135406.07 189.04
-9755333.42 5135406.09 189.03
-9755331.81 5135414.40 187.79
-9755328.74 5135406.63 189.03
-9755324.89 5135412.51 189.13
-9755323.15 5135407.20 190.09
-9755326.90 5135415.24 187.84
-9755323.43 5135413.34 188.82
-9755323.27 5135416.97 187.52
-9755333.40 5135408.08 189.04
-9755331.00 5135414.08 188.03
-9755328.06 5135411.32 188.66
-9755323.89 5135415.56 188.34
-9755329.19 5135414.09 188.02
-9755330.45 5135406.92 189.04
-9755326.92 5135413.48 188.24
-9755330.48 5135410.01 188.71
-9755333.72 5135417.02 187.31
-9755331.65 5135413.48 188.03
-9755327.54 5135406.01 189.02
-9755332.75 5135416.81 187.32
-9755326.56 5135410.10 189.79
-9755323.68 5135416.51 187.54
-9755326.93 5135407.15 189.06
-9755334.83 5135414.70 187.81
-9755333.32 5135411.60 188.80
-9755324.59 5135406.30 189.05
-9755324.90 5135407.49 189.05
-9755327.16 5135414.33 188.02
-9755331.67 5135406.05 189.03
-9755327.49 5135408.35 189.03
-9755326.26 5135415.23 187.89
-9755330.39 5135412.86 188.26
-9755328.42 5135408.98 189.04
-9755335.42 5135410.50 188.48
-9755323.22 5135415.55 188.38
-9755324.32 5135411.24 189.53
-9755325.45 5135408.42 189.03
-9755323.04 5135413.44 188.21
-9755331.37 5135411.05 189.08
-9755323.10 5135407.20 189.07
-9755326.37 5135409.00 189.04
-9755325.21 5135408.34 189.03
-9755326.27 5135416.77 187.55
-9755332.10 5135414.25 188.32
-9755335.79 5135409.05 189.07
-9755335.38 5135415.32 187.56
-9755332.51 5135406.35 189.04
-9755334.16 5135413.82 187.81
-9755325.70 5135415.55 187.82
-9755328.06 5135412.32 188.86
-9755334.24 5135412.64 188.26
-9755323.09 5135411.02 189.03
-9755323.81 5135414.04 188.58
-9755335.48 5135409.30 189.05
-9755340.25 5135404.31 189.01
-9755341.42 5135400.78 188.97
-9755341.15 5135400.43 188.97
-9755344.39 5135399.00 188.97
-9755337.60 5135398.07 189.01
-9755336.97 5135400.14 189.01
-9755343.21 5135404.03 189.02
-9755344.07 5135399.91 188.98
-9755337.61 5135404.26 189.03
-9755344.96 5135404.05 189.03
-9755343.22 5135397.79 188.94
-9755344.97 5135402.56 189.00
-9755342.32 5135404.31 189.02
-9755341.98 5135399.89 188.96
-9755340.83 5135399.30 188.96
-9755338.74 5135401.88 189.01
-9755337.59 5135400.78 189.00
-9755338.20 5135401.63 189.01
-9755344.02 5135404.04 189.03
-9755344.95 5135403.12 189.00
-9755336.97 5135403.99 189.04
-9755345.00 5135399.87 188.99
-9755336.70 5135399.26 189.02
-9755344.39 5135400.93 192.19
-9755344.97 5135402.28 189.01
-9755338.69 5135403.38 189.02
-9755343.13 5135404.32 189.03
-9755336.69 5135404.31 189.04
-9755341.93 5135404.03 189.01
-9755336.67 5135403.43 189.03
-9755340.18 5135399.58 188.97
-9755341.73 5135398.69 188.95
-9755336.99 5135401.34 189.01
-9755337.60 5135401.00 189.01
-9755338.17 5135403.40 189.03
-9755344.98 5135401.05 189.01
-9755340.82 5135398.73 188.96
-9755340.81 5135403.13 189.01
-9755339.38 5135398.11 188.97
-9755339.92 5135401.34 188.99
-9755343.45 5135401.67 188.99
-9755344.97 5135400.47 188.98
-9755342.93 5135401.64 188.98
-9755345.01 5135401.99 189.02
-9755339.65 5135399.28 188.98
-9755343.47 5135400.77 188.99
-9755344.67 5135399.32 188.98
-9755338.17 5135402.52 189.02
-9755341.45 5135399.30 188.96
-9755338.74 5135404.00 189.03
-9755336.68 5135400.75 189.02
-9755337.87 5135403.71 189.03
-9755339.33 5135402.20 189.01
-9755339.90 5135402.54 189.00
-9755336.67 5135403.08 189.03
-9755343.17 5135401.07 188.98
-9755341.98 5135404.31 189.01
-9755339.09 5135401.64 189.00
-9755344.99 5135400.22 188.98
-9755340.25 5135402.81 189.01
-9755336.96 5135402.75 189.04
-9755340.83 5135400.22 188.97
-9755339.38 5135401.96 189.00
-9755336.07 5135400.40 189.02
-9755344.34 5135396.93 188.94
-9755339.06 5135403.13 189.02
-9755341.79 5135403.71 190.23
-9755344.37 5135400.50 188.99
-9755341.75 5135399.91 188.96
-9755342.02 5135403.40 189.01
-9755341.17 5135398.37 188.96
-9755340.22 5135401.42 189.00
-9755340.21 5135400.17 188.97
-9755344.10 5135398.40 188.95
-9755337.86 5135402.51 189.02
-9755339.06 5135399.86 188.97
-9755341.97 5135399.27 188.95
-9755337.90 5135400.75 189.01
-9755338.21 5135399.26 188.99
-9755327.01 5135398.30 188.98
-9755329.60 5135404.24 188.99
-9755330.18 5135397.73 188.95
-9755325.52 5135398.36 189.00
-9755330.47 5135401.59 188.95
-9755331.98 5135400.68 188.96
-9755323.72 5135401.81 189.03
-9755324.62 5135404.52 189.03
-9755326.39 5135398.58 188.99
-9755327.26 5135400.09 188.96
-9755331.98 5135402.45 188.97
-9755335.52 5135402.50 189.01
-9755333.47 5135402.18 188.99
-9755335.76 5135402.50 189.01
-9755331.69 5135401.85 188.96
-9755328.42 5135404.24 189.01
-9755323.41 5135400.07 189.04
-9755326.38 5135402.78 188.99
-9755330.46 5135403.64 188.97
-9755335.50 5135400.13 189.01
-9755325.18 5135404.22 189.01
-9755332.91 5135401.00 188.98
-9755330.48 5135401.01 188.93
-9755328.68 5135403.04 188.98
-9755326.07 5135397.41 188.99
-9755326.37 5135404.27 189.00
-9755323.47 5135397.40 189.03
-9755329.32 5135398.63 188.94
-9755326.10 5135401.85 189.00
-9755329.98 5135397.45 188.96
-9755334.93 5135403.09 189.02
-9755333.73 5135404.27 189.01
-9755324.59 5135399.18 189.01
-9755328.14 5135396.82 188.96
-9755330.78 5135401.00 188.95
-9755333.76 5135401.32 188.98
-9755327.52 5135398.31 188.97
-9755333.48 5135399.49 188.98
-9755324.59 5135400.33 189.02
-9755323.42 5135400.93 189.04
-9755335.56 5135399.26 189.00
-9755335.49 5135403.04 189.02
-9755324.03 5135400.93 189.03
-9755329.65 5135396.56 188.96
-9755325.18 5135401.88 189.01
-9755326.08 5135402.44 189.00
-9755334.38 5135399.22 188.99
-9755325.83 5135401.53 189.00
-9755325.81 5135399.25 188.99
-9755335.48 5135403.41 189.02
-9755323.72 5135403.59 189.04
-9755329.63 5135401.57 188.96
-9755332.87 5135401.31 188.98
-9755334.02 5135403.42 189.00
-9755328.75 5135399.80 188.94
-9755328.13 5135400.08 188.96
-9755327.52 5135403.88 188.99
-9755325.21 5135402.46 189.02
-9755326.67 5135397.40 188.99
-9755332.85 5135399.82 188.97
-9755324.59 5135398.62 189.02
-9755327.60 5135399.21 188.97
-9755324.33 5135398.90 189.03
-9755330.81 5135400.14 188.94
-9755325.47 5135402.75 189.01
-9755334.29 5135399.81 189.00
-9755333.77 5135401.92 188.99
-9755331.67 5135401.27 188.96
-9755323.11 5135402.74 189.04
-9755335.53 5135403.98 189.03
-9755323.18 5135403.90 189.04
-9755332.59 5135403.09 188.99
-9755334.64 5135403.07 189.02
-9755334.35 5135401.91 189.01
-9755325.46 5135396.49 189.00
-9755333.46 5135400.72 188.98
-9755331.99 5135398.65 188.95
-9755332.27 5135403.40 188.98
-9755330.78 5135398.32 188.94
-9755333.43 5135398.66 188.97
-9755327.25 5135398.58 188.97
-9755328.47 5135400.71 188.93
-9755330.56 5135396.87 188.96
-9755329.25 5135402.80 188.96
-9755323.42 5135403.35 189.04
-9755335.50 5135399.83 189.00
-9755328.13 5135403.35 188.98
-9755332.58 5135400.42 188.97
-9755331.35 5135403.06 188.98
-9755324.55 5135402.45 189.03
-9755329.33 5135403.97 188.98
-9755330.77 5135403.94 188.98
-9755327.27 5135401.87 188.99
-9755331.69 5135400.69 188.96
-9755325.50 5135399.16 188.99
-9755324.04 5135403.92 189.04
-9755326.40 5135396.53 188.99
-9755328.75 5135398.61 188.94
-9755324.33 5135403.63 189.03
-9755325.49 5135401.84 189.00
-9755331.93 5135403.07 188.98
-9755323.10 5135404.80 189.04
-9755320.73 5135404.74 189.02
-9755322.22 5135405.06 189.03
-9755321.94 5135404.48 189.03
-9755322.23 5135404.80 189.03
-9755322.49 5135415.77 188.31
-9755322.74 5135415.19 187.97
-9755323.10 5135408.32 189.06
-9755322.82 5135407.19 189.05
-9755322.24 5135414.42 188.58
-9755322.80 5135407.73 189.06
-9755321.05 5135416.77 188.01
-9755320.45 5135406.33 189.02
-9755320.63 5135416.38 187.74
-9755321.62 5135415.47 187.92
-9755321.00 5135412.52 189.04
-9755321.84 5135414.76 188.61
-9755320.98 5135414.32 188.21
-9755321.34 5135409.22 189.03
-9755320.48 5135409.79 189.04
-9755322.21 5135405.97 189.05
-9755321.80 5135416.06 187.75
-9755321.57 5135414.94 187.95
-9755322.70 5135413.57 189.19
-9755321.00 5135408.88 189.05
-9755321.74 5135413.29 188.34
-9755321.46 5135416.73 187.63
-9755321.25 5135411.03 189.03
-9755321.00 5135408.04 189.03
-9755321.01 5135409.83 189.04
-9755320.47 5135414.61 188.63
-9755322.18 5135409.28 189.03
-9755321.89 5135408.63 189.03
-9755322.17 5135411.06 189.05
-9755321.02 5135406.85 189.03
-9755322.51 5135406.86 189.03
-9755322.24 5135405.65 189.03
-9755322.19 5135408.36 189.04
-9755322.21 5135408.94 189.03
-9755320.73 5135408.89 189.04
-9755322.18 5135410.72 189.05
-9755311.92 5135404.46 189.04
-9755318.99 5135405.06 188.99
-9755319.30 5135404.81 188.99
-9755314.83 5135405.36 189.01
-9755311.90 5135405.57 189.04
-9755318.34 5135415.98 188.26
-9755317.11 5135416.42 188.02
-9755309.80 5135414.57 188.49
-9755309.83 5135407.10 189.02
-9755318.05 5135414.91 188.18
-9755319.86 5135410.71 189.03
-9755314.18 5135416.56 187.98
-9755312.17 5135410.62 189.05
-9755311.25 5135412.70 188.96
-9755315.76 5135405.64 188.99
-9755309.88 5135406.80 189.01
-9755315.60 5135414.30 189.10
-9755312.67 5135411.87 188.98
-9755315.63 5135415.47 187.96
-9755316.33 5135409.19 189.03
-9755309.86 5135405.65 189.01
-9755312.73 5135409.42 190.11
-9755311.25 5135414.20 188.49
-9755312.72 5135413.36 188.68
-9755312.20 5135407.10 189.03
-9755318.66 5135406.57 189.01
-9755318.63 5135415.18 188.56
-9755310.61 5135415.11 188.47
-9755317.78 5135409.25 189.03
-9755318.98 5135408.29 189.03
-9755309.50 5135409.16 189.04
-9755311.61 5135409.26 191.73
-9755315.73 5135409.82 189.05
-9755313.94 5135416.37 187.99
-9755317.77 5135410.94 189.05
-9755316.86 5135412.47 189.05
-9755313.00 5135413.94 188.56
-9755318.64 5135409.23 189.06
-9755312.98 5135413.35 188.67
-9755313.56 5135414.48 189.12
-9755313.06 5135407.68 189.04
-9755316.01 5135411.00 189.05
-9755318.62 5135408.34 189.03
-9755313.61 5135413.94 189.05
-9755320.10 5135413.91 188.84
-9755312.47 5135409.80 189.05
-9755316.36 5135405.68 188.99
-9755314.29 5135406.54 189.03
-9755309.86 5135405.30 189.01
-9755317.74 5135416.99 187.74
-9755316.02 5135409.78 189.04
-9755311.54 5135416.35 188.02
-9755317.25 5135408.37 189.03
-9755317.77 5135406.84 189.01
-9755313.60 5135415.13 188.23
-9755320.03 5135413.27 189.82
-9755318.61 5135409.79 189.03
-9755313.32 5135415.74 188.16
-9755313.32 5135414.20 189.07
-9755317.73 5135416.69 187.74
-9755316.21 5135416.68 187.73
-9755314.77 5135415.76 187.98
-9755313.92 5135411.56 189.04
-9755309.87 5135409.72 189.04
-9755319.78 5135416.68 187.73
-9755309.78 5135413.28 188.70
-9755318.92 5135411.90 189.04
-9755316.23 5135416.33 187.98
-9755319.80 5135411.64 189.04
-9755313.65 5135406.52 189.03
-9755318.68 5135407.71 189.02
-9755313.09 5135405.95 189.03
-9755318.93 5135415.50 188.38
-9755309.78 5135414.21 188.73
-9755314.47 5135415.60 188.24
-9755314.21 5135408.31 189.04
-9755313.09 5135405.60 189.03
-9755310.32 5135416.28 188.26
-9755314.45 5135416.94 187.80
-9755318.06 5135408.33 189.04
-9755317.42 5135416.41 188.42
-9755312.77 5135407.99 189.09
-9755314.53 5135407.72 189.03
-9755318.10 5135406.21 189.01
-9755311.55 5135408.86 189.04
-9755316.02 5135415.44 188.23
-9755310.29 5135414.29 188.49
-9755310.42 5135412.10 189.05
-9755317.74 5135415.77 187.96
-9755317.17 5135410.68 189.05
-9755319.79 5135415.47 187.95
-9755315.67 5135413.07 189.05
-9755310.44 5135415.03 188.96
-9755315.65 5135417.28 187.75
-9755316.92 5135408.04 189.03
-9755312.83 5135407.67 189.04
-9755317.75 5135414.27 188.96
-9755316.94 5135405.99 189.01
-9755317.78 5135413.64 189.07
-9755313.55 5135415.71 188.14
-9755315.33 5135416.04 187.98
-9755311.88 5135410.96 189.04
-9755312.48 5135406.81 189.04
-9755311.30 5135411.83 189.04
-9755318.66 5135406.86 189.02
-9755314.25 5135408.01 189.03
-9755309.81 5135409.70 190.13
-9755310.58 5135416.29 188.26
-9755315.14 5135405.63 189.00
-9755309.55 5135409.16 190.26
-9755310.36 5135415.74 188.71
-9755310.66 5135411.83 189.05
-9755311.01 5135407.99 189.03
-9755315.71 5135408.90 189.03
-9755313.87 5135414.61 188.23
-9755317.45 5135408.91 189.04
-9755312.16 5135407.70 189.05
-9755309.81 5135410.06 189.05
-9755309.68 5135409.26 189.04
-9755312.12 5135417.04 188.51
-9755319.22 5135414.58 188.19
-9755312.10 5135414.22 188.53
-9755309.52 5135414.25 188.73
-9755317.26 5135417.23 188.12
-9755311.55 5135415.74 188.25
-9755310.96 5135409.79 189.03
-9755313.94 5135407.97 189.02
-9755316.84 5135416.32 187.99
-9755319.00 5135405.97 189.00
-9755310.38 5135410.94 189.03
-9755311.83 5135414.81 188.42
-9755323.13 5135398.27 189.03
-9755323.14 5135397.71 189.03
-9755320.50 5135398.59 188.99
-9755321.93 5135403.91 189.03
-9755321.37 5135399.77 188.99
-9755322.27 5135396.83 189.02
-9755320.51 5135396.83 189.00
-9755321.04 5135397.70 188.99
-9755320.79 5135397.42 189.00
-9755321.09 5135402.14 188.99
-9755322.23 5135400.31 189.02
-9755322.20 5135403.02 189.02
-9755321.08 5135400.36 189.01
-9755321.04 5135404.19 189.00
-9755321.67 5135400.66 189.00
-9755321.07 5135401.81 188.99
-9755311.62 5135402.63 189.03
-9755310.80 5135400.01 189.04
-9755314.88 5135400.90 188.97
-9755313.12 5135397.36 189.00
-9755311.91 5135398.48 189.01
-9755312.19 5135403.90 189.03
-9755317.80 5135400.90 188.94
-9755313.39 5135399.15 188.98
-9755316.93 5135400.59 188.93
-9755316.06 5135399.41 188.95
-9755316.00 5135404.18 188.97
-9755319.62 5135399.45 188.98
-9755320.21 5135399.74 188.99
-9755312.23 5135397.63 189.00
-9755312.21 5135403.55 189.02
-9755314.55 5135399.09 188.95
-9755309.90 5135399.38 189.04
-9755318.11 5135398.83 188.96
-9755316.95 5135401.77 188.93
-9755318.11 5135398.29 188.96
-9755319.60 5135396.52 188.99
-9755315.47 5135397.68 188.96
-9755318.10 5135401.79 188.94
-9755311.89 5135403.24 189.03
-9755311.03 5135400.00 189.03
-9755315.46 5135403.87 188.97
-9755318.14 5135396.77 188.99
-9755319.00 5135403.93 188.98
-9755318.08 5135401.49 188.94
-9755319.56 5135402.99 188.98
-9755314.01 5135402.71 188.99
-9755310.72 5135400.85 189.05
-9755313.48 5135397.33 188.98
-9755317.53 5135399.10 188.95
-9755319.36 5135397.37 188.99
-9755318.69 5135404.17 188.97
-9755314.25 5135400.88 188.98
-9755316.03 5135397.67 188.96
-9755315.47 5135396.49 188.99
-9755316.90 5135402.41 188.95
-9755318.71 5135396.80 188.99
-9755316.11 5135399.14 188.94
-9755317.81 5135403.59 188.98
-9755314.86 5135401.48 188.96
-9755313.99 5135399.43 188.96
-9755318.41 5135400.94 188.95
-9755318.73 5135397.09 188.98
-9755317.26 5135397.08 188.98
-9755317.82 5135400.32 188.94
-9755310.12 5135399.08 189.03
-9755311.02 5135401.73 189.03
-9755318.05 5135403.30 188.96
-9755320.19 5135399.48 188.99
-9755316.69 5135397.68 188.96
-9755313.96 5135397.95 188.98
-9755313.11 5135403.86 189.00
-9755319.03 5135398.54 188.98
-9755319.29 5135400.67 188.96
-9755313.69 5135401.47 188.99
-9755319.61 5135397.09 188.99
-9755319.58 5135403.62 188.99
-9755316.98 5135400.33 188.93
-9755314.00 5135398.54 188.97
-9755309.90 5135401.77 189.03
-9755315.20 5135400.05 188.95
-9755319.01 5135400.02 188.96
-9755311.65 5135397.64 189.01
-9755312.19 5135402.94 189.03
-9755316.39 5135397.65 188.96
-9755311.03 5135399.11 189.03
-9755310.77 5135398.53 189.04
-9755316.10 5135398.56 188.95
-9755314.86 5135398.50 188.93
-9755319.54 5135400.89 188.96
-9755315.14 5135402.37 188.97
-9755338.23 5135378.12 182.38
-9755338.71 5135378.47 181.60
-9755342.51 5135377.83 188.36
-9755339.38 5135378.29 192.95
-9755338.48 5135378.07 183.83
-9755339.10 5135378.25 181.59
-9755337.61 5135378.30 182.23
-9755338.87 5135378.35 192.37
-9755342.32 5135377.98 184.83
-9755339.30 5135378.20 183.25
-9755336.82 5135378.25 185.26
-9755342.15 5135378.71 192.34
-9755338.85 5135378.45 185.82
-9755339.62 5135377.97 182.32
-9755339.66 5135378.32 186.71
-9755340.14 5135377.90 188.66
-9755338.35 5135378.29 187.90
-9755338.86 5135378.04 181.59
-9755337.78 5135378.12 185.76
-9755339.51 5135377.80 192.52
-9755338.24 5135378.10 185.75
-9755341.05 5135377.81 186.65
-9755342.76 5135378.14 192.36
-9755339.34 5135378.04 183.75
-9755341.23 5135377.92 188.15
-9755340.99 5135378.98 192.33
-9755344.80 5135377.83 192.40
-9755344.15 5135378.83 192.51
-9755338.38 5135378.28 183.92
-9755336.74 5135378.31 181.58
-9755344.57 5135377.83 192.40
-9755338.34 5135378.06 184.68
-9755337.93 5135378.15 183.83
-9755340.54 5135377.99 181.58
-9755337.35 5135378.47 182.08
-9755336.30 5135378.40 193.30
-9755337.64 5135377.98 181.58
-9755338.08 5135378.39 189.71
-9755339.40 5135377.91 185.72
-9755338.49 5135378.30 181.60
-9755339.18 5135378.05 188.80
-9755338.66 5135378.01 192.38
-9755337.99 5135378.01 182.58
-9755338.25 5135378.34 190.19
-9755340.40 5135378.39 193.30
-9755339.47 5135378.04 193.30
-9755340.27 5135378.20 181.56
-9755334.35 5135378.84 183.08
-9755336.54 5135378.61 193.30
-9755333.79 5135378.80 183.07
-9755331.82 5135378.95 192.42
-9755330.86 5135378.20 183.38
-9755333.78 5135378.54 182.70
-9755332.04 5135378.58 181.53
-9755333.24 5135378.55 181.55
-9755334.91 5135377.91 182.78
-9755334.65 5135377.85 183.51
-9755332.05 5135379.00 183.17
-9755333.63 5135378.80 184.63
-9755333.24 5135378.01 181.62
-9755328.84 5135377.92 181.55
-9755331.21 5135377.96 181.55
-9755329.69 5135378.60 181.56
-9755333.85 5135377.97 183.85
-9755330.90 5135378.90 183.20
-9755334.86 5135378.65 188.92
-9755331.81 5135378.59 183.62
-9755326.44 5135378.50 181.60
-9755334.53 5135378.61 183.40
-9755333.76 5135378.92 181.58
-9755333.69 5135378.87 188.85
-9755330.61 5135377.97 183.42
-9755335.01 5135378.04 183.71
-9755333.67 5135378.91 192.41
-9755334.20 5135378.58 182.79
-9755335.32 5135379.04 181.62
-9755334.47 5135378.96 192.57
-9755331.36 5135378.90 191.89
-9755336.24 5135378.44 185.72
-9755333.49 5135378.73 186.34
-9755335.23 5135378.96 186.52
-9755334.49 5135378.99 192.41
-9755333.76 5135378.30 181.58
-9755332.89 5135378.82 188.21
-9755328.80 5135378.28 181.55
-9755334.32 5135378.91 181.60
-9755340.02 5135386.69 192.38
-9755341.18 5135386.07 192.41
-9755342.43 5135386.06 192.40
-9755342.10 5135386.68 192.40
-9755342.40 5135384.92 192.40
-9755343.61 5135383.47 192.37
-9755341.00 5135387.77 192.66
-9755343.58 5135384.94 192.38
-9755336.84 5135387.88 192.43
-9755343.61 5135380.14 192.34
-9755344.19 5135384.63 192.38
-9755337.92 5135386.11 192.40
-9755344.46 5135380.56 192.57
-9755342.74 5135386.34 192.41
-9755345.00 5135380.16 192.33
-9755337.32 5135388.41 192.81
-9755344.84 5135381.37 193.03
-9755344.15 5135380.81 192.37
-9755338.01 5135388.16 192.56
-9755343.33 5135381.96 192.35
-9755337.13 5135384.34 192.39
-9755344.60 5135380.76 193.05
-9755344.14 5135387.33 192.43
-9755342.96 5135392.48 188.99
-9755336.87 5135385.19 192.39
-9755340.94 5135385.81 192.42
-9755344.20 5135384.02 192.37
-9755344.77 5135385.18 192.40
-9755340.36 5135379.25 192.33
-9755341.84 5135387.28 192.39
-9755338.54 5135386.09 192.41
-9755344.58 5135381.29 193.05
-9755344.78 5135381.87 193.97
-9755338.18 5135388.16 192.54
-9755343.63 5135386.68 192.40
-9755342.13 5135383.44 192.38
-9755336.26 5135382.79 192.36
-9755344.81 5135383.43 192.37
-9755339.48 5135382.82 192.36
-9755337.61 5135387.24 192.40
-9755338.32 5135380.13 192.35
-9755337.40 5135386.07 192.40
-9755344.44 5135388.18 192.51
-9755340.70 5135383.72 192.36
-9755344.82 5135387.06 192.45
-9755342.44 5135385.23 192.40
-9755339.46 5135384.31 192.38
-9755344.15 5135386.10 192.37
-9755340.31 5135388.18 192.44
-9755342.37 5135392.45 189.00
-9755338.60 5135386.76 192.41
-9755344.24 5135381.33 192.35
-9755339.49 5135380.15 192.33
-9755344.48 5135384.31 192.37
-9755337.26 5135388.14 192.54
-9755339.21 5135379.86 192.34
-9755340.06 5135381.69 192.34
-9755336.24 5135387.52 192.41
-9755336.57 5135380.99 192.36
-9755336.56 5135383.67 192.37
-9755343.26 5135387.28 192.45
-9755341.58 5135386.63 192.39
-9755337.10 5135386.70 192.40
-9755340.30 5135384.90 192.37
-9755337.76 5135381.32 192.36
-9755336.50 5135386.10 192.39
-9755345.00 5135381.70 193.41
-9755339.25 5135385.74 192.39
-9755340.19 5135387.68 192.65
-9755341.83 5135386.98 192.40
-9755341.24 5135388.41 192.48
-9755342.42 5135385.84 192.40
-9755338.32 5135386.10 192.41
-9755336.99 5135387.84 192.42
-9755344.49 5135382.84 192.35
-9755344.99 5135391.87 189.01
-9755338.83 5135388.69 192.69
-9755343.28 5135384.32 192.37
-9755340.80 5135387.63 192.37
-9755339.22 5135379.29 192.34
-9755341.54 5135381.67 192.34
-9755344.53 5135383.43 192.36
-9755337.35 5135386.65 192.38
-9755338.22 5135387.93 192.58
-9755344.53 5135381.56 193.32
-9755342.14 5135385.18 192.39
-9755338.29 5135382.25 192.37
-9755340.95 5135384.56 192.38
-9755337.68 5135385.50 192.39
-9755337.12 5135387.57 192.41
-9755344.76 5135382.80 192.35
-9755340.34 5135387.01 192.40
-9755340.32 5135392.47 188.99
-9755338.33 5135382.51 192.36
-9755344.74 5135381.99 192.35
-9755338.30 5135387.26 192.43
-9755337.68 5135382.52 192.37
-9755340.86 5135387.83 192.39
-9755343.32 5135381.37 192.34
-9755339.95 5135387.91 192.72
-9755337.66 5135387.59 192.42
-9755337.01 5135387.66 192.66
-9755342.39 5135388.13 192.50
-9755342.74 5135387.02 192.41
-9755336.80 5135385.77 192.38
-9755343.30 5135384.66 192.37
-9755340.05 5135384.01 192.37
-9755337.43 5135383.39 192.37
-9755338.32 5135379.56 192.36
-9755336.55 5135382.81 192.36
-9755344.54 5135386.49 192.41
-9755342.39 5135387.01 192.43
-9755344.75 5135390.12 189.02
-9755343.68 5135386.90 192.41
-9755341.21 5135384.93 192.39
-9755340.69 5135385.16 192.38
-9755344.15 5135391.63 189.00
-9755341.26 5135381.93 192.35
-9755338.89 5135386.96 192.40
-9755344.24 5135385.54 192.39
-9755342.13 5135381.97 192.34
-9755340.64 5135381.94 192.34
-9755343.19 5135392.47 188.99
-9755341.05 5135387.08 194.33
-9755339.79 5135380.18 192.33
-9755341.44 5135387.55 192.40
-9755337.92 5135386.93 192.41
-9755342.71 5135383.73 192.37
-9755337.66 5135389.01 192.49
-9755330.43 5135379.07 192.34
-9755330.25 5135386.96 192.40
-9755331.24 5135378.49 183.39
-9755331.19 5135387.50 192.42
-9755336.15 5135388.20 192.52
-9755330.87 5135379.36 183.94
-9755327.87 5135379.41 181.55
-9755327.06 5135378.77 181.59
-9755326.08 5135379.66 191.68
-9755331.01 5135379.36 192.40
-9755331.17 5135379.20 190.90
-9755325.59 5135385.97 193.59
-9755331.86 5135379.21 192.40
-9755324.62 5135389.48 192.70
-9755325.51 5135387.03 192.40
-9755323.54 5135385.10 192.37
-9755332.96 5135383.69 192.38
-9755329.19 5135379.35 181.55
-9755330.37 5135380.37 192.40
-9755330.39 5135379.37 189.57
-9755335.04 5135391.85 189.03
-9755330.30 5135384.85 192.37
-9755332.83 5135379.31 181.54
-9755330.89 5135387.17 192.41
-9755325.07 5135387.43 193.61
-9755327.52 5135381.34 193.15
-9755331.19 5135387.14 192.41
-9755325.33 5135387.41 192.40
-9755332.23 5135379.15 189.35
-9755335.09 5135382.21 192.35
-9755325.90 5135384.18 192.36
-9755332.13 5135382.52 192.36
-9755324.40 5135379.69 181.66
-9755325.07 5135383.92 192.34
-9755332.74 5135386.63 192.39
-9755323.84 5135387.72 192.37
-9755325.01 5135387.43 192.40
-9755325.94 5135387.37 193.66
-9755325.05 5135383.02 192.35
-9755328.91 5135383.66 192.37
-9755328.85 5135379.48 186.75
-9755325.90 5135387.07 193.66
-9755325.07 5135380.15 186.49
-9755331.24 5135382.80 192.34
-9755331.24 5135380.11 192.38
-9755331.48 5135379.25 184.33
-9755324.17 5135380.33 193.30
-9755326.36 5135379.61 185.66
-9755330.85 5135379.25 181.55
-9755328.26 5135387.78 192.43
-9755328.55 5135388.65 192.48
-9755335.08 5135382.53 192.36
-9755334.13 5135386.94 192.40
-9755324.45 5135386.27 192.36
-9755323.53 5135386.29 192.35
-9755325.17 5135379.44 192.49
-9755331.85 5135379.36 191.57
-9755330.33 5135385.44 192.38
-9755331.33 5135379.38 189.89
-9755327.39 5135380.11 192.35
-9755326.11 5135379.55 192.20
-9755323.26 5135389.24 192.37
-9755332.72 5135387.23 192.40
-9755331.80 5135383.68 192.37
-9755329.17 5135382.72 192.34
-9755326.16 5135387.14 193.66
-9755325.60 5135390.10 192.69
-9755329.68 5135385.42 192.38
-9755334.64 5135387.57 192.43
-9755328.56 5135388.40 192.38
-9755335.31 5135388.96 192.66
-9755324.81 5135380.23 188.47
-9755330.94 5135381.60 192.37
-9755329.75 5135387.51 192.41
-9755331.53 5135386.98 192.41
-9755334.44 5135385.74 192.38
-9755331.81 5135381.59 192.37
-9755331.77 5135386.62 192.38
-9755336.15 5135391.56 189.03
-9755323.21 5135379.36 181.68
-9755329.16 5135388.12 192.45
-9755324.37 5135389.56 192.69
-9755323.81 5135386.58 192.37
-9755323.98 5135380.29 181.67
-9755335.05 5135386.97 192.40
-9755333.83 5135386.04 192.41
-9755326.17 5135382.75 192.36
-9755324.96 5135386.90 192.38
-9755333.89 5135386.63 192.40
-9755324.44 5135385.67 192.34
-9755325.31 5135380.18 181.65
-9755329.43 5135382.79 192.35
-9755332.98 5135379.21 185.93
-9755329.15 5135379.36 192.31
-9755331.81 5135380.99 192.38
-9755328.86 5135386.94 192.40
-9755325.82 5135379.60 183.47
-9755323.90 5135388.61 192.39
-9755326.40 5135387.36 193.67
-9755334.18 5135381.90 192.37
-9755330.28 5135387.18 192.40
-9755327.67 5135387.16 192.40
-9755330.31 5135388.69 192.41
-9755331.81 5135379.36 186.62
-9755334.48 5135379.19 192.58
-9755328.71 5135379.49 192.94
-9755330.25 5135379.55 186.44
-9755328.88 5135381.84 192.34
-9755332.72 5135381.60 192.37
-9755327.09 5135385.15 192.37
-9755327.11 5135385.70 192.37
-9755328.58 5135383.39 192.36
-9755333.85 5135383.37 192.36
-9755327.70 5135387.46 192.40
-9755327.70 5135379.56 193.30
-9755325.89 5135385.63 193.42
-9755323.76 5135380.93 181.63
-9755324.15 5135380.12 193.30
-9755333.20 5135388.62 192.45
-9755331.82 5135387.50 192.40
-9755332.07 5135389.57 192.45
-9755330.35 5135383.12 192.36
-9755329.74 5135383.40 192.36
-9755330.32 5135382.18 192.35
-9755330.56 5135379.30 184.76
-9755327.35 5135388.68 192.41
-9755325.53 5135380.35 185.70
-9755324.38 5135387.94 192.99
-9755324.17 5135384.18 192.34
-9755325.26 5135386.30 192.36
-9755324.48 5135380.18 191.38
-9755328.02 5135382.76 192.35
-9755326.51 5135385.95 193.60
-9755331.82 5135384.56 192.38
-9755326.80 5135381.27 192.33
-9755327.71 5135386.63 192.38
-9755326.13 5135379.83 185.72
-9755329.47 5135386.03 192.38
-9755330.90 5135386.32 192.37
-9755330.89 5135379.31 191.85
-9755324.74 5135385.43 192.34
-9755335.30 5135384.55 192.38
-9755328.01 5135385.44 192.37
-9755325.59 5135385.11 193.41
-9755335.37 5135382.53 192.36
-9755330.91 5135379.26 186.55
-9755328.58 5135380.01 193.29
-9755326.22 5135384.42 193.41
-9755328.61 5135384.52 192.37
-9755323.84 5135385.69 192.35
-9755324.95 5135384.19 193.41
-9755330.62 5135386.66 192.37
-9755326.23 5135379.61 192.89
-9755325.95 5135386.26 193.64
-9755335.03 5135384.58 192.38
-9755331.16 5135379.21 185.89
-9755329.05 5135379.43 190.76
-9755324.73 5135383.31 193.34
-9755326.98 5135379.92 183.46
-9755335.37 5135388.44 192.49
-9755325.08 5135380.19 190.97
-9755334.04 5135379.20 186.57
-9755332.69 5135379.33 188.63
-9755327.69 5135384.52 192.36
-9755328.54 5135385.48 192.39
-9755324.98 5135379.44 181.66
-9755328.96 5135379.54 185.12
-9755331.11 5135390.50 192.55
-9755325.49 5135388.37 193.19
-9755334.47 5135386.04 192.39
-9755323.73 5135380.41 190.31
-9755323.86 5135384.50 192.34
-9755332.73 5135389.83 192.97
-9755332.42 5135383.37 192.37
-9755326.34 5135379.56 193.27
-9755327.93 5135379.61 189.89
-9755324.38 5135385.91 193.41
-9755327.10 5135379.87 189.62
-9755332.66 5135386.01 192.39
-9755329.39 5135379.64 183.53
-9755327.71 5135382.45 192.34
-9755328.81 5135379.94 186.63
-9755329.18 5135379.56 191.60
-9755330.58 5135379.16 184.38
-9755325.97 5135386.48 193.66
-9755330.91 5135383.95 192.36
-9755329.98 5135383.62 192.37
-9755332.35 5135384.55 192.38
-9755328.93 5135379.48 191.76
-9755326.50 5135383.26 192.37
-9755326.15 5135387.82 193.67
-9755323.48 5135389.53 192.73
-9755325.00 5135389.52 193.16
-9755325.87 5135380.14 186.06
-9755324.35 5135379.09 181.66
-9755327.95 5135379.66 185.94
-9755326.84 5135379.57 190.35
-9755326.09 5135379.63 181.61
-9755330.30 5135385.77 192.38
-9755333.95 5135379.20 192.42
-9755327.40 5135379.55 183.46
-9755330.28 5135379.61 185.64
-9755331.37 5135379.44 191.76
-9755329.04 5135379.58 184.78
-9755332.08 5135390.22 192.52
-9755324.15 5135380.10 192.38
-9755326.23 5135380.16 183.50
-9755327.61 5135391.75 189.02
-9755329.14 5135387.51 192.41
-9755325.34 5135387.40 193.66
-9755324.73 5135387.46 192.39
-9755325.77 5135379.33 181.61
-9755326.77 5135379.99 188.08
-9755329.23 5135385.44 192.38
-9755324.67 5135380.15 191.58
-9755330.06 5135379.48 185.08
-9755335.35 5135382.18 192.35
-9755332.08 5135386.93 192.40
-9755332.08 5135383.96 192.37
-9755331.80 5135386.37 192.37
-9755327.98 5135384.53 192.38
-9755331.49 5135388.41 192.41
-9755329.77 5135386.90 192.41
-9755324.14 5135380.38 186.65
-9755323.82 5135389.76 198.31
-9755334.18 5135388.15 192.40
-9755324.17 5135383.34 192.33
-9755326.67 5135379.83 185.69
-9755324.82 5135383.62 192.33
-9755326.70 5135379.83 191.56
-9755327.64 5135388.65 192.41
-9755336.18 5135383.72 192.37
-9755335.66 5135383.71 192.37
-9755335.39 5135380.71 192.37
-9755324.70 5135385.01 193.42
-9755327.91 5135379.51 183.46
-9755331.17 5135379.51 181.54
-9755335.03 5135388.09 192.45
-9755327.67 5135382.08 193.16
-9755329.98 5135389.27 192.42
-9755324.76 5135382.14 192.34
-9755333.56 5135382.46 192.37
-9755327.11 5135379.76 193.31
-9755326.24 5135379.84 191.69
-9755332.67 5135389.07 192.46
-9755327.92 5135382.16 193.16
-9755323.59 5135390.46 192.66
-9755328.91 5135379.65 184.50
-9755327.35 5135379.43 181.59
-9755326.79 5135387.44 192.35
-9755333.30 5135382.74 192.37
-9755326.22 5135379.76 188.25
-9755332.13 5135385.47 192.38
-9755335.11 5135380.11 192.38
-9755331.80 5135384.29 192.37
-9755324.40 5135380.27 188.49
-9755344.07 5135396.63 188.95
-9755338.82 5135393.31 188.99
