-9755486.22 5135731.88 184.69
-9755480.27 5135733.00 181.11
-9755482.95 5135730.94 181.12
-9755481.16 5135730.00 181.10
-9755484.35 5135732.50 183.98
-9755484.72 5135728.87 181.00
-9755490.28 5135733.09 180.87
-9755483.24 5135728.88 181.02
-9755479.98 5135732.14 181.12
-9755487.08 5135732.11 181.01
-9755488.54 5135730.71 180.92
-9755478.22 5135733.59 181.10
-9755477.62 5135731.78 181.11
-9755477.32 5135733.55 181.12
-9755478.52 5135729.13 181.12
-9755479.11 5135729.71 181.10
-9755478.84 5135728.85 181.11
-9755478.54 5135729.69 181.11
-9755470.00 5135726.15 181.22
-9755472.91 5135730.67 184.90
-9755472.96 5135729.99 184.76
-9755473.27 5135729.85 184.48
-9755470.82 5135727.24 183.44
-9755468.81 5135726.68 181.23
-9755471.21 5135730.99 185.29
-9755471.75 5135728.35 184.40
-9755470.31 5135727.74 183.71
-9755471.75 5135730.42 184.92
-9755473.05 5135729.55 184.13
-9755468.93 5135729.27 184.60
-9755472.58 5135730.43 184.73
-9755472.97 5135729.54 184.57
-9755471.77 5135728.30 183.44
-9755470.21 5135730.94 184.98
-9755473.47 5135730.43 184.47
-9755472.18 5135730.29 184.67
-9755474.37 5135730.58 181.16
-9755473.80 5135730.88 181.18
-9755472.12 5135728.89 184.45
-9755472.11 5135730.98 185.17
-9755473.77 5135730.40 184.04
-9755469.41 5135728.99 184.29
-9755469.46 5135729.82 183.83
-9755471.77 5135730.95 185.29
-9755474.10 5135731.76 181.16
-9755470.96 5135731.23 185.21
-9755471.37 5135730.45 185.64
-9755470.03 5135731.26 185.30
-9755472.07 5135729.87 184.92
-9755471.84 5135729.75 185.83
-9755469.77 5135729.10 184.88
-9755473.52 5135726.73 181.18
-9755470.59 5135730.95 184.09
-9755471.25 5135729.17 185.83
-9755470.26 5135729.20 184.45
-9755471.46 5135728.46 183.44
-9755472.65 5135730.68 185.11
-9755472.42 5135729.34 183.93
-9755471.42 5135731.09 183.53
-9755469.10 5135732.91 181.24
-9755473.51 5135730.21 184.43
-9755471.90 5135732.76 184.44
-9755471.22 5135729.62 185.92
-9755470.86 5135729.89 185.35
-9755473.50 5135730.10 184.88
-9755470.92 5135732.17 184.35
-9755472.11 5135730.05 185.54
-9755472.88 5135731.44 183.75
-9755473.28 5135729.32 184.12
-9755473.82 5135732.06 181.18
-9755472.09 5135732.31 183.44
-9755471.20 5135731.32 185.23
-9755468.81 5135730.01 181.24
-9755473.42 5135731.00 184.59
-9755472.67 5135731.37 183.90
-9755471.45 5135731.37 184.65
-9755472.37 5135727.90 181.20
-9755472.12 5135732.15 184.49
-9755471.25 5135729.80 185.74
-9755472.69 5135732.48 183.38
-9755469.69 5135732.35 181.24
-9755469.98 5135728.54 184.80
-9755471.19 5135730.15 185.93
-9755470.60 5135729.48 185.62
-9755473.41 5135731.06 183.85
-9755470.62 5135732.03 183.68
-9755472.14 5135729.29 184.89
-9755472.06 5135727.00 181.18
-9755476.70 5135729.71 181.14
-9755472.03 5135729.28 185.15
-9755472.56 5135730.70 184.37
-9755468.92 5135731.80 184.08
-9755474.07 5135728.81 181.19
-9755469.99 5135730.16 185.26
-9755472.65 5135731.85 184.93
-9755470.34 5135731.05 185.04
-9755475.83 5135733.58 181.14
-9755471.45 5135732.40 184.27
-9755469.67 5135733.22 181.25
-9755470.92 5135731.86 185.06
-9755475.28 5135732.65 181.14
-9755468.77 5135728.96 184.02
-9755475.30 5135731.50 181.15
-9755470.88 5135728.50 184.65
-9755471.31 5135730.49 184.51
-9755473.53 5135731.12 181.19
-9755468.83 5135730.35 184.21
-9755473.51 5135731.47 181.19
-9755471.21 5135729.79 185.10
-9755470.07 5135732.21 183.64
-9755468.81 5135729.20 184.11
-9755470.33 5135732.17 184.15
-9755469.75 5135731.85 184.95
-9755471.45 5135728.86 185.74
-9755473.50 5135727.60 181.18
-9755472.17 5135729.53 185.06
-9755472.10 5135732.43 184.44
-9755472.35 5135732.17 184.11
-9755471.82 5135730.08 184.91
-9755472.10 5135729.75 185.44
-9755472.62 5135728.49 184.42
-9755469.45 5135729.17 184.58
-9755473.53 5135729.98 181.21
-9755470.60 5135729.71 185.73
-9755471.93 5135730.39 185.39
-9755470.70 5135729.96 185.03
-9755473.68 5135729.68 184.02
-9755474.69 5135732.06 181.16
-9755472.69 5135731.80 184.04
-9755470.32 5135729.73 185.41
-9755472.93 5135727.31 181.19
-9755471.79 5135730.52 181.14
-9755473.23 5135729.35 181.20
-9755469.46 5135729.46 184.63
-9755474.43 5135728.20 181.18
-9755472.02 5135732.31 181.21
-9755472.40 5135732.41 184.39
-9755472.93 5135731.65 183.91
-9755473.93 5135730.31 183.86
-9755469.68 5135732.27 184.01
-9755472.02 5135732.55 183.53
-9755471.80 5135729.15 185.45
-9755473.59 5135730.38 184.43
-9755470.08 5135730.37 185.23
-9755471.74 5135732.47 184.76
-9755476.15 5135733.52 181.14
-9755472.96 5135729.23 184.52
-9755473.54 5135731.60 184.11
-9755471.34 5135728.04 184.43
-9755476.15 5135732.38 181.15
-9755469.38 5135732.13 184.18
-9755472.03 5135728.99 184.78
-9755472.03 5135731.91 183.52
-9755469.61 5135729.21 185.52
-9755471.75 5135728.84 185.47
-9755472.00 5135729.78 183.99
-9755476.19 5135731.81 181.14
-9755471.18 5135727.38 184.38
-9755472.37 5135729.80 185.04
-9755473.24 5135729.83 184.81
-9755473.57 5135729.32 183.74
-9755472.85 5135731.91 184.88
-9755471.24 5135729.28 184.92
-9755473.24 5135727.90 181.19
-9755475.29 5135727.62 181.18
-9755471.74 5135732.24 184.81
-9755495.92 5135725.69 180.79
-9755496.79 5135726.00 180.82
-9755490.88 5135725.97 180.87
-9755492.36 5135725.40 180.80
-9755486.24 5135725.36 180.96
-9755481.81 5135725.04 181.07
-9755478.23 5135726.19 181.15
-9755473.51 5135725.86 181.18
-9755477.69 5135725.26 181.16
-9755470.54 5135725.22 181.20
-9755466.75 5135726.12 181.24
-9755465.59 5135726.35 181.26
-9755456.42 5135725.74 181.48
-9755465.83 5135726.10 181.25
-9755461.16 5135725.78 181.38
-9755455.57 5135725.98 181.48
-9755464.98 5135726.10 181.26
-9755468.15 5135732.90 181.26
-9755467.59 5135733.50 181.26
-9755466.73 5135728.46 181.25
-9755466.41 5135733.23 181.26
-9755467.96 5135726.99 181.24
-9755466.75 5135733.50 181.26
-9755465.82 5135732.59 181.26
-9755467.62 5135727.55 181.24
-9755467.92 5135730.83 181.26
-9755466.43 5135727.59 181.25
-9755458.82 5135726.94 181.40
-9755454.36 5135726.26 181.49
-9755452.84 5135732.31 186.04
-9755465.86 5135733.51 181.27
-9755452.83 5135730.24 183.45
-9755452.82 5135731.92 186.14
-9755460.85 5135730.21 181.31
-9755452.62 5135729.75 186.01
-9755452.61 5135730.17 186.39
-9755453.18 5135730.53 185.22
-9755454.37 5135727.22 181.48
-9755453.77 5135732.23 186.37
-9755460.26 5135728.40 181.31
-9755453.30 5135732.29 186.05
-9755458.18 5135733.47 181.33
-9755452.88 5135733.51 184.55
-9755453.61 5135733.59 184.44
-9755453.29 5135731.27 185.61
-9755454.10 5135730.46 181.45
-9755452.93 5135730.09 183.93
-9755452.87 5135729.69 186.39
-9755452.89 5135728.96 183.69
-9755453.72 5135731.07 181.45
-9755454.62 5135731.62 181.40
-9755461.12 5135732.25 181.31
-9755453.19 5135727.19 181.50
-9755452.90 5135729.80 183.40
-9755459.09 5135729.59 181.34
-9755453.45 5135731.23 185.16
-9755452.65 5135729.92 186.00
-9755461.76 5135727.84 181.29
-9755452.74 5135730.52 185.32
-9755453.41 5135730.57 185.24
-9755465.27 5135729.63 181.27
-9755452.88 5135728.62 183.59
-9755461.74 5135733.44 181.30
-9755452.80 5135730.70 187.48
-9755455.55 5135728.09 181.45
-9755452.60 5135730.16 181.48
-9755463.77 5135727.81 181.29
-9755453.48 5135731.74 185.93
-9755452.78 5135730.24 184.41
-9755462.64 5135729.67 181.29
-9755460.24 5135730.82 181.33
-9755453.23 5135730.75 186.79
-9755461.08 5135730.51 181.30
-9755453.80 5135732.41 185.13
-9755460.82 5135727.86 181.31
-9755453.01 5135728.73 183.57
-9755457.88 5135727.22 181.43
-9755453.01 5135730.72 187.06
-9755453.08 5135731.40 186.75
-9755452.85 5135730.80 187.44
-9755452.87 5135728.77 185.92
-9755462.01 5135729.57 181.30
-9755452.94 5135731.28 186.74
-9755464.09 5135727.29 181.28
-9755461.09 5135733.19 181.30
-9755452.89 5135731.36 185.73
-9755453.19 5135729.38 184.63
-9755455.19 5135733.46 181.37
-9755453.15 5135731.18 183.50
-9755461.67 5135728.73 181.31
-9755453.15 5135733.39 181.41
-9755452.88 5135730.91 185.79
-9755454.95 5135731.35 181.41
-9755452.90 5135728.38 181.49
-9755463.46 5135730.25 181.28
-9755458.76 5135731.06 181.34
-9755453.13 5135731.97 186.34
-9755457.00 5135730.18 181.39
-9755460.84 5135731.41 181.31
-9755465.26 5135729.02 181.27
-9755464.42 5135726.98 181.27
-9755457.90 5135727.50 181.42
-9755453.75 5135732.32 185.26
-9755452.79 5135733.21 185.93
-9755457.86 5135730.81 181.35
-9755463.50 5135727.28 181.29
-9755452.87 5135731.16 183.48
-9755459.35 5135732.88 181.33
-9755454.07 5135729.55 181.46
-9755462.90 5135728.44 181.29
-9755454.89 5135728.11 181.47
-9755462.56 5135733.47 181.29
-9755452.57 5135730.21 186.05
-9755453.22 5135731.18 185.16
-9755453.18 5135732.51 186.46
-9755459.01 5135731.71 181.33
-9755454.66 5135728.98 181.46
-9755453.13 5135729.56 183.61
-9755465.84 5135727.00 181.27
-9755453.45 5135730.15 181.46
-9755452.95 5135731.82 187.04
-9755461.17 5135727.56 181.30
-9755455.27 5135730.43 181.43
-9755462.27 5135731.68 181.30
-9755465.26 5135730.81 181.28
-9755452.70 5135728.58 184.43
-9755453.10 5135730.85 185.77
-9755457.35 5135728.10 181.42
-9755461.14 5135726.67 181.34
-9755464.64 5135732.56 181.28
-9755462.85 5135732.27 181.30
-9755453.25 5135730.80 185.18
-9755464.37 5135733.44 181.27
-9755456.73 5135731.32 181.36
-9755452.85 5135731.59 185.76
-9755463.77 5135726.67 181.29
-9755452.59 5135728.25 184.99
-9755452.90 5135729.82 185.64
-9755456.98 5135733.42 181.36
-9755457.87 5135733.13 181.34
-9755456.41 5135727.53 181.45
-9755453.35 5135730.70 184.29
-9755453.66 5135733.49 184.94
-9755452.28 5135732.61 184.70
-9755451.46 5135730.19 186.80
-9755451.16 5135731.90 186.42
-9755452.51 5135732.74 184.32
-9755452.27 5135730.93 187.43
-9755452.61 5135731.77 185.02
-9755452.57 5135732.80 181.43
-9755452.73 5135727.88 185.22
-9755452.31 5135729.68 185.75
-9755452.35 5135729.81 184.84
-9755452.26 5135730.47 186.43
-9755450.83 5135731.84 188.32
-9755451.19 5135730.79 186.77
-9755450.67 5135732.41 185.62
-9755452.30 5135728.84 184.41
-9755452.24 5135731.68 185.99
-9755450.66 5135730.47 187.35
-9755452.39 5135731.08 186.04
-9755452.01 5135731.42 186.32
-9755451.22 5135730.11 187.03
-9755451.69 5135733.40 186.48
-9755450.59 5135727.94 184.33
-9755452.64 5135728.46 184.16
-9755452.35 5135730.15 184.97
-9755450.79 5135731.04 187.11
-9755451.88 5135730.50 187.36
-9755451.72 5135732.74 185.93
-9755450.81 5135730.73 187.71
-9755452.28 5135732.73 186.45
-9755452.33 5135733.15 184.63
-9755451.57 5135729.41 185.10
-9755451.72 5135730.33 187.14
-9755451.84 5135733.46 186.59
-9755452.32 5135732.99 184.25
-9755452.28 5135731.39 186.58
-9755451.25 5135729.40 185.36
-9755451.58 5135731.36 187.19
-9755452.15 5135731.02 187.14
-9755451.46 5135731.79 188.68
-9755452.07 5135728.45 185.64
-9755451.63 5135729.73 184.53
-9755452.42 5135728.06 184.07
-9755451.44 5135729.04 185.62
-9755451.22 5135731.04 187.75
-9755452.36 5135730.91 185.17
-9755451.16 5135729.52 186.61
-9755451.22 5135730.46 187.34
-9755452.35 5135730.56 185.19
-9755450.59 5135733.40 186.13
-9755450.77 5135732.27 186.79
-9755450.68 5135731.59 188.18
-9755451.71 5135730.59 188.06
-9755450.53 5135731.80 186.03
-9755451.91 5135730.48 187.76
-9755452.22 5135728.90 183.48
-9755451.10 5135729.59 184.59
-9755451.22 5135728.41 185.83
-9755452.32 5135727.50 185.15
-9755450.57 5135729.52 185.59
-9755451.15 5135732.97 185.51
-9755451.42 5135733.14 185.91
-9755451.38 5135727.83 184.93
-9755451.15 5135728.69 181.51
-9755451.09 5135732.16 184.86
-9755451.18 5135730.92 186.13
-9755451.42 5135731.78 186.94
-9755451.54 5135731.58 188.29
-9755451.81 5135732.09 187.92
-9755451.23 5135728.52 185.37
-9755452.04 5135732.35 185.43
-9755450.57 5135730.69 188.27
-9755452.47 5135728.80 185.12
-9755451.57 5135728.56 185.64
-9755451.75 5135728.83 183.48
-9755451.40 5135726.92 181.52
-9755451.73 5135729.59 181.50
-9755452.40 5135731.96 186.28
-9755450.97 5135729.70 185.07
-9755451.18 5135733.41 186.43
-9755451.25 5135733.61 183.49
-9755451.36 5135727.27 185.05
-9755452.03 5135728.44 185.36
-9755450.72 5135729.80 187.19
-9755451.10 5135730.23 186.63
-9755452.00 5135733.38 181.43
-9755451.19 5135731.62 186.93
-9755451.16 5135729.39 186.83
-9755451.15 5135727.79 185.43
-9755451.37 5135732.25 181.45
-9755451.78 5135730.49 186.57
-9755451.72 5135729.42 184.68
-9755451.46 5135731.09 187.77
-9755452.03 5135730.87 186.38
-9755452.39 5135730.26 185.54
-9755451.14 5135731.11 186.27
-9755453.21 5135729.66 186.71
-9755451.55 5135731.58 187.19
-9755452.44 5135729.94 186.26
-9755451.45 5135728.11 185.74
-9755450.87 5135731.89 187.36
-9755451.17 5135732.29 186.76
-9755451.80 5135732.78 187.81
-9755451.99 5135729.15 185.38
-9755450.85 5135729.09 188.13
-9755452.11 5135733.00 184.08
-9755452.30 5135732.62 185.38
-9755452.09 5135730.10 186.46
-9755451.94 5135732.97 185.39
-9755451.41 5135729.71 186.46
-9755451.45 5135727.50 181.51
-9755452.34 5135728.62 183.56
-9755451.95 5135730.15 188.12
-9755451.17 5135733.21 186.13
-9755452.54 5135732.19 185.78
-9755451.40 5135731.29 186.96
-9755451.05 5135731.88 187.83
-9755450.74 5135732.89 187.08
-9755450.76 5135730.95 188.30
-9755450.65 5135728.72 185.76
-9755451.26 5135730.14 185.78
-9755451.36 5135733.41 185.83
-9755450.89 5135732.89 186.08
-9755452.31 5135731.26 187.41
-9755452.00 5135732.25 186.94
-9755451.47 5135730.50 186.78
-9755451.82 5135732.64 186.46
-9755451.89 5135732.42 185.94
-9755452.32 5135728.53 185.21
-9755452.27 5135728.48 185.63
-9755451.28 5135730.01 184.54
-9755452.88 5135731.62 181.44
-9755451.27 5135729.47 188.17
-9755451.17 5135730.96 181.47
-9755452.27 5135732.73 185.89
-9755450.59 5135732.06 186.25
-9755451.15 5135732.83 186.55
-9755451.54 5135728.37 186.06
-9755452.06 5135731.15 184.13
-9755452.05 5135733.32 184.69
-9755451.44 5135732.20 186.94
-9755451.65 5135728.81 185.27
-9755452.08 5135731.81 186.28
-9755451.71 5135730.24 185.82
-9755452.02 5135730.50 184.16
-9755452.11 5135732.38 187.18
-9755450.81 5135733.44 181.47
-9755451.05 5135732.15 188.59
-9755467.92 5135725.22 181.23
-9755465.61 5135725.81 181.26
-9755458.22 5135725.14 181.46
-9755463.22 5135725.49 181.32
-9755457.04 5135724.83 181.48
-9755462.05 5135724.86 181.37
-9755459.40 5135725.46 181.44
-9755452.91 5135725.43 181.51
-9755450.58 5135725.15 181.53
-9755501.39 5135704.72 180.90
-9755502.28 5135702.06 180.91
-9755501.66 5135700.55 180.92
-9755498.99 5135707.03 180.89
-9755500.77 5135708.51 180.90
-9755499.89 5135699.94 180.94
-9755501.57 5135713.27 180.87
-9755503.12 5135699.97 180.91
-9755501.07 5135708.28 180.88
-9755502.56 5135705.90 180.87
-9755499.03 5135708.82 180.89
-9755500.46 5135709.71 180.89
-9755502.78 5135712.13 180.89
-9755498.45 5135699.89 180.92
-9755499.30 5135708.85 180.90
-9755501.67 5135706.18 180.89
-9755500.73 5135711.80 180.88
-9755503.15 5135706.20 180.88
-9755499.89 5135703.23 180.93
-9755501.64 5135705.25 180.88
-9755500.81 5135708.85 180.89
-9755501.12 5135703.83 180.90
-9755498.70 5135712.97 180.87
-9755498.39 5135706.17 180.90
-9755498.75 5135701.40 180.90
-9755502.25 5135702.93 180.89
-9755498.39 5135708.26 180.89
-9755501.91 5135713.00 180.88
-9755498.61 5135706.76 180.89
-9755498.99 5135712.11 180.87
-9755499.96 5135701.44 180.94
-9755502.25 5135709.45 180.87
-9755501.36 5135710.06 180.88
-9755500.83 5135701.78 180.91
-9755500.19 5135712.10 180.87
-9755499.91 5135712.66 180.87
-9755499.31 5135710.59 180.88
-9755499.91 5135704.07 180.91
-9755500.75 5135710.35 180.87
-9755499.02 5135703.52 180.90
-9755501.37 5135707.10 180.89
-9755499.24 5135725.37 180.84
-9755499.53 5135713.25 180.89
-9755503.05 5135725.22 180.86
-9755499.80 5135725.15 180.85
-9755503.00 5135719.82 180.87
-9755500.72 5135716.54 180.88
-9755498.39 5135713.55 180.89
-9755500.69 5135723.94 180.85
-9755500.10 5135718.92 180.88
-9755503.09 5135718.90 180.88
-9755499.79 5135718.63 180.88
-9755501.02 5135713.87 180.87
-9755498.34 5135723.00 180.85
-9755498.62 5135717.96 180.87
-9755501.65 5135718.00 180.90
-9755499.21 5135720.69 180.87
-9755501.58 5135716.52 180.89
-9755501.61 5135718.61 180.87
-9755503.01 5135723.67 180.85
-9755501.58 5135720.39 180.88
-9755499.78 5135718.96 180.89
-9755500.70 5135720.36 180.87
-9755498.91 5135715.64 180.87
-9755502.17 5135719.82 180.88
-9755500.75 5135715.04 180.88
-9755498.95 5135717.72 180.87
-9755499.85 5135713.55 180.89
-9755499.52 5135719.47 180.88
-9755498.63 5135718.92 180.87
-9755501.31 5135715.36 180.89
-9755500.09 5135723.35 180.87
-9755502.93 5135699.07 180.92
-9755502.92 5135695.79 180.94
-9755500.83 5135696.96 180.96
-9755501.98 5135697.31 180.96
-9755500.50 5135698.16 180.95
-9755501.43 5135697.57 180.96
-9755502.30 5135697.57 180.94
-9755503.24 5135697.89 180.92
-9755502.59 5135697.30 180.95
-9755495.21 5135699.94 180.86
-9755482.51 5135699.26 181.04
-9755483.41 5135699.53 181.04
-9755491.77 5135699.90 180.84
-9755482.25 5135699.85 181.04
-9755479.89 5135699.79 181.05
-9755496.98 5135699.99 180.90
-9755492.88 5135699.94 180.81
-9755493.66 5135707.89 180.76
-9755497.23 5135706.47 180.85
-9755496.98 5135703.80 180.86
-9755494.30 5135708.79 180.79
-9755494.33 5135700.53 180.81
-9755495.16 5135708.16 180.80
-9755493.11 5135701.68 180.78
-9755494.91 5135700.20 180.85
-9755495.47 5135707.36 180.81
-9755492.82 5135703.73 180.76
-9755496.07 5135704.01 180.85
-9755494.96 5135709.12 187.53
-9755494.00 5135707.04 180.77
-9755495.16 5135711.51 180.82
-9755495.15 5135712.65 180.81
-9755494.92 5135700.82 180.83
-9755496.62 5135705.87 180.85
-9755493.39 5135712.34 180.78
-9755495.20 5135709.36 180.81
-9755496.66 5135712.93 180.84
-9755493.65 5135712.06 180.80
-9755493.67 5135710.03 180.77
-9755493.08 5135710.00 180.77
-9755493.07 5135711.73 180.80
-9755496.39 5135702.90 180.87
-9755494.60 5135705.54 180.80
-9755495.81 5135704.44 180.84
-9755498.11 5135701.38 180.89
-9755495.57 5135702.33 180.85
-9755496.10 5135709.62 187.71
-9755497.54 5135708.50 180.85
-9755496.62 5135710.90 180.86
-9755495.19 5135702.93 180.84
-9755496.08 5135709.10 180.84
-9755495.17 5135706.15 180.82
-9755495.18 5135702.58 180.83
-9755498.43 5135705.85 180.89
-9755494.24 5135711.79 180.81
-9755494.88 5135710.27 180.82
-9755492.79 5135712.11 180.76
-9755492.83 5135705.51 180.74
-9755488.68 5135710.80 180.96
-9755488.40 5135707.89 180.97
-9755488.36 5135706.97 180.98
-9755481.88 5135707.55 181.06
-9755486.90 5135705.82 180.99
-9755485.79 5135702.50 181.02
-9755491.95 5135707.61 180.87
-9755480.10 5135710.75 181.09
-9755492.53 5135701.10 180.77
-9755486.34 5135699.86 181.00
-9755479.89 5135700.71 181.06
-9755488.09 5135706.64 180.98
-9755491.88 5135709.98 180.90
-9755488.43 5135702.83 180.97
-9755487.23 5135708.17 180.99
-9755487.77 5135707.52 180.99
-9755480.13 5135706.07 181.09
-9755491.89 5135712.94 180.91
-9755483.36 5135709.91 181.05
-9755480.14 5135711.68 181.09
-9755481.86 5135709.31 181.06
-9755492.51 5135710.61 180.76
-9755486.91 5135709.04 181.00
-9755485.67 5135708.75 181.01
-9755487.49 5135709.34 180.98
-9755482.46 5135708.14 181.06
-9755487.53 5135707.32 180.98
-9755487.26 5135706.35 181.00
-9755489.84 5135709.35 180.95
-9755481.62 5135706.92 181.09
-9755490.18 5135703.78 180.94
-9755484.90 5135704.01 181.03
-9755480.18 5135700.12 181.04
-9755480.44 5135709.90 181.09
-9755490.75 5135710.88 180.93
-9755490.77 5135705.52 180.94
-9755491.93 5135710.27 180.90
-9755484.31 5135703.98 181.04
-9755484.64 5135702.24 181.04
-9755484.55 5135704.61 181.04
-9755492.56 5135700.47 180.78
-9755483.37 5135708.72 181.05
-9755491.05 5135702.26 180.92
-9755487.55 5135710.28 180.97
-9755491.52 5135708.87 182.90
-9755491.64 5135707.34 180.91
-9755481.92 5135709.62 181.06
-9755486.04 5135702.52 181.01
-9755489.55 5135711.40 180.97
-9755486.65 5135705.50 180.99
-9755482.53 5135707.53 181.06
-9755484.86 5135706.66 181.03
-9755488.62 5135710.53 180.96
-9755481.07 5135704.54 181.07
-9755490.19 5135702.00 180.94
-9755489.90 5135704.04 180.94
-9755488.14 5135703.11 180.98
-9755492.30 5135699.90 180.78
-9755486.34 5135712.03 181.01
-9755487.56 5135702.52 180.99
-9755481.02 5135709.01 181.09
-9755489.32 5135703.71 180.95
-9755480.39 5135708.97 181.10
-9755486.89 5135705.18 180.99
-9755491.93 5135703.76 180.86
-9755484.23 5135710.51 181.04
-9755490.50 5135705.83 180.92
-9755486.63 5135712.64 181.01
-9755481.02 5135707.52 181.08
-9755490.15 5135709.70 180.96
-9755490.72 5135711.71 180.94
-9755482.53 5135702.17 181.05
-9755488.09 5135709.59 180.97
-9755487.22 5135705.51 180.99
-9755489.59 5135705.77 180.94
-9755490.76 5135703.74 180.95
-9755485.22 5135704.90 181.03
-9755490.46 5135700.48 180.93
-9755480.76 5135705.76 181.09
-9755492.45 5135710.34 180.75
-9755482.51 5135700.74 181.05
-9755481.63 5135704.55 181.07
-9755486.39 5135704.88 181.00
-9755485.50 5135704.60 181.01
-9755492.20 5135708.83 180.73
-9755486.03 5135707.83 181.01
-9755486.97 5135704.60 180.99
-9755491.33 5135709.00 183.09
-9755487.20 5135709.02 180.99
-9755486.89 5135710.84 180.99
-9755486.29 5135711.11 181.00
-9755491.37 5135707.90 180.93
-9755492.49 5135707.03 180.69
-9755490.16 5135701.35 180.94
-9755483.71 5135706.40 181.05
-9755481.91 5135701.30 181.05
-9755483.39 5135704.87 181.05
-9755491.91 5135709.11 180.87
-9755485.78 5135701.91 181.02
-9755487.80 5135708.44 180.99
-9755483.93 5135708.73 181.04
-9755490.53 5135701.39 180.93
-9755489.85 5135706.10 180.94
-9755491.30 5135711.15 180.92
-9755483.69 5135700.13 181.05
-9755488.14 5135700.46 180.97
-9755480.14 5135701.60 181.05
-9755490.42 5135712.92 180.93
-9755480.74 5135704.56 181.07
-9755491.94 5135705.82 180.85
-9755489.81 5135712.00 180.97
-9755492.51 5135706.17 180.73
-9755479.85 5135708.72 181.10
-9755492.24 5135705.52 180.75
-9755480.10 5135712.58 181.10
-9755478.37 5135708.39 181.11
-9755479.58 5135702.16 181.06
-9755479.52 5135706.61 181.10
-9755479.22 5135712.23 181.10
-9755478.38 5135707.24 181.10
-9755478.38 5135703.36 181.09
-9755478.69 5135703.39 181.08
-9755478.65 5135707.21 181.11
-9755477.77 5135709.29 181.12
-9755478.63 5135711.65 181.12
-9755477.79 5135702.81 181.07
-9755479.25 5135702.20 181.06
-9755478.62 5135712.81 181.12
-9755477.79 5135705.43 181.09
-9755478.92 5135712.25 181.12
-9755477.81 5135701.32 181.05
-9755477.46 5135704.77 181.08
-9755478.32 5135712.87 181.12
-9755498.06 5135716.22 180.87
-9755497.55 5135717.45 180.86
-9755497.42 5135722.13 180.84
-9755498.05 5135713.56 180.88
-9755494.80 5135722.09 180.77
-9755497.44 5135718.89 180.84
-9755497.13 5135723.62 180.81
-9755496.85 5135718.90 180.83
-9755495.94 5135723.60 180.79
-9755496.56 5135715.35 180.83
-9755496.80 5135724.50 180.80
-9755495.13 5135715.90 180.80
-9755493.35 5135723.08 180.74
-9755492.73 5135717.34 180.76
-9755495.41 5135720.36 180.80
-9755495.14 5135722.74 180.77
-9755494.20 5135720.96 180.77
-9755495.95 5135716.53 180.81
-9755497.41 5135723.31 180.82
-9755496.27 5135717.69 180.83
-9755494.51 5135724.47 180.77
-9755495.11 5135718.58 180.79
-9755495.73 5135717.68 180.82
-9755497.73 5135718.85 180.85
-9755496.56 5135724.84 180.80
-9755493.00 5135722.07 180.75
-9755493.88 5135718.57 180.76
-9755496.56 5135718.27 180.84
-9755493.37 5135715.29 180.75
-9755494.47 5135725.36 180.79
-9755495.09 5135719.21 180.79
-9755493.02 5135719.78 180.76
-9755496.58 5135718.61 180.84
-9755497.53 5135716.49 180.86
-9755478.86 5135725.28 181.13
-9755492.78 5135715.62 180.76
-9755483.38 5135718.32 185.02
-9755486.32 5135713.21 181.00
-9755483.32 5135716.82 185.32
-9755483.62 5135718.64 184.64
-9755482.77 5135717.11 185.32
-9755484.80 5135713.20 181.02
-9755480.84 5135717.18 185.29
-9755482.82 5135717.03 185.57
-9755482.56 5135718.70 185.06
-9755482.54 5135718.52 185.55
-9755481.87 5135719.24 183.77
-9755488.07 5135713.82 180.98
-9755481.93 5135716.84 185.62
-9755485.08 5135716.11 181.02
-9755484.78 5135717.82 184.26
-9755483.91 5135716.66 184.36
-9755480.44 5135717.55 185.10
-9755483.63 5135715.73 183.87
-9755481.54 5135719.61 183.70
-9755481.18 5135717.03 186.65
-9755484.47 5135718.52 181.03
-9755485.72 5135713.77 181.01
-9755483.34 5135718.87 185.25
-9755480.94 5135718.67 184.79
-9755482.80 5135716.90 183.38
-9755483.33 5135718.58 185.05
-9755484.15 5135718.09 184.52
-9755483.27 5135716.19 183.74
-9755481.65 5135716.56 186.41
-9755482.47 5135717.08 185.22
-9755482.81 5135719.59 183.19
-9755483.94 5135719.25 184.11
-9755481.61 5135717.33 183.33
-9755481.33 5135718.65 185.10
-9755481.58 5135719.04 183.64
-9755484.58 5135718.73 184.24
-9755484.78 5135713.75 181.01
-9755483.90 5135719.45 184.72
-9755482.56 5135716.70 186.26
-9755484.11 5135718.91 184.54
-9755486.84 5135716.18 181.00
-9755484.63 5135716.61 183.40
-9755490.98 5135717.40 180.90
-9755481.49 5135718.17 185.56
-9755484.80 5135717.31 181.02
-9755482.52 5135715.65 184.47
-9755482.47 5135717.29 185.50
-9755484.30 5135716.54 184.20
-9755484.17 5135720.86 181.04
-9755482.96 5135718.56 184.83
-9755482.17 5135717.84 186.38
-9755483.02 5135717.88 185.18
-9755482.74 5135716.55 185.90
-9755481.24 5135719.26 184.92
-9755482.70 5135718.01 186.07
-9755482.57 5135716.29 184.63
-9755483.26 5135724.42 181.04
-9755484.53 5135717.05 184.13
-9755483.62 5135719.69 181.05
-9755482.47 5135716.45 185.11
-9755489.20 5135715.55 180.97
-9755480.99 5135715.23 181.09
-9755488.26 5135724.48 180.92
-9755490.43 5135716.50 180.93
-9755491.86 5135719.45 180.86
-9755490.72 5135715.29 180.92
-9755482.47 5135717.16 184.00
-9755484.43 5135715.15 184.15
-9755481.28 5135718.24 185.23
-9755480.41 5135718.63 184.43
-9755483.92 5135718.26 184.04
-9755483.57 5135718.34 181.05
-9755484.39 5135718.04 183.66
-9755482.02 5135717.40 185.86
-9755482.10 5135723.83 181.07
-9755484.43 5135717.22 183.14
-9755481.52 5135719.48 184.92
-9755483.35 5135717.44 185.03
-9755480.96 5135718.86 184.73
-9755483.68 5135716.30 183.90
-9755482.72 5135718.61 184.50
-9755487.39 5135723.27 180.94
-9755482.52 5135716.51 185.93
-9755485.67 5135715.56 181.00
-9755484.34 5135718.04 184.08
-9755487.44 5135718.83 180.97
-9755485.69 5135722.08 180.98
-9755481.32 5135718.19 185.49
-9755486.51 5135722.06 180.96
-9755482.41 5135716.47 184.54
-9755489.73 5135719.44 180.92
-9755480.05 5135720.53 181.11
-9755484.51 5135717.04 181.03
-9755483.70 5135715.96 184.29
-9755488.62 5135724.78 180.93
-9755482.50 5135718.85 185.44
-9755490.98 5135723.92 180.87
-9755483.35 5135720.26 181.05
-9755486.53 5135719.41 180.99
-9755481.52 5135716.82 186.50
-9755481.82 5135715.97 183.12
-9755486.85 5135715.59 180.99
-9755481.27 5135723.20 181.09
-9755481.29 5135719.75 183.71
-9755483.17 5135718.51 185.77
-9755482.81 5135717.04 186.12
-9755483.02 5135722.94 181.05
-9755489.53 5135717.94 180.95
-9755492.42 5135718.88 180.77
-9755482.76 5135718.48 185.90
-9755483.38 5135716.03 184.37
-9755488.31 5135716.16 180.98
-9755482.51 5135715.98 184.43
-9755484.18 5135716.88 185.05
-9755488.63 5135723.87 180.93
-9755481.81 5135720.56 181.10
-9755487.69 5135722.08 180.95
-9755483.62 5135717.57 185.17
-9755482.77 5135718.94 185.10
-9755489.44 5135724.50 180.91
-9755483.13 5135718.77 183.08
-9755482.39 5135720.25 184.03
-9755483.05 5135716.71 185.72
-9755480.99 5135714.04 181.08
-9755491.25 5135722.12 180.87
-9755482.10 5135715.74 183.48
-9755481.51 5135718.00 185.09
-9755485.62 5135724.47 180.98
-9755481.25 5135720.23 183.64
-9755483.11 5135719.21 184.29
-9755487.45 5135716.18 180.98
-9755480.89 5135718.33 184.91
-9755488.60 5135721.80 180.93
-9755490.12 5135717.66 180.93
-9755490.63 5135720.32 180.89
-9755490.09 5135715.60 180.94
-9755482.97 5135722.01 181.07
-9755481.29 5135717.70 185.97
-9755483.68 5135718.94 184.16
-9755480.97 5135720.84 181.12
-9755484.80 5135718.59 184.34
-9755482.12 5135720.30 181.09
-9755483.64 5135715.04 184.04
-9755482.11 5135716.18 184.84
-9755491.24 5135717.94 180.90
-9755483.31 5135717.40 186.03
-9755482.75 5135718.26 185.84
-9755482.44 5135722.07 181.07
-9755485.40 5135716.41 181.01
-9755483.72 5135716.52 184.36
-9755483.58 5135724.38 181.03
-9755490.09 5135720.30 180.91
-9755480.75 5135716.83 184.87
-9755480.04 5135724.40 181.12
-9755482.76 5135716.90 184.79
-9755484.75 5135716.21 184.02
-9755484.53 5135717.78 183.07
-9755479.49 5135714.05 181.09
-9755488.58 5135721.16 180.93
-9755484.82 5135716.41 181.02
-9755482.88 5135719.22 185.03
-9755482.47 5135714.62 181.05
-9755483.91 5135718.74 181.05
-9755489.57 5135714.12 180.97
-9755490.12 5135719.75 180.90
-9755488.92 5135718.81 180.95
-9755483.26 5135717.83 183.47
-9755483.29 5135719.68 181.05
-9755481.82 5135722.64 181.09
-9755485.06 5135718.33 184.07
-9755482.11 5135718.62 184.55
-9755485.68 5135714.96 181.01
-9755484.54 5135716.27 183.36
-9755490.12 5135714.08 180.95
-9755483.91 5135717.95 181.05
-9755492.10 5135723.02 180.82
-9755480.67 5135715.57 181.10
-9755480.92 5135723.80 181.10
-9755492.25 5135717.16 180.80
-9755483.34 5135714.05 181.04
-9755482.29 5135716.98 185.69
-9755483.22 5135719.33 183.08
-9755488.32 5135723.58 180.93
-9755483.48 5135718.78 183.06
-9755481.52 5135717.90 186.30
-9755484.22 5135718.95 184.16
-9755483.93 5135716.24 184.32
-9755480.94 5135721.42 181.12
-9755486.78 5135721.76 180.97
-9755484.57 5135717.20 184.41
-9755483.76 5135719.23 184.24
-9755482.42 5135716.16 184.11
-9755481.78 5135715.96 183.54
-9755480.94 5135713.70 181.08
-9755484.74 5135718.67 184.03
-9755482.41 5135723.22 181.07
-9755481.58 5135718.47 181.09
-9755485.05 5135717.02 181.02
-9755480.70 5135718.00 185.25
-9755484.79 5135716.94 183.39
-9755491.84 5135722.70 180.85
-9755478.55 5135719.37 181.14
-9755478.03 5135716.10 181.12
-9755478.61 5135717.02 181.12
-9755477.71 5135716.66 181.15
-9755478.36 5135714.91 181.13
-9755478.56 5135722.61 181.15
-9755478.53 5135721.45 181.14
-9755477.44 5135723.74 181.15
-9755478.28 5135724.70 181.16
-9755477.39 5135724.42 181.15
-9755473.72 5135699.79 181.09
-9755470.14 5135699.15 181.06
-9755471.35 5135699.18 181.08
-9755476.95 5135703.65 181.09
-9755470.99 5135707.06 186.58
-9755476.86 5135709.88 181.13
-9755475.46 5135705.04 184.14
-9755477.24 5135703.03 181.08
-9755476.13 5135706.70 186.48
-9755469.52 5135710.87 183.91
-9755470.13 5135702.80 186.50
-9755472.80 5135705.20 185.00
-9755470.88 5135705.81 186.03
-9755470.32 5135705.44 186.31
-9755475.07 5135706.70 187.37
-9755475.78 5135703.07 181.51
-9755471.09 5135712.08 183.22
-9755475.41 5135704.62 184.71
-9755475.26 5135704.47 186.30
-9755471.39 5135706.49 185.19
-9755471.57 5135713.01 183.80
-9755469.55 5135705.47 186.03
-9755476.92 5135706.63 181.11
-9755475.37 5135705.48 184.00
-9755474.20 5135705.82 185.03
-9755475.09 5135702.44 187.11
-9755474.90 5135706.13 185.77
-9755472.65 5135702.61 186.55
-9755471.94 5135701.10 185.48
-9755475.44 5135704.51 184.32
-9755470.50 5135712.89 184.80
-9755476.92 5135701.57 181.07
-9755470.14 5135711.70 185.73
-9755475.82 5135707.47 186.46
-9755470.42 5135712.53 185.89
-9755469.80 5135712.43 186.61
-9755469.81 5135712.75 186.45
-9755472.68 5135704.06 188.02
-9755470.45 5135701.66 187.05
-9755474.26 5135706.73 185.96
-9755470.42 5135711.95 184.71
-9755472.53 5135704.71 188.00
-9755470.82 5135705.46 186.63
-9755473.65 5135709.04 181.17
-9755469.44 5135707.20 185.27
-9755474.55 5135703.31 187.56
-9755475.43 5135706.68 186.42
-9755475.14 5135704.83 181.13
-9755474.51 5135710.76 181.18
-9755474.32 5135704.27 185.49
-9755475.85 5135703.80 184.28
-9755474.01 5135703.29 187.25
-9755471.00 5135704.65 185.23
-9755471.22 5135705.71 184.25
-9755472.18 5135705.83 185.78
-9755471.09 5135705.39 186.97
-9755471.62 5135707.16 181.22
-9755473.06 5135703.66 188.25
-9755471.42 5135704.86 186.15
-9755469.26 5135711.61 186.13
-9755470.56 5135706.40 185.74
-9755472.13 5135702.87 186.04
-9755473.36 5135701.88 186.45
-9755471.91 5135703.38 186.57
-9755470.47 5135712.12 185.25
-9755475.10 5135704.32 186.70
-9755470.51 5135704.15 187.58
-9755473.71 5135702.41 187.81
-9755470.51 5135704.50 187.45
-9755472.79 5135705.95 186.66
-9755471.67 5135706.35 185.77
-9755470.43 5135711.43 185.37
-9755470.48 5135704.25 186.73
-9755476.10 5135703.70 184.39
-9755470.72 5135709.82 181.19
-9755476.10 5135702.80 187.14
-9755470.39 5135706.62 186.39
-9755471.06 5135704.24 186.42
-9755474.31 5135704.23 186.45
-9755474.65 5135702.15 186.73
-9755475.09 5135710.46 181.18
-9755471.19 5135702.19 187.20
-9755473.10 5135705.37 185.82
-9755473.14 5135705.48 186.10
-9755475.23 5135703.75 184.28
-9755475.44 5135705.32 185.16
-9755473.63 5135706.83 186.77
-9755473.74 5135705.71 186.53
-9755476.32 5135704.56 184.91
-9755475.00 5135704.16 186.53
-9755469.21 5135712.76 188.18
-9755475.52 5135705.91 185.78
-9755472.20 5135708.09 181.20
-9755471.74 5135703.36 187.75
-9755470.99 5135712.53 183.82
-9755470.35 5135711.12 183.36
-9755470.83 5135702.23 185.47
-9755474.62 5135706.61 186.90
-9755470.38 5135708.94 181.20
-9755473.89 5135705.90 185.67
-9755475.21 5135706.88 186.43
-9755470.99 5135706.74 186.04
-9755475.46 5135700.67 181.07
-9755476.00 5135707.03 185.80
-9755469.84 5135704.05 184.86
-9755474.71 5135703.16 184.82
-9755473.10 5135701.34 186.42
-9755470.43 5135712.42 185.02
-9755470.48 5135700.80 185.25
-9755471.72 5135704.57 185.63
-9755472.24 5135702.31 185.73
-9755475.22 5135704.73 181.58
-9755471.36 5135703.59 188.18
-9755472.21 5135701.66 188.28
-9755470.47 5135706.94 186.39
-9755473.35 5135704.94 186.39
-9755473.73 5135702.62 184.07
-9755469.22 5135705.57 186.69
-9755471.04 5135705.11 186.55
-9755472.83 5135702.44 186.29
-9755471.56 5135706.29 185.85
-9755475.02 5135700.87 184.89
-9755475.43 5135709.02 181.13
-9755473.35 5135702.33 188.06
-9755474.60 5135706.32 185.96
-9755473.12 5135704.16 187.97
-9755471.91 5135706.56 181.22
-9755469.21 5135710.42 182.06
-9755472.66 5135704.93 186.28
-9755475.43 5135706.02 186.52
-9755474.52 5135706.27 186.62
-9755469.67 5135704.47 185.83
-9755473.43 5135706.32 186.57
-9755472.58 5135701.13 185.16
-9755468.68 5135707.23 185.62
-9755469.62 5135711.68 185.82
-9755473.44 5135701.87 186.96
-9755471.81 5135711.79 183.67
-9755474.27 5135708.99 181.17
-9755470.15 5135712.72 185.91
-9755469.63 5135702.42 186.69
-9755472.21 5135701.53 187.77
-9755476.01 5135702.20 181.08
-9755473.74 5135707.09 186.70
-9755476.00 5135703.66 181.09
-9755471.03 5135705.27 184.87
-9755470.46 5135703.10 186.67
-9755472.42 5135701.78 187.98
-9755471.23 5135712.34 183.19
-9755472.34 5135704.15 186.26
-9755473.09 5135704.75 183.93
-9755471.34 5135703.62 187.39
-9755475.44 5135703.30 181.10
-9755475.05 5135705.36 185.55
-9755471.65 5135702.20 187.60
-9755470.94 5135711.51 184.73
-9755475.54 5135702.42 181.06
-9755473.13 5135702.75 188.27
-9755475.47 5135706.29 181.11
-9755471.25 5135712.04 183.70
-9755476.82 5135710.15 181.13
-9755469.63 5135702.09 185.43
-9755476.05 5135707.84 186.41
-9755471.11 5135706.15 184.20
-9755470.11 5135710.13 181.24
-9755472.31 5135702.46 188.22
-9755473.44 5135704.87 188.07
-9755475.16 5135706.25 187.29
-9755475.67 5135704.98 184.28
-9755468.72 5135705.08 186.77
-9755475.18 5135703.84 185.36
-9755470.80 5135701.43 185.07
-9755474.84 5135708.02 186.37
-9755470.12 5135712.81 186.39
-9755470.37 5135711.00 182.19
-9755468.67 5135706.44 183.81
-9755471.13 5135701.02 186.92
-9755470.22 5135706.32 186.44
-9755470.76 5135701.31 186.97
-9755472.86 5135703.50 188.07
-9755471.73 5135700.80 185.30
-9755471.67 5135706.65 185.90
-9755469.90 5135704.89 187.23
-9755471.29 5135712.23 181.23
-9755472.51 5135703.04 186.46
-9755470.70 5135712.28 184.61
-9755475.10 5135711.35 181.18
-9755472.23 5135705.62 186.44
-9755475.18 5135704.41 184.80
-9755475.29 5135703.66 187.16
-9755476.07 5135705.73 181.11
-9755473.48 5135703.04 187.18
-9755472.85 5135703.60 187.19
-9755475.80 5135704.32 185.65
-9755472.77 5135703.35 186.28
-9755469.08 5135702.17 186.63
-9755475.41 5135708.11 181.13
-9755471.29 5135704.07 187.03
-9755473.12 5135704.21 186.59
-9755475.21 5135702.51 184.33
-9755472.51 5135704.41 184.65
-9755473.27 5135706.31 185.96
-9755470.78 5135705.46 186.05
-9755475.19 5135703.75 186.72
-9755473.15 5135703.99 187.10
-9755470.31 5135703.74 187.46
-9755471.24 5135711.55 182.67
-9755474.85 5135707.54 186.12
-9755470.93 5135711.27 183.70
-9755476.02 5135704.49 181.10
-9755475.24 5135702.25 186.87
-9755472.46 5135705.65 181.34
-9755468.93 5135710.60 183.51
-9755468.97 5135712.70 188.20
-9755469.81 5135710.66 183.25
-9755475.45 5135711.34 181.15
-9755474.55 5135704.30 185.21
-9755469.82 5135710.56 182.73
-9755472.02 5135701.48 186.19
-9755475.08 5135705.42 184.38
-9755470.44 5135712.64 184.51
-9755471.84 5135705.10 187.01
-9755470.99 5135712.91 184.61
-9755472.54 5135701.92 187.82
-9755471.87 5135702.51 188.12
-9755472.49 5135703.74 186.17
-9755472.44 5135703.63 186.55
-9755470.08 5135704.68 187.43
-9755470.47 5135705.80 186.89
-9755474.84 5135703.31 181.09
-9755469.63 5135703.83 186.40
-9755473.13 5135702.97 185.99
-9755469.32 5135705.13 187.54
-9755471.95 5135706.67 185.61
-9755469.79 5135708.35 181.20
-9755469.25 5135711.15 184.73
-9755475.10 5135711.60 181.19
-9755470.96 5135712.91 184.60
-9755475.99 5135710.74 181.13
-9755474.08 5135707.18 186.99
-9755474.22 5135706.95 185.68
-9755472.11 5135704.59 184.61
-9755469.85 5135712.28 185.79
-9755474.92 5135702.22 187.79
-9755475.37 5135704.58 181.53
-9755476.35 5135702.85 186.75
-9755474.57 5135704.64 186.16
-9755470.20 5135712.86 185.26
-9755472.54 5135704.31 187.43
-9755474.35 5135701.05 184.78
-9755473.95 5135703.88 186.82
-9755471.20 5135707.00 185.54
-9755472.25 5135705.39 186.82
-9755474.83 5135700.78 184.22
-9755475.10 5135706.57 181.14
-9755469.24 5135705.68 185.52
-9755469.72 5135702.49 186.51
-9755476.03 5135703.70 186.45
-9755473.75 5135704.28 186.53
-9755476.33 5135705.95 184.43
-9755469.91 5135704.87 185.62
-9755474.12 5135704.11 187.35
-9755472.48 5135704.47 187.78
-9755468.74 5135702.19 184.00
-9755476.59 5135704.49 184.28
-9755476.26 5135711.63 181.13
-9755471.44 5135700.94 185.78
-9755470.97 5135704.19 187.57
-9755470.49 5135706.71 185.78
-9755472.21 5135706.51 181.22
-9755471.02 5135712.08 183.70
-9755474.83 5135709.83 181.19
-9755472.15 5135704.62 187.71
-9755475.20 5135701.37 184.86
-9755474.37 5135701.64 187.84
-9755470.96 5135703.94 181.18
-9755474.50 5135708.69 181.18
-9755474.63 5135705.82 185.77
-9755471.90 5135701.30 181.09
-9755471.27 5135711.65 181.25
-9755473.62 5135701.45 186.53
-9755469.01 5135703.01 186.21
-9755475.46 5135705.97 181.12
-9755470.66 5135707.48 186.54
-9755471.62 5135700.76 186.02
-9755471.86 5135710.75 181.19
-9755473.64 5135712.48 181.20
-9755475.18 5135703.06 186.38
-9755475.10 5135705.13 186.92
-9755475.43 5135706.35 186.44
-9755469.52 5135704.49 187.36
-9755474.37 5135704.61 183.97
-9755474.25 5135707.90 185.86
-9755470.81 5135712.93 182.47
-9755474.27 5135702.61 184.11
-9755475.75 5135703.98 186.31
-9755470.48 5135711.50 183.74
-9755473.43 5135702.12 188.15
-9755475.83 5135703.42 186.35
-9755471.27 5135712.36 183.80
-9755471.93 5135705.02 181.38
-9755473.36 5135704.25 186.56
-9755475.20 5135704.24 187.27
-9755472.76 5135709.00 181.18
-9755474.44 5135702.45 187.10
-9755471.57 5135708.96 181.18
-9755474.12 5135706.24 185.96
-9755472.82 5135704.14 183.89
-9755475.72 5135705.80 186.54
-9755472.65 5135705.84 186.20
-9755470.15 5135710.63 182.71
-9755469.68 5135713.20 187.18
-9755473.73 5135701.77 187.73
-9755473.11 5135703.07 187.58
-9755475.08 5135705.13 186.12
-9755470.78 5135701.75 186.81
-9755470.80 5135705.85 184.41
-9755469.25 5135703.35 186.49
-9755471.03 5135712.31 183.75
-9755470.08 5135703.43 184.67
-9755474.35 5135702.14 188.14
-9755471.04 5135707.29 185.18
-9755472.26 5135704.20 187.71
-9755475.40 5135710.41 181.16
-9755473.41 5135704.42 186.39
-9755472.22 5135703.00 188.01
-9755474.62 5135704.25 186.34
-9755476.92 5135704.03 184.82
-9755475.11 5135702.84 186.89
-9755469.20 5135710.42 182.97
-9755470.07 5135712.81 186.80
-9755475.83 5135703.29 184.88
-9755475.39 5135704.01 184.28
-9755476.86 5135707.30 185.76
-9755469.58 5135701.94 184.06
-9755470.21 5135712.27 185.28
-9755473.64 5135701.70 186.94
-9755468.87 5135711.06 184.40
-9755471.68 5135702.16 186.85
-9755473.18 5135704.05 188.22
-9755470.99 5135706.72 185.25
-9755474.32 5135703.66 184.07
-9755471.54 5135709.57 181.18
-9755469.64 5135702.76 186.68
-9755471.39 5135707.14 185.86
-9755474.88 5135704.61 186.12
-9755473.82 5135704.26 185.95
-9755472.42 5135702.22 185.72
-9755474.52 5135707.00 185.10
-9755474.27 5135706.31 187.06
-9755474.91 5135702.68 184.88
-9755476.02 5135704.40 184.58
-9755473.69 5135704.05 188.14
-9755472.15 5135712.52 181.20
-9755472.97 5135707.08 186.89
-9755473.19 5135703.45 187.64
-9755475.83 5135702.22 186.75
-9755472.25 5135703.01 186.63
-9755475.39 5135703.67 186.28
-9755469.28 5135710.65 182.91
-9755469.80 5135704.17 186.65
-9755475.85 5135702.56 186.83
-9755475.52 5135707.86 186.35
-9755473.71 5135705.41 186.52
-9755470.97 5135711.27 182.69
-9755471.30 5135706.94 185.01
-9755469.80 5135710.42 182.22
-9755476.70 5135704.78 184.13
-9755475.48 5135702.66 186.78
-9755471.35 5135701.91 187.28
-9755471.13 5135702.28 184.84
-9755471.83 5135701.65 185.34
-9755470.22 5135704.18 187.52
-9755476.33 5135707.21 185.68
-9755476.03 5135708.42 186.06
-9755476.90 5135702.14 181.07
-9755470.74 5135702.48 187.20
-9755473.73 5135702.42 187.00
-9755471.95 5135701.78 185.55
-9755476.24 5135704.55 185.61
-9755470.46 5135710.72 184.57
-9755469.80 5135709.50 181.23
-9755472.18 5135701.57 181.09
-9755476.27 5135711.38 181.13
-9755476.63 5135708.70 181.12
-9755473.67 5135703.36 186.68
-9755476.66 5135705.56 184.41
-9755476.03 5135704.24 181.10
-9755470.05 5135705.49 185.04
-9755471.39 5135704.80 187.82
-9755472.14 5135706.73 185.04
-9755474.94 5135700.23 184.29
-9755470.57 5135711.20 183.41
-9755473.67 5135706.33 187.35
-9755476.93 5135704.56 181.09
-9755476.36 5135702.49 186.83
-9755470.80 5135702.45 187.71
-9755475.51 5135707.05 185.82
-9755469.12 5135710.39 181.30
-9755475.48 5135704.20 186.28
-9755474.02 5135702.24 187.37
-9755472.77 5135703.59 188.41
-9755475.46 5135706.70 185.82
-9755470.52 5135705.13 186.43
-9755474.94 5135700.50 184.76
-9755472.85 5135706.35 186.90
-9755477.45 5135705.45 181.09
-9755469.92 5135703.30 186.63
-9755470.90 5135704.85 185.15
-9755470.96 5135711.59 182.68
-9755471.25 5135712.36 184.43
-9755474.17 5135701.37 184.67
-9755476.09 5135704.31 184.99
-9755472.07 5135703.52 187.67
-9755469.45 5135702.86 184.41
-9755469.55 5135709.82 183.05
-9755475.47 5135703.24 184.82
-9755473.73 5135703.21 187.47
-9755472.59 5135701.49 186.27
-9755472.89 5135704.04 185.76
-9755475.80 5135706.65 186.42
-9755472.89 5135705.99 185.37
-9755475.60 5135702.56 184.77
-9755471.86 5135705.69 186.96
-9755474.69 5135703.77 186.90
-9755475.53 5135706.23 184.34
-9755472.85 5135704.05 184.60
-9755476.71 5135705.23 184.79
-9755476.61 5135707.48 186.38
-9755475.76 5135705.83 185.16
-9755475.80 5135705.58 185.48
-9755470.11 5135707.46 185.11
-9755476.26 5135705.94 185.78
-9755473.78 5135708.14 185.99
-9755471.34 5135707.25 185.17
-9755475.95 5135711.64 181.15
-9755474.00 5135705.88 186.82
-9755469.29 5135707.47 185.42
-9755470.43 5135703.32 186.69
-9755473.31 5135709.01 181.18
-9755471.96 5135701.78 188.38
-9755472.76 5135705.48 186.24
-9755470.94 5135711.94 181.29
-9755473.37 5135701.59 181.12
-9755473.71 5135705.48 187.39
-9755471.00 5135707.33 186.11
-9755472.17 5135704.14 184.65
-9755475.67 5135709.86 181.14
-9755471.00 5135701.02 185.90
-9755472.17 5135711.62 181.19
-9755471.56 5135704.87 183.76
-9755469.85 5135713.10 187.03
-9755476.27 5135704.81 185.66
-9755475.49 5135702.44 187.20
-9755471.49 5135701.60 187.72
-9755473.70 5135706.92 181.19
-9755473.60 5135711.62 181.19
-9755471.28 5135712.83 181.23
-9755472.71 5135724.95 181.19
-9755470.45 5135713.25 185.18
-9755469.78 5135713.99 185.71
-9755476.79 5135722.91 181.17
-9755474.48 5135717.27 181.17
-9755476.57 5135723.79 181.15
-9755469.73 5135713.66 187.55
-9755470.68 5135713.65 185.23
-9755470.04 5135713.63 186.63
-9755470.33 5135714.47 184.00
-9755470.09 5135714.86 182.47
-9755469.74 5135723.45 181.21
-9755477.09 5135722.63 181.16
-9755469.82 5135714.37 185.47
-9755473.60 5135719.65 181.17
-9755473.00 5135723.78 181.19
-9755468.85 5135714.82 182.47
-9755470.12 5135714.77 184.07
-9755471.01 5135714.13 183.59
-9755472.13 5135714.84 181.19
-9755474.17 5135718.44 181.16
-9755474.51 5135714.04 181.19
-9755470.68 5135714.17 183.59
-9755471.01 5135714.92 182.43
-9755471.31 5135713.61 182.44
-9755472.97 5135718.68 181.17
-9755470.04 5135714.04 184.22
-9755470.56 5135714.59 181.26
-9755470.35 5135718.43 181.20
-9755470.07 5135714.40 185.41
-9755472.70 5135716.91 181.18
-9755471.90 5135713.97 182.35
-9755469.84 5135714.15 184.60
-9755469.96 5135724.64 181.21
-9755470.47 5135712.89 185.88
-9755470.64 5135717.23 181.20
-9755469.60 5135713.73 185.78
-9755470.70 5135714.51 182.51
-9755472.43 5135714.88 181.18
-9755475.34 5135719.63 181.16
-9755469.78 5135715.35 184.16
-9755469.12 5135713.74 186.19
-9755470.09 5135715.34 183.05
-9755472.06 5135723.72 181.19
-9755471.25 5135713.50 184.14
-9755471.35 5135714.54 182.54
-9755471.53 5135713.79 183.75
-9755469.48 5135716.06 181.33
-9755470.12 5135713.38 186.70
-9755470.38 5135713.14 186.44
-9755471.37 5135713.97 182.33
-9755472.70 5135722.01 181.19
-9755470.40 5135713.55 184.65
-9755469.49 5135714.97 183.11
-9755469.42 5135714.70 184.76
-9755473.63 5135714.58 181.19
-9755469.01 5135714.99 184.25
-9755471.81 5135715.20 181.18
-9755470.95 5135713.13 185.15
-9755468.87 5135715.25 181.68
-9755469.22 5135715.33 182.48
-9755470.11 5135714.43 184.61
-9755471.22 5135715.76 181.21
-9755470.28 5135719.61 181.21
-9755476.83 5135719.61 181.16
-9755473.59 5135713.12 181.20
-9755475.36 5135723.83 181.15
-9755471.05 5135714.15 182.56
-9755469.21 5135715.44 181.35
-9755472.97 5135717.89 181.18
-9755470.41 5135715.12 182.40
-9755471.18 5135714.50 182.56
-9755469.77 5135715.38 183.04
-9755472.41 5135717.84 181.18
-9755470.04 5135714.08 185.72
-9755469.27 5135713.54 187.81
-9755471.00 5135713.89 183.01
-9755468.97 5135713.93 187.21
-9755469.73 5135721.38 181.22
-9755476.86 5135716.99 181.15
-9755469.44 5135717.55 181.27
-9755471.73 5135713.41 183.74
-9755470.88 5135720.20 181.21
-9755471.14 5135714.26 182.94
-9755469.72 5135717.26 181.26
-9755475.39 5135717.24 181.17
-9755473.26 5135720.54 181.18
-9755472.13 5135715.71 181.15
-9755470.40 5135714.83 183.72
-9755470.97 5135716.96 181.20
-9755471.20 5135713.68 181.25
-9755468.85 5135718.10 181.29
-9755472.98 5135714.54 181.18
-9755472.69 5135723.15 181.19
-9755469.76 5135714.71 185.43
-9755470.18 5135714.75 183.11
-9755470.04 5135721.99 181.22
-9755469.78 5135713.43 186.63
-9755475.34 5135715.75 181.16
-9755471.30 5135713.20 183.80
-9755469.35 5135714.92 184.59
-9755474.13 5135723.75 181.18
-9755468.85 5135722.83 181.22
-9755476.78 5135718.75 181.15
-9755470.18 5135714.30 184.09
-9755472.98 5135722.89 181.19
-9755469.67 5135713.68 186.18
-9755470.75 5135714.65 183.97
-9755472.93 5135715.78 181.18
-9755470.35 5135714.78 183.10
-9755469.14 5135722.86 181.22
-9755469.18 5135714.10 186.13
-9755475.35 5135716.42 181.16
-9755473.04 5135713.98 181.18
-9755493.42 5135699.33 180.83
-9755495.56 5135698.74 180.89
-9755496.72 5135697.88 180.92
-9755498.47 5135698.99 180.92
-9755497.88 5135695.80 180.94
-9755494.08 5135698.83 180.86
-9755494.05 5135697.49 180.87
-9755497.85 5135698.16 180.92
-9755497.64 5135697.59 180.92
-9755496.71 5135699.05 180.91
-9755494.91 5135697.22 180.89
-9755498.20 5135697.25 180.94
-9755497.58 5135699.09 180.92
-9755492.92 5135695.80 180.87
-9755480.47 5135699.80 181.03
-9755484.32 5135697.48 181.02
-9755485.77 5135698.92 181.00
-9755481.63 5135696.61 181.01
-9755492.00 5135698.11 180.80
-9755480.82 5135696.59 181.01
-9755487.54 5135698.70 180.99
-9755482.58 5135697.18 181.01
-9755490.21 5135698.41 180.93
-9755487.23 5135697.19 180.98
-9755491.92 5135696.60 180.83
-9755480.79 5135698.31 181.04
-9755482.80 5135698.98 181.05
-9755487.26 5135696.58 180.98
-9755482.58 5135698.93 181.05
-9755486.67 5135695.72 180.95
-9755490.19 5135696.65 180.92
-9755479.54 5135698.96 181.05
-9755485.51 5135695.70 180.98
-9755489.32 5135697.51 180.95
-9755480.24 5135696.90 181.01
-9755491.94 5135697.26 180.82
-9755485.18 5135696.02 181.00
-9755486.93 5135698.11 180.99
-9755484.61 5135698.98 181.03
-9755488.71 5135698.09 180.94
-9755488.18 5135696.03 180.95
-9755481.04 5135698.95 181.04
-9755481.65 5135697.19 181.02
-9755481.98 5135698.34 181.04
-9755479.30 5135698.89 181.05
-9755479.30 5135697.49 181.03
-9755478.15 5135698.95 181.05
-9755478.73 5135698.08 181.04
-9755472.28 5135697.42 181.01
-9755477.53 5135697.43 181.04
-9755469.58 5135697.12 181.02
-9755475.80 5135695.96 181.01
-9755475.18 5135697.73 181.04
