-9755458.09 5135664.97 188.90
-9755454.76 5135662.31 181.48
-9755461.76 5135662.14 186.07
-9755451.82 5135660.25 181.49
-9755451.45 5135664.77 181.46
-9755453.28 5135662.06 181.50
-9755452.07 5135662.02 181.48
-9755451.49 5135662.92 181.47
-9755450.75 5135651.96 181.59
-9755450.80 5135648.79 193.34
-9755451.25 5135649.64 185.98
-9755451.25 5135648.86 196.75
-9755451.30 5135648.69 197.69
-9755451.27 5135649.21 188.13
-9755451.19 5135649.09 193.32
-9755450.66 5135656.44 181.53
-9755450.82 5135649.26 189.75
-9755450.55 5135649.58 190.43
-9755451.14 5135649.51 191.08
-9755451.13 5135649.07 195.89
-9755451.01 5135649.62 188.26
-9755451.08 5135649.78 183.44
-9755450.99 5135652.86 181.58
-9755450.55 5135650.07 184.10
-9755450.56 5135649.71 187.80
-9755450.75 5135649.80 188.23
-9755451.13 5135649.30 193.30
-9755451.12 5135648.81 199.14
-9755450.73 5135649.92 183.83
-9755450.96 5135650.15 183.43
-9755450.71 5135649.48 190.08
-9755450.66 5135651.11 181.59
-9755451.07 5135649.33 189.42
-9755450.91 5135648.99 195.98
-9755451.34 5135649.82 182.56
-9755450.92 5135648.82 197.63
-9755450.65 5135661.41 181.48
-9755451.26 5135660.86 181.49
-9755450.62 5135662.90 181.47
-9755467.28 5135646.11 181.51
-9755467.85 5135646.16 181.51
-9755467.26 5135645.51 181.52
-9755468.69 5135644.36 181.52
-9755469.05 5135643.83 181.52
-9755468.44 5135643.82 181.53
-9755468.12 5135644.06 181.53
-9755466.95 5135642.89 181.54
-9755467.51 5135643.19 181.53
-9755467.00 5135644.12 181.55
-9755469.33 5135644.02 181.51
-9755467.81 5135644.61 181.51
-9755466.70 5135643.22 181.55
-9755468.10 5135645.58 181.51
-9755453.11 5135645.73 193.37
-9755460.45 5135646.08 181.56
-9755460.49 5135645.51 181.56
-9755453.99 5135646.11 193.28
-9755454.02 5135645.53 186.01
-9755455.23 5135644.88 193.29
-9755460.18 5135645.51 181.56
-9755456.85 5135645.46 181.55
-9755457.77 5135642.52 186.54
-9755461.33 5135645.79 181.56
-9755461.91 5135642.31 181.60
-9755460.26 5135640.05 185.94
-9755461.95 5135639.03 181.66
-9755457.84 5135641.65 181.60
-9755463.85 5135637.30 193.32
-9755459.56 5135640.87 186.86
-9755459.57 5135644.31 181.60
-9755458.97 5135641.27 181.61
-9755457.27 5135642.65 187.67
-9755462.83 5135642.84 181.58
-9755454.72 5135645.03 185.08
-9755460.30 5135640.03 187.21
-9755454.28 5135645.50 186.01
-9755466.31 5135644.97 181.54
-9755460.32 5135639.83 187.78
-9755460.65 5135639.54 189.32
-9755455.63 5135643.98 189.90
-9755459.76 5135640.52 193.31
-9755457.01 5135643.08 188.98
-9755453.65 5135645.45 193.37
-9755454.05 5135645.51 188.76
-9755459.92 5135641.97 181.60
-9755460.14 5135640.48 188.34
-9755454.92 5135645.17 193.30
-9755457.56 5135644.66 181.58
-9755459.65 5135642.58 181.58
-9755459.91 5135640.27 186.75
-9755454.91 5135644.57 181.58
-9755460.93 5135639.57 193.31
-9755460.13 5135640.31 186.75
-9755455.63 5135643.98 187.28
-9755460.31 5135640.07 188.50
-9755460.14 5135640.16 187.39
-9755465.01 5135636.34 195.66
-9755454.30 5135645.61 190.59
-9755456.07 5135644.28 193.31
-9755457.77 5135642.42 185.88
-9755454.41 5135646.12 193.28
-9755464.87 5135636.64 194.27
-9755460.92 5135639.53 189.01
-9755462.16 5135639.08 181.66
-9755459.25 5135640.92 186.48
-9755457.12 5135642.95 190.66
-9755465.49 5135643.79 181.56
-9755459.07 5135641.14 190.01
-9755457.83 5135642.24 187.15
-9755460.02 5135641.11 193.27
-9755458.68 5135643.73 181.59
-9755463.97 5135637.12 199.67
-9755462.13 5135638.16 193.34
-9755456.32 5135643.10 181.58
-9755464.68 5135636.92 194.56
-9755464.57 5135636.67 199.68
-9755464.89 5135636.57 196.61
-9755464.65 5135636.66 193.32
-9755461.80 5135638.52 186.62
-9755456.51 5135643.30 189.91
-9755461.36 5135638.76 188.06
-9755456.93 5135642.27 181.62
-9755459.39 5135640.90 187.23
-9755464.67 5135636.58 195.49
-9755455.59 5135644.05 190.53
-9755459.91 5135643.11 181.60
-9755461.15 5135639.28 189.32
-9755465.34 5135635.80 198.36
-9755454.27 5135645.54 181.57
-9755455.84 5135643.78 186.61
-9755456.72 5135643.08 181.59
-9755453.69 5135644.79 181.62
-9755454.71 5135644.79 190.54
-9755458.44 5135641.53 190.20
-9755461.94 5135638.59 188.11
-9755458.16 5135641.63 181.58
-9755460.50 5135639.73 189.08
-9755460.51 5135641.09 181.62
-9755456.89 5135643.19 188.06
-9755455.32 5135643.26 193.35
-9755455.56 5135644.44 185.07
-9755465.15 5135636.51 198.30
-9755455.32 5135643.91 190.31
-9755464.87 5135636.40 199.74
-9755458.20 5135641.98 193.31
-9755457.77 5135642.37 185.12
-9755458.38 5135641.50 189.00
-9755454.76 5135644.86 189.04
-9755460.57 5135639.66 185.94
-9755454.17 5135645.63 187.39
-9755458.51 5135641.68 186.62
-9755455.86 5135643.79 189.81
-9755458.85 5135641.28 188.99
-9755456.84 5135642.91 186.69
-9755457.05 5135643.06 187.31
-9755456.31 5135643.44 188.07
-9755457.61 5135642.79 193.31
-9755457.11 5135643.70 193.26
-9755459.68 5135640.73 193.32
-9755458.75 5135641.44 189.84
-9755457.01 5135643.68 181.60
-9755455.20 5135644.72 185.04
-9755458.96 5135641.12 187.39
-9755454.84 5135644.62 188.07
-9755458.23 5135641.41 188.68
-9755457.28 5135643.94 181.59
-9755464.59 5135644.60 181.55
-9755459.58 5135641.02 187.14
-9755455.46 5135644.55 181.58
-9755459.07 5135641.12 186.58
-9755461.31 5135639.59 181.59
-9755457.74 5135642.91 181.58
-9755457.06 5135642.87 193.33
-9755464.68 5135636.95 198.31
-9755458.13 5135643.16 181.58
-9755457.62 5135642.53 188.93
-9755455.78 5135644.54 193.28
-9755459.23 5135641.35 184.97
-9755458.16 5135642.16 187.21
-9755456.18 5135643.67 189.36
-9755461.45 5135639.06 186.64
-9755456.27 5135643.77 186.57
-9755459.68 5135641.28 181.60
-9755464.81 5135636.61 195.79
-9755459.90 5135639.64 181.62
-9755458.69 5135641.48 185.90
-9755460.20 5135639.96 185.13
-9755457.44 5135642.15 193.33
-9755458.96 5135641.98 181.61
-9755465.56 5135635.70 193.31
-9755455.47 5135644.47 189.32
-9755459.94 5135640.09 188.98
-9755455.60 5135643.92 189.99
-9755457.87 5135642.79 185.15
-9755460.27 5135640.07 189.12
-9755456.65 5135643.73 193.28
-9755462.86 5135641.61 181.59
-9755457.24 5135642.57 181.61
-9755465.32 5135635.89 197.18
-9755461.56 5135638.62 186.63
-9755459.37 5135640.80 186.03
-9755459.93 5135640.54 186.08
-9755464.33 5135643.16 181.56
-9755465.25 5135636.13 197.04
-9755459.68 5135639.85 193.34
-9755455.31 5135644.27 193.33
-9755458.85 5135641.40 193.32
-9755465.13 5135646.10 181.52
-9755462.96 5135637.82 193.32
-9755457.31 5135642.61 188.15
-9755460.32 5135639.97 193.33
-9755455.81 5135643.96 187.69
-9755458.39 5135641.68 187.47
-9755461.02 5135643.16 181.58
-9755462.68 5135638.42 193.30
-9755458.54 5135641.71 193.32
-9755455.33 5135645.20 193.26
-9755454.35 5135645.28 186.01
-9755465.39 5135635.69 197.18
-9755461.38 5135638.53 193.34
-9755465.19 5135641.44 181.59
-9755459.39 5135641.18 186.07
-9755454.83 5135644.50 185.05
-9755460.56 5135639.04 181.62
-9755456.27 5135643.49 193.34
-9755458.23 5135641.58 186.62
-9755465.03 5135636.56 198.11
-9755458.21 5135641.93 189.90
-9755454.51 5135645.12 189.19
-9755458.15 5135643.94 181.60
-9755457.06 5135642.93 185.08
-9755457.98 5135641.79 186.04
-9755458.14 5135641.35 181.62
-9755461.35 5135638.85 188.46
-9755459.88 5135640.49 181.61
-9755465.04 5135636.49 195.43
-9755454.14 5135645.42 193.32
-9755461.99 5135639.03 193.28
-9755460.64 5135639.80 189.30
-9755457.40 5135642.36 186.60
-9755458.43 5135641.99 186.53
-9755462.80 5135643.50 181.59
-9755456.08 5135636.27 181.55
-9755465.10 5135636.34 199.70
-9755464.61 5135636.65 198.71
-9755457.59 5135642.32 188.69
-9755458.72 5135641.94 181.60
-9755458.06 5135641.61 188.93
-9755458.17 5135642.06 186.59
-9755455.31 5135644.26 189.91
-9755465.05 5135636.35 198.41
-9755458.78 5135641.24 188.12
-9755460.22 5135640.11 181.59
-9755453.96 5135646.22 185.06
-9755463.55 5135637.84 193.30
-9755465.20 5135645.49 181.53
-9755460.47 5135639.68 189.62
-9755465.54 5135635.88 196.66
-9755460.18 5135642.31 181.60
-9755459.84 5135640.67 189.17
-9755457.79 5135642.30 190.24
-9755459.48 5135640.67 189.99
-9755459.57 5135640.67 188.66
-9755457.83 5135642.16 190.29
-9755454.68 5135645.07 187.24
-9755462.06 5135637.81 193.34
-9755457.90 5135642.05 189.90
-9755454.72 5135644.84 193.34
-9755464.83 5135644.93 181.53
-9755458.84 5135641.16 193.32
-9755455.49 5135643.80 193.34
-9755459.45 5135641.45 193.25
-9755458.16 5135641.85 190.32
-9755459.45 5135640.94 185.03
-9755462.99 5135638.18 193.30
-9755457.44 5135642.65 185.85
-9755461.75 5135638.76 193.31
-9755463.53 5135638.36 193.20
-9755455.53 5135644.62 188.99
-9755458.07 5135641.64 190.11
-9755457.31 5135641.67 181.63
-9755461.30 5135644.01 181.57
-9755458.28 5135641.76 185.86
-9755465.10 5135636.38 194.50
-9755457.26 5135642.94 189.92
-9755466.07 5135642.86 181.55
-9755459.31 5135643.19 181.59
-9755454.58 5135644.95 186.94
-9755462.06 5135638.52 193.33
-9755465.13 5135636.18 197.51
-9755465.22 5135635.72 198.09
-9755459.02 5135640.85 190.12
-9755460.16 5135640.14 188.93
-9755455.75 5135644.09 186.54
-9755461.68 5135638.09 193.37
-9755454.96 5135643.71 181.65
-9755461.43 5135638.65 189.09
-9755463.68 5135640.48 181.60
-9755465.49 5135645.49 181.53
-9755457.79 5135644.83 181.59
-9755461.53 5135639.01 193.32
-9755465.16 5135636.42 195.26
-9755466.37 5135643.44 181.55
-9755464.92 5135636.40 195.44
-9755460.50 5135640.40 181.63
-9755454.47 5135644.90 193.34
-9755455.90 5135643.11 193.37
-9755454.31 5135645.30 187.11
-9755459.40 5135641.02 188.96
-9755458.85 5135641.33 187.81
-9755458.05 5135641.57 199.82
-9755456.61 5135643.99 181.59
-9755460.87 5135639.62 181.61
-9755456.36 5135643.61 185.05
-9755465.25 5135636.40 194.27
-9755457.55 5135642.38 189.67
-9755457.08 5135643.03 186.40
-9755454.91 5135644.62 189.19
-9755462.06 5135638.39 188.02
-9755455.96 5135643.14 181.62
-9755461.14 5135639.14 186.64
-9755460.59 5135639.47 186.62
-9755465.37 5135635.74 199.37
-9755459.77 5135640.43 187.18
-9755460.04 5135639.83 188.04
-9755465.06 5135636.36 198.89
-9755458.04 5135641.87 188.94
-9755454.27 5135645.20 186.81
-9755461.02 5135644.60 181.58
-9755464.49 5135636.84 196.09
-9755457.08 5135643.05 190.05
-9755457.32 5135642.90 185.08
-9755456.51 5135643.16 193.33
-9755455.46 5135644.02 187.93
-9755461.29 5135638.99 190.61
-9755455.68 5135644.47 181.57
-9755457.29 5135641.95 181.59
-9755459.14 5135641.11 190.62
-9755461.87 5135638.41 190.58
-9755464.90 5135636.42 194.26
-9755458.38 5135644.61 181.58
-9755458.16 5135642.09 187.65
-9755460.98 5135639.49 186.88
-9755459.71 5135640.49 188.98
-9755460.66 5135639.53 190.52
-9755458.32 5135642.21 185.04
-9755464.66 5135636.55 197.69
-9755454.40 5135645.21 193.32
-9755455.52 5135643.30 193.34
-9755459.88 5135640.35 185.10
-9755455.40 5135644.04 181.61
-9755460.56 5135640.17 193.30
-9755458.78 5135641.40 185.09
-9755456.02 5135644.07 181.60
-9755464.86 5135636.38 198.60
-9755465.34 5135635.80 193.33
-9755457.71 5135642.32 187.89
-9755456.43 5135643.25 190.37
-9755464.61 5135636.54 198.07
-9755459.68 5135640.60 185.09
-9755465.38 5135635.84 197.56
-9755454.90 5135644.88 181.58
-9755462.03 5135638.59 190.42
-9755461.17 5135639.10 188.27
-9755464.01 5135642.23 181.58
-9755461.44 5135639.92 181.60
-9755459.75 5135641.28 193.28
-9755462.03 5135638.39 188.51
-9755457.25 5135642.89 181.61
-9755461.87 5135638.31 190.31
-9755453.35 5135645.46 181.58
-9755502.99 5135633.40 190.63
-9755500.86 5135632.59 186.42
-9755502.46 5135632.88 190.48
-9755503.00 5135632.68 189.45
-9755502.98 5135630.71 186.75
-9755503.08 5135631.66 190.45
-9755502.78 5135628.30 181.60
-9755502.56 5135630.20 185.61
-9755503.09 5135631.80 189.76
-9755503.07 5135631.89 187.55
-9755501.84 5135633.22 190.56
-9755501.52 5135628.86 181.45
-9755502.76 5135630.02 186.92
-9755500.97 5135628.52 181.66
-9755502.70 5135632.57 190.32
-9755502.14 5135631.54 185.75
-9755500.83 5135630.95 184.61
-9755502.16 5135631.77 190.52
-9755503.07 5135630.02 187.42
-9755502.52 5135629.95 186.09
-9755502.16 5135633.43 190.84
-9755501.41 5135631.57 189.17
-9755501.47 5135632.04 189.62
-9755499.48 5135629.19 181.86
-9755500.09 5135628.56 181.85
-9755499.77 5135628.21 181.86
-9755501.53 5135632.36 189.52
-9755500.05 5135629.45 181.82
-9755502.84 5135632.95 189.45
-9755502.08 5135629.88 186.28
-9755500.95 5135629.18 181.55
-9755501.92 5135632.33 190.84
-9755502.46 5135632.29 190.39
-9755502.55 5135630.95 185.87
-9755502.11 5135632.52 188.42
-9755502.15 5135631.80 189.04
-9755502.33 5135632.24 188.15
-9755502.20 5135631.98 190.48
-9755502.31 5135632.28 188.99
-9755499.16 5135630.00 181.38
-9755502.51 5135633.35 190.28
-9755501.56 5135631.68 190.51
-9755502.78 5135632.53 188.78
-9755503.08 5135629.80 187.38
-9755502.52 5135632.57 190.40
-9755499.47 5135630.01 181.85
-9755502.41 5135633.49 190.06
-9755502.12 5135633.42 184.82
-9755501.80 5135635.94 181.38
-9755501.76 5135635.42 185.16
-9755501.84 5135634.20 186.91
-9755502.26 5135633.50 189.69
-9755501.53 5135633.64 186.73
-9755503.23 5135636.42 184.76
-9755499.72 5135634.79 181.83
-9755502.66 5135633.93 186.52
-9755503.11 5135633.78 190.13
-9755503.00 5135635.11 186.70
-9755500.04 5135633.57 181.79
-9755501.70 5135634.71 188.46
-9755503.09 5135635.38 184.10
-9755502.09 5135634.27 186.89
-9755503.09 5135635.36 186.28
-9755499.69 5135635.38 181.40
-9755502.29 5135633.99 190.29
-9755499.70 5135634.49 181.39
-9755501.90 5135634.06 190.11
-9755501.53 5135633.96 181.40
-9755501.85 5135634.58 190.18
-9755499.09 5135635.87 181.85
-9755502.38 5135636.34 185.38
-9755502.37 5135634.45 189.86
-9755502.96 5135635.29 185.02
-9755503.21 5135635.65 186.89
-9755502.32 5135634.52 186.89
-9755499.15 5135635.35 181.83
-9755502.95 5135635.38 186.75
-9755501.17 5135634.10 184.12
-9755502.44 5135635.23 187.10
-9755498.92 5135628.25 181.41
-9755495.64 5135631.82 181.39
-9755495.00 5135630.61 181.40
-9755495.05 5135628.54 181.43
-9755497.40 5135629.74 181.40
-9755494.43 5135632.42 181.41
-9755497.99 5135628.81 181.41
-9755495.01 5135632.07 181.40
-9755494.21 5135631.20 181.40
-9755497.69 5135632.14 181.38
-9755496.84 5135629.70 181.40
-9755493.82 5135630.58 181.43
-9755493.82 5135632.96 181.42
-9755494.43 5135629.72 181.41
-9755494.46 5135633.24 181.41
-9755488.19 5135632.75 189.31
-9755487.73 5135633.03 186.15
-9755484.46 5135629.25 183.43
-9755482.78 5135628.45 193.30
-9755487.49 5135632.43 197.99
-9755483.98 5135628.96 188.04
-9755487.73 5135632.02 188.49
-9755484.78 5135629.22 185.78
-9755491.78 5135630.30 181.43
-9755486.67 5135631.47 197.20
-9755487.93 5135632.49 185.10
-9755487.70 5135632.88 182.12
-9755486.43 5135630.52 185.19
-9755491.54 5135628.48 181.46
-9755484.78 5135629.67 185.70
-9755488.15 5135632.52 183.77
-9755487.50 5135631.63 190.29
-9755486.78 5135630.87 181.48
-9755484.00 5135629.61 198.17
-9755486.99 5135631.70 198.52
-9755490.87 5135630.29 181.44
-9755485.87 5135631.15 196.70
-9755486.19 5135630.71 186.28
-9755483.67 5135628.52 193.29
-9755484.74 5135629.11 193.26
-9755486.03 5135629.95 193.26
-9755486.83 5135628.51 181.50
-9755486.98 5135632.00 196.59
-9755493.26 5135632.36 181.41
-9755485.01 5135629.77 183.96
-9755483.98 5135629.31 195.00
-9755490.66 5135629.97 181.45
-9755488.25 5135632.00 183.41
-9755488.26 5135631.80 181.46
-9755483.36 5135628.87 198.11
-9755484.97 5135629.59 182.77
-9755483.97 5135629.33 195.45
-9755489.11 5135629.64 182.07
-9755485.01 5135630.50 199.49
-9755492.34 5135629.12 181.44
-9755487.38 5135631.97 198.01
-9755487.47 5135632.46 196.11
-9755486.74 5135630.88 185.96
-9755488.21 5135632.09 185.07
-9755487.92 5135632.82 185.07
-9755485.17 5135630.70 197.23
-9755487.55 5135632.40 195.18
-9755484.64 5135629.20 182.86
-9755489.16 5135631.49 181.45
-9755488.14 5135632.61 182.46
-9755483.39 5135628.83 193.32
-9755483.59 5135628.59 186.46
-9755487.71 5135633.04 184.06
-9755487.35 5135632.16 196.99
-9755484.75 5135628.38 182.26
-9755482.72 5135628.77 193.29
-9755487.41 5135632.82 199.55
-9755486.80 5135631.29 188.29
-9755487.95 5135631.68 181.48
-9755487.67 5135632.95 186.61
-9755487.31 5135631.41 183.47
-9755486.11 5135630.53 183.41
-9755483.28 5135628.94 195.19
-9755487.97 5135632.20 184.45
-9755486.77 5135630.53 181.49
-9755483.76 5135629.04 186.47
-9755489.98 5135632.63 181.45
-9755486.89 5135631.47 189.33
-9755486.85 5135631.02 185.09
-9755486.20 5135630.95 188.94
-9755484.45 5135629.66 188.24
-9755483.31 5135628.55 189.77
-9755487.07 5135631.75 195.51
-9755484.52 5135629.73 190.09
-9755490.91 5135628.55 181.44
-9755484.55 5135629.36 187.34
-9755486.51 5135631.23 194.67
-9755487.44 5135631.69 189.39
-9755487.02 5135631.29 184.08
-9755486.82 5135629.96 181.48
-9755493.27 5135630.60 181.41
-9755486.77 5135631.25 187.05
-9755488.90 5135630.55 181.48
-9755484.56 5135630.15 195.47
-9755486.52 5135630.87 184.03
-9755484.54 5135629.36 193.27
-9755487.53 5135632.94 197.61
-9755487.02 5135631.77 199.64
-9755485.75 5135630.54 186.00
-9755487.74 5135632.65 186.58
-9755487.79 5135632.89 188.60
-9755488.31 5135632.11 186.96
-9755487.75 5135632.99 193.30
-9755487.66 5135632.03 188.17
-9755483.35 5135629.08 199.21
-9755487.43 5135631.82 186.54
-9755484.06 5135629.22 199.54
-9755489.77 5135631.44 181.45
-9755483.23 5135628.41 188.34
-9755488.09 5135632.16 187.81
-9755487.93 5135632.91 182.36
-9755487.47 5135632.42 194.45
-9755485.30 5135630.46 195.72
-9755492.09 5135629.74 181.43
-9755483.26 5135628.58 190.06
-9755487.74 5135632.81 182.63
-9755482.95 5135628.64 190.04
-9755485.43 5135629.99 186.45
-9755483.54 5135629.44 197.72
-9755490.26 5135632.94 181.43
-9755487.78 5135632.80 191.70
-9755487.90 5135632.51 191.77
-9755487.77 5135632.91 189.70
-9755488.16 5135632.58 187.96
-9755488.03 5135632.32 188.77
-9755489.17 5135633.01 181.44
-9755487.63 5135632.83 197.33
-9755487.76 5135632.75 183.58
-9755487.46 5135632.81 194.92
-9755487.99 5135632.43 187.18
-9755491.54 5135632.06 181.44
-9755487.54 5135632.42 196.55
-9755493.29 5135628.81 181.45
-9755488.38 5135631.48 182.56
-9755486.17 5135630.98 196.79
-9755487.64 5135632.94 192.47
-9755487.87 5135633.06 197.96
-9755488.00 5135632.20 187.48
-9755483.68 5135628.79 187.37
-9755488.18 5135632.67 184.23
-9755485.93 5135630.33 186.76
-9755487.73 5135633.07 191.00
-9755488.08 5135632.87 184.13
-9755483.82 5135628.91 182.25
-9755487.73 5135632.93 199.84
-9755487.23 5135632.10 198.85
-9755483.66 5135629.23 194.79
-9755488.01 5135632.61 188.42
-9755487.78 5135632.40 193.78
-9755483.89 5135628.60 186.73
-9755487.16 5135631.53 186.35
-9755486.45 5135631.55 198.27
-9755484.06 5135628.89 187.78
-9755487.66 5135631.80 187.46
-9755488.20 5135632.18 188.34
-9755485.47 5135630.03 185.29
-9755488.12 5135632.83 182.57
-9755485.11 5135630.27 195.86
-9755487.51 5135632.86 199.33
-9755484.59 5135629.42 186.73
-9755485.03 5135629.60 181.82
-9755488.06 5135632.64 189.34
-9755488.82 5135632.96 181.44
-9755487.76 5135633.02 183.00
-9755483.43 5135628.31 185.77
-9755489.44 5135629.39 181.47
-9755487.04 5135631.64 188.19
-9755482.44 5135628.19 199.69
-9755488.11 5135632.44 191.61
-9755487.11 5135631.25 184.89
-9755486.78 5135628.72 181.50
-9755484.16 5135629.18 188.08
-9755486.35 5135630.83 188.42
-9755485.09 5135629.74 185.96
-9755483.88 5135629.11 188.38
-9755491.21 5135632.92 181.42
-9755484.00 5135628.90 186.39
-9755487.83 5135632.07 186.57
-9755488.20 5135632.32 182.00
-9755487.47 5135632.61 198.48
-9755484.85 5135630.15 193.31
-9755492.04 5135632.96 181.41
-9755487.76 5135632.49 188.75
-9755483.38 5135628.51 186.48
-9755484.46 5135629.38 188.85
-9755492.66 5135632.94 181.41
-9755485.70 5135630.56 193.30
-9755485.59 5135629.89 183.92
-9755483.31 5135628.44 189.01
-9755487.47 5135631.48 186.39
-9755486.82 5135630.89 185.62
-9755484.70 5135629.10 181.48
-9755485.46 5135630.04 193.28
-9755492.09 5135631.72 181.42
-9755486.65 5135631.16 181.53
-9755486.57 5135631.08 189.52
-9755487.98 5135633.11 188.96
-9755486.32 5135631.08 188.42
-9755483.80 5135629.13 189.43
-9755486.28 5135631.45 199.00
-9755485.23 5135630.59 198.23
-9755483.95 5135628.68 186.73
-9755485.64 5135629.61 181.50
-9755487.89 5135632.62 184.20
-9755484.51 5135629.77 194.17
-9755486.47 5135628.22 182.22
-9755487.55 5135632.05 194.57
-9755484.52 5135629.95 196.31
-9755484.91 5135629.44 184.82
-9755488.10 5135632.43 191.02
-9755488.05 5135632.48 184.93
-9755485.78 5135630.28 188.41
-9755488.27 5135632.46 183.10
-9755487.96 5135632.48 183.83
-9755488.22 5135632.32 181.45
-9755488.03 5135632.97 187.46
-9755491.46 5135632.91 181.42
-9755484.49 5135629.52 184.74
-9755486.87 5135631.78 197.86
-9755488.04 5135632.38 193.28
-9755483.44 5135628.70 188.96
-9755489.41 5135630.90 181.46
-9755482.84 5135628.49 199.71
-9755490.66 5135628.82 181.44
-9755483.67 5135628.75 193.31
-9755488.32 5135632.04 181.93
-9755487.62 5135631.91 191.28
-9755486.81 5135629.64 181.48
-9755486.56 5135631.28 185.01
-9755487.69 5135632.96 195.80
-9755488.01 5135632.95 192.34
-9755488.30 5135631.83 184.08
-9755488.07 5135632.37 182.69
-9755486.03 5135631.04 198.71
-9755488.06 5135632.94 183.22
-9755485.48 5135630.76 195.01
-9755492.99 5135629.10 181.44
-9755483.86 5135628.92 184.57
-9755485.18 5135630.44 196.02
-9755486.56 5135630.74 184.55
-9755485.98 5135628.76 181.51
-9755487.39 5135632.91 198.97
-9755487.81 5135631.77 193.28
-9755487.76 5135632.80 189.31
-9755487.75 5135631.65 183.80
-9755487.92 5135632.05 185.20
-9755490.92 5135630.94 181.44
-9755487.70 5135632.11 191.16
-9755485.58 5135630.89 197.65
-9755484.46 5135629.26 189.49
-9755485.73 5135631.14 197.64
-9755487.93 5135633.01 193.76
-9755487.17 5135631.40 193.29
-9755485.92 5135628.45 182.23
-9755486.84 5135631.74 197.23
-9755484.30 5135629.80 193.82
-9755486.21 5135630.97 199.19
-9755488.23 5135632.76 183.41
-9755488.06 5135632.25 188.31
-9755490.33 5135629.96 181.45
-9755487.67 5135633.29 185.15
-9755485.96 5135630.79 194.73
-9755488.27 5135632.00 182.47
-9755483.57 5135629.25 196.02
-9755487.59 5135631.80 184.17
-9755487.65 5135632.57 195.62
-9755483.77 5135629.35 198.61
-9755488.03 5135632.18 186.44
-9755488.16 5135632.46 187.46
-9755491.83 5135628.50 181.45
-9755483.53 5135628.84 181.48
-9755487.78 5135632.91 184.21
-9755488.07 5135632.21 190.27
-9755485.35 5135630.18 194.12
-9755493.82 5135633.86 181.40
-9755498.61 5135635.65 181.37
-9755498.51 5135634.51 181.37
-9755496.18 5135633.26 181.39
-9755496.77 5135633.84 181.39
-9755495.63 5135633.27 181.40
-9755497.70 5135633.83 181.38
-9755496.18 5135635.39 181.39
-9755494.41 5135635.30 181.39
-9755495.06 5135635.07 181.40
-9755495.91 5135634.25 181.39
-9755498.85 5135634.75 181.85
-9755486.99 5135635.83 188.32
-9755488.08 5135633.24 186.48
-9755486.86 5135635.89 193.29
-9755488.27 5135633.93 186.10
-9755488.08 5135633.32 190.33
-9755485.97 5135635.90 193.31
-9755488.20 5135633.93 185.35
-9755488.08 5135633.31 193.31
-9755487.24 5135634.57 199.13
-9755487.72 5135633.30 199.07
-9755487.48 5135634.58 190.02
-9755487.18 5135636.21 193.28
-9755486.77 5135635.83 187.15
-9755487.68 5135635.08 186.10
-9755491.50 5135634.98 181.42
-9755487.62 5135635.01 186.55
-9755487.94 5135633.32 184.08
-9755488.12 5135633.60 190.49
-9755487.84 5135633.42 198.08
-9755492.35 5135635.92 181.41
-9755488.04 5135633.86 195.08
-9755488.18 5135633.92 186.46
-9755486.91 5135635.10 190.81
-9755488.02 5135634.75 185.05
-9755486.96 5135634.81 194.62
-9755487.12 5135635.30 188.65
-9755487.61 5135634.12 198.38
-9755488.28 5135633.79 193.30
-9755487.15 5135634.60 195.50
-9755488.31 5135633.99 184.83
-9755488.35 5135634.11 187.23
-9755487.24 5135634.50 198.82
-9755487.22 5135635.38 188.48
-9755487.29 5135635.83 185.67
-9755487.00 5135634.92 196.33
-9755487.82 5135633.45 194.99
-9755488.29 5135634.49 193.29
-9755487.94 5135634.71 182.40
-9755487.65 5135634.49 186.75
-9755488.23 5135634.12 186.73
-9755488.18 5135634.03 185.13
-9755486.94 5135634.94 194.04
-9755487.89 5135633.86 198.97
-9755487.87 5135633.27 185.57
-9755487.36 5135635.11 188.59
-9755488.05 5135633.36 183.14
-9755487.48 5135634.99 183.94
-9755487.09 5135635.82 184.06
-9755487.31 5135634.45 195.14
-9755488.29 5135634.29 184.12
-9755486.78 5135635.93 188.79
-9755487.20 5135634.66 196.62
-9755488.23 5135633.78 189.22
-9755487.40 5135635.04 189.35
-9755488.23 5135633.77 187.55
-9755487.60 5135634.62 195.95
-9755487.34 5135634.89 196.62
-9755487.50 5135635.19 185.82
-9755487.78 5135633.24 199.75
-9755487.48 5135635.20 188.77
-9755487.40 5135635.49 183.94
-9755487.21 5135635.61 182.85
-9755487.80 5135634.63 181.98
-9755486.94 5135634.80 197.35
-9755487.60 5135635.31 186.55
-9755487.96 5135634.16 190.01
-9755487.13 5135635.47 184.33
-9755486.69 5135635.21 194.77
-9755487.49 5135634.82 195.81
-9755487.68 5135633.29 181.47
-9755486.59 5135635.26 198.23
-9755487.46 5135634.15 198.93
-9755487.35 5135635.07 185.09
-9755487.63 5135633.96 198.69
-9755486.91 5135635.46 190.02
-9755487.47 5135634.30 196.49
-9755488.22 5135635.65 181.43
-9755487.33 5135634.15 199.72
-9755487.29 5135634.15 195.58
-9755487.76 5135634.44 189.84
-9755487.43 5135634.86 186.91
-9755487.79 5135634.36 188.54
-9755488.04 5135634.11 193.32
-9755488.29 5135634.04 183.47
-9755487.15 5135634.31 198.83
-9755490.01 5135635.63 181.40
-9755487.83 5135635.55 182.27
-9755487.13 5135635.53 186.97
-9755488.03 5135634.14 188.55
-9755487.70 5135634.56 188.97
-9755488.29 5135634.05 185.86
-9755487.46 5135634.07 194.75
-9755487.90 5135633.89 186.28
-9755486.81 5135635.21 196.04
-9755488.30 5135634.16 185.78
-9755487.43 5135634.25 198.16
-9755487.84 5135633.92 190.17
-9755493.25 5135633.53 181.41
-9755487.70 5135634.67 188.03
-9755487.41 5135635.08 184.68
-9755488.31 5135634.47 184.55
-9755488.29 5135633.88 187.92
-9755490.30 5135633.87 181.43
-9755487.25 5135635.73 185.92
-9755488.31 5135633.83 187.30
-9755487.49 5135634.51 197.20
-9755491.78 5135635.34 181.41
-9755488.17 5135634.50 185.89
-9755486.75 5135635.65 186.35
-9755489.20 5135634.37 181.44
-9755486.85 5135635.05 198.33
-9755487.90 5135634.68 186.46
-9755487.72 5135635.15 182.46
-9755487.50 5135634.24 193.81
-9755487.43 5135634.73 193.95
-9755486.96 5135635.14 189.85
-9755487.66 5135635.36 183.90
-9755487.51 5135634.48 194.50
-9755488.39 5135633.98 190.92
-9755487.96 5135633.32 192.37
-9755487.61 5135634.04 196.97
-9755486.86 5135635.45 196.88
-9755487.47 5135634.68 196.32
-9755485.74 5135635.65 193.35
-9755487.81 5135634.66 184.56
-9755488.38 5135634.49 183.63
-9755488.00 5135633.98 190.46
-9755488.03 5135634.00 189.39
-9755487.24 5135634.97 199.72
-9755486.69 5135635.34 199.78
-9755487.75 5135633.84 193.33
-9755488.11 5135633.96 191.95
-9755488.06 5135633.46 188.25
-9755487.16 5135634.90 190.71
-9755486.78 5135635.38 194.44
-9755488.21 5135634.49 181.86
-9755488.28 5135633.94 189.68
-9755487.53 5135635.33 184.55
-9755487.71 5135634.46 193.31
-9755487.82 5135633.75 197.96
-9755487.31 5135634.81 197.02
-9755487.40 5135635.09 188.79
-9755487.02 5135634.85 198.18
-9755486.87 5135635.05 193.34
-9755487.06 5135635.62 181.47
-9755487.62 5135634.73 181.45
-9755487.57 5135634.25 196.89
-9755486.68 5135635.35 198.79
-9755487.34 5135635.48 182.62
-9755487.41 5135635.12 189.94
-9755487.87 5135633.91 197.30
-9755487.75 5135633.60 199.06
-9755487.42 5135634.65 198.37
-9755485.42 5135635.69 193.37
-9755486.84 5135635.07 194.46
-9755487.45 5135635.40 193.26
-9755488.09 5135633.97 190.25
-9755487.41 5135634.79 191.14
-9755487.17 5135634.53 193.35
-9755488.07 5135633.92 190.83
-9755486.92 5135635.06 190.23
-9755490.92 5135633.25 181.41
-9755487.47 5135634.52 197.77
-9755487.36 5135635.68 182.31
-9755488.00 5135634.08 186.25
-9755487.99 5135634.00 196.01
-9755487.51 5135635.35 186.40
-9755487.80 5135633.18 194.58
-9755487.61 5135634.47 199.71
-9755487.73 5135633.85 193.88
-9755487.91 5135633.56 187.40
-9755488.03 5135634.17 181.86
-9755486.60 5135635.46 197.26
-9755487.20 5135634.80 198.41
-9755488.47 5135634.03 183.46
-9755487.13 5135635.50 184.89
-9755487.66 5135634.20 196.46
-9755487.64 5135633.15 182.80
-9755487.77 5135634.44 187.53
-9755488.55 5135633.95 184.67
-9755487.71 5135634.49 191.96
-9755487.17 5135634.94 198.84
-9755486.91 5135635.44 190.92
-9755486.72 5135635.66 188.91
-9755492.71 5135633.54 181.40
-9755486.91 5135635.30 198.60
-9755487.13 5135635.47 189.85
-9755487.30 5135634.84 198.14
-9755487.55 5135634.25 197.24
-9755488.60 5135634.11 181.44
-9755487.36 5135635.09 190.69
-9755487.82 5135633.87 196.02
-9755487.83 5135634.00 191.16
-9755488.48 5135634.01 184.74
-9755465.58 5135635.46 199.66
-9755465.68 5135635.71 195.72
-9755465.97 5135634.88 199.69
-9755465.64 5135635.84 194.08
-9755465.51 5135635.56 198.09
-9755465.91 5135635.01 196.76
-9755465.66 5135635.59 199.38
-9755466.08 5135634.79 197.12
-9755465.95 5135635.07 194.90
-9755465.59 5135635.51 197.60
-9755466.06 5135635.27 198.08
-9755465.48 5135635.57 196.93
-9755466.05 5135634.81 197.71
-9755466.23 5135634.63 197.93
-9755465.92 5135634.94 199.14
-9755466.46 5135634.35 199.65
-9755465.72 5135635.24 195.01
-9755465.80 5135635.40 194.54
-9755466.32 5135634.91 198.15
-9755465.83 5135635.41 195.23
-9755465.42 5135635.46 193.41
-9755465.92 5135634.94 193.56
-9755465.95 5135635.23 196.40
-9755466.16 5135634.85 198.48
-9755465.96 5135634.95 195.53
-9755466.35 5135634.73 198.82
-9755499.98 5135646.62 181.30
-9755499.85 5135649.96 181.73
-9755499.95 5135647.79 181.75
-9755500.83 5135651.67 181.24
-9755499.91 5135653.76 181.27
-9755501.09 5135648.04 181.75
-9755499.97 5135649.53 181.76
-9755502.82 5135652.83 181.25
-9755500.16 5135649.57 181.73
-9755502.90 5135649.58 181.27
-9755498.79 5135650.52 181.78
-9755499.60 5135649.65 181.77
-9755503.02 5135636.06 185.05
-9755501.52 5135640.13 181.34
-9755479.21 5135646.29 186.34
-9755479.49 5135645.79 183.39
-9755479.30 5135646.04 186.42
-9755477.78 5135646.08 189.02
-9755479.01 5135646.19 185.90
-9755496.68 5135653.75 181.75
-9755497.05 5135653.66 181.74
-9755497.87 5135651.85 181.76
-9755498.21 5135651.24 182.25
-9755498.67 5135651.11 181.77
-9755496.78 5135653.53 181.29
-9755497.58 5135652.51 181.74
-9755494.58 5135653.11 181.29
-9755483.10 5135650.42 181.37
-9755484.30 5135651.61 181.35
-9755483.37 5135650.39 181.38
-9755490.87 5135648.07 181.35
-9755489.30 5135648.29 181.35
-9755488.41 5135651.29 181.33
-9755481.93 5135647.12 181.41
-9755488.10 5135654.53 181.29
-9755481.08 5135654.50 181.35
-9755479.34 5135648.00 181.43
-9755477.24 5135647.92 181.43
-9755495.85 5135645.96 181.34
-9755496.79 5135638.05 181.37
-9755493.76 5135643.94 181.37
-9755497.87 5135643.09 181.36
-9755497.99 5135637.46 181.83
-9755494.10 5135643.06 181.37
-9755479.59 5135646.17 183.39
-9755484.31 5135645.93 181.41
-9755480.19 5135644.50 186.59
-9755480.29 5135642.66 183.10
-9755479.92 5135645.79 182.72
-9755483.52 5135637.57 189.16
-9755492.60 5135646.26 181.34
-9755484.89 5135637.24 190.66
-9755481.57 5135641.73 193.26
-9755480.65 5135644.28 185.82
-9755482.10 5135639.72 186.63
-9755480.24 5135643.43 194.97
-9755484.80 5135636.91 190.73
-9755480.52 5135642.65 186.75
-9755483.57 5135637.70 186.64
-9755481.08 5135641.39 183.73
-9755480.20 5135644.42 190.10
-9755485.33 5135636.37 188.98
-9755491.70 5135643.90 181.38
-9755491.75 5135637.98 181.41
-9755481.77 5135641.02 186.00
-9755480.60 5135644.37 184.36
-9755481.30 5135641.39 185.97
-9755480.29 5135643.83 193.33
-9755480.85 5135644.23 185.72
-9755480.80 5135643.38 189.60
-9755480.50 5135639.74 181.66
-9755481.16 5135641.41 186.18
-9755485.05 5135636.43 193.31
-9755480.89 5135644.20 193.27
-9755489.72 5135636.50 181.42
-9755487.00 5135635.98 185.06
-9755480.23 5135644.31 187.71
-9755480.59 5135642.48 186.57
-9755486.87 5135635.86 185.06
-9755484.49 5135637.14 191.18
-9755480.28 5135643.11 184.60
-9755480.99 5135641.83 186.29
-9755484.54 5135637.17 190.89
-9755480.00 5135644.78 188.38
-9755482.87 5135638.88 186.63
-9755483.52 5135638.83 186.57
-9755482.26 5135640.08 186.61
-9755480.50 5135644.23 189.09
-9755480.11 5135645.58 182.64
-9755480.40 5135642.95 183.07
-9755480.05 5135644.34 198.14
-9755480.25 5135644.92 184.23
-9755480.24 5135645.06 184.22
-9755484.81 5135636.64 186.73
-9755484.70 5135637.25 186.30
-9755492.92 5135644.82 181.36
-9755480.20 5135642.78 184.60
-9755480.93 5135643.56 185.83
-9755484.23 5135637.64 196.28
-9755480.39 5135644.57 185.11
-9755482.11 5135638.90 181.63
-9755482.61 5135639.77 186.58
-9755481.50 5135641.20 186.60
-9755481.04 5135641.66 190.44
-9755484.68 5135637.13 186.63
-9755482.74 5135639.71 193.32
-9755484.79 5135637.22 189.10
-9755480.56 5135644.02 189.10
-9755480.13 5135644.94 188.31
-9755482.67 5135639.17 186.64
-9755481.18 5135641.77 185.89
-9755480.61 5135644.20 186.51
-9755480.61 5135642.65 183.38
-9755481.09 5135641.76 186.18
-9755480.18 5135644.57 187.20
-9755480.82 5135643.86 185.99
-9755484.68 5135639.74 181.43
-9755481.35 5135641.41 188.26
-9755480.95 5135641.83 186.47
-9755485.54 5135636.14 181.55
-9755480.61 5135642.53 188.23
-9755481.04 5135643.97 183.36
-9755480.58 5135644.12 188.33
-9755486.85 5135636.26 183.04
-9755484.39 5135637.30 186.61
-9755480.30 5135643.73 195.25
-9755480.15 5135643.42 196.90
-9755480.44 5135644.55 185.10
-9755480.19 5135644.17 195.28
-9755483.23 5135638.85 186.59
-9755483.90 5135638.05 196.33
-9755483.26 5135639.70 193.28
-9755480.02 5135645.20 185.96
-9755480.93 5135643.84 187.92
-9755480.35 5135644.34 185.43
-9755486.96 5135636.37 183.00
-9755481.83 5135640.89 186.58
-9755480.58 5135642.82 187.74
-9755485.09 5135636.57 193.29
-9755485.06 5135636.83 187.10
-9755482.41 5135639.36 189.14
-9755480.09 5135644.65 195.80
-9755480.25 5135644.66 181.44
-9755481.82 5135640.33 186.61
-9755483.89 5135638.04 195.77
-9755480.56 5135644.27 186.74
-9755482.02 5135641.07 186.42
-9755480.26 5135642.75 186.72
-9755480.13 5135644.76 186.31
-9755483.57 5135637.27 181.64
-9755480.20 5135643.94 195.07
-9755480.51 5135643.94 190.94
-9755481.12 5135642.16 183.87
-9755484.73 5135636.80 187.68
-9755480.18 5135643.12 182.05
-9755485.01 5135636.51 190.41
-9755483.95 5135637.14 186.64
-9755481.22 5135640.93 186.65
-9755480.34 5135643.10 183.10
-9755482.87 5135639.39 186.58
-9755480.59 5135643.88 189.17
-9755480.45 5135642.64 188.47
-9755484.22 5135637.75 196.27
-9755480.88 5135643.48 187.66
-9755480.18 5135644.97 187.42
-9755480.26 5135643.06 185.98
-9755479.82 5135644.41 199.21
-9755477.66 5135645.92 193.30
-9755479.34 5135645.74 190.81
-9755479.39 5135645.39 186.77
-9755479.60 5135644.74 198.77
-9755479.31 5135645.52 189.53
-9755479.78 5135645.47 184.61
-9755479.40 5135645.67 186.18
-9755479.79 5135644.49 193.34
-9755479.78 5135644.59 197.48
-9755479.42 5135645.82 189.35
-9755479.63 5135644.72 195.09
-9755479.76 5135645.50 182.89
-9755479.68 5135645.44 186.45
-9755479.70 5135645.53 183.69
-9755479.95 5135645.14 184.69
-9755479.69 5135645.24 187.75
-9755479.37 5135645.71 181.93
-9755479.72 5135644.72 194.18
-9755479.75 5135644.75 193.33
-9755503.12 5135633.18 190.71
-9755502.49 5135633.13 190.42
-9755503.03 5135631.50 190.48
-9755502.47 5135630.14 185.02
-9755502.43 5135628.56 181.54
-9755499.77 5135628.68 181.38
-9755502.79 5135631.94 189.93
-9755501.62 5135631.22 189.10
-9755500.88 5135628.23 181.49
-9755501.62 5135632.77 187.61
-9755501.86 5135630.71 185.79
-9755503.03 5135630.33 187.46
-9755503.01 5135633.17 190.59
-9755502.93 5135632.39 187.83
-9755503.00 5135629.86 187.48
-9755502.84 5135632.49 189.53
-9755503.08 5135631.93 189.70
-9755501.90 5135632.69 187.96
-9755502.09 5135633.18 190.55
-9755502.84 5135633.18 189.54
-9755502.81 5135632.40 188.83
-9755502.22 5135631.63 190.70
-9755502.67 5135633.24 189.98
-9755502.79 5135633.13 190.66
-9755502.02 5135632.08 189.04
-9755503.13 5135632.28 190.42
-9755501.34 5135633.14 185.29
-9755502.23 5135633.20 189.36
-9755501.93 5135633.16 190.79
-9755502.13 5135635.58 185.03
-9755502.47 5135633.80 190.11
-9755501.61 5135634.07 189.94
-9755503.15 5135633.61 189.36
-9755501.86 5135634.70 188.32
-9755502.45 5135634.01 186.61
-9755503.21 5135635.15 186.68
-9755502.06 5135633.78 190.04
-9755502.41 5135633.94 187.85
-9755502.38 5135634.08 190.32
-9755502.41 5135634.45 189.19
-9755502.41 5135634.18 189.85
-9755502.97 5135635.53 185.02
-9755503.05 5135634.16 190.00
-9755495.03 5135628.79 181.41
-9755496.51 5135632.72 181.40
-9755485.98 5135630.19 193.28
-9755487.58 5135632.81 196.70
-9755486.44 5135630.57 185.19
-9755488.00 5135632.98 181.84
-9755485.05 5135629.47 184.31
-9755487.51 5135632.37 197.92
-9755489.23 5135629.81 182.05
-9755487.08 5135631.62 196.59
-9755490.06 5135629.65 181.45
-9755486.63 5135630.51 182.97
-9755487.26 5135633.12 199.46
-9755485.16 5135630.41 195.38
-9755483.11 5135629.00 193.33
-9755487.57 5135631.77 186.39
-9755483.18 5135628.80 194.44
-9755485.08 5135628.45 182.24
-9755485.12 5135629.77 185.56
-9755487.71 5135633.13 188.38
-9755482.77 5135628.22 198.23
-9755484.45 5135629.02 183.29
-9755490.05 5135631.43 181.45
-9755487.63 5135631.73 181.48
-9755487.98 5135633.01 185.80
-9755483.08 5135628.92 195.78
-9755485.63 5135630.65 189.84
-9755487.63 5135632.37 193.89
-9755487.70 5135633.00 191.64
-9755483.87 5135628.47 183.08
-9755482.75 5135628.46 193.31
-9755487.91 5135632.72 189.85
-9755487.94 5135632.41 191.72
-9755487.68 5135632.66 185.11
-9755485.06 5135629.78 186.51
-9755484.71 5135630.02 198.88
-9755487.76 5135632.84 183.83
-9755487.89 5135633.06 189.73
-9755487.94 5135632.85 186.58
-9755487.89 5135632.95 182.14
-9755485.13 5135630.38 197.42
-9755488.10 5135632.25 185.39
-9755486.97 5135631.86 196.87
-9755488.00 5135632.82 193.29
-9755483.73 5135628.31 183.32
-9755485.17 5135630.01 183.39
-9755483.39 5135628.25 186.51
-9755484.19 5135629.41 188.29
-9755488.26 5135631.91 188.54
-9755483.12 5135628.35 189.66
-9755488.25 5135628.21 181.47
-9755485.47 5135629.94 184.85
-9755487.78 5135632.99 188.40
-9755490.10 5135630.92 181.45
-9755483.96 5135628.95 181.52
-9755488.19 5135632.27 183.41
-9755487.95 5135632.41 186.51
-9755487.65 5135632.79 182.98
-9755486.85 5135631.60 188.29
-9755487.71 5135633.02 185.77
-9755488.11 5135632.40 183.41
-9755487.94 5135632.25 189.58
-9755487.69 5135633.17 183.39
-9755488.34 5135632.28 186.86
-9755488.04 5135632.43 182.02
-9755485.66 5135630.33 184.98
-9755488.59 5135629.03 182.07
-9755485.06 5135629.73 188.73
-9755486.90 5135631.20 184.11
-9755487.58 5135632.14 198.01
-9755484.63 5135629.04 183.49
-9755485.56 5135630.51 187.07
-9755485.44 5135629.96 189.16
-9755487.48 5135631.19 183.44
-9755487.57 5135632.47 196.97
-9755492.99 5135632.93 181.41
-9755488.35 5135632.06 193.26
-9755487.95 5135633.32 185.12
-9755487.35 5135631.08 183.20
-9755485.84 5135630.28 189.17
-9755485.26 5135629.86 185.15
-9755487.46 5135631.99 196.98
-9755485.55 5135630.42 197.30
-9755487.62 5135631.81 183.90
-9755488.23 5135632.25 182.44
-9755485.99 5135630.48 185.47
-9755487.48 5135632.26 194.53
-9755487.42 5135631.37 183.85
-9755497.63 5135633.60 181.39
-9755494.13 5135633.62 181.41
-9755495.02 5135634.15 181.41
-9755488.41 5135633.93 186.01
-9755488.00 5135633.29 196.50
-9755486.99 5135635.06 196.32
-9755487.71 5135634.88 186.62
-9755488.04 5135634.73 193.27
-9755486.93 5135635.50 188.33
-9755487.35 5135634.96 189.49
-9755486.99 5135635.75 184.13
-9755488.39 5135633.50 193.29
-9755487.11 5135635.57 188.64
-9755486.83 5135635.75 189.89
-9755487.35 5135635.14 186.90
-9755487.19 5135634.89 195.81
-9755487.46 5135634.79 187.44
-9755487.74 5135634.81 185.90
-9755487.74 5135634.39 188.97
-9755487.50 5135634.14 198.69
-9755488.05 5135634.32 185.89
-9755487.89 5135633.89 197.50
-9755487.47 5135634.33 193.95
-9755488.26 5135634.32 187.49
-9755488.30 5135634.29 188.36
-9755488.34 5135634.24 183.78
-9755488.23 5135633.60 186.56
-9755487.40 5135634.76 198.83
-9755487.55 5135634.28 194.80
-9755487.66 5135633.37 196.02
-9755489.75 5135635.03 181.41
-9755488.03 5135634.03 189.22
-9755487.82 5135633.52 190.42
-9755487.69 5135634.76 186.76
-9755488.03 5135633.82 193.32
-9755486.95 5135635.16 198.23
-9755488.08 5135633.60 193.31
-9755487.18 5135634.77 194.03
-9755487.69 5135633.58 193.35
-9755487.48 5135634.77 199.13
-9755488.01 5135634.73 184.44
-9755487.57 5135634.61 197.03
-9755487.11 5135635.60 193.30
-9755488.15 5135634.65 181.86
-9755486.87 5135634.83 193.81
-9755487.56 5135634.31 195.50
-9755487.57 5135634.06 197.90
-9755487.33 5135634.91 188.40
-9755492.08 5135633.88 181.40
-9755474.35 5135647.95 181.45
-9755473.97 5135650.31 181.43
-9755472.84 5135649.47 181.44
-9755453.81 5135645.89 189.04
-9755459.60 5135646.37 181.57
-9755458.36 5135648.75 181.56
-9755463.72 5135647.57 181.54
-9755460.43 5135648.45 181.56
-9755460.48 5135646.68 181.58
-9755453.07 5135646.68 181.62
-9755453.32 5135651.06 181.55
-9755452.32 5135648.77 187.50
-9755452.17 5135649.00 193.28
-9755452.90 5135648.17 186.47
-9755452.35 5135648.50 187.53
-9755452.53 5135648.38 188.24
-9755452.95 5135648.26 183.16
-9755452.54 5135647.00 185.00
-9755452.50 5135647.21 181.63
-9755452.43 5135648.75 182.90
-9755452.81 5135648.07 186.66
-9755452.60 5135647.75 184.29
-9755452.21 5135647.07 184.72
-9755452.12 5135647.58 198.03
-9755451.89 5135647.99 198.95
-9755452.95 5135647.72 182.48
-9755452.69 5135648.06 189.10
-9755452.37 5135648.75 182.63
-9755452.61 5135647.63 186.03
-9755451.98 5135647.89 194.09
-9755452.59 5135647.94 190.51
-9755452.55 5135647.24 188.32
-9755452.61 5135647.99 184.97
-9755453.32 5135647.85 181.62
-9755452.88 5135648.12 187.93
-9755453.01 5135646.57 189.15
-9755452.06 5135649.13 182.68
-9755452.07 5135648.81 187.50
-9755451.40 5135649.40 186.29
-9755452.65 5135646.77 183.36
-9755451.39 5135649.35 183.00
-9755452.41 5135647.19 187.47
-9755451.87 5135648.86 182.69
-9755452.98 5135646.53 185.25
-9755452.60 5135647.60 184.95
-9755452.45 5135647.04 183.02
-9755451.91 5135648.35 194.13
-9755453.17 5135646.72 193.29
-9755452.86 5135647.85 186.66
-9755452.25 5135647.18 182.63
-9755452.35 5135648.07 190.50
-9755452.95 5135646.69 183.10
-9755451.20 5135648.83 196.06
-9755451.33 5135649.29 191.06
-9755450.92 5135649.61 187.97
-9755451.05 5135649.55 189.43
-9755468.66 5135645.58 181.49
-9755466.95 5135643.19 181.54
-9755453.42 5135646.29 188.90
-9755466.93 5135643.74 181.54
-9755454.96 5135644.67 185.05
-9755460.02 5135640.08 188.40
-9755463.76 5135637.22 199.69
-9755459.62 5135640.20 193.36
-9755466.68 5135645.52 181.52
-9755456.00 5135644.60 193.28
-9755458.80 5135641.01 181.63
-9755459.99 5135640.50 193.31
-9755457.57 5135642.31 186.58
-9755458.77 5135641.31 188.90
-9755455.67 5135643.90 190.51
-9755461.13 5135639.42 189.00
-9755464.84 5135636.43 196.94
-9755455.49 5135644.14 189.71
-9755455.43 5135643.89 190.08
-9755464.70 5135637.21 194.60
-9755464.54 5135637.04 194.66
-9755459.05 5135641.13 187.15
-9755465.28 5135636.87 193.26
-9755458.27 5135641.94 187.47
-9755456.35 5135643.30 189.69
-9755458.72 5135641.63 188.75
-9755465.03 5135636.32 195.72
-9755457.08 5135642.67 186.79
-9755457.92 5135642.20 188.60
-9755458.65 5135641.42 190.18
-9755461.70 5135638.98 181.64
-9755460.41 5135639.25 181.60
-9755458.72 5135641.41 186.07
-9755461.51 5135638.65 188.21
-9755458.19 5135641.99 186.61
-9755457.13 5135641.63 181.71
-9755456.13 5135643.82 189.42
-9755458.91 5135640.94 190.01
-9755461.12 5135639.61 193.31
-9755462.82 5135641.37 181.59
-9755459.59 5135640.20 181.63
-9755465.59 5135635.63 196.91
-9755455.02 5135644.70 193.34
-9755465.74 5135635.77 193.27
-9755458.33 5135641.90 187.47
-9755462.03 5135638.75 193.29
-9755465.31 5135636.21 195.36
-9755463.72 5135641.41 181.59
-9755457.98 5135641.88 189.95
-9755457.55 5135642.31 185.14
-9755460.33 5135639.77 188.74
-9755461.55 5135638.80 193.31
-9755458.41 5135641.37 188.99
-9755454.58 5135645.10 185.97
-9755458.17 5135641.85 188.81
-9755457.06 5135642.81 186.70
-9755458.36 5135641.37 193.32
-9755464.95 5135636.78 198.31
-9755461.16 5135639.31 193.33
-9755460.22 5135642.54 181.60
-9755459.03 5135641.07 188.30
-9755464.94 5135636.29 197.20
-9755456.61 5135643.09 189.71
-9755455.54 5135644.05 186.54
-9755465.13 5135636.42 197.65
-9755458.43 5135641.73 185.90
-9755457.76 5135642.95 185.07
-9755465.28 5135636.22 197.33
-9755459.93 5135640.19 187.45
-9755458.11 5135641.93 187.57
-9755465.05 5135636.40 199.72
-9755459.48 5135640.57 186.09
-9755465.48 5135635.59 199.75
-9755465.70 5135635.57 198.09
-9755465.51 5135635.56 199.54
-9755465.43 5135635.62 197.61
-9755465.87 5135634.97 196.91
-9755465.01 5135636.34 198.55
-9755466.25 5135634.77 198.15
-9755465.69 5135635.56 193.31
-9755466.55 5135634.05 199.68
-9755466.15 5135635.13 194.81
-9755499.20 5135675.95 181.03
-9755500.34 5135680.79 181.07
-9755501.59 5135666.45 181.92
-9755499.01 5135667.39 181.94
-9755499.49 5135671.80 181.16
-9755499.20 5135669.47 181.19
-9755495.86 5135678.01 181.05
-9755496.22 5135675.94 181.05
-9755493.34 5135674.46 180.96
-9755495.35 5135673.54 180.99
-9755481.78 5135675.51 180.95
-9755485.91 5135677.98 181.04
-9755481.83 5135674.97 180.94
-9755484.73 5135674.98 180.95
-9755488.04 5135673.53 180.98
-9755483.91 5135673.52 180.98
-9755496.83 5135669.41 181.17
-9755493.35 5135666.10 181.96
-9755494.83 5135666.44 181.19
-9755493.35 5135666.40 181.93
-9755497.43 5135666.33 181.97
-9755494.19 5135671.21 181.14
-9755498.01 5135669.42 181.17
-9755496.56 5135667.29 181.92
-9755480.66 5135670.22 181.10
-9755485.04 5135668.32 184.68
-9755487.40 5135672.64 181.12
-9755484.50 5135666.12 181.29
-9755485.07 5135670.24 181.13
-9755483.31 5135666.08 181.29
-9755484.19 5135666.10 181.28
-9755478.57 5135670.56 181.08
-9755478.05 5135666.07 181.28
-9755500.77 5135655.82 181.26
-9755502.85 5135657.02 181.24
-9755501.66 5135662.02 181.22
-9755501.62 5135662.34 181.22
-9755499.87 5135662.06 181.22
-9755503.09 5135663.22 181.20
-9755503.14 5135659.94 181.23
-9755498.70 5135657.84 181.25
-9755493.42 5135655.84 181.26
-9755493.72 5135657.28 181.25
-9755483.31 5135658.61 186.70
-9755484.26 5135658.50 186.18
-9755483.26 5135658.27 186.69
-9755485.52 5135658.83 185.53
-9755486.42 5135659.15 185.08
-9755485.43 5135657.90 185.88
-9755485.23 5135656.53 181.69
-9755485.16 5135654.83 182.40
-9755486.42 5135658.80 185.31
-9755483.09 5135654.58 181.34
-9755485.78 5135656.65 181.30
-9755483.73 5135659.59 186.13
-9755485.33 5135658.75 188.74
-9755485.10 5135658.48 185.95
-9755485.87 5135658.44 185.00
-9755484.98 5135658.62 185.89
-9755482.20 5135659.50 188.99
-9755483.13 5135658.47 185.67
-9755485.73 5135659.06 184.90
-9755484.30 5135657.59 185.84
-9755482.61 5135658.33 185.17
-9755492.79 5135657.84 181.25
-9755482.13 5135658.67 185.69
-9755485.88 5135659.64 187.07
-9755484.75 5135659.58 189.41
-9755486.65 5135658.23 185.93
-9755487.03 5135659.05 185.30
-9755485.11 5135658.79 184.89
-9755481.02 5135659.67 189.86
-9755483.15 5135659.79 187.43
-9755486.39 5135659.72 185.15
-9755482.58 5135657.98 185.44
-9755484.57 5135658.50 186.18
-9755482.51 5135658.97 184.77
-9755481.03 5135659.10 184.68
-9755486.09 5135659.10 185.10
-9755490.45 5135658.70 181.23
-9755485.04 5135659.01 184.86
-9755484.24 5135659.48 190.91
-9755485.42 5135658.09 185.91
-9755484.66 5135657.85 185.64
-9755486.98 5135658.71 185.42
-9755483.15 5135658.44 186.69
-9755486.86 5135659.11 184.17
-9755486.20 5135659.72 185.11
-9755481.57 5135658.71 187.26
-9755485.82 5135657.89 185.84
-9755485.49 5135658.73 188.91
-9755485.21 5135657.87 185.95
-9755484.27 5135657.80 181.42
-9755484.84 5135659.59 190.76
-9755498.13 5135662.03 181.21
-9755498.36 5135665.30 181.21
-9755498.71 5135661.14 181.23
-9755498.39 5135660.27 181.23
-9755494.80 5135665.31 181.68
-9755484.36 5135659.71 191.22
-9755486.35 5135659.87 186.60
-9755485.82 5135659.54 188.61
-9755484.73 5135659.49 184.89
-9755486.65 5135661.14 185.73
-9755485.14 5135663.21 186.52
-9755484.70 5135660.26 186.28
-9755483.67 5135661.18 190.72
-9755480.60 5135659.58 189.92
-9755483.13 5135664.39 185.60
-9755484.82 5135662.94 186.63
-9755485.55 5135662.63 183.76
-9755486.40 5135662.00 185.76
-9755483.50 5135662.06 189.80
-9755485.12 5135660.04 189.88
-9755481.53 5135663.83 186.68
-9755486.05 5135662.10 188.18
-9755485.17 5135664.02 185.25
-9755485.81 5135663.23 185.36
-9755484.34 5135660.29 190.46
-9755481.01 5135659.77 189.76
-9755487.25 5135661.29 185.02
-9755484.91 5135660.30 190.71
-9755487.47 5135662.85 181.21
-9755485.04 5135664.44 184.66
-9755485.67 5135662.41 183.62
-9755486.00 5135661.77 186.73
-9755487.22 5135661.25 185.07
-9755483.19 5135661.15 190.37
-9755484.30 5135662.99 190.01
-9755486.67 5135661.92 186.75
-9755485.15 5135662.80 185.82
-9755483.64 5135661.72 190.26
-9755486.28 5135660.25 186.05
-9755484.19 5135659.92 186.23
-9755485.19 5135662.97 185.43
