-9755334.32 5135294.84 182.54
-9755325.50 5135289.95 188.35
-9755332.83 5135297.45 181.34
-9755335.83 5135290.59 183.38
-9755328.98 5135289.68 189.96
-9755327.56 5135297.08 181.43
-9755329.29 5135297.44 181.41
-9755331.67 5135289.63 182.84
-9755326.93 5135296.27 181.44
-9755336.45 5135289.91 185.29
-9755324.59 5135294.01 183.61
-9755330.52 5135289.51 187.98
-9755324.59 5135289.88 185.04
-9755326.97 5135294.02 183.18
-9755335.85 5135290.22 182.67
-9755333.75 5135289.70 182.49
-9755326.47 5135289.60 190.10
-9755330.18 5135289.55 184.55
-9755332.10 5135289.68 182.89
-9755325.47 5135293.66 183.94
-9755326.14 5135292.71 183.11
-9755324.41 5135290.38 190.06
-9755325.54 5135293.12 183.55
-9755326.33 5135289.84 183.44
-9755334.34 5135294.47 182.87
-9755326.75 5135293.40 182.65
-9755324.71 5135289.88 186.81
-9755329.06 5135290.16 186.10
-9755326.46 5135288.91 190.64
-9755332.26 5135289.65 183.31
-9755333.36 5135289.87 189.09
-9755323.83 5135294.54 183.16
-9755334.67 5135290.64 183.34
-9755334.06 5135290.20 182.10
-9755326.16 5135293.17 182.09
-9755324.16 5135294.07 183.13
-9755333.70 5135295.65 181.34
-9755331.70 5135289.41 181.60
-9755327.93 5135287.25 190.11
-9755323.98 5135294.65 182.78
-9755333.76 5135292.41 181.48
-9755330.13 5135293.25 182.89
-9755324.60 5135295.84 181.48
-9755336.48 5135289.76 189.49
-9755335.02 5135289.56 187.60
-9755330.51 5135294.65 182.69
-9755334.60 5135294.73 183.11
-9755336.24 5135289.72 188.24
-9755335.81 5135294.70 183.33
-9755333.23 5135289.80 189.78
-9755324.64 5135292.63 184.04
-9755325.48 5135294.68 182.83
-9755328.46 5135289.65 183.03
-9755336.23 5135289.57 184.85
-9755330.50 5135293.50 182.75
-9755324.84 5135293.22 183.51
-9755325.76 5135292.94 182.51
-9755336.26 5135289.68 189.26
-9755326.47 5135286.30 190.11
-9755325.74 5135292.03 182.53
-9755336.69 5135294.78 182.78
-9755330.36 5135289.55 183.73
-9755324.23 5135292.92 182.03
-9755330.15 5135289.75 188.17
-9755325.15 5135295.63 181.53
-9755331.35 5135289.51 183.48
-9755330.29 5135288.76 190.13
-9755326.20 5135294.40 182.96
-9755331.29 5135289.66 182.22
-9755334.67 5135289.83 186.46
-9755331.20 5135289.29 190.66
-9755325.12 5135293.79 182.28
-9755325.55 5135290.01 186.09
-9755326.78 5135289.83 186.74
-9755326.90 5135289.70 186.31
-9755326.34 5135293.81 182.66
-9755331.04 5135289.48 182.73
-9755334.91 5135294.66 183.06
-9755335.34 5135294.05 184.08
-9755325.31 5135287.79 190.13
-9755330.20 5135291.77 181.52
-9755324.86 5135293.68 183.67
-9755326.14 5135286.95 190.17
-9755325.17 5135294.03 183.87
-9755325.02 5135290.23 187.08
-9755328.67 5135297.39 181.41
-9755333.07 5135289.87 184.32
-9755328.10 5135293.85 181.62
-9755324.07 5135289.78 186.94
-9755328.40 5135295.96 181.43
-9755325.91 5135289.79 190.04
-9755324.67 5135289.85 189.58
-9755333.25 5135289.53 187.48
-9755326.67 5135289.73 181.59
-9755324.59 5135294.62 182.21
-9755334.31 5135294.72 182.90
-9755325.14 5135289.74 182.14
-9755332.65 5135288.75 190.14
-9755325.20 5135297.11 181.44
-9755329.94 5135289.78 187.01
-9755336.77 5135289.47 190.27
-9755329.58 5135290.93 181.56
-9755325.29 5135294.30 183.98
-9755334.71 5135286.95 190.13
-9755326.86 5135290.08 186.17
-9755335.42 5135289.69 187.84
-9755325.95 5135289.58 190.08
-9755335.20 5135289.43 183.28
-9755335.74 5135289.85 186.02
-9755327.27 5135290.02 182.43
-9755329.64 5135289.98 187.12
-9755326.77 5135295.20 183.63
-9755326.71 5135294.83 183.36
-9755332.06 5135289.73 187.80
-9755334.93 5135294.13 182.70
-9755325.45 5135290.20 188.45
-9755329.72 5135286.36 190.11
-9755328.69 5135289.53 186.82
-9755329.57 5135289.62 181.97
-9755325.30 5135291.94 182.56
-9755332.05 5135287.83 190.13
-9755336.08 5135289.88 182.79
-9755334.75 5135289.65 186.85
-9755336.05 5135290.63 183.38
-9755335.44 5135292.93 183.46
-9755335.87 5135289.53 186.87
-9755333.81 5135289.65 189.46
-9755335.60 5135289.73 185.69
-9755333.95 5135289.75 189.71
-9755327.97 5135289.31 190.67
-9755334.15 5135289.93 189.55
-9755324.01 5135292.07 181.54
-9755334.05 5135293.19 183.17
-9755336.69 5135290.12 190.41
-9755330.58 5135290.03 189.29
-9755333.40 5135294.01 182.15
-9755332.44 5135289.96 189.82
-9755328.81 5135288.14 190.12
-9755326.35 5135295.28 183.38
-9755328.45 5135289.99 185.96
-9755326.34 5135293.68 183.10
-9755331.03 5135289.92 189.35
-9755334.59 5135292.95 183.42
-9755335.13 5135295.04 182.48
-9755331.63 5135294.78 181.42
-9755326.31 5135289.80 186.97
-9755330.90 5135289.58 190.66
-9755325.22 5135295.61 183.13
-9755330.80 5135289.61 182.53
-9755334.61 5135289.94 183.23
-9755333.84 5135289.40 183.49
-9755331.10 5135289.85 183.95
-9755324.62 5135295.27 182.90
-9755326.68 5135293.58 181.62
-9755325.13 5135290.23 184.13
-9755332.60 5135292.42 181.49
-9755327.56 5135289.45 190.10
-9755335.28 5135289.89 188.37
-9755331.44 5135289.93 186.86
-9755331.97 5135295.06 181.38
-9755324.65 5135294.32 183.13
-9755326.62 5135294.44 181.58
-9755327.15 5135290.27 182.07
-9755336.69 5135289.81 182.33
-9755335.84 5135289.67 183.37
-9755330.60 5135289.57 186.32
-9755324.42 5135290.09 190.67
-9755325.37 5135293.79 183.66
-9755335.10 5135289.75 185.89
-9755336.35 5135294.73 182.77
-9755324.28 5135294.02 182.69
-9755329.68 5135286.07 190.10
-9755326.69 5135293.85 183.59
-9755326.77 5135287.18 190.32
-9755331.79 5135286.94 190.12
-9755329.06 5135289.68 187.14
-9755327.24 5135293.22 181.57
-9755330.62 5135289.84 190.67
-9755324.17 5135290.23 186.84
-9755336.43 5135289.81 186.00
-9755325.20 5135293.21 182.65
-9755334.09 5135289.84 189.82
-9755329.16 5135289.53 189.19
-9755331.08 5135290.28 181.55
-9755335.97 5135289.75 187.32
-9755335.89 5135289.33 190.64
-9755330.59 5135289.64 188.33
-9755326.46 5135289.83 190.69
-9755324.66 5135294.97 183.51
-9755325.82 5135285.76 190.10
-9755324.62 5135295.51 182.83
-9755328.57 5135289.88 189.98
-9755332.90 5135289.59 183.46
-9755324.31 5135294.63 183.92
-9755329.67 5135289.91 190.08
-9755325.18 5135292.35 181.52
-9755331.37 5135292.70 181.51
-9755332.03 5135289.71 186.74
-9755335.47 5135293.91 182.50
-9755336.17 5135293.64 181.53
-9755334.82 5135293.65 182.67
-9755333.25 5135289.86 187.20
-9755330.28 5135286.64 190.11
-9755326.80 5135293.77 183.18
-9755336.66 5135295.36 182.78
-9755326.12 5135293.26 182.64
-9755335.77 5135293.00 182.74
-9755335.39 5135289.60 185.69
-9755326.83 5135290.00 187.35
-9755335.36 5135289.81 186.92
-9755328.69 5135295.08 181.48
-9755334.70 5135293.84 182.54
-9755334.61 5135292.43 181.47
-9755332.84 5135295.07 181.37
-9755334.67 5135294.86 181.95
-9755335.05 5135290.34 181.98
-9755326.81 5135288.09 190.13
-9755330.82 5135294.74 182.27
-9755329.18 5135289.64 183.90
-9755334.93 5135293.82 183.00
-9755336.44 5135293.02 183.03
-9755324.22 5135293.27 182.53
-9755324.43 5135288.37 190.14
-9755334.93 5135295.40 181.96
-9755336.09 5135289.96 185.26
-9755324.34 5135290.26 182.10
-9755325.47 5135292.55 182.92
-9755326.96 5135293.50 183.80
-9755336.34 5135296.88 181.31
-9755325.51 5135290.28 186.83
-9755328.66 5135289.64 184.61
-9755330.60 5135287.22 190.11
-9755325.15 5135294.91 183.07
-9755332.90 5135289.54 182.24
-9755325.52 5135293.27 184.11
-9755327.52 5135289.66 188.04
-9755325.18 5135293.11 183.76
-9755334.87 5135294.49 181.41
-9755324.73 5135294.05 184.27
-9755335.03 5135286.38 190.14
-9755324.68 5135289.94 188.26
-9755325.52 5135292.68 182.51
-9755327.92 5135289.72 187.00
-9755326.34 5135293.21 182.66
-9755334.31 5135289.47 184.56
-9755332.02 5135289.94 187.30
-9755327.96 5135293.52 182.09
-9755330.56 5135293.00 181.57
-9755334.81 5135292.99 183.43
-9755335.17 5135295.98 181.33
-9755333.83 5135287.82 190.13
-9755326.53 5135289.66 188.37
-9755334.14 5135289.61 190.68
-9755327.34 5135289.69 183.04
-9755335.18 5135293.45 183.51
-9755329.32 5135294.47 182.11
-9755334.28 5135293.92 182.25
-9755330.57 5135289.80 187.07
-9755331.76 5135289.56 183.59
-9755333.55 5135288.14 190.13
-9755324.01 5135291.20 181.53
-9755330.90 5135288.99 190.14
-9755328.69 5135291.73 181.52
-9755335.22 5135289.61 184.19
-9755332.63 5135289.30 190.66
-9755332.59 5135289.28 184.26
-9755325.48 5135295.52 183.19
-9755324.88 5135290.30 181.60
-9755332.94 5135289.56 183.27
-9755335.50 5135291.54 181.48
-9755333.44 5135289.78 188.16
-9755336.36 5135294.37 183.13
-9755330.04 5135286.66 190.11
-9755324.51 5135292.63 182.31
-9755332.07 5135289.55 186.80
-9755325.17 5135290.35 181.60
-9755324.64 5135290.14 183.29
-9755327.93 5135288.10 190.13
-9755324.86 5135293.30 181.89
-9755335.63 5135289.73 181.54
-9755324.32 5135293.45 183.43
-9755330.53 5135294.37 182.86
-9755327.08 5135286.65 190.12
-9755334.35 5135293.58 181.62
-9755332.81 5135289.32 184.18
-9755336.29 5135290.04 190.03
-9755334.53 5135289.59 182.09
-9755331.83 5135289.86 182.51
-9755335.19 5135290.07 189.98
-9755329.27 5135289.47 182.54
-9755333.31 5135289.68 185.94
-9755334.28 5135289.78 187.88
-9755334.36 5135294.20 181.47
-9755334.61 5135290.04 182.15
-9755334.92 5135293.56 182.24
-9755324.70 5135289.82 183.82
-9755332.21 5135289.59 182.94
-9755324.45 5135293.85 182.17
-9755330.55 5135289.61 182.64
-9755332.52 5135296.55 181.34
-9755332.62 5135289.69 188.40
-9755328.15 5135289.52 183.22
-9755331.98 5135293.32 182.54
-9755327.22 5135289.78 184.23
-9755332.23 5135291.19 181.53
-9755325.52 5135291.49 181.53
-9755335.77 5135289.71 188.55
-9755327.25 5135289.84 189.15
-9755335.01 5135288.42 190.14
-9755329.65 5135294.41 182.26
-9755327.02 5135290.00 181.58
-9755323.84 5135294.31 183.63
-9755330.89 5135289.74 186.65
-9755333.47 5135290.01 189.52
-9755334.73 5135291.10 183.34
-9755324.30 5135289.91 182.08
-9755333.72 5135291.52 181.50
-9755328.09 5135289.53 190.12
-9755332.11 5135287.25 190.12
-9755336.06 5135289.74 186.96
-9755334.24 5135294.50 182.21
-9755325.08 5135295.60 182.89
-9755332.28 5135289.73 181.55
-9755335.80 5135294.25 182.30
-9755327.17 5135289.60 183.92
-9755334.64 5135289.49 181.55
-9755331.69 5135293.01 181.96
-9755324.34 5135294.54 183.34
-9755332.66 5135289.87 183.21
-9755331.03 5135289.86 183.19
-9755332.87 5135290.97 181.53
-9755335.90 5135287.88 190.14
-9755326.00 5135289.71 182.23
-9755328.86 5135289.60 183.94
-9755325.78 5135294.64 183.93
-9755335.90 5135289.83 189.88
-9755330.28 5135289.63 184.22
-9755329.20 5135289.77 183.39
-9755334.74 5135287.84 190.14
-9755330.23 5135289.99 181.57
-9755333.28 5135286.40 190.13
-9755326.83 5135289.69 189.78
-9755335.91 5135290.34 182.17
-9755334.90 5135294.81 181.95
-9755336.51 5135289.80 186.87
-9755325.26 5135290.10 186.30
-9755324.52 5135295.26 183.92
-9755326.41 5135290.57 181.56
-9755324.60 5135293.93 183.85
-9755324.82 5135290.23 182.55
-9755333.73 5135289.73 187.23
-9755333.77 5135293.42 183.32
-9755327.55 5135294.77 181.55
-9755324.26 5135294.67 182.71
-9755324.04 5135294.02 182.73
-9755327.78 5135289.48 181.61
-9755332.25 5135292.70 181.49
-9755324.28 5135289.88 183.42
-9755332.98 5135289.79 185.95
-9755336.26 5135290.67 182.25
-9755332.81 5135289.58 186.18
-9755336.42 5135289.94 183.37
-9755325.20 5135295.26 183.45
-9755325.25 5135289.72 183.87
-9755330.79 5135289.46 181.60
-9755325.05 5135290.13 189.77
-9755334.39 5135289.93 188.96
-9755333.83 5135286.97 190.13
-9755325.11 5135289.73 181.56
-9755334.66 5135290.34 181.54
-9755327.64 5135286.61 190.11
-9755331.66 5135297.42 181.36
-9755327.23 5135293.97 182.65
-9755328.55 5135289.01 190.14
-9755336.35 5135290.23 182.16
-9755333.37 5135293.49 182.10
-9755332.61 5135290.01 181.55
-9755325.49 5135289.70 181.69
-9755327.56 5135293.69 182.35
-9755324.91 5135290.21 188.94
-9755333.42 5135293.25 182.30
-9755330.84 5135289.60 183.56
-9755327.65 5135287.52 190.13
-9755336.45 5135290.16 186.65
-9755327.02 5135289.92 184.08
-9755327.51 5135289.77 184.31
-9755326.04 5135293.43 182.54
-9755327.83 5135293.55 182.39
-9755336.48 5135288.14 190.16
-9755335.28 5135289.58 187.57
-9755326.98 5135294.40 183.78
-9755334.09 5135289.91 189.97
-9755332.09 5135289.66 182.51
-9755333.89 5135289.88 188.71
-9755330.43 5135289.75 187.95
-9755324.39 5135287.83 190.13
-9755325.86 5135286.97 190.76
-9755326.38 5135294.33 183.03
-9755329.39 5135289.73 186.25
-9755325.27 5135289.55 190.68
-9755327.10 5135289.53 184.27
-9755332.41 5135289.63 182.04
-9755324.05 5135294.42 182.72
-9755324.25 5135296.05 183.05
-9755327.97 5135286.62 190.11
-9755327.02 5135288.14 190.13
-9755330.52 5135294.75 182.06
-9755326.79 5135286.34 190.10
-9755327.53 5135289.96 188.83
-9755324.24 5135297.12 181.45
-9755335.49 5135293.54 182.75
-9755324.79 5135290.34 185.97
-9755335.29 5135289.61 188.35
-9755325.34 5135290.13 190.07
-9755336.68 5135289.93 185.88
-9755332.84 5135289.93 186.96
-9755331.97 5135289.86 189.33
-9755332.83 5135293.28 181.59
-9755329.32 5135289.47 183.39
-9755331.77 5135289.04 190.14
-9755330.77 5135289.57 190.07
-9755334.95 5135289.81 181.53
-9755335.40 5135290.01 182.63
-9755330.17 5135289.59 189.39
-9755333.08 5135296.23 181.34
-9755329.98 5135288.13 190.13
-9755335.42 5135289.59 186.95
-9755331.70 5135289.52 183.95
-9755335.91 5135289.05 190.62
-9755324.65 5135290.27 187.00
-9755334.35 5135290.05 182.15
-9755331.95 5135288.70 190.66
-9755331.18 5135289.88 185.93
-9755325.43 5135291.17 181.53
-9755324.92 5135293.29 184.01
-9755334.30 5135289.55 182.11
-9755323.97 5135296.23 181.45
-9755331.48 5135289.59 187.44
-9755335.45 5135293.49 183.00
-9755336.51 5135289.51 183.42
-9755329.14 5135286.91 190.11
-9755325.82 5135289.71 187.93
-9755329.54 5135295.95 181.41
-9755331.40 5135289.79 183.58
-9755324.38 5135286.92 190.12
-9755328.48 5135292.39 181.51
-9755331.76 5135289.60 188.04
-9755335.95 5135289.62 189.95
-9755334.04 5135289.87 186.64
-9755326.44 5135290.32 181.57
-9755334.16 5135286.38 190.13
-9755324.31 5135294.07 183.62
-9755326.73 5135289.51 181.58
-9755324.99 5135290.35 184.79
-9755324.87 5135294.85 183.79
-9755335.44 5135289.42 183.38
-9755330.14 5135294.76 182.01
-9755324.31 5135289.88 189.95
-9755324.61 5135289.93 183.37
-9755330.80 5135289.17 181.51
-9755336.52 5135289.70 187.99
-9755330.44 5135293.21 182.44
-9755329.70 5135293.76 182.04
-9755335.97 5135289.57 185.11
-9755334.94 5135289.99 190.06
-9755329.57 5135294.40 182.06
-9755326.63 5135294.42 183.26
-9755326.31 5135289.73 182.02
-9755324.40 5135289.73 182.75
-9755329.98 5135289.56 190.65
-9755332.56 5135294.15 181.51
-9755331.36 5135295.37 181.37
-9755329.20 5135289.57 182.85
-9755335.04 5135287.55 190.14
-9755335.29 5135289.97 190.63
-9755334.62 5135291.51 181.48
-9755331.75 5135286.33 190.11
-9755325.30 5135290.01 182.55
-9755333.06 5135289.85 187.14
-9755328.10 5135289.67 182.54
-9755330.09 5135289.88 182.26
-9755323.07 5135297.97 181.42
-9755321.91 5135298.59 181.44
-9755323.49 5135305.48 186.99
-9755323.44 5135306.34 187.44
-9755323.72 5135301.45 186.24
-9755323.39 5135306.27 186.86
-9755321.34 5135307.14 187.15
-9755323.45 5135305.53 186.10
-9755322.78 5135302.61 184.32
-9755321.38 5135302.98 183.69
-9755322.18 5135301.38 184.09
-9755322.89 5135302.45 186.34
-9755322.59 5135303.73 186.16
-9755322.73 5135302.63 183.59
-9755323.08 5135306.83 186.52
-9755321.84 5135302.62 183.91
-9755322.17 5135302.60 183.86
-9755323.10 5135306.02 187.54
-9755323.12 5135302.02 184.27
-9755322.55 5135306.01 187.30
-9755322.21 5135306.56 186.84
-9755322.54 5135302.82 185.35
-9755321.33 5135306.02 186.65
-9755322.19 5135306.34 186.63
-9755321.62 5135303.52 183.60
-9755321.20 5135302.39 182.99
-9755322.18 5135304.29 186.10
-9755321.69 5135303.40 183.90
-9755322.23 5135303.37 185.86
-9755323.05 5135303.60 185.39
-9755322.59 5135304.54 185.88
-9755322.89 5135301.75 184.18
-9755321.42 5135305.03 186.26
-9755321.97 5135306.84 186.29
-9755322.15 5135305.09 187.72
-9755321.05 5135303.46 184.54
-9755321.93 5135305.79 186.22
-9755323.06 5135305.83 186.82
-9755323.46 5135301.36 186.27
-9755322.81 5135300.29 181.41
-9755322.80 5135304.89 185.80
-9755323.36 5135303.36 185.65
-9755323.37 5135302.77 183.61
-9755322.58 5135306.14 187.64
-9755321.95 5135303.07 186.44
-9755322.23 5135301.11 184.12
-9755322.06 5135302.47 183.35
-9755321.74 5135301.96 183.43
-9755323.08 5135303.26 183.45
-9755322.56 5135302.13 183.35
-9755322.53 5135301.11 184.11
-9755321.35 5135305.12 187.10
-9755321.89 5135300.92 181.44
-9755321.06 5135305.19 186.12
-9755321.62 5135300.60 184.40
-9755322.56 5135305.97 187.71
-9755322.11 5135306.00 186.69
-9755321.37 5135305.21 186.89
-9755322.21 5135303.63 186.31
-9755323.67 5135301.67 183.47
-9755322.10 5135306.11 187.25
-9755312.50 5135297.94 181.48
-9755317.17 5135298.83 181.47
-9755320.71 5135297.98 181.44
-9755320.13 5135298.87 181.44
-9755318.08 5135298.58 181.45
-9755319.23 5135298.55 181.45
-9755316.31 5135298.25 181.48
-9755318.10 5135297.97 181.46
-9755311.57 5135298.50 181.49
-9755314.84 5135298.23 181.48
-9755313.08 5135298.80 181.48
-9755321.00 5135306.04 186.29
-9755320.78 5135304.27 184.40
-9755312.34 5135306.19 185.35
-9755310.64 5135307.61 181.63
-9755320.25 5135307.63 181.59
-9755311.56 5135304.50 184.62
-9755312.15 5135305.32 185.39
-9755311.90 5135306.02 185.22
-9755311.90 5135304.89 184.55
-9755312.38 5135306.09 185.30
-9755318.03 5135306.97 185.47
-9755312.00 5135305.93 185.72
-9755321.04 5135301.72 184.12
-9755311.85 5135299.42 181.50
-9755312.44 5135302.28 183.72
-9755314.75 5135302.22 183.68
-9755317.77 5135304.32 183.92
-9755312.23 5135304.24 184.45
-9755319.33 5135307.14 187.85
-9755318.07 5135303.44 183.90
-9755311.02 5135304.26 183.89
-9755316.88 5135301.81 183.58
-9755313.07 5135303.05 184.59
-9755310.96 5135302.21 183.53
-9755311.60 5135304.53 185.11
-9755318.07 5135304.89 183.96
-9755320.17 5135307.60 184.06
-9755320.72 5135305.10 186.67
-9755314.22 5135303.69 184.37
-9755314.55 5135304.87 185.72
-9755320.66 5135302.21 183.62
-9755319.76 5135305.38 181.46
-9755314.85 5135306.86 186.60
-9755312.47 5135304.51 185.69
-9755314.23 5135305.41 185.65
-9755311.87 5135306.27 185.20
-9755319.24 5135306.45 184.24
-9755320.51 5135305.40 186.23
-9755320.09 5135306.03 186.24
-9755315.16 5135303.66 185.94
-9755311.89 5135305.67 185.72
-9755315.68 5135304.25 185.98
-9755319.89 5135303.75 184.40
-9755311.30 5135306.89 185.13
-9755321.57 5135304.34 185.79
-9755318.10 5135306.14 185.10
-9755317.18 5135303.46 183.80
-9755318.67 5135302.59 183.88
-9755311.62 5135304.64 184.01
-9755318.68 5135299.44 181.45
-9755318.57 5135305.32 181.48
-9755315.13 5135302.22 183.75
-9755316.36 5135303.77 185.19
-9755317.99 5135305.25 184.22
-9755311.86 5135303.72 183.92
-9755311.23 5135304.72 184.94
-9755318.08 5135306.32 184.97
-9755319.59 5135305.99 186.95
-9755318.09 5135303.20 183.90
-9755316.58 5135301.36 183.63
-9755318.96 5135301.73 183.66
-9755318.65 5135305.23 184.11
-9755311.85 5135305.07 185.38
-9755319.21 5135305.58 183.40
-9755312.52 5135302.79 183.76
-9755315.42 5135300.61 181.48
-9755312.71 5135306.90 186.90
-9755310.65 5135304.96 185.15
-9755317.17 5135305.50 185.25
-9755320.66 5135305.99 186.22
-9755318.69 5135302.29 183.76
-9755314.79 5135303.13 183.82
-9755314.57 5135306.27 186.75
-9755313.09 5135306.88 185.92
-9755314.24 5135300.61 181.48
-9755312.14 5135306.56 185.86
-9755319.21 5135304.33 184.64
-9755316.13 5135303.93 185.15
-9755320.12 5135303.70 184.40
-9755311.86 5135302.83 183.74
-9755320.16 5135300.56 181.43
-9755320.44 5135301.44 183.33
-9755311.61 5135303.61 183.16
-9755320.45 5135298.88 181.44
-9755321.10 5135301.73 183.11
-9755316.21 5135304.85 185.80
-9755313.57 5135304.30 185.90
-9755310.97 5135300.56 181.50
-9755320.66 5135302.04 183.86
-9755317.20 5135300.03 181.46
-9755310.44 5135305.25 183.52
-9755318.90 5135306.33 187.00
-9755315.74 5135305.56 184.98
-9755317.95 5135304.85 181.44
-9755320.16 5135301.19 183.95
-9755313.25 5135306.84 181.55
-9755319.24 5135300.34 181.44
-9755318.36 5135304.58 181.46
-9755313.65 5135305.65 185.83
-9755310.66 5135306.45 185.29
-9755313.01 5135304.84 185.82
-9755317.29 5135304.60 184.18
-9755311.31 5135304.94 181.47
-9755319.51 5135307.65 181.65
-9755319.02 5135304.32 185.68
-9755320.19 5135305.37 185.75
-9755316.30 5135302.03 183.79
-9755311.03 5135305.12 183.99
-9755315.61 5135305.50 186.41
-9755316.62 5135301.92 183.46
-9755316.78 5135301.42 183.70
-9755312.22 5135300.54 181.49
-9755315.14 5135302.69 183.69
-9755313.87 5135303.80 183.89
-9755315.40 5135299.71 181.47
-9755320.59 5135306.82 181.51
-9755320.12 5135305.14 185.79
-9755313.63 5135305.99 185.73
-9755319.22 5135305.17 185.71
-9755311.88 5135306.92 185.43
-9755317.77 5135304.92 184.26
-9755311.56 5135303.99 183.91
-9755318.11 5135299.10 181.46
-9755319.48 5135304.74 186.46
-9755311.26 5135304.77 183.61
-9755310.71 5135305.22 183.93
-9755318.66 5135305.74 184.68
-9755311.29 5135306.32 185.17
-9755314.84 5135304.81 185.71
-9755314.28 5135304.80 185.86
-9755310.68 5135301.91 183.73
-9755320.75 5135304.56 186.70
-9755317.75 5135303.74 183.83
-9755310.68 5135306.69 185.19
-9755320.43 5135299.99 181.43
-9755316.89 5135304.85 185.69
-9755313.69 5135304.83 185.96
-9755318.06 5135305.84 184.28
-9755319.15 5135306.06 184.72
-9755320.38 5135304.03 185.73
-9755312.22 5135303.38 185.02
-9755310.69 5135305.08 183.63
-9755319.86 5135305.41 186.22
-9755313.03 5135305.14 185.73
-9755320.93 5135303.44 183.76
-9755317.51 5135306.96 185.89
-9755315.36 5135306.33 186.12
-9755312.76 5135305.13 185.69
-9755321.00 5135300.63 181.43
-9755317.36 5135301.60 182.65
-9755320.11 5135304.29 184.06
-9755319.82 5135302.57 183.84
-9755310.97 5135301.77 183.42
-9755317.80 5135304.71 181.47
-9755313.93 5135303.34 185.67
-9755319.79 5135307.06 184.16
-9755314.81 5135305.72 186.16
-9755312.94 5135306.84 186.14
-9755311.39 5135302.59 183.10
-9755314.81 5135301.68 183.51
-9755319.22 5135301.75 183.27
-9755318.68 5135306.73 184.36
-9755319.03 5135301.70 183.79
-9755318.97 5135306.43 186.59
-9755313.96 5135301.95 183.63
-9755316.33 5135300.59 181.47
-9755315.99 5135304.35 184.01
-9755320.38 5135301.45 181.45
-9755311.62 5135307.01 185.76
-9755313.65 5135303.16 183.74
-9755318.41 5135304.93 183.46
-9755319.86 5135305.55 185.69
-9755311.56 5135302.57 183.61
-9755319.64 5135306.25 185.33
-9755322.47 5135305.11 187.79
-9755319.92 5135307.07 187.54
-9755315.67 5135301.50 183.50
-9755318.09 5135305.12 185.02
-9755318.89 5135304.60 184.97
-9755318.55 5135304.57 185.74
-9755320.07 5135306.53 185.96
-9755319.22 5135304.03 185.04
-9755318.67 5135301.97 183.72
-9755318.10 5135303.93 185.28
-9755312.77 5135306.81 185.73
-9755313.94 5135300.86 181.49
-9755314.19 5135303.69 183.76
-9755318.97 5135306.09 187.02
-9755320.99 5135302.84 184.02
-9755315.70 5135301.16 181.48
-9755313.55 5135305.34 185.93
-9755311.34 5135301.63 183.49
-9755319.16 5135305.80 183.45
-9755310.38 5135299.67 181.49
-9755313.92 5135305.40 185.85
-9755317.49 5135300.96 181.47
-9755310.43 5135298.76 181.50
-9755320.40 5135305.63 185.42
-9755312.70 5135306.93 187.26
-9755318.34 5135302.54 183.68
-9755318.49 5135306.45 185.72
-9755313.70 5135305.16 185.82
-9755311.18 5135306.42 184.71
-9755311.55 5135306.39 185.16
-9755320.27 5135304.55 183.89
-9755318.67 5135300.02 181.46
-9755314.84 5135302.53 183.74
-9755318.95 5135306.70 184.32
-9755316.65 5135304.57 184.90
-9755321.02 5135302.88 184.49
-9755312.47 5135303.38 184.99
-9755314.25 5135300.31 181.47
-9755317.16 5135299.71 181.46
-9755318.94 5135306.33 185.34
-9755320.13 5135303.41 184.43
-9755318.64 5135306.86 187.02
-9755310.76 5135304.28 183.91
-9755311.58 5135300.59 181.49
-9755313.64 5135306.33 181.55
-9755316.05 5135303.46 183.83
-9755319.80 5135303.43 183.86
-9755319.92 5135305.10 181.48
-9755318.62 5135300.58 181.45
-9755312.74 5135306.38 186.93
-9755311.95 5135306.59 185.53
-9755314.10 5135306.20 186.66
-9755318.42 5135302.28 183.90
-9755319.91 5135303.06 183.01
-9755317.55 5135305.99 185.39
-9755317.19 5135304.93 183.72
-9755315.63 5135304.53 181.53
-9755314.83 5135298.82 181.47
-9755311.03 5135305.45 184.53
-9755317.09 5135306.31 185.18
-9755319.22 5135304.24 185.75
-9755319.38 5135301.47 183.48
-9755316.25 5135303.68 183.36
-9755315.73 5135302.59 183.85
-9755319.84 5135306.79 181.54
-9755311.27 5135303.40 183.80
-9755320.58 5135301.23 183.38
-9755319.46 5135306.76 181.52
-9755317.47 5135303.77 183.80
-9755311.37 5135305.19 185.32
-9755310.40 5135303.45 183.80
-9755320.11 5135303.43 183.86
-9755318.93 5135303.44 183.88
-9755313.06 5135304.83 185.93
-9755310.64 5135301.43 181.51
-9755315.40 5135302.13 181.51
-9755311.91 5135299.09 181.49
-9755319.15 5135306.22 181.46
-9755315.71 5135306.07 186.02
-9755319.55 5135305.34 181.47
-9755320.99 5135304.10 183.71
-9755313.75 5135307.09 186.61
-9755320.68 5135302.61 183.18
-9755319.15 5135305.87 184.14
-9755312.76 5135306.02 185.81
-9755317.19 5135302.25 183.80
-9755311.57 5135299.68 181.50
-9755311.02 5135304.62 183.93
-9755313.64 5135306.87 187.13
-9755319.50 5135305.10 181.47
-9755318.12 5135301.55 183.30
-9755320.80 5135306.68 186.49
-9755313.40 5135306.93 186.27
-9755320.19 5135306.71 186.31
-9755316.23 5135303.12 182.84
-9755323.79 5135285.71 190.09
-9755323.87 5135279.50 190.05
-9755323.85 5135281.30 190.03
-9755323.86 5135278.60 190.05
-9755323.85 5135280.38 190.04
-9755323.85 5135281.54 190.04
-9755323.86 5135282.45 190.06
-9755323.58 5135282.48 190.05
-9755323.86 5135278.35 190.04
-9755323.59 5135280.69 190.04
-9755323.55 5135284.85 190.07
-9755323.61 5135278.35 190.04
-9755322.33 5135283.02 190.05
-9755322.98 5135282.46 190.05
-9755322.96 5135285.41 190.08
-9755322.16 5135279.83 190.02
-9755321.74 5135280.66 190.03
-9755322.68 5135279.50 190.04
-9755321.48 5135283.66 190.05
-9755322.10 5135283.39 190.04
-9755322.67 5135282.46 190.04
-9755321.51 5135279.78 190.03
-9755322.09 5135280.39 190.03
-9755322.97 5135279.53 190.05
-9755321.74 5135284.83 190.05
-9755322.63 5135283.97 190.06
-9755321.77 5135283.66 190.05
-9755321.77 5135281.56 190.04
-9755321.21 5135285.11 190.06
-9755321.53 5135281.55 190.04
-9755321.76 5135282.75 190.04
-9755323.53 5135284.54 190.06
-9755323.96 5135297.14 181.44
-9755323.76 5135289.03 190.67
-9755324.31 5135290.25 181.58
-9755323.85 5135287.80 190.12
-9755323.69 5135290.35 186.86
-9755323.69 5135293.13 183.61
-9755323.80 5135289.51 186.97
-9755323.85 5135287.26 190.12
-9755324.35 5135289.43 183.38
-9755323.73 5135292.64 181.56
-9755323.39 5135294.10 182.73
-9755323.67 5135294.65 182.96
-9755323.78 5135294.02 182.19
-9755323.77 5135290.28 181.57
-9755323.53 5135293.06 182.86
-9755323.47 5135295.27 183.20
-9755322.82 5135290.84 181.54
-9755323.51 5135294.67 182.26
-9755322.38 5135285.74 190.07
-9755322.01 5135290.02 186.87
-9755322.08 5135289.52 190.68
-9755323.67 5135289.57 182.07
-9755322.93 5135288.98 190.15
-9755323.07 5135295.19 182.01
-9755323.02 5135294.45 183.00
-9755322.83 5135292.58 181.58
-9755322.34 5135289.41 186.94
-9755322.51 5135294.74 181.52
-9755323.33 5135288.94 190.65
-9755323.50 5135293.78 182.26
-9755323.09 5135293.49 182.41
-9755322.57 5135294.07 182.58
-9755323.17 5135294.00 182.58
-9755322.16 5135293.74 182.26
-9755322.56 5135293.85 181.62
-9755322.42 5135290.31 186.87
-9755322.56 5135293.25 182.34
-9755323.12 5135289.79 182.28
-9755321.36 5135296.79 181.44
-9755322.20 5135297.71 181.44
-9755321.91 5135289.86 182.34
-9755323.64 5135289.77 190.01
-9755323.20 5135289.73 186.90
-9755322.60 5135289.39 186.94
-9755321.66 5135289.44 186.99
-9755323.42 5135293.29 182.06
-9755321.45 5135290.33 186.82
-9755321.91 5135294.74 181.51
-9755323.24 5135294.52 182.66
-9755322.46 5135290.14 183.35
-9755322.83 5135289.78 182.77
-9755321.42 5135289.46 186.97
-9755321.95 5135289.94 189.82
-9755322.33 5135289.71 189.95
-9755323.02 5135289.45 182.15
-9755323.52 5135286.89 190.11
-9755321.46 5135286.61 190.09
-9755323.51 5135289.98 182.66
-9755323.41 5135293.80 181.62
-9755323.41 5135294.80 181.94
-9755321.53 5135289.55 190.09
-9755322.82 5135295.90 181.45
-9755321.44 5135290.13 190.65
-9755321.84 5135290.08 182.69
-9755323.11 5135290.23 186.88
-9755321.55 5135289.65 189.77
-9755321.38 5135289.81 186.91
-9755322.69 5135289.50 190.66
-9755323.11 5135289.84 183.37
-9755322.62 5135286.63 190.11
-9755321.77 5135288.34 190.13
-9755322.03 5135289.59 182.10
-9755322.85 5135293.76 182.89
-9755322.62 5135289.51 181.77
-9755322.61 5135289.18 190.67
-9755323.67 5135295.89 181.45
-9755321.72 5135290.19 190.67
-9755322.58 5135289.75 181.59
-9755321.75 5135286.60 190.09
-9755322.26 5135289.90 183.41
-9755323.15 5135295.30 181.48
-9755321.55 5135290.22 189.93
-9755323.41 5135294.44 181.53
-9755322.53 5135294.60 182.49
-9755321.46 5135281.25 190.05
-9755320.90 5135283.64 190.05
-9755315.65 5135280.64 190.02
-9755316.15 5135283.62 190.04
-9755313.86 5135280.93 190.04
-9755313.54 5135282.09 190.04
-9755314.44 5135280.31 190.02
-9755310.54 5135285.31 190.07
-9755318.25 5135283.91 190.06
-9755316.77 5135285.42 190.07
-9755314.43 5135279.15 190.05
-9755313.50 5135281.53 190.04
-9755317.64 5135283.02 190.05
-9755314.16 5135281.24 190.03
-9755312.94 5135280.06 190.04
-9755313.56 5135277.95 190.10
-9755316.77 5135283.02 190.05
-9755316.81 5135282.46 190.04
-9755319.73 5135280.66 190.02
-9755312.04 5135280.33 190.05
-9755314.99 5135284.78 190.06
-9755316.18 5135282.40 190.04
-9755313.49 5135285.39 190.07
-9755317.69 5135277.99 190.07
-9755312.09 5135277.63 190.13
-9755319.15 5135278.28 190.06
-9755311.19 5135278.80 190.09
-9755315.30 5135280.64 190.02
-9755318.02 5135278.28 190.06
-9755314.70 5135282.72 190.04
-9755314.41 5135281.50 190.03
-9755315.29 5135285.09 190.06
-9755312.38 5135279.45 190.06
-9755314.77 5135277.96 190.09
-9755317.97 5135283.60 190.04
-9755316.17 5135285.34 190.06
-9755315.63 5135279.14 190.03
-9755315.58 5135281.23 190.03
-9755314.12 5135281.54 190.03
-9755320.00 5135285.38 190.07
-9755318.57 5135279.76 190.02
-9755319.18 5135278.00 190.06
-9755310.57 5135281.18 190.05
-9755314.43 5135283.32 190.05
-9755317.90 5135284.51 190.06
-9755317.36 5135282.43 190.05
-9755314.66 5135284.21 190.06
-9755313.58 5135280.96 190.04
-9755318.21 5135285.40 190.07
-9755318.83 5135280.69 190.02
-9755318.54 5135281.83 190.04
-9755315.25 5135281.53 190.04
-9755313.53 5135284.21 190.06
-9755320.92 5135284.53 190.05
-9755316.15 5135277.38 190.11
-9755316.47 5135283.29 190.04
-9755318.50 5135283.35 190.06
-9755316.50 5135281.25 190.03
-9755311.15 5135280.61 190.05
-9755316.16 5135285.06 190.06
-9755317.33 5135281.54 190.03
-9755317.37 5135283.93 190.04
-9755316.51 5135277.97 190.07
-9755318.82 5135281.53 190.03
-9755316.76 5135284.51 190.05
-9755317.98 5135277.39 190.10
-9755320.64 5135277.71 190.07
-9755318.55 5135278.86 190.04
-9755321.49 5135283.06 190.04
-9755312.38 5135281.21 190.03
-9755320.92 5135282.19 190.03
-9755318.87 5135277.42 190.09
-9755313.52 5135283.30 190.06
-9755313.86 5135278.00 190.10
-9755312.05 5135284.18 190.06
-9755315.60 5135280.03 190.03
-9755319.75 5135282.74 190.04
-9755310.59 5135282.99 190.06
-9755320.63 5135278.62 190.03
-9755314.37 5135285.14 190.06
-9755320.63 5135281.56 190.04
-9755312.39 5135278.25 190.10
-9755315.32 5135278.53 190.07
-9755313.56 5135280.05 190.02
-9755320.01 5135283.65 190.05
-9755310.56 5135283.28 190.07
-9755320.93 5135278.29 190.05
-9755312.42 5135279.15 190.07
-9755318.25 5135281.25 190.03
-9755310.58 5135278.20 190.12
-9755319.17 5135277.41 190.08
-9755314.47 5135278.01 190.09
-9755312.63 5135281.21 190.03
-9755312.05 5135282.40 190.05
-9755313.54 5135279.16 190.05
-9755315.92 5135281.49 190.03
-9755311.45 5135284.45 190.06
-9755311.46 5135282.97 190.05
-9755320.07 5135278.31 190.06
-9755315.33 5135278.27 190.09
-9755319.74 5135281.57 190.02
-9755312.67 5135277.95 190.11
-9755312.36 5135280.33 190.04
-9755320.32 5135280.32 190.03
-9755313.21 5135283.32 190.06
-9755314.41 5135281.21 190.03
-9755320.63 5135285.42 190.07
-9755320.62 5135285.68 190.08
-9755316.77 5135280.65 190.04
-9755320.91 5135281.28 190.03
-9755312.35 5135284.47 190.06
-9755312.35 5135285.39 190.07
-9755311.80 5135278.84 190.08
-9755315.32 5135282.38 190.05
-9755312.03 5135283.27 190.05
-9755310.57 5135280.34 190.05
-9755312.06 5135279.75 190.05
-9755317.98 5135280.36 190.03
-9755317.36 5135285.37 190.06
-9755312.39 5135282.39 190.05
-9755311.13 5135284.48 190.07
-9755319.80 5135278.28 190.06
-9755318.57 5135280.94 190.02
-9755311.16 5135285.60 190.08
-9755310.45 5135298.48 181.50
-9755314.20 5135291.26 183.11
-9755319.81 5135290.11 182.62
-9755314.69 5135285.67 190.06
-9755314.07 5135290.11 182.83
-9755315.90 5135285.67 190.07
-9755320.54 5135290.41 190.66
-9755314.30 5135290.22 186.84
-9755318.65 5135297.63 181.45
-9755315.83 5135289.75 182.43
-9755314.91 5135290.29 181.95
-9755318.69 5135291.13 181.53
-9755314.40 5135290.62 184.08
-9755313.39 5135292.92 181.55
-9755320.43 5135289.97 188.88
-9755313.79 5135290.58 183.17
-9755316.26 5135297.33 181.48
-9755320.87 5135290.38 184.15
-9755314.67 5135288.62 190.13
-9755318.91 5135290.30 190.67
-9755313.11 5135292.21 182.51
-9755312.62 5135288.64 190.12
-9755315.11 5135291.15 183.28
-9755312.00 5135290.14 190.07
-9755320.06 5135290.39 187.32
-9755318.46 5135289.46 190.15
-9755320.31 5135290.33 186.77
-9755315.59 5135288.35 190.11
-9755320.87 5135286.26 190.09
-9755311.98 5135290.21 186.90
-9755320.45 5135294.11 181.58
-9755315.22 5135289.91 181.86
-9755313.67 5135293.73 182.11
-9755313.24 5135289.89 190.12
-9755313.02 5135291.30 183.08
-9755314.30 5135290.05 184.16
-9755320.03 5135289.77 186.91
-9755318.36 5135295.57 181.45
-9755314.55 5135291.88 182.97
-9755317.84 5135290.36 183.38
-9755320.50 5135290.32 182.02
-9755314.63 5135289.55 190.16
-9755319.27 5135289.94 182.33
-9755311.13 5135290.25 186.90
-9755314.31 5135293.68 182.13
-9755313.09 5135290.77 182.51
-9755314.04 5135290.41 183.23
-9755318.80 5135289.65 183.43
-9755320.19 5135290.46 182.74
-9755313.27 5135290.33 183.39
-9755311.94 5135290.77 182.50
-9755318.49 5135286.29 190.09
-9755319.32 5135289.92 186.87
-9755311.59 5135289.73 186.94
-9755315.10 5135291.36 182.42
-9755318.79 5135288.33 190.13
-9755314.81 5135291.95 182.34
-9755312.25 5135289.99 190.08
-9755319.91 5135289.86 183.40
-9755315.19 5135293.65 182.14
-9755314.12 5135288.03 190.11
-9755317.91 5135290.29 186.88
-9755314.69 5135290.73 183.01
-9755315.27 5135288.96 190.12
-9755319.40 5135286.25 190.09
-9755312.03 5135287.40 190.10
-9755319.05 5135289.65 186.91
-9755312.26 5135290.03 185.98
-9755314.24 5135290.47 183.21
-9755314.42 5135290.11 183.47
-9755314.32 5135291.04 182.74
-9755316.05 5135291.11 181.54
-9755317.81 5135289.58 183.42
-9755319.25 5135289.73 189.94
-9755315.18 5135291.88 182.04
-9755316.95 5135289.92 182.45
-9755313.77 5135289.92 185.97
-9755320.32 5135286.62 190.08
-9755315.50 5135290.20 182.81
-9755310.43 5135294.33 181.54
-9755318.16 5135290.41 190.63
-9755311.91 5135291.06 182.50
-9755311.14 5135288.32 190.12
-9755311.98 5135291.63 182.51
-9755316.48 5135288.91 190.14
-9755314.90 5135290.36 182.98
-9755320.48 5135292.07 181.54
-9755320.53 5135290.31 185.57
-9755313.13 5135290.00 186.91
-9755316.70 5135289.53 190.64
-9755314.70 5135290.13 187.98
-9755317.83 5135293.22 181.91
-9755314.88 5135291.06 182.23
-9755315.22 5135292.51 182.16
-9755320.75 5135293.52 181.62
-9755321.04 5135295.88 181.43
-9755315.26 5135291.96 182.76
-9755315.17 5135292.88 181.56
-9755317.44 5135289.81 189.99
-9755312.21 5135294.96 181.52
-9755313.81 5135290.28 186.30
-9755319.72 5135290.21 182.23
-9755316.17 5135289.84 190.10
-9755320.42 5135290.27 182.78
-9755320.45 5135295.62 181.44
-9755317.82 5135288.95 190.66
-9755317.32 5135290.24 186.83
-9755315.16 5135295.29 181.48
-9755315.29 5135290.26 182.05
-9755318.46 5135289.68 186.91
-9755318.23 5135289.78 189.99
-9755320.23 5135290.28 183.01
-9755319.29 5135294.72 181.51
-9755315.22 5135290.74 183.23
-9755310.84 5135288.02 190.13
-9755313.98 5135296.44 181.49
-9755317.78 5135290.14 190.03
-9755312.50 5135293.77 181.58
-9755319.06 5135289.50 190.13
-9755312.53 5135291.13 182.49
-9755313.52 5135290.09 190.65
-9755315.38 5135290.23 185.99
-9755311.38 5135289.50 190.15
-9755319.40 5135290.17 190.67
-9755321.11 5135289.91 181.61
-9755318.23 5135287.77 190.11
-9755313.16 5135292.55 182.47
-9755316.40 5135293.75 181.56
-9755313.43 5135289.62 186.94
-9755317.54 5135290.32 183.37
-9755313.99 5135290.25 182.50
-9755315.76 5135294.70 181.52
-9755319.60 5135292.60 181.55
-9755318.75 5135289.88 181.56
-9755313.71 5135290.18 182.52
-9755319.30 5135289.98 181.59
-9755312.27 5135290.05 190.68
-9755311.99 5135289.74 189.60
-9755317.25 5135291.39 181.53
-9755317.77 5135289.95 182.76
-9755313.12 5135292.04 182.04
-9755320.20 5135290.00 182.13
-9755313.81 5135290.03 188.03
-9755313.74 5135290.05 183.54
-9755316.38 5135289.98 186.89
-9755320.30 5135293.47 182.64
-9755317.78 5135297.34 181.47
-9755311.32 5135295.80 181.50
-9755320.47 5135295.87 181.44
-9755317.01 5135288.63 190.13
-9755312.19 5135290.79 182.49
-9755312.79 5135291.05 182.50
-9755317.58 5135289.69 181.60
-9755315.82 5135289.52 190.13
-9755317.24 5135289.99 182.48
-9755314.56 5135293.82 181.56
-9755310.89 5135286.21 190.09
-9755317.71 5135289.45 190.11
-9755313.51 5135289.89 189.79
-9755314.81 5135292.22 182.23
-9755320.51 5135290.02 182.27
-9755318.80 5135286.58 190.10
-9755318.09 5135294.12 181.51
-9755319.06 5135289.90 182.33
-9755317.25 5135290.20 183.40
-9755310.81 5135290.23 186.90
-9755319.41 5135286.64 190.09
-9755313.50 5135290.21 186.86
-9755313.07 5135295.24 181.51
-9755316.46 5135289.78 189.64
-9755312.04 5135287.15 190.10
-9755314.65 5135291.61 182.94
-9755311.90 5135290.38 183.44
-9755315.21 5135290.76 182.08
-9755314.81 5135291.08 181.54
-9755314.00 5135290.35 189.64
-9755320.43 5135297.66 181.44
-9755313.22 5135289.81 190.66
-9755315.73 5135296.46 181.48
-9755317.22 5135296.16 181.45
-9755316.07 5135289.95 186.88
-9755319.12 5135289.96 190.03
-9755316.02 5135295.27 181.50
-9755314.62 5135292.55 182.96
-9755313.68 5135291.92 183.01
-9755317.57 5135289.71 186.92
-9755311.07 5135289.87 182.51
-9755315.77 5135292.90 181.55
-9755315.13 5135290.46 182.79
-9755316.80 5135289.69 186.91
-9755317.91 5135289.63 190.04
-9755319.37 5135286.86 190.10
-9755314.04 5135290.35 185.78
-9755316.05 5135290.69 182.25
-9755310.85 5135287.40 190.12
-9755320.56 5135286.87 190.09
-9755319.55 5135295.92 181.44
-9755316.45 5135287.15 190.09
-9755316.01 5135293.73 182.13
-9755311.07 5135292.22 181.91
-9755311.62 5135290.43 182.51
-9755316.97 5135293.49 182.15
-9755314.44 5135290.41 184.08
-9755314.45 5135290.17 184.65
-9755317.31 5135288.92 190.13
-9755316.33 5135296.71 181.46
-9755318.14 5135290.56 181.57
-9755316.37 5135291.42 181.54
-9755313.72 5135290.30 185.56
-9755313.07 5135293.69 182.10
-9755318.42 5135290.27 182.45
-9755314.51 5135290.29 185.20
-9755310.52 5135287.99 190.13
-9755318.19 5135289.48 190.66
-9755320.58 5135290.25 189.41
-9755320.55 5135290.20 183.32
-9755313.72 5135290.11 184.05
-9755313.51 5135288.63 190.13
-9755320.62 5135289.52 190.66
-9755315.77 5135292.31 181.53
-9755320.54 5135290.25 187.28
-9755316.91 5135294.34 181.51
-9755315.34 5135290.01 185.99
-9755316.40 5135290.26 185.84
-9755320.31 5135290.26 181.87
-9755320.47 5135290.54 182.00
-9755313.71 5135290.01 182.52
-9755318.13 5135290.23 181.59
-9755310.72 5135293.73 181.55
-9755315.44 5135291.85 182.18
-9755317.04 5135286.59 190.08
-9755314.87 5135294.06 181.55
-9755316.36 5135292.65 181.55
-9755318.98 5135290.59 181.54
-9755318.25 5135293.37 182.48
-9755311.46 5135287.72 190.12
-9755314.83 5135297.31 181.48
-9755320.19 5135289.95 181.63
-9755314.23 5135290.06 183.34
-9755312.19 5135297.26 181.49
-9755313.08 5135295.85 181.51
-9755311.65 5135292.25 182.51
-9755315.14 5135291.73 182.40
-9755312.77 5135292.26 182.51
-9755319.60 5135293.53 181.61
-9755314.89 5135295.26 181.49
-9755313.81 5135289.97 186.96
-9755320.03 5135290.26 182.14
-9755314.06 5135290.20 186.93
-9755314.85 5135294.64 181.55
-9755313.52 5135287.15 190.10
-9755315.56 5135293.93 182.10
-9755318.84 5135287.44 190.11
-9755311.94 5135294.63 181.55
-9755315.26 5135289.92 182.72
-9755316.43 5135286.01 190.08
-9755315.24 5135293.42 182.12
-9755315.14 5135291.31 183.08
-9755321.09 5135292.01 181.54
-9755310.47 5135293.49 181.55
-9755316.86 5135290.18 190.08
-9755312.30 5135289.46 190.13
-9755320.31 5135289.92 188.85
-9755319.57 5135297.38 181.44
-9755314.56 5135295.88 181.49
-9755321.34 5135292.35 181.54
-9755314.35 5135289.94 181.61
-9755316.09 5135290.11 189.61
-9755319.58 5135293.52 182.28
-9755313.98 5135290.00 185.97
-9755312.94 5135290.10 186.31
-9755311.05 5135291.34 182.53
-9755314.64 5135289.91 181.58
-9755310.51 5135289.47 187.01
-9755310.78 5135290.47 182.51
-9755319.02 5135289.68 182.83
-9755312.08 5135290.27 185.96
-9755312.77 5135290.14 182.53
-9755317.24 5135294.10 181.52
-9755319.88 5135294.42 181.53
-9755313.92 5135291.05 182.51
-9755313.06 5135294.94 181.54
-9755318.85 5135289.83 182.99
-9755314.52 5135290.70 182.17
-9755320.57 5135287.79 190.11
-9755320.47 5135290.02 186.75
-9755316.17 5135290.21 185.83
-9755313.81 5135290.22 189.09
-9755313.07 5135292.23 181.99
-9755312.79 5135292.58 181.56
-9755315.46 5135290.12 186.31
-9755311.39 5135290.12 183.42
-9755314.30 5135293.16 181.56
-9755312.49 5135290.29 186.87
-9755311.58 5135290.32 186.26
-9755317.82 5135290.07 185.96
-9755318.65 5135289.71 181.84
-9755314.07 5135290.18 187.69
-9755315.87 5135290.45 182.56
-9755314.09 5135287.15 190.09
-9755318.71 5135290.28 181.55
-9755319.70 5135290.21 190.62
-9755316.18 5135286.88 190.08
-9755320.88 5135290.02 185.11
-9755317.63 5135287.79 190.12
-9755315.56 5135286.56 190.08
-9755312.78 5135293.49 181.55
-9755313.74 5135289.88 188.65
-9755311.09 5135289.96 186.93
-9755320.47 5135290.22 182.19
-9755311.06 5135292.23 181.58
-9755315.62 5135290.28 182.22
-9755315.40 5135291.30 182.60
-9755313.81 5135289.93 183.32
-9755320.90 5135289.92 190.17
-9755310.79 5135291.06 182.51
-9755317.52 5135294.68 181.49
-9755313.20 5135286.25 190.09
-9755320.21 5135290.04 182.70
-9755319.02 5135290.22 181.56
-9755340.03 5135271.73 181.49
-9755342.97 5135271.73 181.35
-9755337.12 5135272.11 190.72
-9755343.30 5135271.77 181.34
-9755343.28 5135272.03 181.34
-9755341.85 5135272.35 181.37
-9755343.57 5135272.03 181.34
-9755340.34 5135271.72 181.44
-9755337.03 5135271.21 190.80
-9755337.49 5135271.83 191.41
-9755341.83 5135272.02 181.37
-9755340.02 5135272.30 181.49
-9755327.75 5135271.81 190.10
-9755326.28 5135272.09 190.07
-9755328.69 5135270.92 190.68
-9755331.00 5135271.83 190.08
-9755334.53 5135271.28 190.11
-9755335.99 5135271.85 190.17
-9755333.67 5135271.28 190.11
-9755332.17 5135272.42 190.10
-9755330.36 5135271.23 190.08
-9755335.12 5135271.82 190.13
-9755336.59 5135271.60 190.18
-9755327.98 5135271.56 190.28
-9755330.10 5135271.86 190.07
-9755336.30 5135270.96 190.17
-9755329.21 5135271.24 190.10
-9755333.61 5135271.87 190.11
-9755325.35 5135272.10 190.07
-9755327.13 5135271.53 190.08
-9755335.40 5135272.46 190.17
-9755337.05 5135270.76 190.20
-9755326.00 5135272.41 190.07
-9755335.09 5135271.28 190.13
-9755333.37 5135271.53 190.11
-9755326.89 5135271.28 190.08
-9755330.36 5135270.95 190.08
-9755330.13 5135271.24 190.08
-9755326.85 5135272.16 190.07
-9755332.45 5135271.54 190.09
-9755336.63 5135271.53 191.37
-9755326.86 5135270.92 190.09
-9755333.34 5135272.46 190.11
-9755328.33 5135271.52 190.65
-9755324.50 5135271.23 190.10
-9755334.54 5135271.88 190.13
-9755331.30 5135270.99 190.09
-9755345.04 5135274.75 181.30
-9755337.15 5135273.67 190.32
-9755341.80 5135274.09 181.37
-9755341.20 5135277.36 181.39
-9755339.71 5135276.45 181.43
-9755343.00 5135277.96 181.35
-9755341.78 5135276.80 181.40
-9755342.12 5135272.94 181.37
-9755342.68 5135273.49 181.35
-9755339.47 5135275.58 181.44
-9755335.11 5135277.75 190.24
-9755344.45 5135273.85 181.32
-9755337.80 5135275.09 191.40
-9755343.28 5135274.99 181.35
-9755337.04 5135277.20 190.67
-9755344.16 5135276.79 181.33
-9755336.87 5135278.09 190.64
-9755344.19 5135273.80 181.32
-9755343.61 5135275.29 181.36
-9755338.01 5135275.32 191.38
-9755337.47 5135273.94 191.41
-9755344.17 5135277.09 181.34
-9755337.19 5135273.93 191.40
-9755337.47 5135276.24 191.41
-9755337.46 5135275.10 191.41
-9755337.17 5135274.22 190.30
-9755337.74 5135275.10 190.72
-9755339.43 5135277.05 181.45
-9755340.92 5135273.80 181.38
-9755340.91 5135275.90 181.41
-9755337.12 5135276.61 190.63
-9755340.34 5135273.75 181.41
-9755343.26 5135276.80 181.36
-9755340.93 5135276.81 181.40
-9755337.17 5135276.59 190.06
-9755344.43 5135275.58 181.33
-9755340.89 5135276.16 181.41
-9755337.15 5135276.25 191.42
-9755343.30 5135274.41 181.34
-9755340.03 5135273.23 181.47
-9755337.49 5135274.22 190.28
-9755337.46 5135276.60 191.41
-9755340.91 5135274.42 181.38
-9755340.87 5135277.04 181.41
-9755342.05 5135277.11 181.38
-9755343.56 5135273.51 181.34
-9755337.77 5135274.79 191.40
-9755344.14 5135272.94 181.34
-9755328.32 5135272.41 190.66
-9755335.09 5135272.42 190.15
-9755336.87 5135275.46 190.30
-9755328.93 5135272.36 190.66
-9755329.80 5135272.41 190.08
-9755330.08 5135275.67 190.11
-9755326.85 5135272.41 190.07
-9755333.03 5135272.43 190.11
-9755333.34 5135274.53 190.18
-9755333.35 5135275.73 190.21
-9755333.62 5135277.79 190.19
-9755332.47 5135272.45 190.10
-9755328.61 5135277.17 190.07
-9755333.01 5135275.40 190.19
-9755330.35 5135275.97 190.12
-9755336.79 5135273.04 190.62
-9755329.20 5135275.69 190.08
-9755325.38 5135274.76 190.03
-9755326.86 5135274.46 190.03
-9755335.38 5135277.49 190.25
-9755332.74 5135275.98 190.20
-9755333.64 5135276.32 190.23
-9755334.51 5135274.50 190.21
-9755327.11 5135273.89 190.05
-9755327.72 5135277.16 190.02
-9755336.58 5135273.04 190.22
-9755331.87 5135274.54 190.14
-9755330.08 5135277.47 190.09
-9755334.24 5135276.58 190.25
-9755332.17 5135275.43 190.16
-9755329.47 5135273.88 190.06
-9755336.01 5135274.53 190.25
-9755335.08 5135274.23 190.22
-9755327.73 5135273.29 190.07
-9755329.51 5135275.39 190.08
-9755330.70 5135277.48 190.10
-9755336.09 5135277.52 190.54
-9755324.81 5135274.17 190.05
-9755332.43 5135273.93 190.12
-9755335.38 5135276.62 190.27
-9755331.27 5135274.53 190.10
-9755336.60 5135273.61 190.24
-9755328.00 5135275.08 190.04
-9755325.41 5135273.33 190.06
-9755324.79 5135276.29 190.02
-9755332.15 5135276.31 190.18
-9755324.49 5135273.61 190.05
-9755330.41 5135272.71 190.07
-9755332.13 5135274.53 190.14
-9755327.44 5135273.90 190.06
-9755324.81 5135273.29 190.06
-9755329.13 5135272.46 190.66
-9755330.12 5135275.10 190.09
-9755334.25 5135274.21 190.18
-9755327.15 5135275.37 190.00
-9755328.00 5135275.38 190.04
-9755333.03 5135273.03 190.12
-9755328.60 5135276.82 190.08
-9755330.08 5135276.59 190.11
-9755336.60 5135276.25 191.41
-9755325.04 5135276.26 189.99
-9755333.91 5135273.34 190.15
-9755332.73 5135275.43 190.18
-9755325.94 5135273.59 190.04
-9755327.74 5135275.12 190.03
-9755335.45 5135273.08 190.19
-9755332.13 5135274.21 190.12
-9755335.38 5135275.41 190.26
-9755334.47 5135276.01 190.25
-9755328.06 5135273.31 190.07
-9755328.64 5135275.09 190.06
-9755329.21 5135274.22 190.06
-9755332.17 5135273.04 190.11
-9755332.43 5135273.37 190.11
-9755330.98 5135274.50 190.09
-9755336.24 5135276.05 190.32
-9755327.12 5135274.48 190.04
-9755335.97 5135276.88 190.59
-9755331.31 5135273.00 190.08
-9755335.93 5135276.62 190.29
-9755328.32 5135275.66 190.06
-9755328.94 5135274.22 190.05
-9755333.34 5135276.61 190.21
-9755326.24 5135275.95 189.95
-9755334.52 5135277.22 190.23
-9755330.71 5135273.05 190.06
-9755328.05 5135272.42 190.31
-9755325.07 5135273.00 190.06
-9755335.98 5135275.12 190.26
-9755329.20 5135277.18 190.07
-9755330.36 5135273.60 190.07
-9755333.03 5135277.45 190.18
-9755329.22 5135272.97 190.10
-9755334.18 5135273.06 190.15
-9755326.84 5135274.18 190.05
-9755333.31 5135276.29 190.22
-9755325.95 5135274.20 190.04
-9755324.26 5135273.70 191.18
-9755324.20 5135275.07 190.04
-9755330.10 5135274.20 190.06
-9755324.48 5135274.49 190.04
-9755336.55 5135276.30 190.34
-9755329.82 5135273.04 190.08
-9755325.09 5135275.04 190.02
-9755334.23 5135276.89 190.24
-9755333.95 5135274.23 190.18
-9755325.95 5135275.08 190.01
-9755334.53 5135275.41 190.24
-9755336.53 5135276.52 191.40
-9755324.18 5135274.16 190.06
-9755329.22 5135276.59 190.08
-9755329.50 5135275.09 190.08
-9755328.58 5135275.35 190.06
-9755328.93 5135273.01 190.09
-9755331.24 5135277.46 190.12
-9755328.88 5135277.17 190.07
-9755325.93 5135273.30 190.06
-9755341.85 5135271.13 181.38
-9755341.00 5135259.34 181.44
-9755337.53 5135270.95 191.42
-9755343.58 5135262.74 184.89
-9755344.77 5135270.87 181.31
-9755344.21 5135262.33 184.01
