-9755322.70 5135715.67 194.56
-9755331.59 5135721.17 192.96
-9755339.87 5135694.84 181.17
-9755341.57 5135695.76 183.70
-9755340.29 5135694.37 183.67
-9755322.75 5135695.68 181.19
-9755333.52 5135695.16 193.38
-9755322.49 5135694.24 181.14
-9755321.86 5135696.28 181.19
-9755329.67 5135695.41 193.19
-9755318.67 5135709.22 193.99
-9755318.69 5135705.90 194.55
-9755318.07 5135707.19 193.98
-9755320.06 5135722.86 193.79
-9755318.00 5135723.11 193.79
-9755312.51 5135708.85 193.98
-9755317.80 5135703.60 193.97
-9755309.56 5135703.80 194.01
-9755314.54 5135701.84 193.92
-9755314.51 5135705.97 193.93
-9755315.40 5135719.55 193.95
-9755313.90 5135718.98 193.98
-9755311.22 5135722.27 193.94
-9755309.15 5135718.94 193.98
-9755313.28 5135721.33 193.93
-9755310.99 5135713.92 193.94
-9755309.46 5135720.73 193.96
-9755311.88 5135716.32 193.90
-9755307.41 5135714.15 194.04
-9755312.44 5135714.54 193.94
-9755311.23 5135694.76 188.67
-9755329.74 5135682.68 193.27
-9755324.40 5135684.11 193.28
-9755341.93 5135691.36 181.05
-9755336.94 5135690.67 181.08
-9755321.76 5135685.78 190.24
-9755321.94 5135691.94 190.22
-9755330.03 5135688.33 193.31
-9755323.70 5135691.50 181.11
-9755324.65 5135692.14 193.23
-9755322.90 5135692.38 193.23
-9755319.05 5135681.68 181.12
-9755319.93 5135687.58 181.18
-9755339.27 5135725.13 193.73
-9755339.48 5135725.03 193.84
-9755338.64 5135730.65 193.86
-9755336.59 5135729.19 193.67
-9755333.91 5135727.11 193.36
-9755332.39 5135727.15 193.33
-9755331.79 5135727.70 193.38
-9755330.34 5135731.50 193.75
-9755333.92 5135723.85 193.04
-9755328.02 5135723.81 193.00
-9755317.99 5135733.15 195.51
-9755322.76 5135698.88 182.40
-9755330.17 5135709.90 193.17
-9755322.54 5135701.58 193.24
-9755323.97 5135710.46 193.18
-9755322.57 5135699.89 185.12
-9755336.31 5135715.84 193.33
-9755336.26 5135717.62 193.22
-9755333.67 5135713.80 192.99
-9755326.89 5135713.78 192.99
-9755322.15 5135717.26 193.83
-9755321.06 5135713.98 194.56
-9755339.26 5135694.62 181.17
-9755321.94 5135695.18 190.22
-9755318.63 5135717.46 193.96
-9755307.79 5135705.94 193.91
-9755312.21 5135705.89 193.89
-9755313.61 5135710.63 194.03
-9755316.32 5135708.32 194.04
-9755311.22 5135720.73 193.97
-9755313.02 5135712.46 194.02
-9755316.59 5135712.78 193.95
-9755340.47 5135685.10 181.18
-9755321.66 5135685.12 190.20
-9755338.15 5135685.94 181.18
-9755322.76 5135693.91 181.10
-9755328.79 5135688.00 193.31
-9755321.96 5135692.83 190.21
-9755308.91 5135693.18 181.10
-9755317.77 5135687.65 181.23
-9755344.78 5135731.44 186.36
-9755345.07 5135730.20 186.41
-9755345.06 5135729.29 186.41
-9755344.59 5135730.53 187.97
-9755344.95 5135732.64 186.40
-9755344.47 5135731.00 187.97
-9755345.08 5135729.03 186.42
-9755344.99 5135731.96 186.38
-9755344.80 5135730.88 188.02
-9755344.99 5135732.23 186.39
-9755345.07 5135728.66 186.43
-9755344.69 5135733.34 187.53
-9755344.99 5135729.53 186.40
-9755344.50 5135728.64 186.41
-9755335.05 5135725.31 193.20
-9755338.94 5135724.65 193.65
-9755337.13 5135725.27 193.37
-9755335.42 5135725.07 193.19
-9755335.94 5135724.84 193.18
-9755338.73 5135725.06 193.66
-9755329.47 5135725.04 193.07
-9755333.01 5135724.78 193.10
-9755324.79 5135724.67 193.69
-9755332.10 5135724.79 193.10
-9755323.91 5135725.22 193.87
-9755330.07 5135724.71 193.05
-9755323.62 5135724.66 193.86
-9755331.58 5135724.77 193.08
-9755330.07 5135725.04 193.08
-9755328.27 5135724.71 193.01
-9755332.41 5135725.33 193.16
-9755337.67 5135725.32 193.52
-9755343.50 5135733.54 187.56
-9755344.39 5135731.98 186.41
-9755343.60 5135730.97 187.90
-9755344.09 5135733.07 187.57
-9755339.20 5135724.68 193.71
-9755340.02 5135732.46 194.08
-9755344.20 5135730.17 187.93
-9755335.33 5135727.66 193.45
-9755338.66 5135726.13 193.50
-9755343.92 5135729.54 187.94
-9755335.33 5135727.99 193.49
-9755333.28 5135731.83 193.85
-9755343.32 5135732.26 186.75
-9755338.60 5135732.43 194.03
-9755335.39 5135727.14 193.39
-9755338.25 5135730.92 193.86
-9755340.18 5135728.12 194.04
-9755338.54 5135732.12 194.00
-9755336.83 5135725.64 193.34
-9755337.15 5135727.13 193.56
-9755339.92 5135726.73 194.08
-9755335.07 5135730.94 193.78
-9755339.21 5135730.97 193.90
-9755344.15 5135730.90 187.95
-9755340.82 5135729.02 196.15
-9755338.60 5135725.64 193.51
-9755336.52 5135731.22 193.86
-9755338.59 5135731.27 193.91
-9755334.20 5135728.01 193.45
-9755337.72 5135726.59 193.56
-9755340.43 5135728.57 193.98
-9755344.24 5135731.79 188.00
-9755344.09 5135730.62 187.95
-9755342.44 5135730.05 187.94
-9755335.34 5135731.27 193.81
-9755335.01 5135727.73 193.45
-9755337.18 5135727.74 193.60
-9755340.38 5135728.31 195.36
-9755334.49 5135727.16 193.37
-9755344.96 5135728.15 186.43
-9755333.60 5135728.55 193.50
-9755342.71 5135732.28 187.12
-9755336.19 5135731.50 193.87
-9755340.57 5135733.59 194.22
-9755333.28 5135728.03 193.44
-9755334.60 5135728.78 193.70
-9755337.71 5135729.78 193.75
-9755343.26 5135728.67 186.41
-9755333.30 5135728.57 193.50
-9755338.01 5135731.21 193.89
-9755337.14 5135726.89 193.52
-9755340.53 5135731.76 194.17
-9755337.71 5135730.69 193.82
-9755336.58 5135730.67 193.80
-9755333.89 5135731.27 193.79
-9755339.75 5135727.14 194.02
-9755337.71 5135728.84 193.72
-9755342.44 5135728.56 186.63
-9755341.86 5135731.53 187.96
-9755335.09 5135730.03 193.69
-9755337.96 5135726.90 193.62
-9755339.18 5135732.16 194.00
-9755339.18 5135728.28 193.86
-9755342.10 5135730.39 187.95
-9755335.92 5135728.88 193.60
-9755344.30 5135733.33 182.05
-9755337.69 5135732.46 194.00
-9755337.12 5135728.88 193.67
-9755333.57 5135733.30 194.01
-9755338.32 5135726.79 193.71
-9755335.99 5135726.59 193.35
-9755337.10 5135733.01 194.05
-9755336.20 5135730.95 193.80
-9755333.90 5135727.71 193.41
-9755342.74 5135728.59 186.36
-9755344.26 5135728.63 186.41
-9755338.61 5135725.98 193.69
-9755344.07 5135731.99 186.39
-9755335.67 5135727.70 193.46
-9755339.49 5135730.40 193.86
-9755336.25 5135727.97 193.50
-9755342.03 5135728.64 186.40
-9755343.54 5135731.22 187.90
-9755338.59 5135733.05 194.09
-9755337.99 5135731.85 193.95
-9755340.66 5135728.42 195.55
-9755341.96 5135731.02 187.94
-9755343.48 5135729.90 187.91
-9755343.29 5135730.71 187.94
-9755333.32 5135727.09 193.36
-9755338.66 5135728.64 193.74
-9755338.29 5135729.84 193.78
-9755335.97 5135731.81 193.90
-9755343.01 5135729.46 187.92
-9755333.91 5135726.79 193.32
-9755337.40 5135727.63 193.60
-9755335.94 5135725.89 193.30
-9755340.02 5135730.94 193.93
-9755334.19 5135729.45 193.62
-9755337.12 5135732.68 194.01
-9755335.95 5135733.27 194.06
-9755338.59 5135733.34 194.12
-9755335.68 5135726.85 193.36
-9755343.60 5135730.37 187.94
-9755340.63 5135732.88 194.14
-9755336.59 5135728.85 193.62
-9755339.74 5135726.25 193.96
-9755336.61 5135727.04 193.47
-9755337.46 5135727.19 193.56
-9755343.54 5135728.88 186.40
-9755338.28 5135731.28 193.90
-9755337.71 5135729.22 193.72
-9755340.74 5135728.83 196.62
-9755337.38 5135728.05 193.65
-9755342.71 5135729.89 187.94
-9755342.46 5135731.88 187.95
-9755335.08 5135729.80 193.67
-9755338.56 5135727.73 193.75
-9755343.18 5135729.83 187.90
-9755335.34 5135725.89 193.27
-9755338.91 5135726.84 193.84
-9755337.09 5135729.18 193.69
-9755338.93 5135725.56 193.75
-9755336.29 5135726.56 193.37
-9755336.31 5135725.60 193.28
-9755341.83 5135729.02 186.73
-9755342.16 5135731.83 187.96
-9755337.44 5135728.33 193.69
-9755338.12 5135727.16 193.68
-9755338.10 5135725.95 193.30
-9755334.42 5135726.82 193.35
-9755340.64 5135728.69 194.49
-9755334.51 5135726.52 193.31
-9755339.78 5135730.43 193.88
-9755342.88 5135730.15 187.91
-9755339.65 5135725.45 193.93
-9755334.17 5135725.58 193.20
-9755338.60 5135729.48 193.75
-9755338.04 5135727.77 193.69
-9755338.61 5135730.10 193.81
-9755337.46 5135729.46 193.71
-9755342.40 5135732.18 186.70
-9755342.67 5135730.60 187.92
-9755333.27 5135732.74 193.95
-9755333.30 5135729.43 193.60
-9755325.05 5135725.27 194.55
-9755323.94 5135733.29 194.04
-9755329.45 5135733.52 193.94
-9755330.34 5135729.74 193.57
-9755325.42 5135732.69 194.51
-9755325.62 5135727.32 194.01
-9755324.10 5135728.45 194.42
-9755333.00 5135728.00 193.44
-9755333.28 5135726.48 193.28
-9755332.97 5135732.71 193.94
-9755328.54 5135733.54 193.93
-9755323.52 5135730.66 194.16
-9755326.41 5135727.99 194.05
-9755323.83 5135730.86 194.30
-9755332.37 5135727.47 193.96
-9755323.54 5135733.51 194.56
-9755323.57 5135727.59 193.99
-9755333.31 5135730.37 193.70
-9755326.75 5135731.17 194.31
-9755327.67 5135728.83 193.41
-9755327.12 5135729.18 193.45
-9755322.07 5135730.91 193.81
-9755328.87 5135728.84 193.45
-9755321.18 5135732.99 194.49
-9755331.27 5135725.57 193.16
-9755332.99 5135727.13 193.35
-9755322.96 5135728.51 193.80
-9755325.96 5135725.50 194.54
-9755327.71 5135729.75 193.53
-9755330.02 5135731.21 193.72
-9755326.20 5135729.35 194.52
-9755325.37 5135727.99 194.33
-9755331.83 5135729.13 193.54
-9755323.87 5135733.50 194.55
-9755325.93 5135727.29 194.54
-9755325.66 5135726.98 194.00
-9755322.67 5135729.39 193.79
-9755324.48 5135727.33 193.99
-9755332.69 5135728.58 193.48
-9755323.45 5135733.22 194.40
-9755325.91 5135727.89 194.79
-9755331.82 5135730.05 193.63
-9755324.99 5135728.64 196.17
-9755328.31 5135725.34 193.08
-9755332.67 5135730.63 193.71
-9755324.76 5135727.01 193.98
-9755330.35 5135725.60 193.14
-9755322.09 5135728.79 193.77
-9755321.50 5135728.52 193.78
-9755324.11 5135730.85 194.25
-9755329.47 5135725.60 193.12
-9755328.64 5135725.92 193.14
-9755323.49 5135731.76 193.80
-9755320.62 5135731.17 193.80
-9755329.47 5135726.81 193.25
-9755330.05 5135730.04 193.59
-9755330.89 5135730.62 193.67
-9755324.39 5135730.65 194.24
-9755327.13 5135730.87 194.54
-9755329.78 5135727.67 193.35
-9755331.26 5135725.35 193.13
-9755326.80 5135732.96 194.24
-9755326.27 5135726.96 194.54
-9755326.00 5135727.64 194.02
-9755326.22 5135726.48 194.00
-9755325.05 5135732.04 194.36
-9755321.78 5135732.36 193.82
-9755321.18 5135728.81 193.78
-9755324.74 5135725.53 194.55
-9755327.78 5135733.52 181.99
-9755320.64 5135726.13 193.82
-9755328.57 5135725.62 193.11
-9755331.84 5135725.70 193.19
-9755322.38 5135732.69 193.83
-9755320.62 5135724.91 193.83
-9755330.37 5135727.70 193.36
-9755321.14 5135732.33 194.52
-9755322.75 5135728.38 194.44
-9755328.86 5135728.27 193.40
-9755323.28 5135733.57 193.94
-9755331.24 5135729.17 193.53
-9755325.93 5135726.13 193.95
-9755326.50 5135731.72 194.35
-9755324.73 5135732.64 194.42
-9755329.76 5135726.15 193.18
-9755331.23 5135730.59 193.68
-9755332.11 5135733.28 193.97
-9755322.06 5135731.40 194.42
-9755332.17 5135728.01 193.41
-9755332.10 5135725.93 193.22
-9755323.84 5135728.87 194.08
-9755327.73 5135725.93 193.12
-9755323.87 5135728.81 194.42
-9755332.39 5135726.82 193.30
-9755323.53 5135729.98 193.79
-9755323.51 5135732.69 193.97
-9755333.30 5135726.80 193.32
-9755326.24 5135728.22 194.55
-9755325.97 5135726.40 194.55
-9755327.43 5135730.53 194.52
-9755326.49 5135725.58 193.07
-9755331.55 5135726.28 193.23
-9755324.73 5135731.74 194.33
-9755330.34 5135726.51 193.23
-9755328.56 5135729.72 193.53
-9755321.02 5135727.97 194.39
-9755324.48 5135728.09 195.89
-9755326.55 5135728.50 194.56
-9755329.73 5135731.20 193.71
-9755321.75 5135730.56 193.80
-9755323.00 5135733.54 193.92
-9755332.40 5135727.69 193.39
-9755325.07 5135726.11 193.93
-9755320.65 5135726.71 193.80
-9755323.93 5135730.67 195.79
-9755323.84 5135731.74 194.48
-9755323.29 5135727.89 194.44
-9755322.06 5135728.54 193.78
-9755328.87 5135729.74 193.54
-9755331.85 5135726.83 193.29
-9755320.91 5135727.02 193.80
-9755329.13 5135732.99 193.89
-9755325.28 5135729.05 196.22
-9755324.80 5135728.65 196.15
-9755322.94 5135727.62 193.84
-9755324.19 5135732.82 193.85
-9755330.38 5135725.01 193.08
-9755326.82 5135727.68 194.55
-9755325.70 5135725.26 194.54
-9755321.82 5135725.24 193.84
-9755323.57 5135725.55 193.85
-9755326.23 5135732.95 194.23
-9755332.67 5135732.42 193.89
-9755325.28 5135730.89 195.53
-9755330.37 5135728.56 193.44
-9755322.41 5135728.06 194.27
-9755323.41 5135729.11 194.17
-9755328.28 5135732.65 193.83
-9755339.26 5135724.12 193.73
-9755336.57 5135723.85 193.17
-9755333.58 5135724.49 193.08
-9755334.51 5135723.88 193.05
-9755337.13 5135724.45 193.30
-9755335.09 5135724.41 193.11
-9755337.47 5135724.51 193.35
-9755334.19 5135724.43 193.08
-9755333.02 5135723.87 193.03
-9755329.19 5135724.68 193.03
-9755333.31 5135724.44 193.08
-9755322.99 5135724.35 193.84
-9755322.69 5135723.79 193.84
-9755323.61 5135723.77 193.84
-9755331.59 5135723.86 193.01
-9755322.11 5135724.34 193.83
-9755321.20 5135724.37 193.82
-9755331.24 5135724.70 193.06
-9755331.84 5135724.16 193.03
-9755329.20 5135723.81 193.01
-9755325.97 5135723.82 192.99
-9755332.12 5135724.44 193.07
-9755332.46 5135724.47 193.07
-9755328.33 5135724.44 193.01
-9755329.18 5135724.47 193.01
-9755320.33 5135733.00 194.27
-9755320.31 5135730.84 193.80
-9755320.36 5135732.32 195.65
-9755320.02 5135727.88 194.69
-9755320.04 5135727.93 193.87
-9755320.06 5135730.31 193.79
-9755320.22 5135733.51 195.54
-9755319.70 5135727.27 193.80
-9755319.02 5135732.17 193.81
-9755319.77 5135726.10 193.81
-9755319.76 5135727.09 194.72
-9755318.45 5135732.63 194.70
-9755318.05 5135732.57 194.72
-9755319.69 5135727.55 194.70
-9755318.58 5135725.24 193.80
-9755319.77 5135728.45 194.76
-9755317.98 5135730.82 193.80
-9755318.86 5135727.29 193.78
-9755319.45 5135726.68 193.80
-9755318.57 5135725.48 193.81
-9755318.79 5135729.69 193.78
-9755318.88 5135732.53 195.48
-9755318.56 5135728.74 193.76
-9755319.13 5135727.61 193.83
-9755317.95 5135729.67 193.77
-9755319.13 5135727.92 193.78
-9755318.55 5135728.47 193.76
-9755319.47 5135728.46 194.72
-9755317.70 5135724.91 193.79
-9755310.34 5135724.58 193.82
-9755307.35 5135724.78 193.88
-9755315.93 5135724.60 193.77
-9755312.39 5135724.90 193.76
-9755313.28 5135730.22 193.78
-9755307.89 5135733.46 193.91
-9755316.44 5135730.24 193.78
-9755315.59 5135732.90 193.81
-9755308.25 5135725.17 193.80
-9755317.07 5135730.53 193.78
-9755316.49 5135728.73 193.76
-9755315.61 5135726.96 193.78
-9755310.56 5135732.58 193.90
-9755314.76 5135728.49 193.72
-9755315.58 5135730.79 193.78
-9755316.80 5135725.23 193.78
-9755310.07 5135726.05 193.80
-9755311.17 5135726.94 193.80
-9755315.90 5135728.76 193.74
-9755316.78 5135725.49 193.78
-9755311.16 5135730.19 193.78
-9755314.40 5135729.65 193.76
-9755311.48 5135731.67 193.80
-9755308.20 5135732.30 193.79
-9755315.83 5135732.61 193.80
-9755311.47 5135733.49 193.92
-9755309.41 5135727.85 193.81
-9755315.84 5135733.51 193.83
-9755309.41 5135728.11 193.81
-9755316.81 5135729.64 193.77
-9755317.08 5135729.08 193.76
-9755312.05 5135728.46 193.78
-9755312.34 5135732.87 193.93
-9755312.08 5135727.25 193.78
-9755311.53 5135726.98 193.80
-9755316.48 5135727.59 193.78
-9755314.76 5135725.24 193.76
-9755309.43 5135729.02 193.79
-9755309.13 5135726.94 193.81
-9755312.33 5135727.55 193.77
-9755307.34 5135726.33 193.79
-9755315.83 5135732.05 194.26
-9755312.33 5135731.98 193.84
-9755315.64 5135732.14 195.53
-9755307.93 5135728.45 193.80
-9755309.14 5135727.85 193.81
-9755313.86 5135726.41 193.73
-9755315.63 5135725.51 193.77
-9755312.99 5135728.15 193.73
-9755312.62 5135728.75 193.74
-9755312.09 5135728.15 193.78
-9755309.67 5135731.69 193.79
-9755309.11 5135732.27 193.80
-9755312.63 5135733.52 193.94
-9755312.07 5135726.64 193.77
-9755311.51 5135725.18 193.77
-9755312.68 5135725.46 193.73
-9755317.38 5135733.42 195.50
-9755314.47 5135728.48 193.71
-9755307.94 5135731.35 193.77
-9755313.55 5135731.70 193.84
-9755314.74 5135727.26 193.74
-9755314.73 5135732.34 193.80
-9755309.10 5135731.38 193.78
-9755316.50 5135732.02 195.50
-9755313.26 5135725.16 193.73
-9755311.19 5135725.17 193.78
-9755312.64 5135729.64 193.75
-9755311.47 5135730.78 193.79
-9755314.43 5135733.45 193.91
-9755311.79 5135726.35 193.78
-9755308.79 5135731.66 193.78
-9755308.25 5135726.92 193.80
-9755314.69 5135732.62 193.82
-9755307.35 5135729.00 193.80
-9755312.64 5135731.72 193.81
-9755316.81 5135727.28 193.79
-9755320.08 5135724.34 193.82
-9755319.49 5135724.31 193.81
-9755318.04 5135724.35 193.80
-9755312.09 5135724.01 193.83
-9755311.49 5135724.27 193.81
-9755308.00 5135724.02 193.93
-9755312.69 5135724.60 193.76
-9755311.16 5135724.28 193.83
-9755314.75 5135724.34 193.76
-9755308.57 5135723.70 193.91
-9755310.93 5135724.00 193.93
-9755344.91 5135710.76 189.35
-9755344.88 5135707.26 188.65
-9755344.88 5135707.56 188.65
-9755344.58 5135705.77 188.66
-9755344.83 5135699.86 181.98
-9755344.87 5135706.35 188.67
-9755344.86 5135702.57 188.95
-9755344.63 5135700.49 181.98
-9755344.94 5135705.45 188.62
-9755344.82 5135712.55 189.40
-9755343.66 5135698.42 181.22
-9755323.97 5135698.01 181.24
-9755328.15 5135698.37 193.15
-9755322.23 5135698.13 190.24
-9755323.36 5135698.26 181.24
-9755323.77 5135698.03 193.19
-9755328.76 5135698.06 193.16
-9755338.68 5135698.73 181.26
-9755344.63 5135700.76 181.98
-9755339.49 5135701.08 181.29
-9755344.30 5135709.02 189.28
-9755342.50 5135705.15 188.64
-9755342.53 5135702.51 188.64
-9755343.11 5135707.23 188.65
-9755335.88 5135707.22 187.37
-9755339.56 5135704.61 188.61
-9755341.62 5135708.43 188.64
-9755333.57 5135707.74 193.35
-9755342.80 5135705.16 188.64
-9755341.04 5135707.53 188.65
-9755335.70 5135703.70 186.76
-9755338.38 5135704.55 188.62
-9755336.64 5135707.20 188.57
-9755338.46 5135702.49 188.65
-9755335.74 5135706.71 186.75
-9755343.11 5135706.41 188.67
-9755339.27 5135705.13 188.61
-9755337.72 5135711.91 189.35
-9755339.54 5135706.37 188.59
-9755343.69 5135710.18 189.33
-9755337.76 5135700.47 181.29
-9755342.04 5135701.52 188.60
-9755341.65 5135703.40 188.63
-9755340.75 5135700.51 181.29
-9755336.89 5135710.50 188.58
-9755343.15 5135703.11 188.63
-9755341.93 5135702.21 188.66
-9755343.11 5135704.59 188.60
-9755336.59 5135707.85 188.56
-9755342.24 5135705.77 188.74
-9755335.72 5135704.85 187.46
-9755338.38 5135711.95 189.35
-9755335.46 5135707.23 188.62
-9755337.22 5135699.90 181.27
-9755344.57 5135709.90 189.33
-9755342.81 5135704.32 188.61
-9755335.96 5135706.82 187.28
-9755338.35 5135707.84 188.57
-9755335.76 5135704.06 186.76
-9755335.73 5135705.80 186.76
-9755335.44 5135705.80 186.75
-9755340.13 5135707.28 188.60
-9755340.37 5135700.21 181.28
-9755335.06 5135707.41 187.81
-9755339.82 5135701.37 181.29
-9755344.60 5135706.66 188.67
-9755337.80 5135698.68 181.25
-9755334.12 5135709.89 193.36
-9755341.61 5135707.53 188.65
-9755337.84 5135702.80 188.66
-9755337.53 5135706.64 188.59
-9755338.65 5135711.34 189.34
-9755338.99 5135702.46 188.66
-9755336.59 5135708.69 188.57
-9755342.42 5135709.85 188.57
-9755333.67 5135710.87 194.55
-9755341.33 5135709.61 188.59
-9755335.44 5135708.19 186.75
-9755342.54 5135705.77 188.69
-9755339.87 5135710.47 189.33
-9755335.44 5135704.90 186.74
-9755343.67 5135705.48 188.60
-9755340.16 5135703.96 188.63
-9755339.28 5135700.79 181.28
-9755335.78 5135706.41 186.76
-9755342.47 5135711.93 189.36
-9755338.68 5135709.93 188.57
-9755341.64 5135711.63 189.36
-9755335.92 5135707.86 186.76
-9755335.83 5135706.61 187.70
-9755335.13 5135705.55 186.74
-9755339.59 5135705.42 188.61
-9755338.39 5135705.45 188.60
-9755341.94 5135705.50 188.75
-9755339.59 5135709.00 188.53
-9755342.49 5135707.52 188.75
-9755335.86 5135704.65 187.38
-9755343.69 5135706.68 188.66
-9755337.20 5135709.03 188.56
-9755341.59 5135705.18 188.63
-9755338.40 5135706.35 188.59
-9755339.00 5135703.35 188.64
-9755338.70 5135704.27 188.63
-9755334.58 5135710.73 195.26
-9755342.82 5135699.32 181.26
-9755340.76 5135708.15 188.64
-9755339.86 5135700.49 181.30
-9755337.55 5135702.76 188.66
-9755336.52 5135709.12 186.78
-9755340.41 5135711.33 189.35
-9755343.43 5135703.76 188.61
-9755337.50 5135706.92 188.58
-9755341.04 5135709.05 188.68
-9755339.53 5135710.78 189.33
-9755340.50 5135704.04 188.62
-9755334.66 5135710.02 194.55
-9755338.72 5135705.16 188.60
-9755335.23 5135709.00 188.76
-9755342.24 5135706.67 188.67
-9755341.01 5135710.78 189.33
-9755335.76 5135705.52 186.75
-9755343.96 5135700.50 181.29
-9755338.66 5135704.55 188.62
-9755342.80 5135705.46 188.67
-9755343.05 5135710.77 189.34
-9755335.21 5135710.18 194.59
-9755340.14 5135708.10 188.58
-9755339.60 5135703.34 188.63
-9755338.38 5135699.56 181.25
-9755335.93 5135704.95 186.76
-9755337.81 5135707.51 188.58
-9755340.72 5135710.76 189.34
-9755336.23 5135705.23 186.74
-9755339.56 5135708.10 188.56
-9755336.95 5135706.65 188.59
-9755340.77 5135706.33 188.67
-9755341.91 5135709.62 188.57
-9755333.98 5135711.30 195.28
-9755337.75 5135699.57 181.27
-9755344.65 5135702.52 188.94
-9755337.79 5135707.20 188.57
-9755340.74 5135710.22 189.31
-9755335.72 5135706.31 188.65
-9755341.68 5135704.30 188.62
-9755340.81 5135702.18 188.65
-9755335.49 5135703.41 186.76
-9755336.64 5135708.37 188.56
-9755337.26 5135703.35 188.64
-9755337.81 5135705.19 188.60
-9755343.74 5135700.06 181.60
-9755341.65 5135709.90 189.31
-9755333.41 5135708.21 193.32
-9755333.45 5135707.03 193.34
-9755322.26 5135699.31 183.28
-9755324.29 5135702.79 193.18
-9755321.23 5135698.54 181.25
-9755332.84 5135710.80 194.25
-9755327.79 5135708.41 193.14
-9755329.30 5135708.73 193.15
-9755323.11 5135705.73 186.47
-9755324.00 5135709.58 193.16
-9755321.91 5135706.98 186.47
-9755324.26 5135709.01 193.17
-9755327.57 5135700.73 193.20
-9755330.79 5135708.16 193.16
-9755325.13 5135709.60 193.17
-9755323.07 5135706.62 186.46
-9755331.64 5135710.54 193.17
-9755329.90 5135698.98 193.20
-9755330.83 5135700.75 193.21
-9755329.28 5135709.02 193.16
-9755324.31 5135707.85 193.18
-9755331.36 5135710.53 193.17
-9755322.51 5135699.07 189.39
-9755325.48 5135710.78 193.19
-9755327.21 5135709.93 193.18
-9755333.09 5135709.97 193.32
-9755332.54 5135710.51 193.18
-9755331.93 5135710.27 193.18
-9755330.75 5135704.91 193.17
-9755332.23 5135711.97 194.22
-9755323.12 5135704.23 193.19
-9755322.16 5135703.94 186.49
-9755331.38 5135702.53 193.18
-9755326.69 5135709.64 193.17
-9755322.33 5135699.64 189.40
-9755321.89 5135704.86 186.48
-9755325.21 5135703.10 193.18
-9755327.30 5135701.61 193.20
-9755331.89 5135711.38 194.23
-9755322.72 5135705.52 186.46
-9755331.33 5135711.65 194.23
-9755328.43 5135701.63 193.20
-9755333.12 5135708.76 193.32
-9755330.27 5135698.67 193.19
-9755321.55 5135703.70 186.50
-9755323.40 5135702.51 193.18
-9755323.04 5135709.92 186.49
-9755326.04 5135706.97 193.14
-9755321.93 5135705.70 186.48
-9755322.73 5135705.78 186.46
-9755326.63 5135710.48 193.18
-9755327.01 5135698.35 193.15
-9755329.31 5135703.72 193.16
-9755325.47 5135704.84 193.16
-9755326.67 5135705.48 193.14
-9755332.81 5135711.98 194.21
-9755330.48 5135706.36 193.16
-9755325.49 5135705.75 193.15
-9755327.51 5135708.76 193.15
-9755331.97 5135704.58 193.19
-9755325.47 5135709.88 193.17
-9755327.20 5135708.13 193.14
-9755324.27 5135700.09 181.26
-9755328.72 5135706.65 193.13
-9755322.53 5135699.59 189.46
-9755331.93 5135706.98 193.19
-9755322.76 5135709.16 189.13
-9755323.42 5135703.40 193.18
-9755331.94 5135709.98 193.18
-9755323.13 5135706.30 193.19
-9755321.32 5135705.78 186.48
-9755324.59 5135703.69 193.17
-9755330.48 5135701.34 193.19
-9755323.01 5135703.45 186.48
-9755325.50 5135702.19 193.19
-9755322.55 5135705.39 193.23
-9755327.28 5135704.55 193.16
-9755322.24 5135699.09 184.61
-9755322.20 5135705.75 186.46
-9755331.06 5135703.70 193.17
-9755332.83 5135705.22 193.30
-9755325.15 5135711.41 193.19
-9755332.93 5135710.80 193.31
-9755322.82 5135705.16 193.21
-9755327.54 5135707.84 193.12
-9755322.42 5135699.76 183.15
-9755332.27 5135710.43 194.15
-9755332.83 5135711.06 194.24
-9755330.51 5135703.42 193.18
-9755333.51 5135710.18 194.60
-9755328.40 5135709.01 193.15
-9755325.47 5135704.57 193.16
-9755322.43 5135707.81 186.47
-9755323.07 5135709.26 193.19
-9755322.16 5135706.64 186.48
-9755322.50 5135698.88 189.92
-9755330.79 5135702.52 193.18
-9755328.69 5135707.55 193.12
-9755322.50 5135699.31 184.12
-9755321.95 5135703.68 186.49
-9755328.47 5135703.42 193.16
-9755321.99 5135698.45 190.24
-9755322.71 5135711.62 186.49
-9755329.28 5135705.21 193.15
-9755325.19 5135701.93 193.20
-9755322.79 5135707.52 193.21
-9755322.18 5135704.63 186.48
-9755326.95 5135703.10 193.17
-9755325.52 5135699.83 193.30
-9755322.26 5135699.76 193.34
-9755330.56 5135698.38 193.19
-9755332.00 5135702.57 193.19
-9755321.84 5135699.17 181.26
-9755323.06 5135710.10 189.17
-9755322.66 5135700.09 181.68
-9755332.83 5135711.68 194.51
-9755332.51 5135709.62 193.19
-9755326.06 5135703.68 193.16
-9755327.79 5135710.49 193.19
-9755330.45 5135707.54 193.15
-9755324.17 5135702.18 181.31
-9755328.74 5135702.52 193.18
-9755322.66 5135699.77 181.68
-9755326.60 5135709.03 193.16
-9755322.78 5135703.71 186.48
-9755323.41 5135703.00 181.31
-9755324.58 5135707.78 193.18
-9755323.61 5135701.02 181.29
-9755323.02 5135706.32 186.46
-9755331.99 5135698.69 193.22
-9755321.11 5135703.66 186.49
-9755322.75 5135710.51 186.47
-9755322.73 5135705.19 186.46
-9755328.05 5135711.40 193.19
-9755323.06 5135709.04 186.48
-9755332.82 5135708.13 193.25
-9755324.61 5135702.48 193.18
-9755322.47 5135707.80 193.27
-9755322.62 5135700.94 189.06
-9755330.47 5135705.46 193.16
-9755326.35 5135706.67 193.14
-9755322.97 5135707.59 186.47
-9755325.10 5135708.71 193.16
-9755322.48 5135708.70 193.29
-9755328.45 5135702.18 193.19
-9755324.26 5135710.48 193.18
-9755321.90 5135707.45 193.34
-9755331.63 5135710.79 193.18
-9755323.03 5135698.60 181.25
-9755323.01 5135709.59 186.48
-9755322.78 5135701.20 189.07
-9755323.96 5135708.70 193.18
-9755330.20 5135707.88 193.15
-9755323.39 5135707.23 193.19
-9755332.83 5135710.53 193.21
-9755326.40 5135702.19 193.19
-9755322.70 5135700.27 182.04
-9755326.95 5135707.28 193.13
-9755327.86 5135702.80 193.18
-9755323.05 5135708.13 186.47
-9755323.37 5135704.61 186.50
-9755325.16 5135706.33 193.16
-9755329.28 5135707.84 193.14
-9755330.50 5135699.23 193.26
-9755321.89 5135710.53 193.32
-9755321.91 5135699.48 181.26
-9755321.92 5135703.11 186.49
-9755324.27 5135706.33 193.17
-9755331.99 5135706.10 193.19
-9755331.66 5135703.41 193.19
-9755322.36 5135699.27 188.35
-9755331.67 5135701.98 193.20
-9755322.44 5135708.71 186.48
-9755332.78 5135707.27 193.25
-9755332.55 5135707.56 193.20
-9755322.81 5135704.17 189.09
-9755325.18 5135699.87 193.28
-9755329.34 5135705.79 193.15
-9755332.84 5135704.28 193.30
-9755322.77 5135705.34 189.10
-9755330.77 5135699.27 193.30
-9755322.50 5135706.24 189.11
-9755326.01 5135707.52 193.15
-9755326.37 5135700.73 193.21
-9755323.40 5135709.32 186.49
-9755323.05 5135710.82 186.49
-9755330.20 5135704.90 193.15
-9755321.85 5135708.15 186.47
-9755323.38 5135706.65 193.19
-9755326.70 5135702.19 193.20
-9755322.69 5135699.90 189.43
-9755329.63 5135701.62 193.20
-9755322.75 5135699.10 189.93
-9755330.49 5135705.16 193.16
-9755322.62 5135698.43 190.22
-9755322.83 5135705.08 189.10
-9755326.89 5135711.42 193.19
-9755328.69 5135710.81 193.18
-9755321.59 5135699.74 193.32
-9755330.17 5135711.63 194.23
-9755323.08 5135703.70 186.49
-9755323.03 5135710.49 186.47
-9755322.20 5135709.90 186.47
-9755322.83 5135700.37 189.05
-9755322.21 5135709.02 186.48
-9755326.37 5135707.83 193.14
-9755333.07 5135711.98 193.30
-9755331.11 5135700.49 193.22
-9755326.67 5135703.37 193.17
-9755324.25 5135711.36 193.19
-9755330.44 5135709.66 193.16
-9755325.46 5135706.97 193.15
-9755324.33 5135700.43 193.22
-9755325.53 5135698.92 193.19
-9755323.31 5135701.24 181.30
-9755324.36 5135699.26 193.26
-9755331.62 5135709.63 193.18
-9755322.32 5135698.88 189.20
-9755328.47 5135700.14 193.23
-9755322.85 5135698.84 184.48
-9755322.78 5135700.06 182.04
-9755332.56 5135701.06 193.24
-9755322.44 5135699.69 184.06
-9755329.29 5135709.92 193.17
-9755328.12 5135704.64 193.15
-9755323.90 5135700.12 181.27
-9755322.51 5135699.64 182.11
-9755324.27 5135700.37 181.29
-9755335.41 5135717.06 193.10
-9755335.07 5135718.54 193.05
-9755335.15 5135715.32 193.01
-9755336.04 5135713.41 189.36
-9755335.12 5135718.33 193.08
-9755335.70 5135715.86 193.12
-9755335.32 5135718.46 193.09
-9755336.95 5135716.98 193.35
-9755339.21 5135713.72 189.40
-9755336.67 5135719.74 193.21
-9755337.54 5135717.00 193.26
-9755337.19 5135716.49 193.35
-9755334.27 5135714.06 193.00
-9755333.65 5135717.07 192.96
-9755338.93 5135713.15 189.38
-9755334.24 5135718.83 193.00
-9755336.30 5135712.51 189.35
-9755338.34 5135719.45 193.56
-9755335.18 5135712.14 192.98
-9755343.71 5135711.98 189.37
-9755337.72 5135721.48 193.35
-9755337.75 5135715.21 193.45
-9755340.75 5135712.20 189.37
-9755334.18 5135721.79 192.98
-9755336.62 5135715.64 193.36
-9755337.21 5135715.55 193.51
-9755334.54 5135714.98 193.00
-9755336.01 5135716.21 193.25
-9755338.62 5135722.36 193.41
-9755333.92 5135723.53 193.01
-9755336.85 5135716.41 193.34
-9755335.36 5135717.35 193.10
-9755335.97 5135719.07 193.15
-9755340.16 5135711.67 189.35
-9755338.33 5135719.73 193.52
-9755335.08 5135713.85 193.03
-9755338.65 5135713.69 189.40
-9755336.68 5135717.19 192.99
-9755337.52 5135719.83 193.38
-9755334.85 5135712.90 193.01
-9755334.15 5135719.99 192.98
-9755336.62 5135721.56 193.16
-9755335.10 5135723.33 193.02
-9755335.65 5135712.20 189.33
-9755333.34 5135720.26 192.97
-9755338.65 5135723.52 193.55
-9755334.53 5135718.23 193.00
-9755335.10 5135722.43 192.98
-9755336.24 5135720.70 193.16
-9755338.33 5135723.12 193.53
-9755334.50 5135723.56 193.03
-9755333.63 5135718.25 192.98
-9755338.37 5135721.52 193.43
-9755336.26 5135721.24 193.12
-9755334.21 5135715.85 193.00
-9755336.85 5135717.41 193.34
-9755336.00 5135718.58 193.17
-9755336.62 5135717.64 193.22
-9755338.65 5135722.08 193.53
-9755337.86 5135718.77 193.44
-9755333.67 5135721.78 192.99
-9755335.02 5135711.91 194.78
-9755334.31 5135713.77 193.01
-9755337.53 5135715.34 193.50
-9755335.35 5135721.54 193.00
-9755339.18 5135715.36 189.33
-9755337.37 5135716.09 189.41
-9755334.23 5135718.25 192.99
-9755338.04 5135719.39 193.51
-9755335.42 5135722.96 193.01
-9755334.25 5135713.26 193.00
-9755337.87 5135719.02 193.44
-9755333.62 5135713.19 192.99
-9755336.07 5135716.48 193.24
-9755333.62 5135720.91 192.97
-9755335.76 5135716.47 193.11
-9755338.65 5135723.23 193.55
-9755338.42 5135718.23 193.54
-9755337.80 5135712.84 189.36
-9755335.15 5135717.30 193.09
-9755336.64 5135719.54 193.19
-9755334.18 5135722.63 192.98
-9755334.44 5135723.29 193.02
-9755335.72 5135719.67 193.11
-9755339.78 5135712.80 189.38
-9755335.69 5135720.34 193.05
-9755336.99 5135717.86 193.41
-9755343.70 5135712.54 189.38
-9755336.93 5135714.99 193.50
-9755337.09 5135718.35 193.28
-9755334.16 5135717.67 193.00
-9755335.37 5135723.57 193.04
-9755338.94 5135714.88 189.33
-9755333.67 5135715.28 192.99
-9755339.51 5135713.15 189.39
-9755337.49 5135723.01 193.31
-9755337.20 5135716.12 193.42
-9755338.35 5135722.09 193.43
-9755335.99 5135718.32 193.18
-9755338.66 5135721.42 193.39
-9755334.49 5135722.66 192.98
-9755337.41 5135717.95 193.41
-9755333.37 5135723.55 193.01
-9755335.12 5135719.41 193.04
-9755335.99 5135722.41 193.06
-9755335.37 5135722.67 192.99
-9755335.14 5135720.31 193.02
-9755334.47 5135721.53 192.98
-9755336.30 5135717.41 193.23
-9755337.50 5135722.44 193.32
-9755338.01 5135720.67 193.41
-9755336.60 5135716.98 193.30
-9755335.45 5135721.17 193.02
-9755333.33 5135720.61 192.98
-9755333.37 5135715.26 192.98
-9755336.63 5135718.06 193.08
-9755334.24 5135720.33 192.99
-9755337.49 5135718.63 193.36
-9755337.11 5135722.65 193.25
-9755336.25 5135722.66 193.09
-9755334.26 5135714.41 193.00
-9755333.32 5135722.68 193.00
-9755333.33 5135718.86 192.96
-9755333.40 5135712.36 192.99
-9755320.73 5135717.25 193.90
-9755325.94 5135721.12 192.98
-9755329.78 5135720.29 192.95
-9755333.34 5135721.51 192.98
-9755333.03 5135719.73 192.96
-9755332.14 5135718.82 192.96
-9755328.35 5135716.41 192.94
-9755331.58 5135719.42 192.94
-9755332.77 5135717.64 192.97
-9755332.81 5135712.02 193.00
-9755322.10 5135723.44 193.82
-9755332.49 5135714.09 192.97
-9755326.02 5135719.08 192.97
-9755323.94 5135715.80 192.99
-9755331.27 5135722.63 192.98
-9755331.64 5135713.80 192.97
-9755328.88 5135721.18 192.95
-9755327.74 5135715.23 192.96
-9755332.76 5135721.81 192.97
-9755328.35 5135713.16 192.99
-9755323.04 5135712.12 189.17
-9755322.21 5135711.95 193.32
-9755321.84 5135719.35 193.81
-9755324.49 5135718.49 192.98
-9755320.70 5135714.57 194.52
-9755332.46 5135712.29 192.99
-9755330.35 5135722.41 192.98
-9755332.79 5135718.79 192.96
-9755325.41 5135714.33 192.99
-9755325.12 5135717.91 192.97
-9755330.10 5135719.66 192.94
-9755333.18 5135711.73 193.31
-9755324.81 5135713.66 194.22
-9755330.39 5135720.30 192.94
-9755322.21 5135716.41 193.84
-9755326.89 5135715.87 192.95
-9755325.71 5135716.14 192.96
-9755323.92 5135714.91 193.00
-9755323.90 5135718.17 193.00
-9755331.91 5135720.62 192.95
-9755329.22 5135717.67 192.91
-9755329.79 5135721.18 192.97
-9755331.85 5135720.34 192.94
-9755323.28 5135722.23 194.54
-9755329.23 5135712.21 194.23
-9755322.18 5135715.74 193.84
-9755323.51 5135718.68 194.09
-9755333.36 5135714.08 192.98
-9755332.22 5135719.74 192.96
-9755323.35 5135712.29 193.22
-9755325.42 5135714.10 192.98
-9755330.94 5135722.34 192.98
-9755330.97 5135723.56 193.00
-9755321.84 5135723.16 193.82
-9755333.31 5135723.27 193.01
-9755327.17 5135721.49 192.95
-9755326.56 5135719.42 192.96
-9755332.45 5135721.19 192.97
-9755328.03 5135717.04 192.93
-9755323.04 5135720.18 194.56
-9755320.92 5135712.99 195.19
-9755326.88 5135718.79 192.95
-9755329.80 5135719.44 192.94
-9755332.61 5135712.10 193.21
-9755326.87 5135717.88 192.94
-9755324.49 5135721.44 193.00
-9755324.46 5135717.60 192.98
-9755331.62 5135712.92 192.99
-9755329.86 5135712.42 193.30
-9755323.85 5135722.85 194.55
-9755323.90 5135716.13 192.99
-9755328.64 5135721.44 192.96
-9755321.28 5135713.30 195.24
-9755322.15 5135716.30 194.55
-9755330.14 5135716.46 192.92
-9755326.29 5135718.50 192.96
-9755322.77 5135720.22 193.80
-9755323.03 5135718.46 194.55
-9755327.99 5135722.38 192.98
-9755323.04 5135722.87 193.83
-9755332.17 5135722.35 192.99
-9755331.32 5135717.35 192.94
-9755327.10 5135722.93 192.98
-9755327.50 5135714.04 192.98
-9755331.28 5135721.78 192.96
-9755330.44 5135718.50 192.92
-9755325.41 5135713.13 194.23
-9755324.50 5135722.34 193.01
-9755327.41 5135712.99 193.48
-9755327.47 5135716.45 192.95
-9755330.71 5135719.41 192.93
-9755320.96 5135721.98 193.92
-9755331.87 5135718.82 192.95
-9755332.16 5135717.64 192.96
-9755324.78 5135719.66 192.98
-9755330.41 5135721.20 192.96
-9755331.85 5135721.83 192.97
-9755325.45 5135712.77 194.23
-9755323.94 5135717.29 192.99
-9755328.09 5135716.40 192.94
-9755332.15 5135721.79 192.98
-9755332.46 5135715.28 192.96
-9755323.09 5135714.68 193.00
-9755320.93 5135722.30 193.86
-9755332.75 5135720.90 192.97
-9755322.77 5135718.08 193.80
-9755331.93 5135712.36 192.99
-9755329.21 5135721.74 192.97
-9755321.91 5135712.81 194.25
-9755331.25 5135721.48 192.97
-9755326.31 5135714.33 192.99
-9755333.32 5135719.46 192.96
-9755333.35 5135717.34 192.97
-9755329.23 5135713.75 192.98
-9755329.21 5135719.08 192.92
-9755329.25 5135720.59 192.95
-9755326.54 5135721.47 192.96
-9755325.12 5135713.23 193.21
-9755322.83 5135716.82 194.07
-9755327.17 5135716.43 192.95
-9755325.70 5135717.01 192.95
-9755325.96 5135718.22 192.96
-9755324.80 5135721.47 192.99
-9755324.49 5135719.39 192.99
-9755332.76 5135720.31 192.95
-9755323.66 5135717.92 193.00
-9755323.37 5135711.97 193.22
-9755322.16 5135718.16 193.81
-9755328.93 5135723.57 192.99
-9755325.10 5135712.27 193.21
-9755330.10 5135721.79 192.97
-9755327.18 5135712.23 194.24
-9755322.77 5135712.73 195.22
-9755328.35 5135715.81 192.95
-9755333.20 5135712.32 193.63
-9755332.47 5135713.19 192.98
-9755329.52 5135723.24 193.00
-9755325.05 5135720.86 192.99
-9755330.43 5135715.29 192.94
-9755326.89 5135719.09 192.95
-9755325.49 5135713.65 194.22
-9755323.06 5135718.95 194.54
-9755332.46 5135723.57 193.01
-9755324.55 5135711.96 193.20
-9755322.19 5135713.94 195.32
-9755332.48 5135715.59 192.97
-9755328.03 5135719.71 192.94
-9755331.30 5135720.27 192.95
-9755321.27 5135721.97 193.91
-9755332.50 5135713.82 192.98
-9755326.62 5135716.98 192.94
-9755327.49 5135713.15 192.99
-9755328.04 5135718.81 192.94
-9755325.10 5135715.79 192.97
-9755331.83 5135723.25 192.99
-9755322.11 5135721.99 193.80
-9755326.26 5135717.61 192.95
-9755330.42 5135717.37 192.93
-9755331.00 5135720.87 192.96
-9755325.09 5135718.21 192.97
-9755323.31 5135718.64 193.95
-9755322.78 5135721.12 193.80
-9755321.36 5135713.62 195.26
-9755330.14 5135714.39 192.97
-9755333.37 5135713.47 192.99
-9755329.21 5135722.64 192.99
-9755332.14 5135723.54 193.01
-9755326.25 5135716.70 192.95
-9755332.45 5135722.67 193.00
-9755324.16 5135721.15 193.01
-9755332.44 5135720.29 192.94
-9755321.24 5135719.03 193.83
-9755323.59 5135721.01 194.55
-9755331.31 5135716.20 192.94
-9755320.97 5135720.18 193.93
-9755328.61 5135719.40 192.93
-9755333.04 5135717.05 192.97
-9755329.27 5135719.36 192.92
-9755331.26 5135719.97 192.94
-9755326.30 5135715.83 192.96
-9755332.19 5135719.44 192.95
-9755328.30 5135722.64 192.98
-9755330.40 5135714.40 192.96
-9755321.32 5135715.79 193.85
-9755332.78 5135714.98 192.97
-9755321.84 5135722.29 193.80
-9755329.52 5135719.12 192.93
-9755323.06 5135721.08 194.55
-9755321.27 5135714.58 194.56
-9755344.89 5135696.64 181.18
-9755344.87 5135694.92 181.15
-9755336.91 5135698.11 181.24
-9755344.31 5135697.28 181.19
-9755341.00 5135694.28 184.11
-9755336.91 5135694.88 181.17
-9755341.09 5135695.64 184.11
-9755341.08 5135694.43 185.47
-9755341.06 5135697.86 181.22
-9755338.37 5135696.32 181.19
-9755340.68 5135694.87 181.19
-9755338.38 5135698.14 181.23
-9755337.20 5135696.61 181.19
-9755340.12 5135696.31 181.18
-9755340.82 5135694.45 185.03
-9755336.93 5135695.17 181.18
-9755340.16 5135695.19 181.18
-9755341.71 5135695.34 185.15
-9755341.61 5135696.16 184.40
-9755342.32 5135695.44 183.97
-9755341.63 5135694.66 185.69
-9755341.05 5135696.96 181.19
-9755343.98 5135697.58 181.20
-9755337.53 5135694.25 181.16
-9755341.89 5135697.86 181.22
-9755337.79 5135697.54 181.22
-9755339.57 5135698.10 181.23
-9755341.22 5135695.05 183.94
-9755342.83 5135696.05 181.16
-9755338.70 5135695.74 181.18
-9755343.72 5135695.51 181.17
-9755342.01 5135695.96 184.02
-9755333.50 5135697.24 193.35
-9755321.91 5135698.12 190.24
-9755322.16 5135696.60 181.19
-9755331.72 5135696.33 193.17
-9755326.10 5135697.48 193.16
-9755321.70 5135694.78 193.34
-9755328.76 5135696.31 193.18
-9755321.97 5135697.16 193.33
-9755321.58 5135698.06 181.25
-9755321.27 5135696.83 181.21
-9755321.02 5135695.67 181.18
-9755323.15 5135695.10 193.19
-9755322.44 5135697.39 181.21
-9755323.15 5135697.13 193.20
-9755321.76 5135694.15 193.33
-9755321.82 5135697.40 181.22
-9755322.54 5135695.56 190.21
-9755328.74 5135697.44 193.15
-9755323.68 5135694.42 181.16
-9755321.52 5135697.43 193.34
-9755325.21 5135695.12 193.19
-9755322.02 5135696.44 190.20
-9755326.40 5135697.44 193.17
-9755331.12 5135696.04 193.17
-9755325.20 5135695.99 193.18
-9755325.51 5135695.09 193.19
-9755323.92 5135695.13 181.17
-9755323.61 5135696.24 181.19
-9755327.63 5135696.29 193.18
-9755323.51 5135694.51 193.21
-9755323.41 5135697.14 181.21
-9755322.79 5135694.46 190.21
-9755321.67 5135695.89 193.34
-9755322.49 5135694.77 181.17
-9755330.54 5135697.19 193.16
-9755329.65 5135697.77 193.16
-9755322.56 5135697.33 190.20
-9755324.04 5135694.18 193.21
-9755322.17 5135695.01 181.18
-9755323.92 5135697.18 181.21
-9755328.77 5135695.43 193.19
-9755327.62 5135695.08 193.20
-9755325.55 5135694.50 193.20
-9755321.01 5135697.15 181.22
-9755321.97 5135697.55 190.22
-9755327.61 5135694.48 193.20
-9755325.52 5135695.98 193.18
-9755322.50 5135696.67 190.22
-9755325.56 5135697.78 193.16
-9755332.02 5135696.00 193.19
-9755328.51 5135694.52 193.20
-9755324.65 5135694.22 193.20
-9755323.45 5135694.20 193.21
-9755331.40 5135695.11 193.19
-9755326.43 5135695.09 193.19
-9755324.23 5135697.17 181.21
-9755323.47 5135695.09 193.19
-9755329.33 5135696.90 193.17
-9755331.44 5135697.19 193.19
-9755332.92 5135697.79 193.34
-9755328.48 5135696.32 193.18
-9755321.74 5135697.30 190.23
-9755320.99 5135698.66 181.24
-9755320.19 5135711.27 194.56
-9755320.16 5135710.37 194.56
-9755318.89 5135707.09 193.98
-9755318.96 5135705.01 194.55
-9755318.72 5135704.74 194.55
-9755320.14 5135711.51 194.06
-9755319.29 5135707.11 194.57
-9755319.57 5135698.85 181.23
-9755318.40 5135708.32 193.98
-9755319.31 5135709.87 193.98
-9755318.06 5135707.74 193.98
-9755318.12 5135703.91 194.55
-9755318.15 5135702.11 193.99
-9755318.14 5135703.29 194.02
-9755319.31 5135708.00 194.55
-9755319.25 5135705.68 194.54
-9755318.10 5135703.02 194.55
-9755318.97 5135711.58 193.99
-9755319.58 5135708.26 194.56
-9755318.42 5135703.34 194.12
-9755317.85 5135702.96 194.00
-9755318.70 5135706.86 193.98
-9755320.10 5135718.67 193.95
-9755320.37 5135714.86 193.89
-9755320.17 5135712.78 194.56
-9755320.32 5135720.20 193.93
-9755320.09 5135721.09 193.91
-9755320.11 5135713.99 194.01
-9755320.05 5135718.10 193.96
-9755319.19 5135723.73 193.80
-9755319.80 5135713.06 193.99
-9755319.85 5135714.85 193.90
-9755320.11 5135715.75 193.91
-9755319.88 5135712.80 193.98
-9755318.97 5135713.07 194.00
-9755318.65 5135711.91 193.99
-9755319.25 5135714.85 193.91
-9755318.62 5135713.66 193.99
-9755319.19 5135714.59 194.08
-9755319.53 5135720.18 193.90
-9755318.90 5135719.01 193.93
-9755318.67 5135717.82 193.98
-9755319.51 5135718.73 193.94
-9755318.57 5135720.76 193.92
-9755318.08 5135714.55 193.99
-9755318.89 5135720.19 193.93
-9755317.96 5135722.59 193.88
-9755317.70 5135720.75 193.93
-9755320.12 5135714.62 193.91
-9755318.96 5135713.71 193.99
-9755317.77 5135713.05 193.97
-9755318.90 5135721.05 193.92
-9755319.22 5135721.07 193.91
-9755318.85 5135718.41 193.97
-9755318.64 5135697.98 181.23
-9755317.77 5135713.96 193.98
-9755317.79 5135709.47 194.06
-9755317.84 5135701.21 194.00
-9755317.85 5135702.11 193.98
-9755317.81 5135704.51 193.97
-9755308.60 5135698.22 181.22
-9755313.12 5135700.95 194.06
-9755317.77 5135707.74 193.98
-9755308.07 5135707.40 193.91
-9755317.75 5135712.16 193.97
-9755308.93 5135708.25 193.90
-9755317.77 5135708.64 194.01
-9755315.17 5135703.25 193.94
-9755308.30 5135699.38 181.24
-9755308.67 5135708.58 193.90
-9755309.81 5135708.92 193.89
-9755316.94 5135707.17 193.96
-9755313.98 5135700.97 193.97
-9755311.05 5135703.22 194.03
-9755307.51 5135707.35 193.91
-9755307.80 5135711.25 194.01
-9755316.09 5135706.00 193.95
-9755312.23 5135701.22 193.97
-9755315.71 5135707.10 193.94
-9755317.25 5135703.31 193.97
-9755310.76 5135702.07 193.95
-9755313.71 5135708.32 193.92
-9755310.10 5135710.65 194.01
-9755311.65 5135702.96 194.05
-9755310.69 5135711.26 194.04
-9755316.95 5135707.76 193.97
-9755311.31 5135709.18 193.99
-9755316.93 5135701.80 193.98
-9755308.10 5135707.70 193.91
-9755309.57 5135705.33 193.90
-9755314.26 5135704.13 193.97
-9755309.60 5135701.77 193.95
-9755311.33 5135701.20 193.98
-9755316.62 5135710.64 194.07
-9755311.06 5135703.87 194.03
-9755315.13 5135706.55 193.93
-9755313.99 5135705.32 193.91
-9755309.91 5135705.10 193.90
-9755308.34 5135698.27 181.22
-9755317.22 5135708.31 194.08
-9755311.65 5135702.10 193.95
-9755317.30 5135701.82 193.98
-9755312.20 5135707.42 193.89
-9755314.85 5135707.14 193.93
-9755308.65 5135711.26 194.01
-9755308.72 5135702.08 193.94
-9755315.69 5135708.02 193.95
-9755307.78 5135708.85 193.91
-9755313.38 5135702.41 193.99
-9755313.67 5135711.24 194.04
-9755312.22 5135708.31 193.89
-9755315.72 5135704.19 193.95
-9755317.76 5135698.85 181.25
-9755316.04 5135703.62 193.95
-9755314.89 5135701.51 193.94
-9755312.51 5135698.28 181.23
-9755312.46 5135711.24 194.02
-9755311.91 5135709.78 194.01
-9755316.03 5135709.44 194.05
-9755314.86 5135710.40 194.04
-9755308.33 5135711.23 194.00
-9755313.42 5135703.27 194.05
-9755312.82 5135703.87 194.01
-9755310.76 5135703.88 194.01
-9755310.43 5135701.80 193.95
-9755315.70 5135711.25 194.07
-9755310.74 5135702.98 194.04
-9755313.97 5135708.00 193.92
-9755307.50 5135702.38 193.94
-9755313.68 5135701.19 193.94
-9755308.12 5135701.77 193.92
-9755314.49 5135698.87 181.24
-9755314.54 5135700.92 194.15
-9755311.58 5135710.64 194.01
-9755315.73 5135703.94 193.95
-9755311.61 5135711.23 194.01
-9755315.44 5135700.38 193.86
-9755317.23 5135702.41 193.98
-9755308.66 5135704.15 194.03
-9755307.80 5135703.80 194.05
-9755307.84 5135702.96 194.01
-9755313.11 5135707.39 193.90
-9755317.79 5135698.61 181.25
-9755310.05 5135699.15 181.24
-9755311.95 5135705.08 193.89
-9755309.57 5135710.33 194.00
-9755315.99 5135710.41 194.05
-9755311.35 5135703.88 194.04
-9755315.21 5135702.99 193.94
-9755316.06 5135708.34 194.00
-9755315.48 5135704.75 193.94
-9755309.84 5135705.63 193.89
-9755311.51 5135698.54 181.24
-9755311.28 5135707.72 193.86
-9755315.15 5135707.14 193.94
-9755309.78 5135707.71 193.88
-9755316.04 5135706.53 193.94
-9755315.44 5135701.81 193.95
-9755312.80 5135706.24 193.90
-9755312.24 5135705.03 193.91
-9755311.91 5135706.21 193.88
-9755316.96 5135701.04 194.05
-9755308.96 5135702.98 194.03
-9755315.16 5135705.38 193.94
-9755309.87 5135706.22 193.88
-9755309.53 5135705.03 193.91
-9755311.87 5135711.55 194.02
-9755308.64 5135710.36 194.01
-9755314.85 5135708.89 194.05
-9755313.32 5135710.68 194.01
-9755314.83 5135706.24 193.93
-9755313.09 5135705.34 193.89
-9755308.97 5135701.06 194.12
-9755313.10 5135706.24 193.90
-9755311.91 5135707.11 193.89
-9755316.10 5135701.22 193.97
-9755313.42 5135707.43 193.91
-9755307.79 5135704.08 194.04
-9755312.46 5135709.48 194.02
-9755317.48 5135709.85 194.08
-9755317.25 5135708.90 194.08
-9755313.65 5135709.77 194.04
-9755307.79 5135706.19 193.92
-9755314.34 5135700.95 194.01
-9755312.39 5135723.72 193.89
-9755313.87 5135723.70 193.79
-9755317.73 5135716.96 193.98
-9755307.39 5135723.67 193.91
-9755314.47 5135723.69 193.80
-9755317.79 5135713.65 193.97
-9755309.44 5135723.66 193.94
-9755310.65 5135718.12 193.98
-9755308.61 5135712.14 194.03
-9755311.30 5135716.86 193.90
-9755315.32 5135723.74 193.77
-9755311.88 5135713.07 193.94
-9755317.72 5135718.75 193.94
-9755315.10 5135713.04 193.93
-9755312.40 5135719.56 193.97
-9755308.29 5135718.92 193.99
-9755317.16 5135717.51 193.98
-9755316.84 5135721.96 193.91
-9755316.55 5135722.24 193.90
-9755308.63 5135713.28 194.03
-9755315.68 5135715.69 194.06
-9755309.48 5135714.49 193.94
-9755310.42 5135719.50 193.98
-9755315.36 5135715.36 193.97
-9755312.70 5135723.70 193.91
-9755313.92 5135717.21 193.94
-9755308.94 5135715.37 193.94
-9755312.48 5135712.15 194.01
-9755312.44 5135712.99 193.94
-9755317.14 5135715.77 193.88
-9755317.18 5135718.39 193.94
-9755312.71 5135720.43 193.94
-9755312.70 5135722.19 193.94
-9755307.98 5135719.84 193.96
-9755315.70 5135712.18 193.92
-9755317.10 5135723.14 193.79
-9755308.62 5135713.02 194.02
-9755315.96 5135716.31 193.89
-9755315.38 5135719.85 193.96
-9755315.42 5135712.48 193.92
-9755316.89 5135715.47 193.89
-9755312.70 5135714.54 193.94
-9755312.07 5135721.95 193.94
-9755310.37 5135716.31 193.99
-9755310.65 5135719.53 193.96
-9755313.30 5135722.23 193.91
-9755307.37 5135719.51 193.98
-9755314.17 5135721.33 193.94
-9755310.75 5135712.12 194.06
-9755315.97 5135713.95 193.94
-9755313.32 5135723.12 193.91
-9755310.68 5135714.82 193.96
-9755308.58 5135714.52 193.93
-9755317.14 5135716.60 193.95
-9755307.45 5135713.04 194.05
-9755310.63 5135718.64 193.98
-9755310.39 5135716.89 193.89
-9755315.93 5135720.42 193.93
-9755312.79 5135713.04 193.92
-9755309.80 5135721.01 193.95
-9755310.74 5135711.53 194.04
-9755307.68 5135721.31 193.96
-9755311.29 5135714.52 193.96
-9755314.20 5135713.06 193.91
-9755315.98 5135717.87 193.96
-9755309.84 5135713.34 194.03
-9755311.83 5135719.52 193.98
-9755314.79 5135722.21 193.91
-9755309.77 5135722.18 193.95
-9755313.55 5135721.62 193.94
-9755312.16 5135716.88 193.90
-9755316.52 5135723.69 193.77
-9755315.72 5135718.10 193.96
-9755312.41 5135717.79 193.98
-9755314.78 5135716.62 193.88
-9755316.83 5135718.13 193.98
-9755314.50 5135715.77 193.91
-9755308.30 5135719.83 193.98
-9755314.54 5135712.77 193.94
-9755308.31 5135715.41 193.93
-9755307.35 5135720.97 193.97
-9755307.12 5135722.78 193.93
-9755315.64 5135723.42 193.80
-9755313.60 5135713.92 193.91
-9755308.01 5135717.08 194.12
-9755307.46 5135715.40 193.92
-9755315.64 5135721.70 193.92
-9755307.42 5135717.48 193.89
-9755315.63 5135722.26 193.91
