-9755268.23 5135716.38 198.48
-9755268.18 5135705.62 181.55
-9755267.17 5135716.38 199.15
-9755266.13 5135716.47 195.93
-9755268.01 5135706.59 198.12
-9755266.87 5135704.15 199.76
-9755267.04 5135713.84 198.73
-9755266.61 5135715.40 198.32
-9755267.56 5135708.08 181.61
-9755266.99 5135712.24 195.44
-9755267.79 5135709.22 181.45
-9755267.81 5135704.96 191.11
-9755267.91 5135707.32 197.20
-9755268.28 5135711.07 193.88
-9755266.23 5135714.13 199.39
-9755266.26 5135711.96 199.13
-9755266.23 5135714.51 198.90
-9755268.57 5135710.74 196.00
-9755267.45 5135710.52 197.24
-9755266.38 5135713.12 181.33
-9755266.74 5135712.49 194.96
-9755267.18 5135716.80 196.12
-9755267.70 5135706.75 197.13
-9755267.52 5135716.03 181.43
-9755266.74 5135708.98 181.36
-9755267.33 5135711.27 196.50
-9755267.44 5135707.01 197.26
-9755266.91 5135711.60 181.32
-9755267.52 5135715.97 195.18
-9755267.38 5135716.45 199.61
-9755267.11 5135707.28 197.36
-9755266.20 5135716.56 196.32
-9755267.04 5135716.95 198.15
-9755267.38 5135705.79 195.67
-9755266.31 5135706.17 195.04
-9755267.79 5135714.61 181.39
-9755267.43 5135704.64 191.50
-9755266.20 5135716.31 196.06
-9755266.83 5135713.63 199.76
-9755268.16 5135710.70 194.69
-9755266.32 5135708.99 181.25
-9755267.48 5135706.70 197.16
-9755266.64 5135716.02 181.40
-9755266.80 5135711.09 198.73
-9755267.54 5135711.30 181.29
-9755267.83 5135717.23 181.46
-9755268.12 5135715.74 181.43
-9755267.12 5135706.63 198.58
-9755268.35 5135714.88 198.28
-9755268.60 5135705.81 183.64
-9755267.59 5135710.73 181.29
-9755267.55 5135712.48 181.34
-9755268.07 5135712.71 193.16
-9755266.49 5135708.12 197.49
-9755266.11 5135705.92 181.22
-9755267.11 5135709.95 198.22
-9755268.50 5135710.84 193.98
-9755267.02 5135704.52 181.38
-9755266.19 5135712.84 199.50
-9755268.54 5135706.22 183.47
-9755267.43 5135715.76 196.70
-9755268.45 5135714.81 193.48
-9755267.78 5135710.43 181.29
-9755267.04 5135709.52 181.40
-9755268.72 5135704.81 181.56
-9755267.73 5135716.26 196.18
-9755266.45 5135706.51 195.08
-9755266.37 5135712.78 181.32
-9755266.72 5135712.46 195.41
-9755266.49 5135707.87 197.47
-9755267.39 5135704.90 191.31
-9755266.65 5135713.70 181.31
-9755267.96 5135704.57 191.16
-9755255.93 5135705.60 194.77
-9755259.99 5135712.45 198.46
-9755258.90 5135705.84 194.13
-9755262.13 5135715.33 199.63
-9755263.67 5135704.25 199.21
-9755254.65 5135704.56 192.78
-9755257.11 5135705.46 199.69
-9755263.05 5135707.30 197.54
-9755258.09 5135704.18 198.33
-9755265.04 5135713.33 199.68
-9755256.79 5135707.11 194.63
-9755261.73 5135704.22 181.13
-9755257.11 5135704.25 195.56
-9755257.47 5135704.74 198.91
-9755257.17 5135711.56 181.29
-9755254.27 5135707.36 181.25
-9755263.78 5135707.48 181.21
-9755260.07 5135709.12 193.31
-9755261.99 5135705.21 198.06
-9755260.96 5135708.25 194.58
-9755264.49 5135709.52 197.49
-9755260.32 5135708.74 194.40
-9755253.41 5135704.73 181.17
-9755261.28 5135705.91 196.38
-9755265.33 5135706.35 198.34
-9755261.93 5135709.33 196.34
-9755262.24 5135712.16 181.27
-9755260.18 5135713.60 181.30
-9755261.28 5135712.86 196.25
-9755260.07 5135705.38 194.79
-9755262.36 5135711.39 199.52
-9755261.57 5135707.32 195.11
-9755260.20 5135711.00 198.60
-9755259.75 5135710.73 199.27
-9755261.30 5135708.25 195.23
-9755259.33 5135705.95 181.19
-9755260.91 5135711.97 198.74
-9755263.21 5135707.27 197.19
-9755261.22 5135715.29 199.35
-9755255.02 5135704.66 192.99
-9755256.26 5135704.70 194.33
-9755264.36 5135705.38 181.16
-9755258.43 5135709.24 181.27
-9755263.25 5135708.31 199.38
-9755264.15 5135715.21 197.28
-9755261.32 5135704.87 198.30
-9755264.21 5135703.98 197.71
-9755261.84 5135712.19 196.16
-9755262.97 5135706.64 197.37
-9755261.24 5135706.73 196.03
-9755258.03 5135706.16 194.00
-9755255.98 5135705.97 194.23
-9755257.74 5135705.07 198.82
-9755262.19 5135710.27 196.17
-9755265.27 5135715.76 199.77
-9755257.83 5135704.74 181.17
-9755257.60 5135704.14 195.53
-9755255.87 5135704.59 193.97
-9755263.38 5135714.54 199.72
-9755264.93 5135713.16 198.83
-9755261.72 5135710.18 199.73
-9755258.69 5135716.61 181.34
-9755265.01 5135716.68 199.25
-9755262.15 5135709.55 199.80
-9755262.67 5135706.56 199.09
-9755266.13 5135706.81 181.19
-9755266.25 5135706.54 195.01
-9755265.50 5135712.36 194.85
-9755264.09 5135712.29 197.85
-9755262.39 5135715.39 199.71
-9755259.14 5135710.77 198.89
-9755261.95 5135709.21 181.26
-9755257.13 5135703.98 197.50
-9755255.50 5135708.88 181.24
-9755266.24 5135705.82 197.98
-9755259.13 5135705.00 195.02
-9755258.51 5135705.92 193.26
-9755259.64 5135711.91 194.21
-9755265.80 5135711.72 191.47
-9755265.03 5135706.42 198.27
-9755255.76 5135704.79 193.24
-9755263.57 5135706.90 198.55
-9755258.72 5135705.65 181.15
-9755259.22 5135711.61 194.40
-9755262.52 5135706.68 198.18
-9755263.58 5135709.84 199.69
-9755254.77 5135705.53 193.02
-9755259.25 5135711.40 199.67
-9755264.32 5135714.87 181.34
-9755258.72 5135706.54 181.18
-9755262.96 5135715.39 199.61
-9755260.85 5135710.02 194.68
-9755262.75 5135715.38 196.94
-9755263.45 5135709.19 181.26
-9755253.07 5135707.38 181.24
-9755261.05 5135711.68 194.45
-9755265.95 5135708.38 197.57
-9755263.02 5135707.19 199.78
-9755255.90 5135706.22 194.05
-9755260.89 5135710.37 194.43
-9755256.66 5135705.65 181.19
-9755261.67 5135707.43 181.19
-9755261.67 5135708.34 181.25
-9755263.88 5135705.82 197.86
-9755262.04 5135707.74 181.21
-9755265.01 5135716.92 195.51
-9755263.42 5135704.18 199.15
-9755257.81 5135708.30 181.26
-9755263.67 5135713.96 181.31
-9755264.47 5135704.00 198.86
-9755264.55 5135704.53 198.89
-9755259.39 5135712.72 194.35
-9755253.65 5135715.09 181.32
-9755259.90 5135712.02 197.66
-9755257.86 5135709.80 181.28
-9755262.93 5135710.63 192.58
-9755260.99 5135714.00 181.29
-9755262.98 5135711.22 199.67
-9755261.59 5135717.19 181.33
-9755255.50 5135705.66 181.20
-9755264.51 5135704.86 198.08
-9755261.78 5135710.10 195.64
-9755262.94 5135716.16 197.01
-9755263.75 5135705.40 181.16
-9755260.79 5135704.16 181.15
-9755257.08 5135703.97 196.97
-9755260.73 5135708.18 195.29
-9755258.69 5135715.98 181.34
-9755259.92 5135714.52 181.30
-9755260.83 5135707.71 195.56
-9755264.47 5135711.91 199.26
-9755266.09 5135705.77 198.34
-9755261.26 5135707.36 194.68
-9755262.97 5135709.57 197.46
-9755261.98 5135709.13 196.29
-9755263.09 5135714.78 197.41
-9755262.95 5135712.59 197.93
-9755262.94 5135711.77 196.97
-9755262.54 5135713.94 181.30
-9755264.48 5135708.74 197.50
-9755256.97 5135707.10 181.23
-9755260.24 5135705.97 192.71
-9755264.23 5135716.07 199.69
-9755265.37 5135712.74 194.81
-9755260.30 5135711.39 198.14
-9755261.85 5135708.67 197.07
-9755260.74 5135708.93 181.26
-9755265.95 5135705.72 198.10
-9755259.70 5135710.39 193.82
-9755261.17 5135710.77 198.95
-9755256.70 5135706.51 181.20
-9755263.44 5135715.53 196.45
-9755256.92 5135712.77 181.32
-9755258.14 5135711.27 181.27
-9755263.70 5135706.56 197.71
-9755261.27 5135706.18 196.35
-9755261.06 5135707.38 194.25
-9755258.80 5135706.14 193.33
-9755262.78 5135706.55 181.20
-9755260.83 5135707.14 181.21
-9755263.28 5135711.59 199.62
-9755258.15 5135708.90 181.26
-9755261.68 5135707.53 194.42
-9755265.86 5135713.84 199.18
-9755263.39 5135707.18 181.23
-9755255.13 5135712.71 181.30
-9755260.34 5135704.61 196.11
-9755255.01 5135705.31 194.19
-9755260.88 5135707.35 195.54
-9755258.20 5135704.65 195.59
-9755263.38 5135712.18 181.28
-9755264.28 5135716.01 181.35
-9755261.45 5135709.03 195.06
-9755265.60 5135715.20 199.61
-9755256.50 5135705.27 194.34
-9755264.92 5135708.30 181.24
-9755258.39 5135710.38 181.29
-9755259.52 5135705.39 194.25
-9755256.87 5135704.41 195.54
-9755262.11 5135707.79 196.28
-9755256.42 5135705.91 193.55
-9755264.51 5135714.57 199.69
-9755262.88 5135715.18 198.69
-9755261.32 5135710.88 195.69
-9755264.86 5135712.14 198.27
-9755263.22 5135713.96 199.12
-9755255.21 5135704.15 181.17
-9755255.03 5135704.06 193.84
-9755257.82 5135707.43 181.25
-9755261.78 5135709.23 195.08
-9755264.00 5135706.52 181.19
-9755266.11 5135714.29 181.33
-9755262.25 5135709.79 181.26
-9755259.32 5135708.89 181.27
-9755256.66 5135710.38 181.27
-9755264.93 5135708.03 181.24
-9755264.67 5135706.29 181.18
-9755254.93 5135705.60 181.19
-9755260.37 5135710.43 193.52
-9755261.70 5135708.29 195.23
-9755260.96 5135710.55 199.04
-9755261.25 5135705.47 198.30
-9755258.43 5135706.87 181.20
-9755261.63 5135705.49 197.15
-9755260.01 5135705.26 194.44
-9755254.60 5135711.28 181.26
-9755263.10 5135715.42 181.32
-9755257.55 5135706.55 181.21
-9755255.53 5135705.68 192.91
-9755265.53 5135712.10 194.72
-9755265.68 5135704.25 199.28
-9755259.55 5135716.03 181.32
-9755262.70 5135708.63 199.71
-9755255.15 5135714.51 181.34
-9755260.93 5135707.21 194.63
-9755259.35 5135709.21 181.26
-9755265.22 5135707.49 181.21
-9755264.15 5135706.70 198.86
-9755262.46 5135710.42 199.69
-9755265.27 5135704.45 181.13
-9755265.77 5135712.77 181.32
-9755264.33 5135712.78 181.29
-9755265.33 5135713.59 199.65
-9755255.60 5135704.39 194.21
-9755262.01 5135707.15 196.74
-9755264.50 5135706.29 198.24
-9755262.47 5135715.75 199.23
-9755261.52 5135711.02 199.00
-9755264.08 5135708.15 195.01
-9755256.03 5135704.05 195.01
-9755259.59 5135714.88 181.31
-9755253.71 5135707.66 181.25
-9755256.62 5135716.88 181.37
-9755260.49 5135706.06 192.48
-9755261.10 5135709.58 198.09
-9755264.67 5135709.98 197.42
-9755260.95 5135704.03 196.33
-9755262.58 5135714.13 198.28
-9755253.67 5135715.99 181.35
-9755259.51 5135704.43 195.41
-9755261.21 5135709.02 197.69
-9755263.93 5135714.56 181.33
-9755253.71 5135710.05 181.25
-9755261.97 5135709.40 195.91
-9755255.93 5135704.12 193.45
-9755263.00 5135709.57 198.74
-9755260.76 5135709.82 181.26
-9755254.98 5135705.51 192.66
-9755258.05 5135704.57 198.07
-9755262.66 5135706.55 196.75
-9755259.88 5135706.51 181.20
-9755262.73 5135715.74 197.30
-9755263.37 5135707.45 194.72
-9755262.47 5135706.92 197.18
-9755257.54 5135704.73 181.17
-9755262.41 5135709.00 199.14
-9755264.29 5135704.79 181.15
-9755255.13 5135716.84 181.37
-9755263.08 5135705.74 181.16
-9755257.53 5135713.03 181.30
-9755265.86 5135713.61 194.84
-9755264.88 5135704.00 198.88
-9755263.12 5135716.34 181.32
-9755259.84 5135713.67 197.90
-9755265.78 5135717.10 195.93
-9755254.28 5135704.14 181.16
-9755261.26 5135707.29 195.72
-9755252.78 5135713.89 181.33
-9755259.26 5135715.40 181.32
-9755265.69 5135706.56 194.54
-9755262.19 5135709.60 198.63
-9755265.88 5135715.19 199.24
-9755260.18 5135711.60 198.49
-9755259.56 5135711.71 199.34
-9755261.45 5135708.49 197.31
-9755261.24 5135709.50 196.07
-9755259.76 5135712.02 198.30
-9755263.41 5135711.28 199.57
-9755262.63 5135712.18 198.61
-9755255.72 5135713.06 181.31
-9755261.71 5135707.08 195.32
-9755265.88 5135712.79 194.88
-9755261.01 5135710.46 194.79
-9755257.85 5135705.37 181.18
-9755264.45 5135706.30 199.16
-9755264.44 5135714.04 198.15
-9755260.92 5135705.79 198.49
-9755264.28 5135717.43 199.75
-9755259.59 5135708.87 181.28
-9755263.56 5135714.44 197.82
-9755261.03 5135706.07 198.69
-9755255.98 5135715.71 181.36
-9755262.94 5135711.64 199.16
-9755264.12 5135716.83 199.33
-9755262.31 5135716.00 199.04
-9755261.63 5135710.29 195.65
-9755261.69 5135709.36 195.38
-9755255.20 5135705.02 181.18
-9755260.40 5135714.55 181.30
-9755260.23 5135712.56 192.52
-9755264.68 5135713.69 198.60
-9755261.17 5135709.98 194.98
-9755262.84 5135706.61 198.77
-9755262.41 5135711.20 199.56
-9755260.14 5135715.73 181.32
-9755262.99 5135711.18 195.20
-9755258.41 5135711.28 181.27
-9755263.58 5135715.96 196.03
-9755260.87 5135706.80 195.90
-9755260.76 5135713.64 181.28
-9755258.57 5135705.49 194.25
-9755262.38 5135712.26 192.37
-9755260.37 5135705.85 193.15
-9755260.05 5135713.15 197.91
-9755259.26 5135710.98 198.95
-9755257.48 5135714.48 181.34
-9755258.59 5135706.72 194.01
-9755258.23 5135704.84 198.56
-9755254.55 5135709.15 181.24
-9755265.97 5135707.92 197.52
-9755265.01 5135711.37 196.95
-9755261.23 5135708.08 194.58
-9755257.78 5135716.01 181.34
-9755262.68 5135714.03 198.83
-9755264.90 5135711.33 181.29
-9755262.58 5135705.69 181.16
-9755255.92 5135706.57 193.74
-9755263.26 5135711.55 195.35
-9755260.97 5135706.68 194.69
-9755253.71 5135709.14 181.25
-9755262.53 5135713.93 198.06
-9755262.81 5135711.27 181.28
-9755261.92 5135707.53 196.96
-9755262.09 5135709.27 199.13
-9755260.37 5135711.03 199.28
-9755264.84 5135713.40 199.09
-9755262.48 5135708.79 196.82
-9755260.91 5135711.31 198.79
-9755260.49 5135711.34 194.78
-9755259.91 5135710.67 181.27
-9755259.25 5135710.40 181.27
-9755262.89 5135708.12 198.18
-9755263.04 5135713.71 199.64
-9755257.92 5135706.91 192.21
-9755265.21 5135712.51 199.57
-9755260.73 5135710.55 195.16
-9755259.43 5135706.05 194.16
-9755261.20 5135709.05 196.72
-9755264.25 5135717.52 181.38
-9755264.37 5135706.56 181.20
-9755262.14 5135714.85 199.47
-9755260.15 5135712.49 193.60
-9755256.37 5135713.64 181.34
-9755263.51 5135706.04 198.45
-9755258.74 5135712.97 194.29
-9755254.44 5135704.64 194.07
-9755262.67 5135707.89 195.73
-9755262.24 5135705.43 198.25
-9755261.44 5135709.86 196.68
-9755260.40 5135712.26 192.83
-9755260.76 5135711.27 181.27
-9755261.70 5135708.41 194.17
-9755258.98 5135710.38 181.27
-9755257.45 5135704.13 195.22
-9755262.85 5135713.46 197.38
-9755260.97 5135716.35 199.39
-9755260.52 5135707.50 194.81
-9755265.39 5135705.75 198.18
-9755261.62 5135707.75 181.23
-9755261.42 5135711.25 199.09
-9755263.15 5135712.12 192.43
-9755255.21 5135707.11 181.24
-9755259.73 5135705.62 194.90
-9755264.84 5135713.65 181.31
-9755265.93 5135706.33 198.40
-9755262.14 5135711.94 198.96
-9755262.26 5135708.50 198.28
-9755257.56 5135712.15 181.30
-9755263.82 5135711.77 199.26
-9755265.71 5135709.93 198.20
-9755262.00 5135707.15 181.19
-9755261.66 5135710.77 196.64
-9755260.78 5135705.58 181.19
-9755257.07 5135705.74 192.60
-9755261.82 5135711.09 191.67
-9755263.72 5135706.79 181.20
-9755262.14 5135712.14 196.79
-9755263.41 5135711.62 181.29
-9755262.05 5135707.19 198.21
-9755260.99 5135707.35 194.68
-9755258.69 5135708.92 181.26
-9755258.41 5135707.74 181.25
-9755258.15 5135705.07 198.70
-9755264.73 5135711.60 199.27
-9755262.50 5135717.17 181.34
-9755265.79 5135713.67 181.33
-9755259.17 5135704.31 197.69
-9755259.10 5135705.84 193.73
-9755256.03 5135713.61 181.34
-9755260.06 5135713.64 198.95
-9755264.58 5135710.44 181.27
-9755260.36 5135707.08 193.84
-9755261.35 5135710.45 199.37
-9755258.42 5135712.15 181.29
-9755258.70 5135704.50 198.59
-9755263.30 5135717.54 199.60
-9755258.49 5135706.37 192.89
-9755260.61 5135712.71 198.94
-9755258.04 5135713.33 181.31
-9755261.27 5135709.02 197.28
-9755265.09 5135717.36 198.54
-9755255.13 5135706.21 193.99
-9755263.16 5135714.80 196.41
-9755264.88 5135715.75 181.35
-9755261.57 5135710.19 198.75
-9755256.37 5135708.91 181.24
-9755266.62 5135718.73 181.43
-9755267.52 5135717.87 181.44
-9755268.10 5135718.12 181.50
-9755268.26 5135717.89 197.78
-9755265.30 5135717.87 197.93
-9755258.10 5135717.15 181.36
-9755258.22 5135718.75 186.00
-9755255.32 5135718.63 185.74
-9755257.77 5135718.09 181.39
-9755255.44 5135718.44 186.32
-9755254.85 5135718.67 181.46
-9755262.54 5135717.82 181.33
-9755253.08 5135717.75 181.42
-9755255.11 5135718.19 185.97
-9755255.76 5135718.20 186.96
-9755260.77 5135717.78 181.34
-9755263.93 5135718.66 181.38
-9755264.43 5135718.08 199.37
-9755254.13 5135718.79 184.08
-9755254.55 5135717.74 181.39
-9755265.19 5135717.66 197.64
-9755265.30 5135718.60 197.29
-9755255.72 5135718.04 181.42
-9755265.29 5135718.07 199.55
-9755256.32 5135718.58 187.39
-9755256.07 5135718.49 186.63
-9755257.19 5135717.18 181.37
-9755262.47 5135718.12 181.34
-9755256.41 5135718.72 186.87
-9755257.81 5135718.47 186.05
-9755279.28 5135702.96 198.10
-9755279.05 5135699.55 193.81
-9755279.09 5135700.74 181.06
-9755278.33 5135702.36 197.11
-9755278.80 5135702.85 197.36
-9755278.32 5135700.07 194.68
-9755278.93 5135699.30 194.01
-9755279.00 5135701.54 196.72
-9755279.55 5135699.71 195.07
-9755278.60 5135700.77 190.92
-9755278.95 5135699.65 194.66
-9755278.65 5135700.56 196.61
-9755279.14 5135701.25 191.24
-9755278.32 5135700.98 194.79
-9755279.17 5135702.31 196.97
-9755279.25 5135701.42 196.72
-9755279.03 5135702.67 197.45
-9755279.69 5135700.48 193.20
-9755279.92 5135700.55 194.89
-9755278.47 5135700.47 181.07
-9755278.31 5135701.49 192.07
-9755278.90 5135700.48 193.05
-9755278.98 5135700.77 193.34
-9755278.57 5135701.04 193.22
-9755279.05 5135702.70 198.12
-9755279.01 5135700.20 196.56
-9755279.19 5135701.44 197.17
-9755277.63 5135702.02 197.19
-9755272.63 5135702.83 181.16
-9755278.22 5135700.42 181.06
-9755270.18 5135702.92 199.84
-9755277.71 5135702.54 193.21
-9755274.90 5135701.68 196.83
-9755276.23 5135699.73 194.64
-9755276.57 5135700.56 197.12
-9755273.30 5135702.42 195.73
-9755270.96 5135700.00 196.32
-9755274.83 5135703.08 197.39
-9755271.86 5135700.86 195.07
-9755274.14 5135700.15 181.08
-9755271.44 5135703.02 181.16
-9755268.75 5135702.37 181.15
-9755272.90 5135700.10 181.09
-9755276.62 5135699.24 194.77
-9755277.78 5135700.64 196.22
-9755272.43 5135701.55 195.25
-9755270.28 5135702.08 193.44
-9755277.18 5135699.94 197.36
-9755269.10 5135701.61 181.12
-9755276.53 5135699.99 197.18
-9755275.87 5135700.39 181.09
-9755275.16 5135699.19 194.99
-9755277.84 5135699.14 195.48
-9755275.72 5135699.61 195.06
-9755270.26 5135699.17 181.09
-9755269.63 5135700.84 196.33
-9755269.85 5135701.59 193.44
-9755270.38 5135701.61 199.28
-9755274.52 5135702.77 197.55
-9755276.17 5135699.85 195.15
-9755270.88 5135700.22 199.09
-9755270.11 5135702.34 195.93
-9755276.01 5135699.55 196.52
-9755277.70 5135699.50 196.29
-9755272.55 5135699.36 198.29
-9755270.42 5135700.59 199.39
-9755276.51 5135700.45 192.62
-9755275.13 5135701.11 199.05
-9755270.74 5135701.44 193.61
-9755276.41 5135702.08 195.87
-9755275.77 5135699.20 194.71
-9755277.47 5135700.54 197.17
-9755274.48 5135700.06 194.48
-9755271.76 5135699.50 181.08
-9755271.31 5135699.69 193.96
-9755269.83 5135702.19 193.39
-9755271.49 5135700.45 195.60
-9755269.62 5135701.55 181.10
-9755269.77 5135701.35 193.44
-9755270.86 5135699.53 181.08
-9755276.65 5135700.37 196.34
-9755272.58 5135700.72 195.30
-9755269.03 5135702.12 193.24
-9755276.64 5135699.75 196.30
-9755273.47 5135701.89 181.11
-9755270.62 5135700.00 196.72
-9755270.28 5135699.47 181.09
-9755270.37 5135701.24 199.28
-9755280.49 5135694.58 195.54
-9755279.51 5135693.08 193.87
-9755278.92 5135692.71 193.85
-9755278.49 5135694.18 195.11
-9755278.91 5135698.51 194.55
-9755279.23 5135694.41 195.64
-9755278.76 5135695.37 193.83
-9755279.66 5135693.40 195.51
-9755278.40 5135693.43 196.19
-9755278.50 5135695.16 196.08
-9755278.04 5135693.09 196.32
-9755279.47 5135698.53 194.92
-9755279.28 5135698.96 195.01
-9755279.26 5135693.41 193.86
-9755278.19 5135697.25 197.93
-9755278.29 5135694.03 196.22
-9755279.38 5135696.27 193.92
-9755280.59 5135691.82 181.13
-9755279.84 5135693.95 193.77
-9755279.69 5135698.37 181.07
-9755278.11 5135699.02 193.26
-9755279.36 5135692.97 194.31
-9755278.97 5135695.60 196.36
-9755278.14 5135696.71 197.87
-9755279.78 5135698.40 194.91
-9755278.93 5135694.32 196.69
-9755278.87 5135698.07 181.08
-9755278.95 5135695.90 194.83
-9755278.36 5135694.50 196.35
-9755278.97 5135693.78 196.65
-9755278.85 5135697.19 181.10
-9755278.60 5135695.60 194.42
-9755279.43 5135692.58 193.36
-9755279.53 5135693.75 193.95
-9755278.27 5135692.60 193.54
-9755279.17 5135692.96 195.76
-9755279.89 5135692.72 195.03
-9755279.25 5135696.02 194.75
-9755278.92 5135691.70 195.33
-9755279.14 5135692.18 181.15
-9755278.11 5135692.38 195.24
-9755278.72 5135693.52 194.47
-9755278.47 5135695.75 196.43
-9755279.44 5135694.70 194.85
-9755278.49 5135692.63 193.87
-9755278.61 5135695.90 195.13
-9755278.17 5135693.51 196.79
-9755279.39 5135694.97 196.05
-9755278.56 5135691.84 181.16
-9755277.29 5135693.79 195.74
-9755278.34 5135692.96 195.21
-9755277.25 5135696.80 199.47
-9755270.43 5135699.02 196.21
-9755275.62 5135697.54 195.08
-9755277.86 5135695.84 195.83
-9755276.26 5135692.28 195.51
-9755272.82 5135691.78 194.36
-9755276.39 5135696.30 198.90
-9755277.85 5135693.04 193.95
-9755276.38 5135695.82 198.35
-9755277.44 5135695.78 199.62
-9755276.28 5135694.33 196.79
-9755270.68 5135694.99 194.63
-9755277.85 5135692.97 194.89
-9755276.55 5135692.93 196.38
-9755272.48 5135698.76 195.49
-9755276.91 5135696.59 198.87
-9755274.85 5135694.43 195.14
-9755273.42 5135697.89 195.29
-9755271.76 5135693.64 192.90
-9755277.07 5135695.71 181.13
-9755275.24 5135694.31 196.56
-9755274.89 5135698.31 199.58
-9755275.94 5135695.57 195.63
-9755270.02 5135695.59 193.87
-9755274.33 5135693.05 196.49
-9755275.82 5135695.17 197.08
-9755271.65 5135692.30 194.51
-9755276.06 5135695.79 196.74
-9755271.23 5135694.12 193.80
-9755269.44 5135695.61 193.42
-9755274.77 5135694.49 195.58
-9755274.78 5135697.57 195.54
-9755271.95 5135694.75 193.57
-9755273.68 5135692.93 196.15
-9755277.83 5135692.60 194.71
-9755276.19 5135694.10 198.18
-9755275.80 5135692.58 195.29
-9755276.87 5135695.48 195.78
-9755274.57 5135692.24 195.80
-9755273.09 5135697.63 195.49
-9755276.80 5135697.01 198.25
-9755275.95 5135693.30 181.12
-9755277.76 5135694.79 197.56
-9755276.85 5135693.05 181.11
-9755271.55 5135695.09 194.24
-9755277.84 5135696.92 198.18
-9755269.24 5135697.19 197.40
-9755272.12 5135694.15 195.63
-9755274.66 5135695.48 194.94
-9755269.16 5135696.24 181.16
-9755277.26 5135698.84 194.83
-9755277.56 5135694.30 198.79
-9755270.95 5135693.91 192.79
-9755276.40 5135694.68 196.25
-9755271.55 5135694.65 194.10
-9755277.24 5135694.28 199.20
-9755272.59 5135695.35 193.99
-9755270.88 5135697.48 195.82
-9755275.18 5135694.73 196.64
-9755277.15 5135698.36 194.15
-9755272.48 5135691.85 193.91
-9755269.72 5135693.88 181.14
-9755275.98 5135692.22 195.94
-9755274.28 5135693.43 196.46
-9755269.41 5135694.27 181.12
-9755273.60 5135697.27 196.22
-9755273.36 5135697.43 196.15
-9755273.55 5135698.26 195.52
-9755277.25 5135694.79 199.56
-9755276.00 5135696.12 197.40
-9755273.30 5135693.54 196.22
-9755276.50 5135695.94 197.95
-9755271.20 5135693.85 181.13
-9755269.48 5135696.79 194.94
-9755271.52 5135698.45 197.22
-9755274.78 5135695.59 195.44
-9755273.11 5135697.96 194.76
-9755271.34 5135693.58 193.23
-9755273.95 5135691.80 194.33
-9755277.30 5135695.50 197.35
-9755276.31 5135692.58 195.99
-9755271.97 5135691.84 193.53
-9755275.76 5135692.88 196.13
-9755271.07 5135697.93 195.58
-9755275.74 5135693.44 196.10
-9755272.27 5135698.32 181.11
-9755275.78 5135696.36 197.39
-9755273.09 5135697.90 195.76
-9755273.08 5135692.71 194.26
-9755277.93 5135692.56 197.02
-9755270.88 5135697.15 181.13
-9755274.84 5135692.94 196.01
-9755271.45 5135694.80 181.10
-9755277.80 5135692.37 195.98
-9755271.16 5135698.00 181.12
-9755270.83 5135694.46 181.11
-9755277.65 5135693.91 196.01
-9755273.92 5135697.98 197.50
-9755276.53 5135695.01 198.15
-9755275.17 5135692.57 196.03
-9755275.00 5135696.02 181.14
-9755272.32 5135693.92 181.11
-9755271.02 5135698.24 195.22
-9755273.91 5135697.71 194.89
-9755277.26 5135695.81 197.46
-9755269.11 5135693.87 192.91
-9755273.16 5135692.51 196.07
-9755271.03 5135698.69 195.61
-9755277.95 5135693.93 181.08
-9755275.23 5135695.85 195.50
-9755273.07 5135693.55 195.74
-9755274.54 5135697.66 196.50
-9755271.61 5135691.84 194.07
-9755275.18 5135692.37 193.43
-9755274.88 5135695.68 198.13
-9755274.82 5135696.09 198.02
-9755274.66 5135691.87 195.08
-9755271.92 5135693.33 193.53
-9755276.72 5135696.80 199.32
-9755274.15 5135695.96 195.75
-9755273.50 5135694.49 181.11
-9755278.07 5135696.52 199.60
-9755271.01 5135698.92 197.63
-9755274.88 5135696.65 196.13
-9755275.65 5135692.24 196.12
-9755276.05 5135692.93 195.35
-9755271.96 5135691.96 194.10
-9755276.04 5135698.99 192.58
-9755271.74 5135695.36 181.14
-9755272.18 5135691.84 193.75
-9755277.81 5135693.46 196.18
-9755276.18 5135695.01 198.69
-9755270.66 5135697.57 195.04
-9755276.50 5135694.85 198.31
-9755273.13 5135691.78 194.39
-9755272.87 5135694.85 194.31
-9755276.94 5135695.87 199.77
-9755272.56 5135697.21 197.25
-9755270.41 5135696.82 194.95
-9755273.73 5135692.26 195.15
-9755271.73 5135693.58 193.90
-9755274.97 5135693.05 181.14
-9755276.31 5135693.98 198.67
-9755275.13 5135696.79 195.37
-9755270.71 5135694.95 194.16
-9755272.04 5135697.45 181.12
-9755274.01 5135695.81 196.44
-9755271.80 5135698.04 181.11
-9755273.65 5135692.58 196.17
-9755277.04 5135698.99 194.61
-9755273.40 5135695.33 195.60
-9755274.11 5135698.27 199.50
-9755276.16 5135694.83 181.06
-9755273.23 5135693.88 181.13
-9755273.74 5135693.96 196.75
-9755271.48 5135696.77 194.99
-9755276.15 5135698.89 194.52
-9755269.31 5135697.76 198.26
-9755278.03 5135691.82 181.17
-9755273.05 5135696.77 193.94
-9755272.84 5135697.21 197.34
-9755270.68 5135694.79 194.69
-9755273.17 5135698.27 194.77
-9755277.77 5135692.72 193.58
-9755271.86 5135692.66 193.86
-9755277.24 5135695.85 195.61
-9755276.59 5135691.76 194.67
-9755273.59 5135698.18 195.61
-9755275.68 5135696.42 196.72
-9755275.47 5135695.13 195.80
-9755276.10 5135695.97 198.80
-9755275.73 5135698.06 199.63
-9755278.09 5135695.15 197.39
-9755275.99 5135693.02 195.00
-9755272.75 5135694.77 193.99
-9755276.81 5135693.32 196.05
-9755277.43 5135696.30 195.31
-9755271.04 5135693.48 193.86
-9755275.46 5135692.29 194.94
-9755269.11 5135698.26 181.11
-9755273.69 5135696.70 196.86
-9755277.39 5135698.35 181.08
-9755267.79 5135702.63 197.04
-9755267.84 5135699.74 199.68
-9755266.16 5135703.09 181.13
-9755266.43 5135702.46 181.12
-9755267.75 5135700.15 199.70
-9755267.06 5135699.22 181.09
-9755267.92 5135700.06 181.08
-9755267.18 5135699.20 199.36
-9755267.92 5135699.78 181.07
-9755268.65 5135702.48 193.13
-9755253.15 5135702.35 181.12
-9755255.10 5135702.50 197.05
-9755259.33 5135702.70 181.08
-9755261.61 5135702.58 197.29
-9755265.98 5135702.49 199.52
-9755255.92 5135702.43 198.27
-9755256.70 5135701.76 181.13
-9755263.73 5135699.82 198.12
-9755257.10 5135699.13 195.58
-9755260.64 5135702.28 199.32
-9755262.81 5135700.47 196.50
-9755258.14 5135699.21 196.27
-9755261.23 5135701.92 198.96
-9755257.60 5135702.10 181.14
-9755263.96 5135699.99 196.43
-9755254.69 5135701.49 197.81
-9755263.34 5135702.82 197.27
-9755257.63 5135701.39 197.88
-9755255.60 5135699.30 194.22
-9755263.33 5135702.27 198.40
-9755256.04 5135700.06 197.26
-9755263.72 5135700.46 197.81
-9755256.09 5135701.77 181.12
-9755261.38 5135700.63 181.10
-9755264.54 5135702.35 199.66
-9755256.23 5135702.08 195.67
-9755262.48 5135699.60 197.00
-9755258.66 5135702.16 198.43
-9755256.04 5135699.20 194.77
-9755257.27 5135702.09 181.14
-9755256.50 5135702.16 197.25
-9755255.40 5135702.07 198.17
-9755256.51 5135699.27 197.37
-9755254.67 5135699.16 193.47
-9755263.48 5135702.11 181.10
-9755258.87 5135702.16 197.31
-9755258.46 5135700.61 181.11
-9755260.10 5135699.64 196.28
-9755265.42 5135700.56 194.28
-9755262.42 5135701.75 199.79
-9755265.24 5135700.93 181.12
-9755262.17 5135702.09 199.37
-9755263.85 5135702.58 195.54
-9755265.81 5135702.40 181.09
-9755256.81 5135700.38 197.01
-9755259.65 5135702.47 181.09
-9755256.22 5135700.80 195.73
-9755255.92 5135699.74 197.78
-9755261.21 5135701.39 196.73
-9755257.56 5135701.81 181.14
-9755262.43 5135700.52 197.28
-9755255.96 5135701.63 196.33
-9755255.67 5135702.84 195.64
-9755262.51 5135701.99 195.44
-9755255.63 5135701.38 195.24
-9755258.26 5135702.24 195.70
-9755260.06 5135702.16 197.15
-9755259.55 5135702.08 199.59
-9755263.24 5135700.79 196.49
-9755255.25 5135700.85 181.12
-9755263.92 5135699.58 195.79
-9755256.29 5135700.19 196.38
-9755260.76 5135702.07 199.32
-9755256.66 5135701.47 181.12
-9755253.78 5135699.40 181.10
-9755257.67 5135701.58 197.10
-9755257.82 5135700.99 197.08
-9755262.83 5135701.63 196.69
-9755264.77 5135699.79 194.26
-9755260.40 5135700.75 197.06
-9755262.00 5135699.47 181.09
-9755264.75 5135699.96 194.83
-9755266.14 5135700.91 181.11
-9755265.06 5135699.74 194.88
-9755260.14 5135701.05 194.27
-9755257.13 5135700.80 197.57
-9755265.25 5135700.64 198.86
-9755256.27 5135699.22 197.39
-9755259.54 5135700.05 195.44
-9755257.70 5135699.51 198.72
-9755260.86 5135699.34 196.17
-9755255.96 5135700.42 197.79
-9755256.80 5135700.70 196.92
-9755255.08 5135699.38 193.47
-9755263.46 5135699.49 181.10
-9755257.65 5135699.32 198.42
-9755254.06 5135702.32 181.13
-9755263.00 5135702.39 195.54
-9755256.29 5135699.55 198.32
-9755256.54 5135700.08 198.19
-9755257.68 5135699.07 196.44
-9755255.97 5135702.02 195.67
-9755258.30 5135699.56 196.64
-9755257.55 5135700.64 181.11
-9755255.94 5135702.19 197.25
-9755256.12 5135700.90 181.11
-9755256.61 5135700.58 195.69
-9755256.94 5135700.20 195.12
-9755257.36 5135702.15 199.67
-9755257.45 5135699.29 195.66
-9755255.97 5135700.63 195.44
-9755261.41 5135700.03 181.10
-9755261.34 5135701.40 198.00
-9755263.47 5135700.29 181.10
-9755261.19 5135702.43 198.67
-9755262.71 5135699.27 198.82
-9755257.20 5135700.75 197.19
-9755262.95 5135699.94 195.69
-9755263.07 5135702.20 196.98
-9755265.07 5135702.20 193.48
-9755265.73 5135699.26 198.84
-9755261.96 5135701.19 196.50
-9755260.49 5135700.83 196.61
-9755255.22 5135702.10 181.13
-9755265.22 5135702.25 193.56
-9755255.01 5135699.59 193.52
-9755259.12 5135702.46 198.75
-9755260.37 5135700.56 195.99
-9755264.38 5135699.47 181.10
-9755255.25 5135700.97 197.17
-9755257.15 5135701.39 197.13
-9755260.41 5135701.30 195.94
-9755261.75 5135699.19 181.11
-9755255.89 5135699.09 194.25
-9755260.13 5135701.85 197.25
-9755259.47 5135700.41 194.92
-9755265.42 5135699.50 198.84
-9755256.85 5135702.47 198.19
-9755260.17 5135701.21 198.96
-9755255.06 5135700.98 195.64
-9755262.58 5135699.12 199.40
-9755254.89 5135701.69 197.42
-9755263.30 5135702.27 197.08
-9755265.58 5135700.19 199.64
-9755255.59 5135701.32 196.31
-9755260.93 5135700.23 196.04
-9755264.08 5135702.62 195.51
-9755263.97 5135699.68 196.21
-9755252.88 5135701.20 181.11
-9755265.86 5135700.57 194.29
-9755265.44 5135700.13 199.17
-9755256.33 5135701.45 195.84
-9755260.55 5135701.54 181.12
-9755260.81 5135700.94 181.12
-9755261.27 5135700.53 196.53
-9755257.17 5135699.77 199.02
-9755257.85 5135699.99 181.11
-9755260.09 5135701.00 198.99
-9755256.09 5135700.95 198.13
-9755260.97 5135701.60 198.91
-9755255.63 5135700.80 195.46
-9755255.72 5135700.00 196.91
-9755255.56 5135701.81 197.22
-9755260.13 5135702.12 199.56
-9755254.55 5135699.36 195.85
-9755255.62 5135701.58 197.58
-9755263.03 5135699.10 196.04
-9755255.34 5135699.57 197.47
-9755258.81 5135700.46 196.15
-9755255.63 5135700.01 193.94
-9755255.19 5135699.34 193.97
-9755256.93 5135701.28 197.70
-9755260.58 5135700.91 193.53
-9755260.02 5135701.73 195.91
-9755265.44 5135702.49 199.68
-9755262.42 5135701.65 198.64
-9755265.05 5135702.39 199.68
-9755255.89 5135699.65 194.17
-9755261.08 5135699.39 195.23
-9755256.76 5135702.20 197.15
-9755255.92 5135702.18 198.97
-9755264.45 5135700.26 196.59
-9755264.84 5135702.05 198.73
-9755265.55 5135700.09 181.10
-9755262.05 5135700.25 196.04
-9755261.84 5135700.26 195.43
-9755263.66 5135700.16 196.59
-9755265.85 5135699.79 199.15
-9755259.39 5135701.48 181.12
-9755254.60 5135702.24 197.95
-9755264.27 5135700.31 194.76
-9755256.06 5135702.41 195.67
-9755256.35 5135702.16 198.78
-9755261.32 5135701.67 198.00
-9755259.98 5135700.84 193.75
-9755265.54 5135701.29 181.12
-9755259.11 5135702.52 196.82
-9755260.34 5135700.50 196.54
-9755258.06 5135700.98 197.61
-9755256.35 5135701.46 195.51
-9755268.98 5135695.46 194.41
-9755267.49 5135694.10 193.58
-9755267.13 5135697.68 198.98
-9755267.78 5135698.05 198.59
-9755267.18 5135695.56 194.40
-9755267.48 5135695.00 194.65
-9755268.20 5135696.88 198.22
-9755266.56 5135697.11 194.19
-9755266.35 5135698.74 198.08
-9755267.92 5135698.01 199.38
-9755267.20 5135695.74 198.09
-9755267.65 5135696.15 194.68
-9755267.75 5135695.49 194.45
-9755267.45 5135696.44 198.39
-9755268.39 5135698.56 198.76
-9755268.04 5135693.35 193.19
-9755266.66 5135694.79 195.27
-9755267.19 5135695.86 195.31
-9755266.34 5135696.45 195.21
-9755267.77 5135695.31 195.28
-9755266.89 5135698.82 199.71
-9755268.37 5135696.73 193.98
-9755267.93 5135697.39 181.13
-9755267.62 5135697.40 181.15
-9755267.89 5135694.20 181.14
-9755268.45 5135697.21 197.58
-9755266.90 5135696.37 196.51
-9755268.05 5135693.78 193.13
-9755267.22 5135696.27 197.66
-9755266.65 5135696.40 195.82
-9755266.74 5135696.45 195.21
-9755267.74 5135695.54 194.81
-9755267.48 5135698.82 199.80
-9755267.08 5135695.63 181.16
-9755268.15 5135697.15 199.24
-9755267.19 5135697.98 199.52
-9755268.65 5135698.05 199.44
-9755267.84 5135695.57 195.28
-9755266.92 5135698.93 198.86
-9755268.06 5135697.90 199.82
-9755267.73 5135696.43 198.49
-9755267.77 5135695.07 193.40
-9755266.94 5135697.98 198.91
-9755268.36 5135697.10 193.78
-9755266.98 5135695.17 194.19
-9755267.25 5135696.88 198.30
-9755267.46 5135693.45 193.50
-9755266.23 5135694.26 194.42
-9755266.25 5135698.68 197.75
-9755262.95 5135699.14 181.11
-9755254.88 5135699.20 192.63
-9755263.20 5135694.40 195.63
-9755261.68 5135695.92 197.85
-9755260.29 5135695.56 194.74
-9755259.16 5135698.38 196.67
-9755260.28 5135693.79 181.15
-9755260.18 5135694.03 195.11
-9755264.20 5135693.57 192.93
-9755262.53 5135696.18 197.96
-9755265.80 5135697.43 198.93
-9755259.90 5135694.82 196.73
-9755262.88 5135695.06 196.80
-9755258.95 5135697.15 196.93
-9755261.51 5135696.32 197.39
-9755258.85 5135696.00 196.03
-9755259.43 5135697.29 195.91
-9755261.90 5135694.18 193.50
-9755259.48 5135693.87 195.03
-9755257.11 5135698.07 196.49
-9755255.24 5135694.04 181.15
-9755266.13 5135695.05 181.13
-9755259.44 5135695.42 196.46
-9755261.38 5135695.60 195.70
-9755263.64 5135691.94 191.47
-9755263.83 5135694.19 197.32
-9755261.27 5135694.35 198.91
-9755261.71 5135695.60 194.48
-9755261.76 5135696.66 197.86
-9755259.15 5135696.26 197.29
-9755262.90 5135696.54 181.18
-9755258.90 5135698.35 196.72
-9755256.39 5135698.82 181.11
-9755265.19 5135697.78 196.79
-9755266.34 5135695.28 195.69
-9755256.73 5135695.91 193.43
-9755263.68 5135698.75 198.48
-9755261.08 5135694.57 197.56
-9755261.35 5135695.18 196.55
-9755257.48 5135695.94 197.15
-9755261.65 5135691.84 191.60
-9755266.22 5135697.72 199.16
-9755262.14 5135694.00 192.56
-9755259.50 5135698.38 196.60
-9755264.20 5135694.62 195.79
-9755263.73 5135693.03 198.34
-9755258.66 5135697.48 197.15
-9755266.29 5135696.72 194.25
-9755263.38 5135697.15 198.54
-9755262.08 5135692.76 191.10
-9755257.92 5135694.09 181.13
-9755257.14 5135696.01 196.70
-9755263.78 5135697.70 198.69
-9755266.31 5135698.00 199.18
-9755258.17 5135697.36 181.15
-9755257.49 5135696.89 196.67
-9755263.03 5135695.92 198.39
-9755265.06 5135695.01 195.22
-9755262.50 5135692.68 192.48
-9755257.13 5135698.37 195.99
-9755264.42 5135695.00 181.12
-9755260.94 5135692.28 190.22
-9755259.17 5135698.69 196.61
-9755257.18 5135695.58 193.90
-9755259.57 5135694.95 194.25
-9755263.01 5135691.70 191.71
-9755260.39 5135698.81 195.40
-9755257.72 5135694.26 197.37
-9755262.16 5135696.20 199.76
-9755257.24 5135698.98 197.31
-9755265.61 5135693.46 195.85
-9755262.42 5135694.37 195.13
-9755264.79 5135695.64 194.41
-9755266.72 5135698.25 199.53
-9755262.50 5135693.45 193.15
-9755257.90 5135692.91 181.18
-9755257.18 5135694.12 193.67
-9755258.62 5135698.08 197.78
-9755256.27 5135695.95 196.44
-9755261.87 5135698.69 196.33
-9755258.10 5135697.70 197.55
-9755256.17 5135692.92 181.19
-9755266.19 5135695.88 194.39
-9755262.20 5135698.03 196.69
-9755263.99 5135694.07 194.98
-9755257.00 5135694.38 181.12
-9755264.22 5135695.98 194.11
-9755255.19 5135698.90 192.61
-9755262.16 5135697.30 195.70
-9755253.76 5135694.40 181.12
-9755265.14 5135694.38 195.83
-9755262.35 5135691.63 189.28
-9755257.49 5135698.05 195.03
-9755264.27 5135697.43 199.61
-9755265.76 5135693.54 193.78
-9755261.34 5135694.09 198.39
-9755265.67 5135694.69 195.06
-9755253.79 5135694.69 181.10
-9755255.26 5135697.05 181.14
-9755259.45 5135694.41 195.19
-9755258.47 5135695.52 195.84
-9755260.85 5135696.45 181.16
-9755265.84 5135695.61 181.17
-9755262.18 5135694.39 195.11
-9755261.23 5135694.67 192.14
-9755261.48 5135696.48 181.16
-9755256.72 5135692.35 181.20
-9755259.90 5135694.70 192.10
-9755260.90 5135692.48 190.22
-9755263.67 5135695.59 199.66
-9755259.47 5135695.17 195.81
-9755254.97 5135696.78 181.14
-9755266.07 5135696.49 198.85
-9755263.52 5135694.40 181.14
-9755255.62 5135698.79 194.20
-9755257.35 5135696.43 181.15
-9755261.58 5135697.41 194.31
-9755263.39 5135696.49 198.75
-9755263.03 5135697.45 197.54
-9755265.91 5135698.64 198.79
-9755258.31 5135698.95 197.58
-9755257.43 5135695.64 196.77
-9755262.40 5135697.54 196.72
-9755264.20 5135691.83 190.64
-9755261.00 5135697.95 195.59
-9755263.71 5135698.31 198.48
-9755257.65 5135696.12 194.83
-9755261.66 5135694.50 193.39
-9755260.44 5135692.68 191.43
-9755263.55 5135695.87 194.66
-9755263.68 5135696.05 199.77
-9755261.79 5135692.36 190.61
-9755257.58 5135698.52 181.13
-9755260.91 5135698.56 196.75
-9755263.43 5135693.26 197.83
-9755262.48 5135696.13 198.96
-9755266.21 5135698.29 181.12
-9755266.24 5135697.14 194.13
-9755265.12 5135694.16 198.43
-9755262.16 5135692.19 190.82
-9755256.27 5135698.45 195.41
-9755256.03 5135698.56 194.05
-9755262.33 5135694.07 181.16
-9755258.36 5135695.21 194.54
-9755263.95 5135695.96 192.43
-9755258.66 5135695.47 195.01
-9755263.00 5135692.93 193.18
-9755264.23 5135692.71 198.43
-9755261.24 5135698.75 195.15
-9755255.53 5135697.34 181.13
-9755265.00 5135692.94 181.19
-9755261.01 5135691.89 190.98
-9755260.57 5135691.89 190.03
-9755257.42 5135695.43 197.34
-9755262.75 5135698.92 199.75
-9755260.06 5135695.99 193.12
-9755256.24 5135696.91 196.24
-9755253.50 5135698.25 181.12
-9755263.65 5135694.57 196.85
-9755260.88 5135697.06 181.14
-9755255.47 5135696.68 195.91
-9755263.92 5135694.55 192.29
-9755261.99 5135691.90 190.98
-9755255.23 5135698.53 181.10
-9755260.73 5135697.13 197.92
-9755264.56 5135693.37 198.01
-9755261.98 5135698.58 181.11
-9755261.86 5135693.61 190.37
-9755257.63 5135697.03 181.16
-9755262.82 5135698.11 196.99
-9755262.02 5135693.87 199.33
-9755260.62 5135697.49 195.59
-9755262.62 5135698.51 198.49
-9755263.98 5135694.28 197.52
-9755257.38 5135694.23 193.24
-9755258.53 5135695.59 181.14
-9755256.71 5135696.77 181.16
-9755260.37 5135693.36 190.43
-9755257.25 5135695.12 196.95
-9755254.34 5135695.25 181.09
-9755261.86 5135694.59 191.65
-9755264.51 5135696.83 193.12
-9755256.15 5135697.13 196.20
-9755263.05 5135692.98 191.30
-9755252.90 5135697.89 181.13
-9755263.63 5135696.80 198.84
-9755257.62 5135692.93 181.19
-9755259.32 5135698.52 181.12
-9755261.59 5135695.46 197.39
-9755259.57 5135695.53 194.73
-9755264.04 5135695.74 195.81
-9755254.97 5135698.83 181.10
-9755263.43 5135696.75 198.75
-9755255.72 5135696.68 196.13
-9755259.99 5135695.57 194.71
-9755256.33 5135695.13 194.99
-9755261.63 5135694.00 196.33
-9755261.33 5135698.64 196.81
-9755257.60 5135694.74 181.11
-9755262.98 5135696.31 198.80
-9755261.05 5135692.26 190.90
-9755257.37 5135697.38 195.63
-9755263.59 5135697.14 199.53
-9755261.82 5135698.82 199.05
-9755262.31 5135697.11 198.39
-9755258.70 5135697.79 197.62
-9755264.15 5135696.00 198.86
-9755262.75 5135695.13 198.07
-9755263.06 5135693.03 196.56
-9755261.60 5135698.80 195.10
-9755256.52 5135694.38 193.29
-9755261.36 5135693.96 197.57
-9755264.33 5135698.85 181.10
-9755263.50 5135695.09 197.80
-9755261.94 5135695.26 195.61
-9755256.44 5135697.31 181.13
-9755261.87 5135696.11 199.60
-9755256.08 5135695.89 196.34
-9755256.63 5135695.24 194.09
-9755258.07 5135696.62 196.71
-9755257.43 5135695.10 195.66
-9755262.72 5135691.96 197.48
-9755261.50 5135697.36 197.89
-9755263.92 5135694.67 194.69
-9755258.87 5135696.66 190.16
-9755262.11 5135698.84 199.12
-9755259.49 5135697.80 195.79
-9755264.25 5135696.66 197.22
-9755260.76 5135692.44 190.59
-9755264.58 5135695.60 194.41
-9755264.57 5135694.56 197.52
-9755261.89 5135694.25 191.42
-9755259.24 5135695.07 196.82
-9755265.36 5135693.56 194.45
-9755262.45 5135694.03 199.33
-9755263.33 5135692.92 193.18
-9755261.73 5135696.20 181.18
-9755262.44 5135695.82 195.10
-9755259.92 5135696.73 181.16
-9755263.31 5135691.90 190.87
-9755261.47 5135696.60 196.33
-9755263.86 5135697.35 181.15
-9755256.36 5135694.96 181.09
-9755263.60 5135691.29 190.59
-9755255.61 5135695.66 196.48
-9755263.65 5135696.41 196.42
-9755262.32 5135699.01 196.39
-9755256.16 5135693.81 181.16
-9755258.45 5135691.72 181.23
-9755256.79 5135694.40 193.75
-9755263.05 5135693.97 196.98
-9755262.21 5135694.69 195.13
-9755257.64 5135693.73 181.16
-9755258.30 5135698.58 196.71
-9755262.50 5135696.06 197.31
-9755261.93 5135695.13 197.42
-9755263.45 5135693.77 195.54
-9755260.90 5135691.68 190.21
-9755258.30 5135695.23 195.01
-9755264.36 5135698.57 181.11
-9755259.20 5135696.66 196.40
-9755259.54 5135696.03 197.24
-9755255.94 5135698.47 195.06
-9755260.41 5135697.12 198.32
-9755256.60 5135696.35 193.57
-9755257.97 5135695.53 195.22
-9755263.57 5135695.06 196.67
-9755261.86 5135691.85 190.51
-9755265.96 5135698.32 199.68
-9755266.25 5135695.66 194.37
-9755259.90 5135691.95 189.94
-9755260.39 5135693.73 197.61
-9755254.63 5135697.94 181.12
-9755260.17 5135694.05 196.59
-9755265.12 5135696.39 196.56
-9755264.16 5135694.94 192.23
-9755262.11 5135691.60 191.93
-9755266.22 5135696.68 194.76
-9755262.07 5135691.47 191.48
-9755262.52 5135697.10 196.61
-9755261.03 5135694.83 196.98
-9755263.68 5135695.04 198.76
-9755260.93 5135692.11 191.51
-9755263.34 5135696.04 198.77
-9755256.13 5135698.16 195.06
-9755263.35 5135694.08 194.55
-9755264.26 5135691.60 192.25
-9755257.89 5135697.64 181.15
-9755263.86 5135692.63 181.20
-9755257.20 5135694.15 193.13
-9755256.60 5135696.54 196.54
-9755257.90 5135697.90 181.14
-9755260.94 5135696.68 196.05
-9755262.20 5135694.77 197.51
-9755255.17 5135699.00 194.22
-9755263.09 5135692.41 192.94
-9755261.15 5135692.23 191.57
-9755262.53 5135696.29 197.27
-9755261.61 5135697.52 196.20
-9755260.29 5135692.59 181.20
-9755265.20 5135692.52 196.61
-9755260.72 5135696.80 198.26
-9755260.81 5135691.57 190.97
-9755259.22 5135695.77 196.09
-9755262.41 5135695.99 196.51
-9755261.37 5135694.83 196.44
-9755261.85 5135697.85 197.15
-9755262.00 5135696.89 198.49
-9755254.43 5135691.42 181.23
-9755251.38 5135702.95 181.15
-9755250.51 5135703.52 181.15
-9755252.60 5135706.52 181.20
-9755252.82 5135711.54 181.28
-9755249.88 5135710.63 181.30
-9755249.62 5135706.20 181.19
-9755252.80 5135710.94 181.26
-9755250.42 5135715.95 181.38
-9755251.95 5135706.78 181.21
-9755251.61 5135714.77 181.34
-9755251.01 5135713.88 181.34
-9755251.30 5135711.21 181.30
-9755251.93 5135713.63 181.32
-9755252.20 5135710.63 181.28
-9755252.20 5135715.35 181.35
-9755251.36 5135705.88 181.18
-9755252.27 5135704.68 181.16
-9755252.15 5135718.63 181.47
-9755250.69 5135717.18 181.41
-9755249.52 5135718.03 181.43
-9755249.52 5135715.35 181.36
-9755249.01 5135704.09 181.16
-9755248.98 5135710.58 181.30
-9755249.24 5135717.72 181.43
-9755244.90 5135703.20 181.17
-9755248.74 5135702.61 181.15
-9755241.35 5135703.19 181.18
-9755245.45 5135703.77 181.17
-9755243.71 5135703.78 181.17
-9755243.71 5135704.08 181.17
-9755243.14 5135714.89 189.94
-9755241.96 5135715.32 187.44
-9755244.00 5135713.07 187.14
-9755244.59 5135715.72 186.12
-9755240.71 5135714.60 184.36
-9755246.60 5135707.36 181.25
-9755242.15 5135714.11 189.24
-9755242.72 5135716.38 182.11
-9755248.10 5135709.73 181.29
-9755242.13 5135714.42 187.28
-9755241.30 5135707.95 181.25
-9755241.62 5135714.42 189.35
-9755241.06 5135714.27 184.41
-9755244.83 5135712.46 185.37
-9755243.63 5135715.44 185.69
-9755242.80 5135714.43 188.17
-9755246.06 5135706.73 181.22
-9755242.65 5135714.85 185.86
-9755244.29 5135713.22 188.65
-9755242.26 5135713.52 188.20
-9755248.97 5135705.01 181.17
-9755242.18 5135716.51 181.96
-9755243.07 5135714.08 189.20
-9755241.96 5135714.20 187.16
-9755242.48 5135716.11 182.62
-9755241.60 5135714.83 184.86
-9755241.01 5135713.56 184.45
-9755246.60 5135713.89 181.33
-9755241.41 5135714.13 186.78
-9755246.05 5135709.71 181.28
-9755244.14 5135715.99 182.45
-9755244.56 5135708.22 181.26
-9755243.08 5135713.74 188.34
-9755246.02 5135710.62 181.28
-9755241.90 5135714.97 188.50
-9755243.43 5135716.12 183.34
-9755243.69 5135710.31 181.28
-9755242.43 5135712.43 184.78
-9755245.14 5135713.30 187.08
-9755242.11 5135715.85 182.37
-9755246.96 5135704.10 181.18
-9755242.29 5135713.70 189.99
-9755242.79 5135715.12 185.86
-9755244.58 5135707.05 181.23
-9755240.69 5135713.85 181.33
-9755243.07 5135713.16 189.26
-9755248.42 5135709.11 181.29
-9755246.65 5135709.76 181.29
-9755242.79 5135714.43 189.20
-9755248.10 5135712.98 181.33
-9755240.99 5135717.07 181.36
-9755243.68 5135716.74 182.68
-9755241.96 5135716.45 181.55
-9755242.32 5135716.16 182.36
-9755241.87 5135716.18 181.64
-9755244.23 5135712.14 185.32
-9755243.63 5135716.51 182.21
-9755241.65 5135716.23 182.23
-9755241.32 5135710.28 181.29
-9755243.14 5135712.88 188.89
-9755241.62 5135713.79 188.10
-9755242.88 5135713.15 189.92
-9755247.50 5135709.15 181.28
-9755242.51 5135712.50 187.33
-9755239.80 5135715.27 181.34
-9755241.00 5135715.44 183.61
-9755243.19 5135712.35 188.93
-9755241.86 5135715.15 185.01
-9755242.80 5135713.20 186.53
-9755241.72 5135716.25 183.71
-9755241.35 5135713.64 184.54
-9755241.90 5135714.85 185.01
-9755243.06 5135714.43 187.18
-9755244.22 5135715.51 185.60
-9755240.36 5135716.80 181.36
-9755246.86 5135716.81 181.37
-9755242.77 5135712.07 187.00
-9755248.08 5135711.52 181.30
-9755243.68 5135714.10 189.30
-9755242.81 5135711.56 185.97
-9755248.68 5135715.35 181.36
-9755243.73 5135713.75 189.99
-9755245.48 5135713.59 187.04
-9755241.36 5135713.91 186.24
-9755248.04 5135714.78 181.35
-9755240.71 5135715.92 181.36
-9755241.28 5135714.76 181.42
-9755246.08 5135712.83 185.19
-9755242.06 5135715.12 186.04
-9755243.20 5135715.45 185.14
-9755245.19 5135713.98 184.22
-9755247.53 5135704.09 181.18
-9755242.30 5135713.45 189.31
-9755242.96 5135712.79 185.40
-9755241.84 5135715.65 184.05
-9755242.31 5135715.85 182.55
-9755242.77 5135716.09 182.69
-9755241.01 5135713.34 184.72
-9755245.19 5135704.10 181.18
-9755244.69 5135713.80 184.66
-9755244.60 5135706.19 181.20
-9755247.55 5135704.99 181.19
-9755242.73 5135715.80 183.69
-9755242.16 5135715.06 187.44
-9755245.77 5135704.97 181.19
-9755242.22 5135706.16 181.20
-9755242.76 5135713.92 188.46
-9755242.46 5135711.95 185.97
-9755244.21 5135713.53 186.99
-9755241.11 5135713.19 187.63
-9755247.20 5135714.49 181.34
-9755242.68 5135718.60 181.41
-9755241.30 5135713.65 185.86
-9755244.20 5135716.21 181.45
-9755241.65 5135715.69 183.50
-9755240.96 5135714.85 184.39
-9755241.51 5135715.87 181.59
-9755241.00 5135716.48 181.37
-9755244.95 5135716.25 186.06
-9755243.08 5135705.86 181.21
-9755243.54 5135715.36 185.27
-9755243.14 5135716.10 183.61
-9755246.04 5135711.51 181.28
-9755246.32 5135710.30 181.29
-9755242.56 5135713.27 185.01
-9755243.72 5135712.65 187.71
-9755241.08 5135714.12 186.21
-9755242.12 5135715.29 184.15
-9755242.75 5135716.33 182.27
-9755243.13 5135713.70 189.23
-9755243.38 5135706.45 181.20
-9755243.71 5135715.58 188.05
-9755242.21 5135713.04 187.29
-9755241.87 5135714.28 189.27
-9755243.06 5135714.98 185.33
-9755240.43 5135708.50 181.26
-9755244.02 5135712.68 187.73
-9755241.25 5135715.49 184.32
-9755248.39 5135712.38 181.33
-9755243.33 5135716.51 181.48
-9755240.70 5135718.58 181.39
-9755241.29 5135717.68 181.38
-9755243.34 5135718.52 181.40
-9755245.69 5135717.40 181.38
-9755243.00 5135717.69 181.37
-9755246.56 5135718.00 181.40
-9755243.05 5135718.00 181.39
-9755244.55 5135717.39 181.39
-9755252.58 5135702.39 181.13
-9755250.19 5135701.72 181.13
-9755251.42 5135699.37 181.11
-9755252.58 5135699.68 181.09
-9755250.84 5135699.92 181.11
-9755252.26 5135699.08 181.12
-9755252.04 5135697.62 181.12
-9755250.53 5135697.29 181.13
-9755250.02 5135696.07 188.91
-9755251.67 5135698.21 181.11
-9755251.45 5135691.68 181.23
-9755250.21 5135697.51 188.52
-9755249.73 5135698.18 185.84
-9755251.08 5135697.95 181.11
-9755249.76 5135698.13 187.69
-9755249.76 5135696.40 187.74
-9755251.43 5135696.12 181.12
-9755249.81 5135696.53 189.35
-9755249.81 5135695.91 187.76
-9755249.98 5135696.38 188.30
-9755251.10 5135698.48 181.10
-9755251.99 5135693.73 181.15
-9755250.22 5135691.99 181.21
-9755250.27 5135694.67 181.09
