-9755223.76 5135711.82 185.11
-9755223.54 5135711.64 186.97
-9755223.94 5135709.28 181.30
-9755224.10 5135709.23 184.24
-9755223.22 5135713.79 184.42
-9755224.90 5135709.74 186.66
-9755223.54 5135714.74 184.59
-9755224.81 5135713.35 185.37
-9755223.90 5135709.63 186.73
-9755224.84 5135709.02 186.50
-9755225.40 5135713.04 183.98
-9755224.83 5135709.54 184.92
-9755224.87 5135711.09 188.18
-9755222.79 5135708.81 185.37
-9755223.25 5135714.22 184.56
-9755223.68 5135712.60 185.83
-9755225.65 5135717.18 192.11
-9755222.40 5135718.77 181.34
-9755224.76 5135718.01 187.12
-9755224.43 5135718.76 181.32
-9755224.15 5135717.53 181.32
-9755223.63 5135718.77 186.93
-9755217.63 5135718.47 183.93
-9755213.31 5135711.01 181.26
-9755213.32 5135710.40 181.26
-9755213.72 5135716.67 185.85
-9755215.36 5135710.42 181.23
-9755217.08 5135718.78 185.58
-9755216.66 5135717.88 186.10
-9755214.97 5135717.64 185.92
-9755217.04 5135717.97 186.03
-9755217.71 5135717.95 185.16
-9755213.98 5135717.57 185.25
-9755215.06 5135718.07 187.48
-9755216.55 5135718.06 187.74
-9755214.53 5135717.52 185.83
-9755215.38 5135718.11 185.96
-9755214.93 5135717.90 185.02
-9755215.06 5135718.47 187.43
-9755215.00 5135717.66 185.00
-9755216.64 5135718.08 185.79
-9755216.23 5135718.23 185.90
-9755215.18 5135717.57 185.71
-9755214.68 5135717.96 185.36
-9755216.16 5135717.27 186.03
-9755218.84 5135718.76 181.33
-9755213.95 5135718.05 184.66
-9755213.74 5135717.86 184.35
-9755213.76 5135717.49 185.97
-9755216.55 5135717.60 185.90
-9755216.34 5135717.32 185.82
-9755214.54 5135717.88 185.93
-9755215.17 5135717.91 184.18
-9755211.69 5135730.20 181.45
-9755213.15 5135731.13 181.44
-9755212.13 5135723.19 185.89
-9755212.00 5135723.24 185.40
-9755211.69 5135721.77 185.43
-9755211.71 5135722.94 185.45
-9755212.62 5135724.51 184.66
-9755212.07 5135722.40 185.99
-9755211.73 5135723.59 184.54
-9755211.83 5135722.87 186.21
-9755213.27 5135724.13 185.60
-9755212.68 5135722.53 187.81
-9755212.66 5135724.43 184.61
-9755212.98 5135722.84 185.40
-9755213.12 5135722.92 185.07
-9755212.80 5135721.94 184.83
-9755211.62 5135723.30 185.32
-9755203.44 5135730.19 181.41
-9755206.70 5135729.60 181.45
-9755204.35 5135729.92 181.52
-9755208.45 5135731.09 181.46
-9755199.29 5135733.45 181.28
-9755201.37 5135731.06 181.29
-9755203.54 5135722.82 182.26
-9755203.74 5135722.14 182.25
-9755203.86 5135723.66 182.27
-9755212.98 5135721.29 188.24
-9755212.11 5135720.05 185.16
-9755212.80 5135718.77 183.90
-9755212.39 5135720.83 185.71
-9755212.41 5135720.93 185.38
-9755213.26 5135720.43 187.15
-9755211.73 5135721.21 185.28
-9755212.49 5135720.73 187.14
-9755212.34 5135718.43 185.33
-9755213.29 5135720.74 188.01
-9755213.09 5135719.24 187.50
-9755212.08 5135719.34 185.53
-9755212.98 5135720.47 187.60
-9755212.88 5135719.90 187.23
-9755212.73 5135718.93 185.97
-9755212.07 5135718.68 184.27
-9755213.22 5135719.99 185.15
-9755213.27 5135718.73 186.91
-9755212.04 5135721.21 186.15
-9755212.07 5135718.68 181.36
-9755211.56 5135721.44 185.83
-9755211.58 5135719.66 186.21
-9755211.23 5135721.17 185.55
-9755210.87 5135720.96 185.72
-9755211.23 5135719.71 185.78
-9755198.51 5135719.61 185.57
-9755211.25 5135719.91 185.80
-9755191.97 5135729.56 181.27
-9755194.32 5135728.68 181.28
-9755194.31 5135726.60 181.29
-9755194.66 5135725.39 181.30
-9755191.01 5135731.63 181.25
-9755191.06 5135731.88 181.24
-9755191.11 5135727.49 181.26
-9755190.22 5135726.31 181.27
-9755195.06 5135719.11 188.22
-9755195.99 5135718.79 188.43
-9755196.04 5135719.41 187.95
-9755197.64 5135718.84 189.08
-9755196.82 5135719.71 188.06
-9755196.81 5135720.37 187.38
-9755193.62 5135718.57 187.96
-9755197.67 5135718.50 189.11
-9755195.56 5135718.75 187.33
-9755194.82 5135718.87 187.96
-9755197.66 5135719.21 187.97
-9755197.65 5135718.79 189.42
-9755196.50 5135718.81 188.24
-9755194.67 5135718.27 188.08
-9755197.28 5135718.47 187.53
-9755195.59 5135719.41 188.90
-9755196.85 5135719.42 187.70
-9755197.63 5135718.94 181.28
-9755197.36 5135719.49 188.27
-9755195.57 5135719.00 187.51
-9755197.58 5135719.27 181.30
-9755196.48 5135718.65 187.82
-9755187.00 5135720.03 181.30
-9755211.91 5135718.43 184.48
-9755201.04 5135715.26 188.31
-9755200.78 5135713.49 190.31
-9755200.18 5135712.27 189.34
-9755206.83 5135715.09 181.36
-9755200.91 5135715.91 188.20
-9755200.06 5135716.79 188.68
-9755199.40 5135708.85 185.92
-9755198.57 5135709.78 187.00
-9755201.13 5135716.30 187.73
-9755200.13 5135715.54 189.48
-9755202.99 5135708.86 181.37
-9755198.47 5135711.04 188.40
-9755198.56 5135716.40 188.37
-9755199.49 5135713.01 188.33
-9755199.53 5135708.92 186.96
-9755201.27 5135709.76 186.66
-9755200.37 5135715.82 189.49
-9755200.98 5135713.48 183.13
-9755198.92 5135710.52 188.98
-9755198.70 5135709.81 187.07
-9755199.48 5135709.41 186.65
-9755198.80 5135708.87 186.71
-9755198.86 5135712.10 188.56
-9755202.07 5135715.15 187.53
-9755201.80 5135714.75 183.19
-9755200.95 5135712.66 188.52
-9755203.40 5135713.63 182.60
-9755201.24 5135712.07 188.71
-9755198.58 5135709.73 187.50
-9755201.79 5135712.74 187.16
-9755200.71 5135713.49 190.06
-9755203.56 5135714.77 183.08
-9755199.21 5135717.08 189.45
-9755201.73 5135710.41 186.71
-9755202.17 5135712.23 186.45
-9755201.00 5135711.88 187.16
-9755201.27 5135716.52 188.30
-9755203.73 5135715.39 182.84
-9755198.90 5135709.89 188.43
-9755200.85 5135712.57 190.22
-9755201.30 5135713.83 188.64
-9755200.79 5135710.99 186.14
-9755201.20 5135713.00 186.43
-9755198.82 5135710.52 187.51
-9755201.74 5135714.98 186.01
-9755201.27 5135710.37 186.65
-9755199.55 5135711.67 188.60
-9755201.57 5135713.13 185.26
-9755200.94 5135710.09 186.69
-9755201.62 5135714.96 187.56
-9755199.60 5135710.95 188.36
-9755200.69 5135713.85 188.26
-9755200.96 5135711.46 188.52
-9755200.02 5135715.58 186.91
-9755198.62 5135710.56 188.98
-9755198.82 5135715.20 189.67
-9755199.54 5135713.48 189.70
-9755200.95 5135712.65 186.88
-9755203.29 5135712.99 183.04
-9755198.57 5135714.39 189.53
-9755201.57 5135710.38 186.68
-9755200.36 5135709.75 186.63
-9755199.78 5135711.41 188.63
-9755198.92 5135712.12 188.66
-9755203.77 5135714.52 182.07
-9755199.32 5135717.09 187.76
-9755202.12 5135714.22 187.40
-9755200.95 5135710.58 187.19
-9755201.09 5135716.70 188.88
-9755199.55 5135709.79 188.41
-9755203.61 5135713.58 183.05
-9755199.22 5135711.80 189.01
-9755198.59 5135711.38 188.77
-9755200.15 5135709.53 187.65
-9755200.81 5135713.58 186.68
-9755199.84 5135713.38 190.00
-9755200.34 5135715.07 183.14
-9755201.55 5135716.77 189.20
-9755199.83 5135710.01 188.52
-9755199.18 5135714.14 189.62
-9755199.51 5135713.44 190.60
-9755199.20 5135711.82 188.96
-9755200.76 5135712.12 187.42
-9755201.37 5135713.02 188.62
-9755198.89 5135708.87 181.37
-9755202.76 5135712.69 187.42
-9755200.01 5135714.61 189.22
-9755199.24 5135715.60 190.61
-9755200.55 5135715.90 188.58
-9755199.33 5135711.69 188.65
-9755201.21 5135714.12 188.76
-9755200.68 5135711.92 190.06
-9755200.02 5135709.56 185.71
-9755200.07 5135714.19 189.10
-9755199.50 5135716.01 188.25
-9755203.81 5135714.53 181.42
-9755199.19 5135714.76 188.98
-9755200.21 5135713.48 190.06
-9755199.47 5135712.08 188.66
-9755202.69 5135708.84 181.36
-9755200.58 5135715.50 183.14
-9755201.59 5135713.12 186.33
-9755200.68 5135715.01 188.19
-9755202.10 5135713.10 187.41
-9755201.82 5135715.05 187.56
-9755201.00 5135714.79 188.26
-9755201.68 5135712.67 181.52
-9755198.80 5135717.14 181.49
-9755198.90 5135718.03 188.14
-9755200.65 5135718.34 187.35
-9755199.48 5135718.02 188.08
-9755198.57 5135717.75 188.24
-9755200.07 5135717.64 188.97
-9755199.70 5135717.50 187.66
-9755210.01 5135718.05 181.35
-9755198.85 5135717.12 189.28
-9755200.92 5135717.45 187.56
-9755199.21 5135717.49 188.71
-9755200.27 5135717.56 187.22
-9755198.60 5135717.29 189.47
-9755198.55 5135713.69 190.65
-9755198.35 5135712.27 190.31
-9755198.36 5135714.30 189.30
-9755198.25 5135712.57 188.29
-9755196.97 5135714.69 188.62
-9755198.41 5135715.98 188.45
-9755194.00 5135716.72 186.68
-9755198.29 5135712.58 189.53
-9755193.64 5135716.24 188.35
-9755198.00 5135715.47 189.76
-9755194.52 5135715.59 189.15
-9755197.43 5135715.62 189.21
-9755193.89 5135713.75 188.59
-9755192.93 5135713.02 185.53
-9755195.38 5135716.73 189.18
-9755195.99 5135715.85 188.30
-9755193.04 5135713.79 188.27
-9755193.10 5135715.86 188.36
-9755197.69 5135709.57 185.22
-9755196.22 5135714.91 188.45
-9755193.64 5135713.86 187.53
-9755196.66 5135712.96 188.24
-9755197.36 5135709.89 187.05
-9755197.07 5135711.38 188.48
-9755197.47 5135715.47 189.01
-9755193.96 5135714.96 188.56
-9755197.08 5135712.23 188.08
-9755195.90 5135710.57 187.37
-9755193.54 5135713.57 188.72
-9755193.88 5135712.93 188.64
-9755196.86 5135709.35 187.34
-9755194.40 5135711.47 187.18
-9755193.01 5135713.87 185.60
-9755196.33 5135714.20 188.27
-9755198.08 5135712.30 189.22
-9755193.33 5135715.27 188.81
-9755197.24 5135715.52 189.20
-9755194.17 5135711.78 187.43
-9755195.07 5135712.93 188.92
-9755195.97 5135714.61 189.53
-9755192.72 5135712.53 182.84
-9755193.54 5135713.51 183.18
-9755195.96 5135708.92 185.53
-9755196.52 5135709.68 187.37
-9755193.45 5135716.28 187.73
-9755197.01 5135713.84 181.82
-9755194.46 5135711.73 188.29
-9755194.53 5135714.90 189.25
-9755196.84 5135715.24 189.21
-9755193.31 5135713.10 186.14
-9755193.54 5135713.73 183.17
-9755194.53 5135714.70 189.17
-9755196.78 5135708.87 186.19
-9755196.79 5135712.70 188.54
-9755196.77 5135712.75 188.14
-9755196.21 5135710.49 188.71
-9755196.73 5135714.95 188.36
-9755195.94 5135713.60 187.68
-9755195.09 5135714.41 188.77
-9755197.15 5135716.34 189.06
-9755195.72 5135708.93 185.89
-9755192.70 5135713.28 188.30
-9755196.82 5135708.26 185.96
-9755192.67 5135716.79 187.60
-9755197.31 5135710.16 188.31
-9755194.23 5135710.99 186.07
-9755197.09 5135709.73 187.05
-9755197.22 5135716.49 187.70
-9755194.17 5135714.72 188.55
-9755196.81 5135712.69 181.62
-9755194.62 5135712.52 187.60
-9755194.53 5135713.87 186.90
-9755194.27 5135715.80 189.12
-9755198.01 5135715.85 189.17
-9755196.31 5135709.68 187.38
-9755195.31 5135713.52 188.33
-9755194.46 5135711.77 187.09
-9755196.84 5135712.01 189.38
-9755195.96 5135712.92 188.82
-9755194.82 5135713.90 186.74
-9755196.60 5135713.77 188.72
-9755197.64 5135713.00 188.22
-9755197.18 5135709.36 186.91
-9755193.50 5135715.87 188.18
-9755193.02 5135713.09 185.74
-9755193.62 5135712.80 185.07
-9755193.58 5135715.82 188.75
-9755198.04 5135715.60 189.26
-9755195.98 5135712.25 189.45
-9755193.81 5135711.46 184.62
-9755197.63 5135710.25 187.78
-9755192.68 5135716.77 186.73
-9755195.86 5135716.31 187.97
-9755197.44 5135710.23 187.95
-9755197.10 5135709.71 187.02
-9755197.40 5135716.79 188.06
-9755198.30 5135713.86 183.08
-9755194.69 5135710.48 187.49
-9755194.99 5135711.00 186.33
-9755198.34 5135712.59 190.35
-9755195.12 5135716.93 187.18
-9755195.67 5135716.43 188.83
-9755197.97 5135710.58 187.30
-9755195.67 5135708.80 186.15
-9755195.28 5135715.57 189.36
-9755195.90 5135716.83 189.21
-9755194.37 5135713.22 188.71
-9755195.29 5135714.09 188.41
-9755196.17 5135711.16 187.97
-9755197.91 5135714.96 188.84
-9755197.78 5135708.91 185.73
-9755193.08 5135713.19 188.11
-9755195.89 5135708.99 186.14
-9755197.56 5135708.56 185.72
-9755197.98 5135708.92 184.75
-9755195.68 5135712.66 188.84
-9755193.62 5135715.00 188.14
-9755197.46 5135710.22 187.92
-9755195.87 5135717.07 189.22
-9755194.77 5135713.45 188.53
-9755198.00 5135710.02 186.10
-9755196.88 5135708.61 184.86
-9755197.19 5135715.83 189.24
-9755193.30 5135713.52 188.74
-9755194.20 5135715.92 188.67
-9755195.92 5135711.45 188.89
-9755198.04 5135710.36 186.59
-9755196.83 5135708.67 185.45
-9755192.61 5135714.72 188.56
-9755198.12 5135710.03 186.97
-9755197.49 5135716.13 189.05
-9755196.53 5135713.80 188.54
-9755193.58 5135715.24 188.27
-9755195.96 5135715.85 187.93
-9755198.07 5135715.24 188.58
-9755194.21 5135715.22 188.81
-9755195.95 5135714.32 189.50
-9755196.24 5135713.44 189.37
-9755197.73 5135713.15 189.62
-9755193.91 5135710.61 186.12
-9755195.31 5135710.78 186.29
-9755196.05 5135716.83 188.01
-9755197.18 5135715.56 187.92
-9755196.34 5135710.33 187.36
-9755196.52 5135714.76 187.39
-9755197.68 5135712.09 188.23
-9755193.51 5135717.01 188.06
-9755194.44 5135716.47 188.31
-9755198.05 5135710.57 186.57
-9755192.34 5135714.64 183.20
-9755194.34 5135714.35 188.60
-9755196.85 5135715.90 188.17
-9755197.25 5135709.49 185.30
-9755195.57 5135718.56 188.57
-9755196.84 5135717.93 189.17
-9755194.92 5135717.12 181.55
-9755194.76 5135717.32 187.54
-9755197.24 5135717.67 188.36
-9755193.89 5135717.83 187.91
-9755195.93 5135717.24 187.36
-9755193.55 5135718.04 187.46
-9755196.93 5135717.11 189.14
-9755195.64 5135717.75 187.69
-9755197.37 5135717.64 189.33
-9755197.70 5135717.34 188.72
-9755191.22 5135715.50 183.17
-9755191.78 5135713.85 187.20
-9755191.88 5135713.21 187.43
-9755191.17 5135713.50 183.22
-9755190.31 5135709.40 181.39
-9755187.66 5135715.46 183.16
-9755189.43 5135712.62 181.55
-9755189.40 5135712.03 181.52
-9755189.45 5135715.24 183.17
-9755189.42 5135713.44 183.20
-9755189.42 5135714.00 183.24
-9755188.25 5135713.07 183.17
-9755238.90 5135728.62 188.16
-9755239.45 5135728.84 188.97
-9755238.99 5135729.47 188.54
-9755239.42 5135729.01 188.46
-9755239.49 5135729.35 188.86
-9755239.27 5135728.81 188.09
-9755239.38 5135728.25 188.33
-9755239.10 5135728.83 188.99
-9755238.99 5135729.72 188.66
-9755239.24 5135728.57 188.97
-9755239.40 5135728.48 188.35
-9755238.87 5135729.19 181.48
-9755238.91 5135728.02 188.21
-9755232.68 5135729.45 181.39
-9755232.06 5135729.44 181.39
-9755236.49 5135728.57 181.46
-9755235.60 5135728.57 181.43
-9755236.48 5135730.46 186.96
-9755238.61 5135730.93 188.05
-9755233.84 5135728.87 181.41
-9755238.55 5135730.39 187.83
-9755238.23 5135729.17 181.46
-9755235.00 5135729.50 181.42
-9755237.34 5135730.99 186.97
-9755238.34 5135730.96 188.78
-9755236.18 5135729.50 181.44
-9755237.75 5135730.94 188.18
-9755231.44 5135730.36 181.40
-9755238.55 5135730.99 181.44
-9755237.46 5135730.89 188.65
-9755237.07 5135730.09 181.44
-9755231.47 5135728.03 181.39
-9755238.81 5135728.89 188.15
-9755237.66 5135730.62 188.39
-9755237.23 5135730.89 188.13
-9755235.56 5135730.38 181.44
-9755235.00 5135730.43 181.42
-9755230.61 5135729.70 181.39
-9755237.95 5135729.81 181.44
-9755231.21 5135727.94 181.39
-9755237.62 5135730.47 186.89
-9755239.41 5135731.28 181.46
-9755239.51 5135731.34 186.93
-9755239.47 5135731.21 187.58
-9755237.98 5135730.99 181.44
-9755238.95 5135733.40 187.14
-9755238.89 5135732.93 187.22
-9755239.54 5135731.64 187.00
-9755239.50 5135731.44 190.21
-9755239.41 5135731.85 181.46
-9755239.07 5135733.04 181.44
-9755232.07 5135730.35 181.39
-9755238.19 5135733.43 186.83
-9755238.30 5135733.06 187.52
-9755233.20 5135733.62 181.43
-9755237.34 5135731.62 188.44
-9755232.03 5135733.02 181.43
-9755236.14 5135732.74 181.41
-9755236.23 5135731.24 186.99
-9755237.09 5135731.59 187.08
-9755235.88 5135731.79 188.60
-9755237.75 5135731.39 187.69
-9755237.68 5135731.28 181.44
-9755235.62 5135732.17 181.41
-9755238.65 5135731.34 187.16
-9755237.92 5135732.56 186.86
-9755237.72 5135732.52 187.36
-9755237.42 5135732.07 188.46
-9755237.41 5135731.86 188.01
-9755238.65 5135732.18 187.11
-9755237.07 5135731.36 187.27
-9755237.95 5135731.49 188.78
-9755238.31 5135732.48 186.93
-9755238.68 5135731.50 187.74
-9755237.16 5135731.87 187.95
-9755237.12 5135732.47 187.82
-9755230.86 5135731.84 181.41
-9755237.62 5135732.02 188.08
-9755235.73 5135731.21 188.60
-9755237.01 5135732.47 181.44
-9755234.40 5135733.59 181.42
-9755237.74 5135733.38 186.68
-9755238.66 5135732.53 187.25
-9755236.57 5135732.14 187.85
-9755233.77 5135733.60 181.42
-9755237.91 5135732.48 181.44
-9755231.79 5135732.71 181.43
-9755236.16 5135733.04 181.41
-9755233.81 5135732.43 181.41
-9755236.44 5135731.23 181.43
-9755232.31 5135733.03 181.43
-9755237.64 5135731.84 181.43
-9755237.38 5135732.03 186.64
-9755236.20 5135732.02 188.67
-9755237.07 5135732.13 187.94
-9755237.70 5135731.28 187.18
-9755235.56 5135731.81 181.41
-9755231.49 5135731.84 181.42
-9755234.72 5135732.70 181.41
-9755233.21 5135731.87 181.41
-9755239.54 5135726.79 189.84
-9755239.49 5135723.27 181.47
-9755238.89 5135725.09 181.49
-9755238.87 5135727.11 181.51
-9755239.46 5135727.62 189.73
-9755239.43 5135727.40 188.49
-9755232.79 5135722.25 188.20
-9755232.84 5135723.15 185.12
-9755232.57 5135722.72 188.14
-9755231.24 5135722.23 189.76
-9755233.11 5135723.23 187.25
-9755232.09 5135727.70 181.37
-9755232.08 5135724.92 189.99
-9755231.59 5135722.79 188.12
-9755230.61 5135723.98 190.95
-9755232.05 5135724.13 186.42
-9755231.36 5135723.03 191.64
-9755231.28 5135723.98 192.13
-9755230.43 5135723.60 191.52
-9755234.01 5135723.64 187.34
-9755234.52 5135724.54 186.07
-9755231.09 5135723.61 190.83
-9755231.76 5135723.56 188.47
-9755232.81 5135727.14 187.85
-9755233.38 5135723.48 186.88
-9755230.96 5135722.58 188.55
-9755231.19 5135723.67 191.42
-9755232.01 5135723.47 187.23
-9755231.15 5135722.93 186.95
-9755231.55 5135724.29 188.35
-9755230.62 5135725.04 192.04
-9755237.96 5135724.45 181.44
-9755231.61 5135724.63 189.93
-9755235.62 5135722.35 181.39
-9755230.71 5135722.44 191.44
-9755237.98 5135723.54 181.44
-9755233.36 5135724.72 188.47
-9755232.10 5135725.50 187.87
-9755231.30 5135721.81 191.03
-9755231.40 5135725.21 190.92
-9755233.28 5135724.92 188.22
-9755230.41 5135722.65 191.37
-9755234.10 5135724.52 187.96
-9755233.83 5135722.12 181.36
-9755230.48 5135723.17 190.45
-9755231.52 5135723.84 181.35
-9755230.97 5135726.64 189.76
-9755232.85 5135725.48 187.97
-9755231.47 5135727.18 187.06
-9755231.56 5135722.56 187.17
-9755231.51 5135725.68 191.00
-9755232.99 5135725.10 181.38
-9755230.77 5135721.80 192.01
-9755236.53 5135722.72 181.41
-9755235.04 5135725.33 181.37
-9755234.77 5135723.24 181.39
-9755233.58 5135722.39 187.54
-9755233.37 5135725.59 188.17
-9755230.70 5135727.21 189.92
-9755232.12 5135723.63 186.42
-9755231.60 5135723.82 190.45
-9755230.38 5135723.76 188.85
-9755237.11 5135723.58 181.42
-9755231.94 5135726.22 187.71
-9755232.14 5135724.35 190.58
-9755237.35 5135724.72 181.43
-9755231.48 5135721.81 191.05
-9755238.28 5135727.13 181.51
-9755233.23 5135722.65 181.37
-9755237.08 5135725.01 181.43
-9755232.42 5135725.81 189.04
-9755231.32 5135725.09 187.87
-9755231.61 5135724.60 189.09
-9755233.99 5135724.44 188.61
-9755235.35 5135724.76 181.38
-9755236.23 5135723.24 181.41
-9755231.61 5135724.87 190.51
-9755235.86 5135727.09 181.43
-9755232.17 5135723.46 188.81
-9755233.04 5135724.87 188.48
-9755231.89 5135722.34 188.83
-9755233.09 5135723.42 188.56
-9755233.89 5135722.36 181.36
-9755232.39 5135724.45 181.36
-9755231.70 5135723.56 192.13
-9755233.49 5135725.28 188.12
-9755233.31 5135724.76 181.38
-9755233.57 5135722.25 188.12
-9755231.98 5135725.21 190.24
-9755232.04 5135726.72 187.50
-9755231.99 5135723.96 190.59
-9755233.02 5135724.01 189.62
-9755234.77 5135724.45 181.38
-9755235.31 5135722.63 181.38
-9755232.19 5135723.10 188.40
-9755234.83 5135724.41 187.94
-9755237.70 5135725.95 181.47
-9755232.04 5135722.50 189.96
-9755231.57 5135725.64 187.64
-9755232.68 5135725.47 190.39
-9755232.98 5135723.61 188.22
-9755230.90 5135725.32 181.37
-9755231.44 5135725.02 181.37
-9755231.48 5135726.82 187.15
-9755230.74 5135723.11 191.28
-9755232.08 5135726.81 189.81
-9755230.44 5135726.69 189.02
-9755230.85 5135724.55 188.92
-9755232.83 5135722.74 187.15
-9755230.61 5135724.71 181.35
-9755233.13 5135721.97 188.08
-9755232.06 5135724.65 185.09
-9755233.02 5135724.41 188.25
-9755238.57 5135726.24 181.50
-9755233.11 5135723.87 187.17
-9755236.20 5135725.95 181.42
-9755232.11 5135724.70 189.27
-9755232.19 5135724.69 188.65
-9755232.50 5135724.59 190.80
-9755231.24 5135724.39 187.97
-9755232.26 5135724.81 188.19
-9755237.94 5135724.75 181.44
-9755231.00 5135727.71 190.05
-9755230.69 5135725.29 189.38
-9755233.08 5135724.88 189.55
-9755231.52 5135723.23 181.37
-9755230.47 5135727.22 187.38
-9755232.23 5135725.47 190.70
-9755230.86 5135725.61 181.38
-9755236.24 5135724.74 181.41
-9755232.13 5135724.35 189.72
-9755234.65 5135722.82 185.68
-9755230.48 5135726.85 187.34
-9755232.77 5135723.01 186.96
-9755235.36 5135725.96 181.38
-9755231.62 5135725.78 186.06
-9755235.07 5135723.91 187.71
-9755232.34 5135726.76 187.32
-9755231.60 5135726.73 187.50
-9755232.13 5135725.06 185.18
-9755231.27 5135726.06 189.42
-9755232.45 5135726.09 189.14
-9755234.14 5135725.32 181.37
-9755232.70 5135724.35 189.45
-9755231.57 5135722.31 187.39
-9755230.46 5135724.01 191.59
-9755230.90 5135723.39 190.76
-9755233.26 5135727.11 181.37
-9755232.99 5135724.03 188.21
-9755233.30 5135724.06 186.04
-9755232.47 5135724.65 190.18
-9755231.57 5135726.09 184.87
-9755231.99 5135724.33 189.09
-9755232.48 5135722.02 188.05
-9755231.30 5135721.81 187.00
-9755230.40 5135726.51 186.78
-9755233.23 5135725.67 186.10
-9755230.67 5135725.41 185.83
-9755230.57 5135727.41 181.39
-9755230.30 5135722.72 181.36
-9755232.98 5135727.32 189.49
-9755231.57 5135723.52 186.39
-9755232.76 5135723.62 186.28
-9755232.42 5135723.68 190.64
-9755232.15 5135723.43 188.46
-9755230.98 5135722.66 186.85
-9755231.25 5135727.27 190.16
-9755231.68 5135723.14 186.34
-9755235.03 5135722.35 181.37
-9755232.13 5135722.35 186.50
-9755233.29 5135722.96 185.33
-9755228.87 5135728.86 181.38
-9755226.15 5135730.26 181.40
-9755225.94 5135728.38 187.22
-9755226.54 5135728.49 187.26
-9755229.10 5135730.05 181.40
-9755227.99 5135728.11 190.44
-9755226.18 5135729.43 181.40
-9755228.73 5135727.93 188.50
-9755229.17 5135728.57 181.38
-9755227.80 5135727.99 190.31
-9755226.74 5135727.95 181.38
-9755226.54 5135728.11 190.00
-9755227.32 5135729.14 181.39
-9755227.05 5135729.17 181.39
-9755226.74 5135727.86 187.14
-9755225.78 5135728.61 189.79
-9755226.49 5135729.71 181.40
-9755228.82 5135728.55 181.37
-9755226.61 5135728.07 186.58
-9755225.89 5135728.46 188.14
-9755228.23 5135727.94 181.37
-9755229.10 5135730.61 181.41
-9755229.71 5135727.92 181.39
-9755227.69 5135728.13 190.60
-9755228.23 5135730.29 181.40
-9755227.96 5135730.64 181.41
-9755228.10 5135733.09 184.29
-9755229.97 5135732.65 181.42
-9755226.75 5135731.21 181.41
-9755226.77 5135732.08 181.43
-9755227.03 5135732.10 181.43
-9755227.67 5135733.43 184.07
-9755229.07 5135732.41 181.42
-9755227.60 5135733.53 181.44
-9755226.42 5135733.59 181.45
-9755226.21 5135732.87 184.58
-9755228.80 5135733.56 181.44
-9755230.00 5135731.27 181.40
-9755229.04 5135733.59 181.44
-9755226.97 5135733.59 181.47
-9755228.23 5135732.73 181.42
-9755229.09 5135732.98 181.43
-9755228.19 5135732.96 181.43
-9755229.36 5135733.60 181.43
-9755226.69 5135733.14 183.37
-9755226.39 5135733.57 183.33
-9755229.06 5135731.52 181.41
-9755227.04 5135731.77 181.42
-9755226.09 5135732.89 183.35
-9755226.52 5135732.85 183.41
-9755228.19 5135733.44 184.59
-9755227.61 5135732.70 181.44
-9755226.46 5135732.97 181.43
-9755230.31 5135723.14 189.61
-9755226.68 5135727.77 190.58
-9755229.89 5135725.30 188.26
-9755229.01 5135724.25 191.49
-9755229.24 5135725.53 190.64
-9755230.03 5135724.40 181.34
-9755226.86 5135727.85 189.27
-9755225.79 5135724.10 190.90
-9755227.43 5135725.51 190.39
-9755228.38 5135724.52 191.40
-9755226.96 5135722.16 191.46
-9755230.05 5135723.44 189.59
-9755227.18 5135725.67 189.99
-9755228.80 5135723.84 181.35
-9755230.13 5135724.56 187.79
-9755227.57 5135724.04 191.45
-9755229.19 5135723.97 192.34
-9755228.22 5135724.09 189.87
-9755227.37 5135725.74 191.27
-9755226.63 5135725.39 190.24
-9755227.08 5135725.46 190.66
-9755229.88 5135722.73 191.59
-9755230.53 5135722.91 188.65
-9755229.09 5135723.48 188.49
-9755230.34 5135722.05 188.51
-9755226.65 5135723.57 190.15
-9755227.09 5135726.87 191.04
-9755226.56 5135727.15 190.22
-9755226.23 5135727.84 190.20
-9755226.62 5135722.33 191.49
-9755227.09 5135724.60 190.48
-9755226.13 5135726.20 188.14
-9755227.62 5135728.08 184.78
-9755228.31 5135722.90 187.55
-9755226.58 5135725.57 188.82
-9755227.24 5135726.93 189.22
-9755229.78 5135722.95 186.22
-9755229.88 5135725.65 191.54
-9755228.07 5135725.45 189.93
-9755228.90 5135727.06 188.74
-9755230.40 5135722.91 190.11
-9755225.66 5135723.16 193.08
-9755230.03 5135723.68 190.04
-9755227.07 5135723.10 190.20
-9755227.98 5135722.95 181.37
-9755230.03 5135727.33 187.41
-9755229.56 5135722.43 190.71
-9755229.74 5135724.72 192.27
-9755229.86 5135723.46 188.63
-9755227.38 5135725.29 188.58
-9755228.05 5135724.54 188.11
-9755226.33 5135724.53 190.82
-9755229.91 5135725.10 191.57
-9755229.21 5135723.86 191.25
-9755227.95 5135723.12 190.64
-9755227.38 5135723.13 186.76
-9755225.79 5135725.88 187.64
-9755229.02 5135725.05 188.27
-9755225.92 5135725.26 187.96
-9755226.33 5135722.27 193.16
-9755228.56 5135722.31 188.05
-9755226.31 5135722.20 186.79
-9755225.67 5135725.56 189.85
-9755230.41 5135725.53 190.75
-9755228.68 5135723.18 193.05
-9755228.42 5135722.97 186.53
-9755226.02 5135726.13 189.89
-9755229.01 5135723.16 191.42
-9755230.18 5135722.05 189.58
-9755230.03 5135723.27 190.87
-9755225.95 5135727.24 190.06
-9755229.76 5135724.78 181.35
-9755226.50 5135724.03 190.76
-9755229.04 5135723.59 187.38
-9755226.68 5135723.88 192.19
-9755227.59 5135723.91 187.54
-9755227.22 5135725.51 189.48
-9755229.67 5135722.87 188.84
-9755229.18 5135726.80 181.37
-9755227.49 5135723.71 192.96
-9755229.16 5135723.89 190.49
-9755228.31 5135723.86 187.82
-9755227.82 5135727.50 191.47
-9755227.75 5135723.47 186.88
-9755227.96 5135722.99 186.86
-9755229.29 5135725.13 190.61
-9755228.14 5135722.44 190.85
-9755229.85 5135724.00 188.88
-9755228.67 5135722.42 186.50
-9755226.27 5135723.59 187.74
-9755227.97 5135724.48 187.87
-9755229.82 5135723.08 188.84
-9755226.61 5135722.94 192.68
-9755227.16 5135723.33 186.01
-9755228.26 5135727.07 181.37
-9755225.40 5135726.16 188.45
-9755227.15 5135724.45 192.51
-9755226.96 5135723.89 192.92
-9755225.69 5135723.62 192.78
-9755226.38 5135724.38 186.93
-9755227.19 5135723.36 187.06
-9755225.84 5135723.86 186.47
-9755225.81 5135721.94 189.53
-9755229.56 5135723.91 188.17
-9755226.60 5135722.23 189.48
-9755228.00 5135726.86 190.95
-9755226.36 5135722.49 191.46
-9755225.81 5135726.31 189.53
-9755228.26 5135724.67 181.38
-9755230.03 5135722.86 187.05
-9755227.46 5135723.55 187.28
-9755229.89 5135723.18 188.52
-9755228.04 5135725.18 188.01
-9755227.20 5135723.81 187.90
-9755226.41 5135723.74 187.74
-9755229.11 5135725.43 188.59
-9755228.22 5135723.44 186.90
-9755228.66 5135723.03 187.93
-9755227.77 5135722.06 192.11
-9755226.17 5135726.50 189.74
-9755226.29 5135726.59 187.85
-9755226.48 5135723.27 192.24
-9755226.35 5135721.90 191.45
-9755225.69 5135726.42 188.57
-9755229.46 5135724.41 188.15
-9755229.46 5135724.44 191.57
-9755226.55 5135724.67 187.80
-9755226.80 5135726.87 191.02
-9755225.79 5135723.79 188.23
-9755226.03 5135726.05 188.54
-9755229.18 5135721.68 191.59
-9755229.63 5135724.92 191.57
-9755227.10 5135723.85 192.30
-9755227.22 5135725.33 190.55
-9755228.59 5135721.82 191.62
-9755227.50 5135725.83 189.00
-9755229.34 5135722.85 190.79
-9755228.93 5135724.02 191.34
-9755228.31 5135724.58 188.33
-9755225.71 5135725.10 191.08
-9755229.95 5135726.19 181.40
-9755228.29 5135725.93 185.93
-9755230.04 5135726.14 185.61
-9755230.01 5135722.20 191.53
-9755229.16 5135723.50 181.34
-9755230.08 5135722.83 189.65
-9755226.70 5135721.85 191.48
-9755227.88 5135724.81 188.41
-9755227.15 5135724.20 192.89
-9755225.98 5135725.66 186.77
-9755228.55 5135723.23 187.57
-9755227.37 5135726.08 191.42
-9755229.63 5135724.28 192.29
-9755227.76 5135724.33 189.95
-9755226.61 5135727.28 189.79
-9755228.89 5135723.68 191.36
-9755229.41 5135727.25 187.70
-9755228.04 5135722.24 187.47
-9755228.56 5135722.20 190.84
-9755228.02 5135722.81 190.31
-9755230.43 5135722.93 187.07
-9755228.91 5135722.31 181.38
-9755227.74 5135726.97 184.76
-9755227.13 5135722.39 181.35
-9755225.86 5135726.50 181.37
-9755226.02 5135722.60 192.65
-9755228.31 5135723.85 181.35
-9755227.17 5135725.99 191.20
-9755226.81 5135725.19 190.66
-9755227.55 5135723.93 190.67
-9755227.57 5135724.19 191.14
-9755228.10 5135722.16 192.63
-9755229.16 5135725.22 188.48
-9755228.07 5135724.44 190.86
-9755227.80 5135724.81 191.48
-9755226.28 5135723.88 192.35
-9755226.42 5135724.76 186.96
-9755228.01 5135722.48 191.33
-9755228.07 5135722.68 192.55
-9755226.75 5135726.77 189.76
-9755229.28 5135725.34 192.22
-9755227.12 5135727.24 189.83
-9755226.42 5135722.18 188.47
-9755228.02 5135726.37 190.43
-9755228.60 5135726.42 189.89
-9755227.41 5135724.74 191.37
-9755225.95 5135726.73 188.37
-9755228.30 5135722.39 193.15
-9755225.53 5135723.66 189.64
-9755228.79 5135723.99 189.38
-9755226.76 5135723.21 186.18
-9755227.48 5135726.44 189.32
-9755227.11 5135722.50 189.86
-9755226.03 5135723.02 189.64
-9755228.31 5135725.88 188.64
-9755225.79 5135727.73 187.40
-9755229.13 5135727.10 181.37
-9755227.08 5135724.72 190.97
-9755225.93 5135726.80 181.37
-9755228.11 5135726.85 187.68
-9755226.32 5135725.52 188.06
-9755227.82 5135727.07 187.49
-9755228.21 5135727.70 181.37
-9755227.98 5135724.94 187.53
-9755228.89 5135725.75 188.65
-9755229.49 5135723.06 187.24
-9755227.20 5135723.02 191.34
-9755226.60 5135723.88 186.83
-9755228.29 5135721.94 190.27
-9755227.27 5135722.70 192.56
-9755227.68 5135721.91 192.07
-9755227.61 5135726.14 181.37
-9755226.60 5135725.69 190.54
-9755230.11 5135724.55 191.32
-9755228.72 5135722.77 192.18
-9755229.47 5135724.27 190.45
-9755229.18 5135723.80 181.34
-9755225.92 5135724.34 186.62
-9755229.84 5135724.32 190.24
-9755225.31 5135726.09 189.95
-9755228.67 5135722.09 193.01
-9755228.47 5135724.02 191.50
-9755229.16 5135721.81 192.48
-9755226.25 5135726.90 191.25
-9755227.75 5135721.80 189.85
-9755227.43 5135722.28 193.26
-9755227.73 5135727.16 190.94
-9755225.95 5135724.68 181.37
-9755227.43 5135727.27 190.51
-9755227.18 5135725.49 188.73
-9755229.82 5135726.48 187.95
-9755229.68 5135723.37 187.74
-9755226.86 5135726.74 189.22
-9755227.40 5135725.46 189.95
-9755229.95 5135726.67 185.04
-9755226.83 5135723.83 181.38
-9755227.19 5135722.21 191.87
-9755226.49 5135727.22 187.09
-9755229.71 5135723.52 181.35
-9755226.57 5135722.36 193.15
-9755228.37 5135722.12 186.20
-9755229.76 5135724.86 188.14
-9755226.22 5135727.55 189.70
-9755230.08 5135725.18 190.67
-9755228.03 5135726.25 184.59
-9755229.23 5135723.17 188.67
-9755229.14 5135725.62 181.40
-9755227.13 5135725.67 191.28
-9755225.49 5135727.26 188.28
-9755227.12 5135724.04 189.86
-9755226.56 5135727.81 190.32
-9755226.87 5135724.14 189.93
-9755228.34 5135723.94 191.08
-9755225.96 5135724.65 192.51
-9755227.51 5135724.89 191.10
-9755229.84 5135726.39 188.63
-9755225.76 5135723.44 193.12
-9755226.31 5135727.27 189.75
-9755228.62 5135723.03 192.23
-9755226.31 5135722.43 192.66
-9755226.26 5135725.38 186.06
-9755229.74 5135722.16 191.64
-9755228.68 5135723.60 193.03
-9755229.31 5135722.04 193.57
-9755230.57 5135724.35 189.49
-9755226.65 5135727.28 187.67
-9755225.77 5135726.07 185.21
-9755226.56 5135722.84 189.51
-9755229.25 5135725.24 189.00
-9755225.97 5135726.30 191.10
-9755226.56 5135723.46 189.61
-9755226.46 5135726.12 189.72
-9755225.99 5135723.90 192.39
-9755226.97 5135723.64 192.23
-9755229.43 5135721.94 193.46
-9755225.97 5135726.32 189.74
-9755225.66 5135724.17 191.16
-9755226.46 5135722.32 181.36
-9755226.65 5135723.12 189.48
-9755228.86 5135725.92 181.36
-9755227.95 5135725.27 188.58
-9755226.32 5135722.22 190.84
-9755227.42 5135723.57 187.06
-9755228.91 5135726.97 188.06
-9755227.72 5135725.13 191.11
-9755225.84 5135722.40 193.11
-9755228.26 5135724.60 190.64
-9755230.05 5135723.77 189.70
-9755226.84 5135725.35 188.66
-9755227.37 5135721.85 191.44
-9755226.31 5135726.98 190.22
-9755226.25 5135726.30 191.09
-9755226.22 5135726.02 187.42
-9755229.27 5135724.46 188.07
-9755229.24 5135721.94 190.97
-9755227.72 5135722.86 191.32
-9755225.92 5135725.57 181.36
-9755229.33 5135723.52 188.99
-9755225.42 5135726.37 190.02
-9755226.62 5135724.35 187.01
-9755229.62 5135722.00 192.54
-9755229.81 5135723.50 188.99
-9755226.67 5135725.40 186.47
-9755227.99 5135725.94 181.37
-9755228.99 5135722.61 186.58
-9755229.66 5135725.73 185.40
-9755227.11 5135727.06 181.36
-9755228.63 5135722.20 192.00
-9755228.25 5135726.91 190.59
-9755225.90 5135726.15 190.71
-9755229.67 5135722.99 192.05
-9755229.49 5135724.65 190.26
-9755226.74 5135724.44 181.36
-9755226.17 5135725.62 188.65
-9755226.19 5135724.81 185.27
-9755225.85 5135727.32 181.37
-9755228.67 5135724.76 192.54
-9755229.50 5135726.78 187.68
-9755226.16 5135726.01 188.81
-9755227.16 5135722.76 192.10
-9755229.72 5135725.90 181.38
-9755228.76 5135721.69 192.24
-9755228.31 5135726.94 191.00
-9755230.00 5135726.08 188.84
-9755229.35 5135724.68 188.70
-9755225.69 5135722.36 188.81
-9755226.24 5135726.33 191.72
-9755227.04 5135726.76 181.37
-9755227.18 5135724.64 189.40
-9755229.69 5135722.47 181.37
-9755239.48 5135721.53 181.44
-9755239.50 5135719.72 181.40
-9755239.21 5135721.47 181.43
-9755230.40 5135721.55 191.47
-9755231.33 5135721.28 189.60
-9755232.44 5135722.09 181.36
-9755232.75 5135720.64 191.02
-9755231.27 5135721.22 189.40
-9755232.49 5135719.12 187.29
-9755232.22 5135719.34 189.15
-9755234.51 5135719.42 181.35
-9755233.08 5135719.51 191.11
-9755231.99 5135719.56 189.09
-9755232.00 5135720.22 191.56
-9755231.59 5135719.80 187.28
-9755231.62 5135720.11 190.67
-9755232.53 5135721.31 191.44
-9755236.25 5135720.33 181.37
-9755232.80 5135719.23 190.81
-9755231.31 5135719.80 190.06
-9755236.49 5135722.06 181.41
-9755237.43 5135718.85 181.38
-9755233.61 5135719.52 189.90
-9755237.74 5135720.61 181.39
-9755230.42 5135719.01 190.77
-9755231.09 5135720.32 191.54
-9755233.36 5135720.68 191.58
-9755231.96 5135719.77 190.55
-9755231.95 5135721.37 189.70
-9755232.82 5135719.65 189.65
-9755231.56 5135718.53 188.36
-9755233.35 5135719.08 189.96
-9755231.45 5135720.83 189.53
-9755232.41 5135719.44 186.95
-9755231.55 5135721.06 186.79
-9755230.67 5135719.08 188.43
-9755233.39 5135719.36 189.92
-9755231.90 5135721.53 188.19
-9755231.00 5135719.62 188.51
-9755232.22 5135720.18 190.88
-9755236.21 5135719.73 181.37
-9755233.11 5135719.68 189.00
-9755236.56 5135721.22 181.40
-9755230.63 5135720.02 181.42
-9755231.37 5135719.45 191.93
-9755231.27 5135720.20 190.65
-9755233.94 5135719.33 189.99
-9755235.91 5135722.07 181.39
-9755231.50 5135720.28 181.38
-9755231.61 5135720.27 191.47
-9755232.34 5135718.81 187.69
-9755230.31 5135721.65 192.30
-9755235.38 5135719.13 181.37
-9755231.62 5135718.80 187.69
-9755231.89 5135720.54 190.99
-9755235.08 5135719.44 181.35
-9755231.55 5135719.34 188.92
-9755232.51 5135718.52 187.33
-9755237.43 5135719.42 181.39
-9755232.22 5135720.80 190.74
-9755232.72 5135720.56 181.37
-9755233.00 5135719.69 181.36
-9755232.87 5135718.95 190.68
-9755233.35 5135719.83 191.38
-9755230.37 5135720.59 188.56
-9755233.79 5135720.35 186.76
-9755232.35 5135719.22 189.14
-9755231.64 5135721.55 186.77
-9755231.32 5135718.93 189.93
-9755232.44 5135719.88 189.89
-9755230.66 5135719.04 192.31
-9755231.21 5135720.53 190.82
-9755238.29 5135721.51 181.42
-9755230.92 5135720.98 191.87
-9755232.76 5135719.06 186.86
-9755232.43 5135718.80 181.39
-9755235.36 5135720.32 181.36
-9755232.21 5135719.28 188.65
-9755231.05 5135718.93 190.97
-9755230.59 5135720.31 190.69
-9755232.81 5135721.22 190.58
-9755233.60 5135720.33 181.36
-9755230.66 5135718.80 189.22
-9755234.15 5135719.68 181.35
-9755231.51 5135720.56 187.50
-9755233.36 5135719.71 187.59
-9755238.31 5135718.85 181.37
-9755232.10 5135719.28 190.28
-9755232.56 5135719.37 190.71
-9755231.55 5135719.31 187.75
-9755230.64 5135719.07 181.42
-9755230.37 5135718.90 192.72
-9755231.05 5135720.46 186.90
-9755234.80 5135721.51 181.36
-9755231.50 5135720.41 189.52
-9755232.41 5135719.98 181.36
-9755231.12 5135720.90 190.72
-9755231.92 5135720.41 192.20
-9755230.88 5135720.66 190.89
-9755232.11 5135720.57 187.04
-9755233.11 5135720.10 186.80
-9755238.33 5135719.74 181.39
-9755231.36 5135719.43 189.31
-9755235.35 5135720.00 181.35
-9755232.48 5135719.83 190.80
-9755231.20 5135719.46 188.01
-9755226.71 5135721.47 193.01
-9755229.82 5135719.98 192.72
-9755226.27 5135722.06 193.14
-9755227.85 5135721.96 187.44
-9755226.58 5135720.19 191.40
-9755229.21 5135718.95 191.10
-9755228.88 5135721.62 192.25
-9755229.34 5135720.99 192.35
-9755227.91 5135721.36 188.98
-9755226.22 5135720.12 191.47
-9755229.48 5135719.84 191.07
-9755226.83 5135720.58 181.41
-9755230.12 5135719.17 184.99
-9755229.25 5135720.99 191.87
-9755228.24 5135721.11 188.75
-9755229.20 5135719.80 190.95
-9755229.16 5135718.90 190.09
-9755229.15 5135719.17 191.54
-9755229.87 5135720.14 191.89
-9755229.52 5135721.15 192.50
-9755228.71 5135720.19 192.59
-9755227.82 5135721.38 188.72
-9755227.46 5135720.35 189.47
-9755227.36 5135722.01 181.38
-9755228.61 5135719.76 192.52
-9755229.17 5135720.25 193.14
-9755228.92 5135722.09 193.58
-9755229.74 5135722.09 186.99
-9755226.08 5135719.63 193.25
-9755229.07 5135719.23 191.07
-9755228.33 5135719.45 190.95
-9755227.13 5135720.66 191.44
-9755229.56 5135718.87 185.85
-9755228.30 5135720.46 190.69
-9755226.45 5135721.47 181.38
-9755228.84 5135720.95 192.16
-9755226.84 5135719.78 190.31
-9755229.60 5135720.81 188.03
-9755228.66 5135722.00 189.81
-9755225.85 5135719.28 189.46
-9755228.31 5135720.14 189.18
-9755227.20 5135721.49 192.95
-9755228.82 5135719.24 190.51
-9755228.72 5135720.14 188.81
-9755228.74 5135721.48 192.77
-9755229.35 5135720.60 191.82
-9755228.67 5135721.03 190.14
-9755226.33 5135719.91 191.53
-9755228.39 5135720.10 190.80
-9755227.79 5135719.71 192.73
-9755228.87 5135720.60 187.22
-9755229.68 5135720.92 192.30
-9755225.91 5135721.98 181.36
-9755226.18 5135720.55 193.45
-9755229.89 5135720.95 192.87
-9755226.21 5135721.27 191.49
-9755226.62 5135719.76 189.51
-9755226.88 5135721.43 189.43
-9755228.70 5135720.63 190.25
-9755229.46 5135721.15 181.46
-9755226.20 5135720.22 181.37
-9755229.81 5135718.66 191.84
-9755226.11 5135719.50 189.09
-9755225.76 5135719.71 193.10
-9755228.99 5135718.75 191.06
-9755228.63 5135718.82 186.48
-9755226.36 5135720.49 188.99
-9755228.75 5135720.29 191.25
-9755226.70 5135720.50 188.99
-9755228.56 5135720.52 188.52
-9755227.22 5135720.22 190.81
-9755226.94 5135719.82 189.48
-9755228.34 5135718.60 191.78
-9755229.64 5135718.56 191.85
-9755227.09 5135721.34 188.23
-9755229.43 5135718.63 191.37
-9755230.43 5135719.12 184.85
-9755229.76 5135719.90 181.47
-9755228.30 5135719.91 189.10
-9755227.13 5135720.85 181.42
-9755227.41 5135721.34 193.15
-9755226.63 5135720.41 190.71
-9755227.39 5135720.01 186.68
-9755227.17 5135718.78 193.16
-9755229.59 5135719.16 192.92
-9755228.69 5135721.08 187.94
-9755229.27 5135719.65 192.21
-9755229.15 5135718.50 181.43
-9755227.13 5135720.57 189.47
-9755226.61 5135720.98 190.24
-9755225.35 5135721.36 189.31
-9755227.69 5135721.21 181.43
-9755226.95 5135719.42 190.85
-9755228.80 5135718.85 191.94
-9755228.70 5135718.71 188.05
-9755227.47 5135721.48 188.49
-9755228.34 5135721.33 191.99
-9755227.92 5135720.57 192.57
-9755227.51 5135720.35 186.77
-9755229.81 5135720.49 187.57
-9755230.15 5135719.37 188.26
-9755230.16 5135719.55 188.81
-9755229.64 5135719.12 190.93
-9755229.44 5135719.34 192.45
-9755229.82 5135719.09 191.95
-9755228.05 5135719.29 189.79
-9755227.91 5135720.92 191.56
-9755225.80 5135719.21 190.03
-9755228.29 5135721.46 189.29
-9755227.12 5135718.63 191.84
-9755229.07 5135721.55 190.97
-9755228.71 5135720.21 183.72
-9755228.89 5135721.40 187.84
-9755226.55 5135718.80 181.36
-9755228.65 5135721.01 191.50
-9755229.59 5135719.80 192.24
-9755225.80 5135720.48 189.05
-9755227.35 5135720.28 181.44
-9755228.41 5135719.51 189.84
-9755226.43 5135719.94 186.34
-9755230.03 5135721.36 189.85
-9755226.63 5135720.77 187.49
-9755225.64 5135719.77 191.94
-9755227.15 5135720.35 188.61
-9755225.75 5135719.87 188.94
-9755228.38 5135720.81 190.12
-9755229.80 5135718.50 188.14
-9755228.32 5135720.39 183.75
-9755225.68 5135720.84 187.79
-9755228.65 5135720.38 188.23
-9755228.85 5135718.60 189.56
-9755229.57 5135721.10 193.23
-9755226.69 5135720.22 188.88
-9755226.60 5135719.56 190.86
-9755228.60 5135720.39 187.57
-9755228.38 5135721.02 190.12
-9755225.79 5135720.94 192.34
-9755228.17 5135719.89 190.25
-9755227.18 5135720.66 189.74
-9755229.53 5135718.47 189.34
-9755229.55 5135719.94 191.68
-9755228.65 5135720.75 188.84
-9755229.58 5135719.68 187.41
-9755226.59 5135719.04 188.76
-9755227.08 5135719.91 190.31
-9755226.62 5135718.51 192.60
-9755229.18 5135720.27 181.51
-9755228.26 5135719.70 181.49
-9755227.84 5135719.42 192.43
-9755227.09 5135720.51 188.80
-9755225.72 5135718.92 191.06
-9755228.76 5135719.45 192.31
-9755227.46 5135720.90 188.10
-9755226.24 5135719.94 181.36
-9755228.90 5135719.07 181.44
-9755227.33 5135720.37 188.09
-9755230.03 5135719.11 192.18
-9755229.80 5135720.26 187.56
-9755226.23 5135720.00 193.59
-9755226.34 5135719.10 192.10
-9755228.93 5135719.93 189.59
-9755225.99 5135718.81 188.72
-9755228.41 5135720.93 189.34
-9755226.18 5135719.88 189.56
-9755228.62 5135720.25 181.52
-9755227.71 5135718.87 189.90
-9755226.92 5135719.40 193.23
-9755226.26 5135719.35 181.37
-9755226.55 5135721.14 187.24
-9755227.07 5135718.91 188.87
-9755228.25 5135720.28 181.51
-9755226.40 5135720.08 187.87
-9755228.65 5135718.66 189.11
-9755228.49 5135720.42 191.21
-9755227.29 5135721.60 189.45
-9755227.25 5135720.57 188.60
-9755226.27 5135719.41 189.20
-9755225.91 5135719.65 186.38
-9755228.90 5135718.67 191.49
-9755230.26 5135721.14 188.56
-9755229.61 5135719.55 192.30
-9755229.78 5135720.74 191.60
-9755229.23 5135718.99 189.18
-9755228.87 5135719.80 188.66
-9755228.06 5135720.71 191.53
-9755227.10 5135719.91 181.40
-9755229.48 5135721.08 188.29
-9755227.01 5135722.00 181.38
-9755230.13 5135719.72 188.19
-9755228.30 5135721.10 181.47
-9755225.84 5135719.36 193.03
-9755226.32 5135718.48 191.17
-9755226.60 5135719.96 192.22
-9755227.40 5135718.72 181.37
-9755229.19 5135720.41 190.27
-9755228.71 5135718.85 190.54
-9755229.16 5135720.81 190.34
-9755228.86 5135721.06 189.71
-9755226.35 5135719.99 191.89
-9755225.67 5135721.39 187.89
-9755226.51 5135721.51 185.04
-9755228.49 5135719.34 190.54
-9755228.90 5135720.38 189.43
-9755226.89 5135718.97 191.05
-9755222.35 5135730.28 181.41
-9755223.49 5135729.44 181.40
-9755225.65 5135728.44 189.77
-9755220.24 5135730.26 181.41
-9755220.82 5135728.82 181.39
-9755224.09 5135730.33 181.40
-9755220.90 5135728.24 181.37
-9755220.28 5135727.93 181.37
-9755221.74 5135727.93 181.38
-9755224.11 5135728.55 181.38
-9755224.72 5135727.86 184.87
-9755225.02 5135729.72 181.40
-9755222.04 5135730.34 181.40
-9755224.39 5135730.31 181.41
-9755222.93 5135727.93 181.37
-9755223.78 5135730.62 181.41
-9755224.44 5135727.94 181.38
-9755223.24 5135730.00 181.40
-9755223.54 5135727.98 181.38
-9755221.73 5135730.00 181.40
-9755224.99 5135727.91 188.09
-9755225.56 5135733.56 181.43
-9755221.71 5135730.86 181.41
-9755220.83 5135733.56 181.44
-9755225.25 5135731.21 181.42
-9755222.93 5135732.05 181.44
-9755224.69 5135732.99 181.43
-9755221.43 5135732.64 181.43
-9755224.65 5135730.87 181.42
-9755223.47 5135732.68 181.43
-9755219.94 5135731.78 181.41
-9755224.98 5135731.24 181.42
-9755213.23 5135728.76 181.43
-9755217.91 5135727.89 181.38
-9755216.75 5135728.80 181.39
-9755219.08 5135729.67 181.41
-9755211.73 5135729.05 181.43
-9755219.12 5135730.29 181.39
-9755213.77 5135730.25 181.43
-9755217.61 5135728.47 181.38
-9755211.72 5135729.62 181.44
-9755214.94 5135728.19 181.40
-9755218.78 5135730.27 181.40
-9755215.85 5135728.78 181.40
-9755215.25 5135730.24 181.41
-9755214.11 5135729.10 181.42
-9755215.30 5135727.88 181.40
-9755212.30 5135727.87 181.41
-9755216.46 5135728.81 181.40
-9755216.44 5135727.91 181.39
-9755217.02 5135727.93 181.38
-9755211.68 5135731.09 181.44
-9755216.69 5135730.56 181.40
-9755215.56 5135730.87 181.41
-9755219.65 5135733.51 181.43
-9755214.05 5135730.54 181.43
-9755218.49 5135730.55 181.40
-9755214.03 5135733.47 181.45
-9755216.42 5135732.02 181.41
-9755214.04 5135732.36 181.44
-9755211.95 5135732.61 181.46
-9755218.75 5135733.53 181.42
-9755215.21 5135732.01 181.43
-9755216.41 5135732.62 181.43
-9755215.84 5135730.85 181.41
-9755214.02 5135733.21 181.45
-9755214.08 5135731.42 181.44
-9755217.29 5135732.61 181.42
-9755217.56 5135731.75 181.41
-9755213.18 5135732.93 181.45
-9755218.49 5135733.24 181.41
-9755215.24 5135732.64 181.44
-9755211.68 5135733.49 181.47
-9755217.89 5135732.67 181.41
-9755215.51 5135731.17 181.42
-9755218.76 5135731.17 181.41
-9755216.44 5135733.50 181.44
-9755216.45 5135731.74 181.42
-9755215.53 5135733.52 181.44
-9755213.18 5135733.50 181.46
-9755211.41 5135732.59 181.46
-9755211.40 5135731.43 181.45
-9755225.86 5135724.92 185.27
-9755225.35 5135726.76 188.40
-9755225.57 5135727.27 189.71
-9755225.90 5135722.27 181.36
-9755225.38 5135726.03 189.19
-9755225.61 5135727.40 181.37
-9755225.39 5135726.41 190.99
-9755225.48 5135726.55 191.55
-9755225.54 5135727.46 184.50
-9755225.57 5135727.03 181.37
-9755225.59 5135725.28 187.79
-9755225.40 5135722.25 189.64
-9755225.59 5135726.87 190.31
-9755225.39 5135722.68 191.07
-9755225.62 5135725.72 188.69
-9755225.41 5135724.77 188.17
-9755222.59 5135725.52 186.32
-9755223.36 5135727.37 184.89
-9755223.39 5135725.50 188.05
-9755224.76 5135723.82 181.37
-9755221.83 5135722.17 190.69
-9755224.87 5135724.53 191.06
-9755225.07 5135724.59 184.56
-9755224.33 5135723.47 189.88
-9755225.02 5135724.63 187.95
-9755223.37 5135725.13 189.77
-9755222.98 5135724.31 189.30
-9755224.50 5135723.68 189.65
-9755220.90 5135723.75 181.35
-9755222.93 5135726.02 186.04
-9755222.76 5135724.32 189.24
-9755221.19 5135724.67 181.35
-9755222.37 5135723.45 181.35
-9755222.61 5135722.40 185.66
-9755220.56 5135724.38 181.34
-9755223.24 5135725.89 181.37
-9755224.98 5135724.74 186.07
-9755225.55 5135725.54 181.36
-9755226.25 5135718.77 181.36
-9755222.15 5135724.32 188.98
-9755223.25 5135722.76 188.98
-9755222.68 5135724.64 181.36
-9755221.23 5135724.57 189.07
-9755223.91 5135726.92 189.57
-9755221.81 5135723.53 187.75
-9755225.10 5135725.53 187.89
-9755223.04 5135726.09 188.71
-9755222.15 5135725.09 185.91
-9755221.46 5135726.00 186.09
-9755222.08 5135724.63 181.36
-9755220.84 5135724.81 186.06
-9755220.74 5135722.65 185.85
-9755220.96 5135727.11 184.87
-9755219.99 5135725.23 181.35
-9755221.80 5135724.97 181.36
-9755220.91 5135722.56 190.49
-9755220.28 5135726.15 181.37
-9755222.53 5135722.74 188.99
-9755223.37 5135724.42 189.06
-9755223.00 5135723.44 188.53
-9755223.99 5135723.66 189.56
-9755221.51 5135726.39 184.87
-9755224.95 5135725.83 186.50
-9755223.99 5135722.32 192.87
-9755223.75 5135725.51 188.91
-9755223.95 5135724.97 189.34
-9755220.66 5135722.68 186.22
-9755221.51 5135723.25 186.11
-9755222.19 5135722.61 185.84
-9755220.03 5135724.04 185.46
-9755220.89 5135726.45 181.37
-9755223.33 5135725.15 188.62
-9755223.14 5135722.89 185.36
-9755222.95 5135724.87 189.45
-9755224.21 5135725.92 187.71
-9755224.12 5135725.27 189.00
-9755221.27 5135723.90 185.78
-9755225.10 5135727.19 190.39
-9755221.42 5135723.31 185.63
-9755223.89 5135725.13 188.81
-9755221.49 5135722.63 181.34
-9755224.70 5135726.12 184.58
-9755224.71 5135727.07 181.38
-9755222.98 5135722.59 181.36
-9755222.38 5135721.74 181.34
-9755223.09 5135721.44 189.70
-9755220.98 5135721.56 189.44
-9755223.41 5135722.54 189.32
-9755224.51 5135721.66 189.42
-9755221.80 5135724.26 186.22
-9755220.59 5135727.35 181.38
-9755223.06 5135722.72 190.38
-9755225.08 5135724.48 186.50
-9755224.01 5135721.63 189.67
-9755222.07 5135725.56 181.37
-9755222.16 5135721.49 186.38
-9755220.56 5135725.25 181.37
-9755223.28 5135722.73 185.25
-9755221.87 5135724.64 188.38
-9755219.96 5135727.60 181.38
-9755223.83 5135722.47 188.46
-9755225.36 5135724.04 189.56
-9755221.48 5135727.40 184.98
-9755224.41 5135724.57 185.68
-9755222.12 5135723.48 185.86
-9755224.73 5135724.10 186.15
-9755220.75 5135722.98 185.66
-9755221.48 5135726.72 181.37
-9755223.66 5135725.08 189.80
-9755222.12 5135724.41 185.73
-9755224.69 5135727.65 181.38
-9755223.45 5135724.63 188.18
-9755221.35 5135723.20 190.60
-9755223.60 5135722.33 191.57
-9755225.10 5135725.26 187.89
-9755223.10 5135724.72 188.53
-9755224.69 5135726.47 181.38
-9755222.75 5135725.50 188.74
-9755221.67 5135723.06 185.74
