-9755103.70 5135427.17 189.60
-9755099.29 5135425.70 189.18
-9755098.94 5135419.30 186.60
-9755101.27 5135423.40 190.25
-9755105.09 5135418.92 186.75
-9755105.37 5135428.47 181.38
-9755101.36 5135419.41 189.48
-9755101.44 5135427.59 190.02
-9755104.60 5135423.05 189.02
-9755102.37 5135423.61 189.52
-9755105.18 5135427.23 187.57
-9755103.25 5135421.11 188.21
-9755101.56 5135420.67 190.24
-9755104.80 5135418.99 188.15
-9755102.29 5135426.88 190.25
-9755103.20 5135421.45 189.91
-9755099.22 5135421.36 187.17
-9755098.98 5135423.85 190.85
-9755100.64 5135418.93 188.18
-9755103.85 5135425.18 181.46
-9755105.33 5135421.03 189.22
-9755103.00 5135423.91 190.63
-9755102.60 5135424.25 190.83
-9755100.01 5135427.84 181.39
-9755100.33 5135418.19 185.55
-9755102.73 5135420.45 188.80
-9755102.43 5135423.93 190.91
-9755104.53 5135419.83 189.38
-9755100.26 5135418.29 185.84
-9755101.26 5135424.39 186.29
-9755102.44 5135420.39 188.29
-9755098.83 5135425.02 188.53
-9755102.44 5135424.53 189.97
-9755104.60 5135422.30 188.69
-9755104.15 5135425.50 181.44
-9755101.22 5135427.46 190.31
-9755099.58 5135427.78 191.06
-9755104.15 5135429.16 188.49
-9755100.99 5135423.95 190.80
-9755103.64 5135422.27 188.56
-9755103.74 5135419.16 189.85
-9755103.37 5135422.32 187.68
-9755104.79 5135419.90 187.85
-9755104.78 5135428.46 186.67
-9755102.16 5135427.73 190.02
-9755105.33 5135426.87 188.41
-9755100.07 5135422.52 181.41
-9755103.71 5135419.39 186.82
-9755104.12 5135420.40 188.24
-9755104.36 5135424.36 188.36
-9755099.19 5135427.85 188.67
-9755100.60 5135426.35 186.77
-9755101.68 5135423.85 189.62
-9755100.42 5135419.05 188.87
-9755104.87 5135423.86 188.32
-9755100.34 5135425.16 188.16
-9755100.98 5135428.90 190.30
-9755103.02 5135421.92 189.63
-9755105.36 5135422.14 189.24
-9755104.55 5135419.25 188.17
-9755100.68 5135421.10 181.40
-9755104.78 5135423.44 187.25
-9755100.10 5135427.50 189.62
-9755104.44 5135420.96 189.35
-9755098.82 5135418.25 186.62
-9755099.27 5135424.76 190.71
-9755105.34 5135418.79 187.87
-9755104.88 5135422.23 189.13
-9755103.08 5135428.04 188.71
-9755101.37 5135427.99 191.06
-9755100.40 5135429.16 189.71
-9755104.52 5135420.34 189.74
-9755102.23 5135422.62 187.48
-9755100.01 5135423.14 181.41
-9755102.72 5135420.44 188.28
-9755100.00 5135419.91 185.95
-9755099.68 5135428.51 186.68
-9755104.53 5135427.64 181.40
-9755105.31 5135422.64 187.97
-9755102.98 5135419.43 189.54
-9755102.53 5135428.44 190.74
-9755099.04 5135425.54 188.01
-9755104.19 5135428.45 191.61
-9755103.21 5135423.87 190.29
-9755101.77 5135420.76 188.30
-9755099.27 5135425.56 186.96
-9755100.57 5135426.93 189.87
-9755100.42 5135424.81 190.45
-9755100.50 5135420.31 185.65
-9755099.22 5135428.50 190.87
-9755102.57 5135423.12 187.83
-9755101.93 5135426.01 190.00
-9755103.06 5135424.76 191.56
-9755099.10 5135425.35 191.02
-9755104.44 5135421.09 189.01
-9755098.83 5135425.51 186.85
-9755098.83 5135428.78 187.86
-9755100.12 5135427.94 190.00
-9755105.36 5135419.86 188.26
-9755099.10 5135428.87 190.53
-9755102.42 5135420.97 189.71
-9755103.46 5135421.40 189.06
-9755103.84 5135425.11 189.18
-9755101.12 5135422.99 189.65
-9755099.52 5135420.78 186.28
-9755100.88 5135420.22 187.42
-9755104.55 5135422.38 188.21
-9755099.94 5135419.76 186.79
-9755098.87 5135423.94 189.80
-9755103.41 5135421.44 189.91
-9755103.14 5135421.84 188.40
-9755102.09 5135428.10 191.14
-9755099.91 5135426.75 189.71
-9755099.24 5135423.96 187.71
-9755102.55 5135422.12 190.00
-9755100.11 5135423.84 190.48
-9755102.94 5135419.45 189.79
-9755099.98 5135426.89 188.23
-9755101.66 5135428.37 188.41
-9755101.95 5135419.78 189.43
-9755100.02 5135426.42 189.05
-9755103.96 5135427.83 189.55
-9755102.42 5135422.30 187.46
-9755104.45 5135429.10 191.63
-9755100.37 5135428.94 189.76
-9755101.12 5135418.30 188.75
-9755103.04 5135418.61 189.77
-9755098.88 5135425.18 181.37
-9755105.43 5135430.45 189.76
-9755105.39 5135430.40 191.20
-9755105.36 5135432.01 192.30
-9755105.55 5135432.03 191.52
-9755105.49 5135430.10 190.29
-9755105.44 5135431.95 191.42
-9755105.28 5135431.61 190.32
-9755105.11 5135432.07 188.34
-9755105.19 5135431.17 188.80
-9755101.61 5135432.24 188.36
-9755104.18 5135429.21 192.31
-9755102.11 5135431.85 191.39
-9755104.22 5135432.24 190.11
-9755104.12 5135429.87 190.03
-9755103.31 5135430.68 190.70
-9755104.22 5135429.76 185.54
-9755102.04 5135429.52 189.91
-9755104.62 5135432.20 190.19
-9755098.81 5135432.22 189.65
-9755102.17 5135431.49 190.38
-9755100.40 5135431.95 189.96
-9755098.97 5135430.09 188.66
-9755101.22 5135432.05 188.77
-9755104.13 5135430.16 189.16
-9755100.37 5135430.97 190.51
-9755101.29 5135430.30 186.65
-9755099.25 5135432.03 191.14
-9755101.21 5135429.95 186.74
-9755103.24 5135432.06 190.00
-9755103.55 5135432.12 190.68
-9755104.57 5135431.29 187.82
-9755099.87 5135431.23 190.42
-9755103.51 5135430.51 181.50
-9755098.99 5135430.97 190.74
-9755104.07 5135432.27 189.98
-9755099.64 5135430.37 189.44
-9755104.94 5135431.44 187.71
-9755104.60 5135430.86 188.98
-9755104.47 5135430.34 191.20
-9755099.18 5135432.15 189.86
-9755100.88 5135431.94 189.93
-9755101.29 5135431.84 191.35
-9755099.17 5135432.23 189.20
-9755105.04 5135431.43 190.02
-9755099.72 5135430.89 188.30
-9755100.41 5135431.59 189.03
-9755100.55 5135431.95 189.96
-9755102.59 5135432.16 185.52
-9755102.08 5135431.87 191.28
-9755099.27 5135430.16 188.57
-9755102.66 5135431.95 190.86
-9755098.00 5135429.18 189.13
-9755098.09 5135428.58 189.27
-9755099.19 5135419.72 185.97
-9755098.35 5135419.40 186.63
-9755096.24 5135428.41 187.87
-9755096.34 5135426.59 185.77
-9755095.94 5135427.91 181.31
-9755098.12 5135426.28 189.19
-9755094.72 5135428.18 181.34
-9755098.05 5135422.92 185.97
-9755098.49 5135419.91 186.75
-9755098.46 5135418.18 185.18
-9755098.58 5135428.04 189.49
-9755097.96 5135425.33 186.13
-9755097.94 5135423.43 186.08
-9755098.01 5135424.06 186.29
-9755098.37 5135422.05 189.68
-9755098.39 5135425.26 186.70
-9755094.43 5135418.92 181.36
-9755098.03 5135424.29 185.63
-9755095.87 5135424.81 181.33
-9755095.92 5135423.72 186.05
-9755098.35 5135418.98 181.38
-9755094.73 5135428.40 181.34
-9755095.92 5135423.12 186.46
-9755097.99 5135428.90 187.72
-9755098.14 5135423.05 187.96
-9755098.41 5135420.24 186.95
-9755098.66 5135418.96 185.30
-9755096.13 5135424.31 186.36
-9755097.41 5135428.04 188.45
-9755098.20 5135426.43 186.64
-9755098.41 5135423.42 188.18
-9755098.32 5135430.47 188.79
-9755098.51 5135431.35 189.93
-9755097.95 5135429.37 181.36
-9755097.95 5135430.56 188.05
-9755097.35 5135430.52 181.33
-9755095.68 5135431.82 187.06
-9755096.14 5135431.64 187.26
-9755096.47 5135431.71 181.30
-9755096.78 5135431.34 188.07
-9755098.55 5135430.47 188.78
-9755096.63 5135430.33 188.04
-9755097.37 5135431.27 188.37
-9755096.80 5135430.21 188.05
-9755096.86 5135430.49 188.18
-9755097.95 5135430.53 187.71
-9755098.55 5135432.19 189.65
-9755097.94 5135431.43 188.43
-9755094.70 5135430.54 181.34
-9755091.40 5135441.18 181.37
-9755091.43 5135435.78 181.39
-9755091.68 5135442.02 181.39
-9755089.35 5135441.97 181.40
-9755090.50 5135435.81 181.41
-9755084.02 5135438.71 181.47
-9755084.91 5135441.69 181.44
-9755086.44 5135437.57 181.43
-9755081.91 5135440.63 182.60
-9755089.34 5135437.86 181.40
-9755081.86 5135437.44 182.63
-9755084.36 5135432.85 181.45
-9755087.33 5135432.50 181.44
-9755089.37 5135433.15 181.41
-9755082.95 5135419.78 181.63
-9755089.78 5135423.65 181.43
-9755083.86 5135426.90 181.47
-9755083.25 5135425.98 181.49
-9755090.97 5135423.92 181.42
-9755089.67 5135428.42 181.43
-9755081.53 5135423.56 182.52
-9755086.49 5135421.84 181.47
-9755086.48 5135422.74 181.44
-9755081.83 5135425.58 182.51
-9755087.64 5135427.19 181.44
-9755085.00 5135428.37 181.40
-9755087.66 5135430.68 181.42
-9755099.58 5135417.73 188.17
-9755102.06 5135417.58 188.12
-9755102.83 5135417.80 186.70
-9755099.76 5135417.65 185.76
-9755101.69 5135417.97 188.31
-9755099.66 5135417.46 188.10
-9755097.43 5135418.06 187.55
-9755082.12 5135417.34 182.49
-9755133.40 5135468.87 182.09
-9755132.02 5135470.01 191.52
-9755133.46 5135469.66 182.13
-9755132.60 5135468.11 182.23
-9755132.53 5135469.68 182.25
-9755132.24 5135467.55 191.94
-9755132.86 5135466.21 181.27
-9755132.81 5135469.63 181.43
-9755133.42 5135468.55 182.06
-9755132.53 5135469.11 182.26
-9755132.04 5135465.50 191.58
-9755131.84 5135466.93 192.10
-9755130.18 5135468.38 181.28
-9755132.53 5135467.44 191.92
-9755123.41 5135470.01 181.34
-9755131.17 5135469.23 181.40
-9755124.23 5135468.85 181.34
-9755119.80 5135466.77 181.30
-9755126.09 5135465.88 181.36
-9755132.89 5135456.66 189.49
-9755133.81 5135454.20 191.33
-9755132.97 5135454.04 191.73
-9755134.14 5135456.02 191.35
-9755133.29 5135453.94 191.34
-9755132.40 5135453.58 191.30
-9755132.33 5135454.80 190.55
-9755132.26 5135456.78 181.38
-9755132.12 5135455.15 190.38
-9755131.73 5135455.24 191.24
-9755131.42 5135453.58 191.77
-9755130.77 5135453.14 182.03
-9755130.82 5135452.58 182.02
-9755131.01 5135453.49 182.08
-9755129.32 5135453.22 182.54
-9755131.19 5135454.01 181.73
-9755124.00 5135454.35 181.31
-9755129.64 5135453.17 181.59
-9755130.92 5135453.12 182.06
-9755125.54 5135453.79 181.30
-9755127.26 5135455.28 181.31
-9755129.39 5135453.48 182.13
-9755131.34 5135455.60 181.55
-9755131.64 5135455.23 181.29
-9755131.14 5135454.41 181.43
-9755131.18 5135452.86 181.67
-9755127.62 5135453.50 181.29
-9755129.93 5135454.41 181.26
-9755131.82 5135454.00 191.06
-9755131.17 5135454.07 181.83
-9755122.00 5135453.19 181.30
-9755129.40 5135453.18 181.57
-9755123.46 5135454.00 181.30
-9755129.96 5135453.87 181.70
-9755131.27 5135453.98 181.73
-9755132.65 5135464.27 191.32
-9755132.64 5135463.13 191.98
-9755133.43 5135461.81 181.24
-9755133.87 5135459.28 191.33
-9755132.68 5135456.88 191.34
-9755134.12 5135461.33 191.33
-9755132.62 5135458.19 181.23
-9755134.20 5135460.37 181.25
-9755129.86 5135458.51 181.29
-9755132.07 5135462.74 192.00
-9755131.79 5135458.21 181.22
-9755131.72 5135460.11 191.34
-9755127.22 5135462.68 181.34
-9755130.47 5135461.85 181.28
-9755119.82 5135462.65 181.29
-9755126.34 5135461.17 181.34
-9755131.65 5135456.88 185.27
-9755121.02 5135457.65 181.31
-9755131.21 5135458.50 191.49
-9755121.06 5135460.89 181.30
-9755133.88 5135448.51 181.92
-9755134.16 5135445.75 182.91
-9755134.12 5135446.96 182.89
-9755133.78 5135448.76 182.40
-9755134.13 5135448.52 181.91
-9755133.09 5135445.70 181.32
-9755132.69 5135446.56 182.95
-9755131.80 5135447.72 183.17
-9755129.58 5135446.06 182.27
-9755129.62 5135446.62 181.79
-9755127.61 5135446.59 182.19
-9755130.20 5135448.83 181.74
-9755129.63 5135447.18 181.64
-9755128.38 5135445.52 181.69
-9755129.33 5135446.62 181.82
-9755129.67 5135446.89 183.08
-9755129.70 5135447.75 183.15
-9755129.20 5135445.66 182.04
-9755124.35 5135449.97 181.31
-9755127.61 5135445.52 182.12
-9755129.04 5135447.86 181.95
-9755122.32 5135446.09 181.31
-9755129.34 5135449.08 181.32
-9755121.14 5135445.76 181.29
-9755129.41 5135446.98 181.63
-9755128.51 5135446.97 181.83
-9755129.64 5135446.61 183.09
-9755129.15 5135449.85 182.41
-9755130.02 5135449.86 182.96
-9755120.24 5135448.41 181.29
-9755126.11 5135450.19 181.31
-9755131.77 5135449.39 182.01
-9755131.74 5135448.74 181.97
-9755130.33 5135448.28 183.33
-9755130.49 5135450.49 182.81
-9755129.59 5135448.72 182.97
-9755129.74 5135448.70 182.52
-9755129.69 5135450.42 182.93
-9755130.56 5135445.70 183.24
-9755129.70 5135446.88 181.57
-9755131.68 5135446.46 182.55
-9755129.08 5135445.74 181.87
-9755131.11 5135450.26 182.86
-9755131.78 5135446.25 183.08
-9755131.20 5135446.92 183.12
-9755128.17 5135446.97 181.79
-9755129.39 5135449.49 182.98
-9755129.70 5135447.80 181.92
-9755129.69 5135450.41 182.37
-9755129.34 5135445.75 182.18
-9755130.86 5135445.38 182.38
-9755128.84 5135446.91 181.89
-9755128.91 5135448.10 181.51
-9755118.96 5135464.99 181.29
-9755117.83 5135466.78 181.28
-9755119.33 5135456.38 181.30
-9755117.86 5135453.14 181.27
-9755119.34 5135457.29 181.29
-9755111.34 5135464.65 181.53
-9755112.38 5135468.70 182.59
-9755108.46 5135468.46 187.14
-9755111.30 5135465.12 182.17
-9755108.75 5135464.98 186.60
-9755108.60 5135469.12 186.91
-9755110.65 5135465.12 185.30
-9755112.20 5135469.09 182.92
-9755108.45 5135465.04 187.18
-9755112.25 5135468.41 182.67
-9755112.19 5135469.69 183.31
-9755110.71 5135465.19 181.64
-9755110.67 5135469.27 185.33
-9755112.39 5135466.36 183.26
-9755112.36 5135469.67 181.96
-9755116.00 5135466.71 181.25
-9755108.89 5135468.78 181.34
-9755108.78 5135467.60 187.03
-9755108.64 5135469.27 188.46
-9755108.63 5135469.99 181.36
-9755114.49 5135467.91 181.23
-9755110.75 5135465.26 185.73
-9755116.90 5135465.59 181.26
-9755108.66 5135464.60 187.72
-9755112.16 5135467.64 182.28
-9755108.74 5135468.44 187.22
-9755112.33 5135469.40 182.88
-9755110.33 5135464.90 181.29
-9755109.56 5135468.51 185.63
-9755110.71 5135465.03 185.73
-9755109.21 5135468.42 185.54
-9755108.77 5135465.17 187.90
-9755112.36 5135467.83 182.38
-9755109.88 5135468.47 186.18
-9755109.45 5135467.96 186.48
-9755119.40 5135446.01 181.26
-9755110.48 5135454.87 181.64
-9755110.46 5135454.54 181.35
-9755110.37 5135456.34 181.34
-9755110.42 5135454.30 181.39
-9755110.76 5135454.22 181.68
-9755110.75 5135455.75 181.68
-9755115.55 5135453.16 181.25
-9755111.85 5135455.10 183.30
-9755116.04 5135456.37 181.26
-9755110.97 5135454.05 182.18
-9755111.95 5135454.83 182.56
-9755112.05 5135451.97 183.33
-9755111.08 5135454.49 182.18
-9755111.62 5135454.42 182.16
-9755111.73 5135454.35 182.05
-9755107.89 5135459.17 186.05
-9755108.66 5135464.21 186.26
-9755107.86 5135464.02 188.14
-9755111.23 5135457.58 181.59
-9755109.61 5135460.20 181.29
-9755109.41 5135460.56 185.50
-9755112.02 5135463.98 182.62
-9755112.00 5135461.59 183.77
-9755108.69 5135460.48 185.30
-9755107.92 5135462.28 189.22
-9755110.72 5135457.57 181.64
-9755108.32 5135461.28 185.91
-9755111.53 5135462.76 182.25
-9755112.27 5135458.33 182.33
-9755112.01 5135457.03 183.76
-9755110.47 5135464.23 181.62
-9755112.09 5135460.57 183.52
-9755109.96 5135462.08 185.68
-9755108.13 5135462.46 188.79
-9755108.70 5135459.14 185.42
-9755111.21 5135462.51 182.06
-9755108.43 5135461.41 188.44
-9755109.28 5135462.69 184.98
-9755110.70 5135456.91 181.69
-9755107.86 5135459.46 189.25
-9755111.29 5135462.76 181.64
-9755110.72 5135463.99 181.68
-9755111.54 5135457.21 182.37
-9755116.94 5135459.69 181.26
-9755111.68 5135446.01 182.45
-9755117.28 5135447.78 181.26
-9755110.80 5135448.63 182.18
-9755111.17 5135448.60 182.19
-9755111.94 5135448.12 183.45
-9755111.14 5135447.20 181.40
-9755117.30 5135446.30 181.25
-9755111.95 5135447.97 183.47
-9755110.56 5135448.60 181.66
-9755109.37 5135447.73 181.29
-9755111.96 5135447.60 183.25
-9755111.97 5135450.56 183.55
-9755110.60 5135450.17 181.71
-9755111.96 5135446.69 183.14
-9755110.34 5135447.19 181.52
-9755111.88 5135450.09 182.54
-9755111.77 5135449.70 183.38
-9755111.18 5135448.03 182.19
-9755111.85 5135445.58 183.72
-9755111.87 5135448.19 182.46
-9755111.10 5135449.84 182.19
-9755110.49 5135449.81 181.62
-9755110.51 5135450.35 182.08
-9755117.57 5135449.89 181.26
-9755133.52 5135444.46 182.61
-9755134.13 5135444.73 183.01
-9755133.76 5135444.58 182.61
-9755133.39 5135443.98 183.35
-9755128.88 5135443.82 182.25
-9755127.63 5135445.19 181.66
-9755129.03 5135445.58 181.73
-9755127.74 5135444.51 181.87
-9755128.46 5135445.23 181.33
-9755127.59 5135443.99 181.76
-9755130.82 5135445.35 183.26
-9755128.83 5135445.27 181.68
-9755129.11 5135443.77 181.73
-9755131.58 5135444.87 182.90
-9755127.88 5135443.68 181.33
-9755127.34 5135443.98 181.77
-9755129.22 5135445.03 182.89
-9755119.40 5135444.83 181.27
-9755129.63 5135445.42 182.15
-9755127.61 5135445.21 181.33
-9755130.04 5135445.05 183.26
-9755111.73 5135445.30 182.72
-9755117.31 5135443.73 181.25
-9755111.97 5135444.38 183.42
-9755111.19 5135444.52 181.38
-9755111.89 5135444.93 183.21
-9755106.31 5135469.82 188.21
-9755106.93 5135469.69 187.87
-9755106.22 5135465.77 185.69
-9755106.36 5135468.32 186.79
-9755107.83 5135468.82 186.98
-9755105.87 5135468.74 188.99
-9755105.70 5135465.13 189.02
-9755106.05 5135465.07 189.91
-9755106.05 5135467.52 187.97
-9755105.81 5135465.47 189.23
-9755107.78 5135469.24 188.68
-9755106.00 5135464.98 187.06
-9755105.55 5135465.89 189.87
-9755105.54 5135468.08 187.49
-9755105.42 5135468.10 188.18
-9755107.47 5135466.07 185.91
-9755105.94 5135466.32 187.58
-9755106.37 5135466.70 185.50
-9755107.44 5135464.87 188.88
-9755107.67 5135469.55 188.33
-9755105.51 5135469.92 188.07
-9755106.68 5135469.27 188.50
-9755106.96 5135469.62 187.68
-9755106.06 5135464.73 187.13
-9755105.35 5135465.25 190.77
-9755105.36 5135466.71 186.94
-9755104.79 5135468.40 187.09
-9755105.05 5135464.32 185.63
-9755101.07 5135468.29 185.87
-9755102.28 5135466.54 189.12
-9755103.50 5135465.05 191.01
-9755102.17 5135464.33 190.36
-9755102.89 5135465.05 191.24
-9755104.81 5135465.14 190.34
-9755100.75 5135465.88 184.82
-9755104.74 5135468.43 186.62
-9755100.40 5135466.08 188.69
-9755102.64 5135464.28 191.32
-9755103.31 5135470.01 185.40
-9755103.72 5135469.54 189.16
-9755104.58 5135467.22 187.85
-9755100.31 5135465.49 184.22
-9755102.46 5135466.66 188.85
-9755101.87 5135464.75 190.63
-9755100.99 5135469.76 188.31
-9755103.99 5135469.19 189.00
-9755102.52 5135466.32 187.73
-9755098.87 5135464.73 190.18
-9755103.37 5135464.27 189.34
-9755102.08 5135466.80 188.64
-9755101.23 5135465.11 188.96
-9755100.43 5135468.38 187.28
-9755099.79 5135464.29 188.14
-9755101.91 5135467.19 187.01
-9755102.99 5135468.81 185.73
-9755100.49 5135466.11 186.61
-9755103.36 5135469.06 186.70
-9755101.69 5135465.21 188.34
-9755103.71 5135469.77 189.10
-9755101.04 5135466.66 188.74
-9755101.26 5135464.15 190.44
-9755102.48 5135466.07 190.57
-9755100.51 5135465.07 188.11
-9755098.71 5135469.18 187.84
-9755102.96 5135465.91 190.55
-9755102.17 5135466.67 187.69
-9755103.12 5135469.21 188.72
-9755100.72 5135468.91 187.74
-9755100.18 5135469.30 188.08
-9755099.62 5135468.53 187.52
-9755104.14 5135465.02 189.99
-9755101.68 5135464.33 188.97
-9755099.79 5135468.11 189.59
-9755103.70 5135464.49 190.45
-9755101.28 5135467.78 189.03
-9755102.68 5135468.80 186.29
-9755102.89 5135468.50 188.86
-9755101.28 5135469.06 181.45
-9755101.81 5135465.29 189.10
-9755100.39 5135466.34 187.40
-9755103.67 5135465.84 190.47
-9755099.63 5135469.62 187.69
-9755100.12 5135467.44 189.21
-9755102.74 5135469.54 188.35
-9755102.81 5135468.43 186.27
-9755102.69 5135467.11 187.56
-9755103.46 5135464.96 189.28
-9755102.50 5135465.73 190.46
-9755104.28 5135468.73 186.68
-9755100.83 5135465.51 189.20
-9755100.47 5135464.57 188.85
-9755101.69 5135467.36 189.24
-9755104.21 5135467.45 187.47
-9755102.46 5135465.61 188.76
-9755105.89 5135456.34 186.73
-9755107.81 5135453.98 181.34
-9755107.69 5135458.15 186.59
-9755107.28 5135462.13 189.09
-9755106.66 5135463.38 188.55
-9755106.97 5135463.20 188.67
-9755107.81 5135459.24 189.21
-9755106.98 5135462.93 188.11
-9755106.12 5135461.73 186.31
-9755106.02 5135463.47 188.61
-9755105.82 5135460.19 188.11
-9755106.20 5135459.47 188.17
-9755107.22 5135462.72 188.86
-9755105.44 5135463.90 189.27
-9755106.88 5135459.69 186.54
-9755107.05 5135459.31 187.93
-9755106.82 5135463.03 188.03
-9755107.82 5135463.05 188.12
-9755106.12 5135462.23 186.53
-9755107.42 5135461.47 185.80
-9755106.67 5135464.22 186.93
-9755106.35 5135462.38 188.83
-9755105.71 5135459.34 187.92
-9755106.05 5135457.24 187.71
-9755105.95 5135463.82 188.54
-9755105.50 5135461.39 188.96
-9755105.83 5135463.56 188.99
-9755106.17 5135459.95 187.94
-9755105.74 5135461.21 189.17
-9755107.11 5135460.54 186.99
-9755105.78 5135458.31 188.67
-9755106.62 5135457.89 186.16
-9755107.45 5135459.13 189.40
-9755106.96 5135459.63 189.14
-9755106.04 5135459.71 187.33
-9755107.62 5135462.63 187.57
-9755105.51 5135460.12 187.14
-9755107.62 5135460.14 188.97
-9755105.72 5135460.91 185.99
-9755107.35 5135459.86 187.90
-9755102.79 5135455.88 187.03
-9755103.12 5135452.77 181.49
-9755102.85 5135455.78 186.90
-9755104.50 5135456.09 185.86
-9755100.46 5135453.31 181.39
-9755104.66 5135456.48 186.87
-9755103.56 5135456.11 185.92
-9755104.38 5135456.09 185.86
-9755104.62 5135455.19 184.65
-9755104.28 5135455.95 185.43
-9755102.81 5135456.41 186.94
-9755102.15 5135455.54 185.27
-9755100.43 5135454.78 181.41
-9755102.52 5135455.50 185.12
-9755105.37 5135463.95 188.96
-9755105.10 5135464.02 188.81
-9755105.04 5135459.46 188.57
-9755105.00 5135463.91 190.80
-9755103.63 5135456.45 186.45
-9755104.84 5135460.57 189.93
-9755103.95 5135464.24 190.52
-9755099.54 5135460.26 186.27
-9755099.35 5135460.21 186.27
-9755101.07 5135459.25 187.12
-9755103.70 5135463.86 190.70
-9755101.59 5135462.41 190.43
-9755100.76 5135459.36 186.51
-9755104.54 5135463.14 190.75
-9755100.57 5135463.96 190.26
-9755101.38 5135458.37 187.87
-9755103.68 5135463.87 189.11
-9755103.83 5135462.98 189.26
-9755104.86 5135462.18 190.03
-9755099.24 5135463.01 189.19
-9755104.93 5135460.47 188.62
-9755101.35 5135461.59 189.57
-9755101.95 5135462.62 189.61
-9755099.51 5135462.69 189.30
-9755101.11 5135460.90 186.01
-9755101.17 5135462.12 190.35
-9755099.57 5135463.04 187.87
-9755103.62 5135458.12 187.25
-9755101.65 5135457.44 186.62
-9755102.76 5135460.92 189.73
-9755104.04 5135458.38 188.39
-9755103.59 5135464.26 188.46
-9755100.26 5135460.18 185.96
-9755103.69 5135458.05 188.39
-9755104.58 5135462.94 190.52
-9755102.09 5135458.81 188.15
-9755103.28 5135460.40 184.97
-9755104.00 5135461.76 190.11
-9755101.65 5135460.21 188.19
-9755099.62 5135458.14 186.76
-9755100.90 5135463.54 189.72
-9755100.41 5135461.13 189.44
-9755103.76 5135461.85 189.36
-9755103.79 5135459.77 189.53
-9755104.09 5135457.42 188.31
-9755104.90 5135461.81 189.71
-9755098.80 5135462.56 186.77
-9755102.83 5135463.01 190.76
-9755099.33 5135463.37 186.69
-9755101.59 5135463.51 189.70
-9755102.95 5135458.62 188.88
-9755101.29 5135462.51 181.44
-9755104.92 5135460.98 186.97
-9755102.85 5135459.70 191.13
-9755103.77 5135461.83 190.34
-9755104.27 5135458.41 188.46
-9755103.24 5135460.07 189.18
-9755101.76 5135461.28 189.49
-9755099.33 5135459.84 186.69
-9755102.07 5135457.45 188.62
-9755099.58 5135463.11 188.84
-9755099.68 5135463.83 190.04
-9755103.75 5135458.63 188.03
-9755103.97 5135461.84 189.39
-9755099.26 5135463.43 190.21
-9755098.49 5135460.49 185.85
-9755102.52 5135460.29 189.43
-9755103.34 5135460.30 190.66
-9755103.74 5135462.31 189.69
-9755102.22 5135457.28 187.29
-9755102.26 5135463.05 189.33
-9755104.54 5135461.95 188.37
-9755101.83 5135460.15 188.37
-9755101.65 5135461.94 190.23
-9755102.82 5135460.69 189.52
-9755104.30 5135463.50 186.53
-9755099.39 5135463.86 188.33
-9755103.02 5135459.81 181.46
-9755102.61 5135457.71 189.04
-9755102.02 5135458.08 186.81
-9755103.34 5135462.50 188.42
-9755101.31 5135458.65 188.43
-9755102.82 5135463.16 190.76
-9755104.13 5135458.34 187.13
-9755101.83 5135459.74 188.51
-9755099.50 5135459.22 186.19
-9755101.66 5135462.55 190.68
-9755100.15 5135460.97 188.68
-9755100.50 5135459.06 186.41
-9755100.48 5135462.91 188.38
-9755099.21 5135461.02 186.87
-9755102.10 5135463.82 189.94
-9755099.36 5135459.52 186.20
-9755101.06 5135461.24 187.00
-9755102.84 5135459.82 188.35
-9755103.69 5135462.75 188.56
-9755102.66 5135463.81 189.17
-9755102.06 5135461.63 186.15
-9755102.31 5135461.80 189.39
-9755101.32 5135458.89 188.70
-9755103.65 5135461.93 188.97
-9755100.16 5135461.83 188.52
-9755099.73 5135460.98 188.09
-9755101.26 5135460.25 186.15
-9755103.08 5135459.71 189.87
-9755101.32 5135458.64 181.41
-9755104.21 5135461.73 190.56
-9755103.75 5135460.75 190.18
-9755101.68 5135459.16 189.38
-9755104.56 5135462.67 191.00
-9755101.34 5135458.17 186.64
-9755104.56 5135461.01 187.92
-9755100.47 5135463.33 190.59
-9755102.48 5135462.96 190.76
-9755098.43 5135460.22 186.65
-9755099.84 5135461.65 189.24
-9755102.14 5135463.89 190.03
-9755101.39 5135457.62 188.91
-9755099.03 5135460.28 186.25
-9755099.95 5135461.06 186.01
-9755102.79 5135463.74 189.74
-9755103.34 5135463.79 190.72
-9755103.76 5135463.21 188.88
-9755102.24 5135457.00 189.66
-9755101.97 5135461.88 189.51
-9755102.11 5135460.43 181.43
-9755099.45 5135461.30 186.05
-9755104.91 5135456.89 186.67
-9755104.91 5135457.20 187.35
-9755104.87 5135456.60 186.85
-9755101.74 5135458.57 188.66
-9755100.39 5135460.20 181.40
-9755100.54 5135458.44 186.11
-9755103.45 5135458.59 188.80
-9755101.62 5135462.67 190.88
-9755100.90 5135462.20 190.73
-9755101.39 5135461.91 189.97
-9755101.62 5135459.17 187.30
-9755102.86 5135459.76 188.50
-9755100.20 5135461.74 190.26
-9755104.44 5135456.86 186.60
-9755101.33 5135459.39 190.77
-9755098.29 5135467.54 181.36
-9755098.36 5135452.95 181.35
-9755096.11 5135454.78 181.26
-9755098.76 5135457.55 186.43
-9755098.75 5135463.38 186.40
-9755098.75 5135464.03 186.61
-9755097.23 5135462.46 185.21
-9755097.86 5135460.55 185.96
-9755098.11 5135462.25 185.80
-9755097.71 5135463.11 185.95
-9755098.36 5135461.10 186.96
-9755094.21 5135456.23 181.32
-9755096.39 5135460.19 185.99
-9755098.59 5135463.64 187.90
-9755097.74 5135460.89 187.39
-9755098.39 5135456.30 181.35
-9755096.58 5135461.31 181.24
-9755097.17 5135463.11 181.23
-9755096.88 5135460.19 185.92
-9755105.48 5135451.90 181.38
-9755107.80 5135447.48 181.32
-9755101.65 5135451.87 181.43
-9755102.84 5135447.44 181.44
-9755103.14 5135450.66 181.50
-9755103.73 5135446.83 181.48
-9755098.41 5135451.79 181.34
-9755102.88 5135449.11 183.76
-9755096.40 5135447.65 181.24
-9755092.84 5135450.61 181.34
-9755092.22 5135448.28 181.36
-9755097.17 5135450.13 187.80
-9755084.42 5135467.77 181.53
-9755082.70 5135465.58 182.42
-9755084.38 5135468.29 181.54
-9755081.56 5135465.01 182.58
-9755085.64 5135465.65 181.44
-9755081.76 5135464.72 180.95
-9755084.39 5135468.30 181.49
-9755081.73 5135467.10 181.72
-9755081.84 5135466.57 181.30
-9755081.74 5135467.16 180.97
-9755091.30 5135451.82 181.40
-9755081.57 5135453.78 182.06
-9755081.90 5135451.96 182.59
-9755081.75 5135454.33 180.95
-9755084.83 5135452.32 181.46
-9755081.58 5135455.38 181.80
-9755081.53 5135453.19 182.01
-9755081.89 5135456.41 182.59
-9755083.96 5135455.62 181.60
-9755081.85 5135456.07 182.59
-9755081.52 5135452.30 181.10
-9755081.53 5135451.75 181.66
-9755081.54 5135452.96 181.35
-9755081.53 5135454.73 180.99
-9755081.89 5135454.34 182.60
-9755081.53 5135456.71 181.70
-9755081.64 5135460.67 182.15
-9755082.15 5135461.78 182.57
-9755081.56 5135458.52 181.98
-9755087.73 5135458.61 181.44
-9755081.57 5135461.14 182.55
-9755081.54 5135461.50 182.57
-9755084.75 5135460.90 181.46
-9755081.58 5135458.48 181.30
-9755084.78 5135456.15 181.46
-9755081.55 5135458.25 180.93
-9755081.51 5135462.63 182.57
-9755084.83 5135456.81 181.47
-9755082.08 5135456.73 182.62
-9755081.73 5135463.47 182.07
-9755086.02 5135457.70 181.44
-9755081.60 5135463.85 181.78
-9755081.58 5135460.55 181.59
-9755088.02 5135461.86 181.44
-9755081.87 5135456.73 181.67
-9755090.36 5135462.18 181.39
-9755081.64 5135460.40 181.63
-9755081.56 5135462.14 182.13
-9755081.52 5135463.53 181.91
-9755086.08 5135450.27 181.44
-9755081.53 5135448.76 181.37
-9755084.85 5135449.40 181.45
-9755081.52 5135450.20 181.05
-9755096.36 5135444.47 181.25
-9755133.07 5135468.28 182.04
-9755133.63 5135469.14 182.13
-9755132.60 5135468.06 191.96
-9755133.57 5135467.97 182.13
-9755133.63 5135469.84 181.85
-9755134.02 5135466.86 181.27
-9755132.74 5135467.77 182.00
-9755132.73 5135467.49 181.28
-9755133.95 5135467.98 182.40
-9755134.04 5135469.85 181.77
-9755133.15 5135467.70 181.28
-9755133.59 5135466.67 191.31
-9755134.08 5135466.08 191.32
-9755134.05 5135469.23 182.16
-9755132.25 5135468.48 191.31
-9755133.19 5135468.57 191.30
-9755134.01 5135465.11 181.24
-9755133.16 5135469.87 191.30
-9755133.63 5135469.52 181.81
-9755132.87 5135467.49 191.91
-9755132.74 5135469.81 182.23
-9755133.06 5135469.18 182.20
-9755133.99 5135466.55 181.27
-9755133.65 5135469.45 182.14
-9755133.49 5135465.82 191.63
-9755133.79 5135469.04 191.31
-9755134.03 5135469.35 191.32
-9755132.68 5135466.05 191.33
-9755132.51 5135468.61 182.24
-9755133.44 5135467.25 191.76
-9755133.12 5135464.98 181.27
-9755132.62 5135465.46 191.87
-9755133.47 5135465.19 191.75
-9755134.11 5135465.80 191.33
-9755133.79 5135465.82 191.32
-9755132.80 5135468.28 182.21
-9755133.47 5135468.71 191.30
-9755134.00 5135468.62 182.20
-9755132.46 5135468.33 181.28
-9755132.73 5135468.90 182.21
-9755133.26 5135466.15 191.32
-9755132.85 5135465.62 181.27
-9755132.25 5135469.10 182.30
-9755133.19 5135465.51 191.32
-9755134.07 5135465.19 191.32
-9755133.65 5135465.12 181.26
-9755132.50 5135469.45 182.26
-9755132.16 5135465.11 181.29
-9755122.76 5135469.74 181.34
-9755131.86 5135469.71 182.31
-9755126.02 5135467.10 181.36
-9755126.87 5135468.00 181.36
-9755126.85 5135469.78 181.35
-9755132.21 5135467.41 181.30
-9755122.49 5135470.03 181.34
-9755129.56 5135466.18 181.31
-9755119.21 5135469.42 181.31
-9755131.03 5135465.09 181.26
-9755131.94 5135469.50 191.30
-9755129.53 5135468.33 181.31
-9755119.50 5135465.90 181.31
-9755130.51 5135468.26 181.28
-9755131.35 5135468.31 182.18
-9755129.82 5135466.00 181.34
-9755126.06 5135466.45 181.36
-9755130.10 5135465.22 181.28
-9755129.91 5135469.23 181.30
-9755121.27 5135466.48 181.31
-9755125.71 5135467.36 181.36
-9755120.73 5135465.08 181.31
-9755131.11 5135469.50 181.44
-9755131.02 5135465.82 181.29
-9755130.74 5135469.21 181.30
-9755119.56 5135466.18 181.30
-9755127.53 5135467.40 181.34
-9755131.95 5135468.30 182.30
-9755127.79 5135468.32 181.34
-9755129.26 5135466.50 181.30
-9755123.95 5135466.78 181.34
-9755130.72 5135467.41 181.28
-9755121.25 5135469.43 181.32
-9755129.81 5135468.34 181.32
-9755129.28 5135464.52 181.31
-9755121.63 5135464.98 181.32
-9755120.45 5135465.31 181.31
-9755131.11 5135464.47 182.34
-9755128.12 5135465.95 181.31
-9755129.82 5135464.99 181.31
-9755129.58 5135467.39 181.32
-9755128.34 5135466.55 181.31
-9755130.76 5135470.02 181.30
-9755132.04 5135470.00 189.23
-9755120.49 5135467.05 181.30
-9755119.86 5135469.15 181.31
-9755123.13 5135465.89 181.34
-9755120.99 5135469.72 181.32
-9755127.23 5135467.68 181.35
-9755131.55 5135467.76 181.33
-9755121.59 5135466.76 181.32
-9755121.58 5135469.49 181.33
-9755121.94 5135467.07 181.31
-9755127.21 5135465.03 181.33
-9755125.45 5135468.53 181.34
-9755131.06 5135468.87 181.94
-9755131.71 5135467.11 181.30
-9755119.52 5135466.81 181.30
-9755119.53 5135468.25 181.28
-9755131.94 5135469.96 185.25
-9755131.47 5135468.51 181.34
-9755126.04 5135468.89 181.36
-9755128.33 5135467.39 181.34
-9755129.23 5135469.70 181.34
-9755128.73 5135466.87 181.29
-9755126.07 5135465.61 181.35
-9755120.43 5135465.00 181.30
-9755129.04 5135465.92 181.34
-9755131.30 5135469.76 182.03
-9755128.96 5135465.70 181.34
-9755131.88 5135465.17 187.24
-9755128.94 5135469.24 181.32
-9755127.77 5135465.01 181.32
-9755130.41 5135465.93 181.29
-9755123.61 5135468.56 181.34
-9755130.78 5135467.08 181.29
-9755124.54 5135469.48 181.34
-9755127.52 5135466.50 181.33
-9755130.74 5135466.01 181.27
-9755126.29 5135468.31 181.37
-9755123.66 5135467.97 181.34
-9755121.28 5135467.38 181.33
-9755131.69 5135469.87 191.57
-9755132.63 5135455.47 190.11
-9755133.22 5135455.13 191.31
-9755132.63 5135454.51 190.74
-9755132.66 5135455.09 190.37
-9755133.00 5135455.37 192.28
-9755133.02 5135455.80 190.13
-9755132.99 5135456.19 192.27
-9755132.67 5135454.61 191.34
-9755132.98 5135454.21 191.76
-9755133.15 5135455.55 190.16
-9755132.89 5135455.71 190.09
-9755132.37 5135454.58 190.62
-9755132.70 5135454.91 190.53
-9755132.67 5135455.80 189.92
-9755133.25 5135453.62 191.35
-9755132.72 5135453.83 191.32
-9755132.45 5135456.72 181.50
-9755133.56 5135455.66 191.33
-9755133.54 5135453.03 191.32
-9755133.55 5135453.31 191.33
-9755133.52 5135454.81 191.33
-9755133.23 5135453.07 183.36
-9755125.54 5135453.43 181.30
-9755132.18 5135456.06 185.68
-9755132.04 5135456.63 185.30
-9755132.31 5135452.68 181.82
-9755129.08 5135452.55 182.10
-9755129.90 5135454.59 181.28
-9755132.07 5135454.20 191.02
-9755131.70 5135456.81 192.27
-9755130.87 5135454.96 181.44
-9755131.49 5135454.94 181.69
-9755129.31 5135454.70 181.28
-9755124.67 5135453.70 181.30
-9755129.96 5135451.98 181.82
-9755132.05 5135456.09 181.85
-9755121.14 5135454.29 181.28
-9755119.94 5135453.73 181.28
-9755129.13 5135452.28 182.09
-9755130.17 5135453.45 182.03
-9755132.07 5135456.21 185.64
-9755130.85 5135452.87 182.03
-9755130.25 5135452.85 181.87
-9755131.10 5135453.38 181.73
-9755131.10 5135454.15 181.40
-9755131.58 5135453.66 181.82
-9755127.59 5135454.32 181.30
-9755130.60 5135453.17 181.95
-9755132.03 5135452.78 183.33
-9755130.31 5135455.51 182.29
-9755131.14 5135453.89 181.38
-9755129.40 5135452.62 182.14
-9755128.14 5135452.58 181.28
-9755119.61 5135453.74 181.27
-9755131.80 5135453.12 187.31
-9755130.29 5135452.49 181.87
-9755128.85 5135452.80 181.34
-9755131.13 5135455.58 181.48
-9755129.98 5135456.12 182.05
-9755129.39 5135452.08 182.04
-9755119.61 5135454.62 181.30
-9755129.71 5135456.22 182.45
-9755127.62 5135452.29 181.30
-9755131.13 5135453.06 181.59
-9755120.21 5135455.55 181.28
-9755132.17 5135453.28 191.33
-9755127.31 5135452.67 181.29
-9755129.11 5135453.20 181.51
-9755129.59 5135452.53 182.07
-9755130.97 5135453.04 183.67
-9755120.75 5135456.12 181.30
-9755131.98 5135456.09 181.30
-9755130.24 5135456.47 182.33
-9755130.22 5135453.75 181.26
-9755122.00 5135452.23 181.30
-9755131.06 5135454.71 181.50
-9755131.17 5135455.74 182.04
-9755122.28 5135453.51 181.29
-9755119.95 5135454.63 181.29
-9755126.09 5135455.82 181.30
-9755129.88 5135455.76 182.28
-9755126.69 5135453.47 181.30
-9755131.28 5135452.99 192.29
-9755129.34 5135452.85 182.14
-9755131.57 5135454.26 183.34
-9755130.19 5135455.94 182.44
-9755130.82 5135453.77 181.31
-9755122.85 5135454.67 181.30
-9755128.50 5135453.83 181.27
-9755129.69 5135455.91 181.26
-9755131.57 5135454.56 183.28
-9755125.26 5135453.10 181.31
-9755128.77 5135453.42 182.56
-9755123.76 5135452.03 181.30
-9755124.31 5135456.77 181.33
-9755130.07 5135453.89 181.25
-9755131.72 5135453.38 183.32
-9755131.32 5135456.83 191.87
-9755129.95 5135455.05 182.30
-9755120.47 5135453.75 181.30
-9755126.34 5135453.44 181.28
-9755120.48 5135455.23 181.30
-9755129.96 5135453.18 182.07
-9755125.24 5135452.25 181.31
-9755128.97 5135454.39 181.26
-9755122.27 5135455.22 181.30
-9755121.12 5135455.52 181.30
-9755129.71 5135453.15 182.54
-9755125.55 5135456.17 181.31
-9755130.03 5135456.64 181.95
-9755131.54 5135454.59 182.79
-9755130.51 5135456.71 181.96
-9755131.71 5135452.26 181.26
-9755130.24 5135456.44 181.95
-9755128.38 5135454.95 181.28
-9755121.67 5135454.93 181.29
-9755119.92 5135455.85 181.28
-9755128.54 5135453.17 181.28
-9755131.87 5135453.65 191.24
-9755121.68 5135456.75 181.31
-9755129.94 5135452.64 181.73
-9755133.17 5135463.53 192.01
-9755133.37 5135458.55 181.22
-9755132.31 5135463.54 181.28
-9755132.93 5135459.25 191.31
-9755133.51 5135459.57 191.30
-9755132.57 5135464.12 181.24
-9755132.87 5135461.79 181.25
-9755133.44 5135462.16 181.23
-9755131.91 5135464.76 181.31
-9755134.12 5135464.03 191.32
-9755134.15 5135456.90 191.34
-9755133.80 5135460.71 191.33
-9755134.05 5135463.37 191.31
-9755133.40 5135460.36 181.23
-9755133.28 5135457.39 181.27
-9755132.87 5135459.11 181.24
-9755133.98 5135463.31 181.24
-9755133.23 5135463.12 191.31
-9755134.02 5135460.93 181.21
-9755133.57 5135458.33 191.31
-9755134.15 5135457.78 191.33
-9755132.66 5135460.76 191.33
-9755132.65 5135460.42 191.33
-9755132.83 5135458.31 181.24
-9755133.11 5135459.93 181.23
-9755133.03 5135459.37 181.24
-9755132.68 5135461.88 192.00
-9755132.60 5135461.20 181.25
-9755134.08 5135461.02 191.33
-9755133.24 5135457.44 191.32
-9755132.65 5135457.46 191.33
-9755133.95 5135460.25 181.23
-9755133.54 5135460.44 191.32
-9755132.55 5135463.21 181.27
-9755132.34 5135459.25 191.33
-9755133.22 5135460.41 181.25
-9755132.37 5135459.56 191.33
-9755132.37 5135458.66 191.31
-9755133.48 5135464.54 181.27
-9755132.32 5135460.13 181.29
-9755122.82 5135459.35 181.32
-9755127.53 5135461.77 181.34
-9755131.13 5135458.02 181.26
-9755130.21 5135462.12 181.29
-9755132.08 5135461.04 191.32
-9755132.00 5135462.84 191.77
-9755132.22 5135462.71 181.29
-9755132.11 5135459.21 191.33
-9755124.30 5135459.36 181.33
-9755120.80 5135458.76 181.31
-9755131.92 5135459.76 181.26
-9755132.09 5135457.48 191.32
-9755131.09 5135462.67 181.27
-9755131.98 5135464.46 192.25
-9755132.34 5135458.39 191.31
-9755124.28 5135458.80 181.33
-9755129.02 5135460.23 181.31
-9755126.08 5135463.53 181.35
-9755121.03 5135462.04 181.30
-9755128.93 5135461.17 181.27
-9755124.25 5135462.67 181.34
-9755123.40 5135460.29 181.33
-9755131.95 5135458.22 181.21
-9755119.58 5135460.00 181.29
-9755131.42 5135457.52 189.29
-9755126.64 5135460.25 181.33
-9755132.34 5135457.49 185.33
-9755131.06 5135458.54 181.28
-9755122.83 5135457.84 181.31
-9755132.02 5135461.02 191.79
-9755129.34 5135460.37 181.27
-9755124.33 5135460.92 181.34
-9755131.70 5135463.37 191.75
-9755129.96 5135458.84 181.30
-9755128.38 5135462.42 181.33
-9755131.67 5135457.15 185.29
-9755129.83 5135461.81 181.29
-9755130.18 5135458.48 181.31
-9755131.73 5135461.90 181.27
-9755129.20 5135462.06 181.29
-9755128.13 5135464.09 181.31
-9755130.73 5135461.79 181.28
-9755132.11 5135457.79 191.33
-9755119.54 5135462.63 181.29
-9755131.67 5135463.49 181.26
-9755121.65 5135463.54 181.32
-9755129.54 5135462.75 181.29
-9755131.69 5135461.86 191.79
-9755123.70 5135460.26 181.33
-9755129.31 5135459.96 181.30
-9755129.39 5135457.96 181.29
-9755129.84 5135457.05 181.30
-9755122.82 5135460.26 181.33
-9755130.73 5135462.66 181.28
-9755119.87 5135460.81 181.30
-9755131.62 5135460.21 181.29
-9755123.73 5135459.16 181.33
-9755131.70 5135462.41 181.27
-9755129.82 5135460.90 181.29
-9755121.35 5135459.32 181.31
-9755128.40 5135463.33 181.31
-9755131.74 5135461.60 192.24
-9755131.08 5135459.45 181.30
-9755125.20 5135459.09 181.33
-9755126.86 5135463.53 181.33
-9755120.45 5135460.26 181.30
-9755132.06 5135459.50 191.33
-9755119.86 5135459.39 181.30
-9755125.80 5135461.45 181.34
-9755127.54 5135462.67 181.33
-9755120.45 5135457.92 181.29
-9755123.11 5135461.75 181.34
-9755125.14 5135463.83 181.34
-9755120.74 5135459.39 181.32
-9755132.03 5135457.58 181.24
-9755129.59 5135463.25 181.30
-9755130.76 5135457.01 181.27
-9755131.95 5135461.46 192.18
-9755122.56 5135460.27 181.33
-9755131.58 5135461.27 192.22
-9755123.67 5135461.72 181.34
-9755131.79 5135457.71 185.31
-9755132.51 5135460.95 181.24
-9755127.60 5135457.05 181.30
-9755131.90 5135461.20 181.25
-9755127.57 5135459.69 181.32
-9755130.72 5135458.22 181.29
-9755131.33 5135464.03 181.64
-9755128.95 5135460.06 181.30
-9755131.16 5135459.45 183.51
-9755131.57 5135461.11 191.73
-9755129.99 5135458.01 181.31
-9755130.49 5135457.59 181.29
-9755129.81 5135462.69 181.30
-9755119.63 5135457.86 181.29
-9755131.21 5135464.27 182.94
-9755129.63 5135457.00 181.29
-9755131.07 5135460.86 181.29
-9755131.52 5135459.38 191.31
-9755119.81 5135461.78 181.30
-9755130.89 5135457.38 181.25
-9755131.11 5135457.61 181.26
-9755123.67 5135462.38 181.32
-9755128.45 5135459.03 181.30
-9755125.24 5135457.00 181.35
-9755122.77 5135462.65 181.33
-9755130.76 5135463.59 181.29
-9755124.02 5135461.71 181.33
-9755131.28 5135463.45 183.67
-9755128.46 5135457.08 181.30
-9755126.65 5135463.56 181.33
-9755125.24 5135459.98 181.34
-9755129.26 5135460.61 181.28
-9755132.93 5135446.33 181.47
-9755132.90 5135447.49 181.23
-9755134.09 5135450.86 181.23
-9755134.11 5135447.59 182.18
-9755133.54 5135447.53 182.26
-9755133.49 5135447.25 182.36
-9755134.08 5135449.95 181.24
-9755133.31 5135447.00 182.13
-9755132.89 5135447.08 181.96
-9755133.17 5135447.27 182.83
-9755133.22 5135445.47 182.91
-9755133.48 5135446.76 181.30
-9755133.47 5135448.69 182.30
-9755132.90 5135448.49 181.94
-9755132.69 5135448.48 182.33
-9755133.21 5135446.71 182.11
-9755132.93 5135449.63 181.24
-9755132.95 5135448.78 181.91
-9755133.15 5135447.66 181.26
-9755132.31 5135448.73 181.95
-9755132.90 5135449.39 181.90
-9755132.71 5135447.55 183.17
-9755132.72 5135448.15 182.23
-9755132.25 5135449.62 181.28
-9755133.21 5135451.17 181.24
-9755133.87 5135448.59 181.22
-9755132.37 5135447.73 183.15
-9755133.77 5135448.78 181.90
-9755132.41 5135446.26 182.87
-9755119.61 5135451.70 181.27
-9755129.94 5135448.82 181.78
-9755128.84 5135451.83 182.05
-9755126.72 5135448.48 181.31
-9755128.77 5135448.39 181.31
-9755125.81 5135450.23 181.32
-9755126.36 5135446.95 181.31
-9755132.22 5135449.37 182.39
-9755131.78 5135446.69 181.27
-9755129.61 5135448.36 182.56
-9755131.43 5135448.42 182.62
-9755121.16 5135446.07 181.30
-9755129.42 5135447.24 181.96
-9755130.79 5135449.87 182.50
-9755131.65 5135447.66 181.66
-9755127.76 5135446.46 181.83
-9755130.27 5135449.23 181.74
-9755129.43 5135447.08 182.45
-9755128.85 5135449.58 181.61
-9755129.33 5135451.71 181.99
-9755129.08 5135449.64 181.61
-9755122.61 5135447.50 181.30
-9755128.81 5135445.43 182.30
-9755130.35 5135451.15 181.96
-9755132.32 5135451.22 181.27
-9755132.57 5135446.11 181.45
-9755132.32 5135446.35 181.45
-9755129.51 5135447.18 181.33
-9755129.57 5135451.12 182.54
-9755129.84 5135448.51 182.52
-9755122.01 5135446.64 181.30
-9755125.26 5135446.95 181.31
-9755127.32 5135448.43 181.30
-9755120.51 5135451.68 181.29
-9755129.29 5135448.78 181.52
-9755130.96 5135445.68 182.40
-9755128.75 5135447.82 181.95
-9755129.44 5135449.62 181.67
-9755129.43 5135450.49 182.13
-9755130.79 5135447.67 182.55
-9755129.95 5135448.76 182.34
-9755129.04 5135449.92 181.59
-9755119.64 5135448.68 181.27
-9755130.67 5135445.54 182.25
-9755125.24 5135449.08 181.31
-9755131.61 5135447.89 181.66
-9755122.92 5135447.85 181.30
-9755131.10 5135451.86 182.15
-9755119.91 5135450.50 181.29
-9755129.18 5135449.66 182.28
-9755128.34 5135445.40 182.05
-9755131.09 5135446.95 181.24
-9755132.37 5135447.23 183.12
-9755129.37 5135448.33 181.62
-9755132.11 5135449.66 182.40
-9755129.26 5135448.40 181.75
-9755129.96 5135447.78 181.30
-9755129.98 5135446.37 181.68
-9755120.60 5135448.41 181.28
-9755129.27 5135450.55 181.28
-9755130.50 5135446.19 181.99
-9755129.02 5135451.17 181.88
-9755131.12 5135450.21 181.66
-9755131.63 5135446.84 182.43
-9755129.63 5135450.97 182.46
-9755126.14 5135449.95 181.31
-9755124.31 5135449.01 181.31
-9755131.27 5135445.53 182.64
-9755129.37 5135450.20 181.77
-9755127.56 5135451.10 181.28
-9755124.62 5135449.63 181.33
-9755121.19 5135449.29 181.30
-9755129.17 5135446.14 182.31
-9755130.27 5135450.54 182.46
-9755131.46 5135449.39 181.26
-9755124.35 5135449.29 181.32
-9755130.00 5135445.77 181.62
-9755130.66 5135446.42 181.64
-9755124.38 5135451.10 181.32
-9755130.31 5135445.76 182.28
-9755129.22 5135447.73 182.37
-9755130.25 5135450.73 182.36
-9755129.59 5135446.38 181.71
-9755129.83 5135451.43 182.53
-9755132.03 5135449.32 182.01
-9755130.50 5135448.83 181.26
-9755128.47 5135450.55 181.28
-9755131.40 5135447.81 181.31
-9755125.90 5135447.58 181.31
-9755129.18 5135446.33 182.40
-9755129.37 5135451.36 181.89
-9755123.77 5135449.35 181.31
-9755130.47 5135451.72 181.89
-9755130.31 5135446.50 181.60
-9755131.06 5135449.30 181.26
-9755129.94 5135447.23 181.94
-9755128.49 5135447.64 181.32
-9755131.03 5135449.41 182.32
-9755131.16 5135446.36 181.28
-9755131.12 5135447.23 183.15
-9755130.86 5135450.22 183.58
-9755120.82 5135449.93 181.29
-9755129.07 5135446.71 181.69
-9755131.13 5135447.58 182.38
-9755128.76 5135446.10 181.86
-9755123.44 5135448.42 181.30
-9755127.38 5135446.00 181.31
-9755130.82 5135447.27 182.45
-9755131.13 5135448.07 181.28
-9755130.02 5135449.93 181.82
-9755131.41 5135446.89 181.25
-9755124.41 5135447.24 181.31
-9755130.56 5135450.84 181.25
-9755129.10 5135445.47 181.30
-9755125.55 5135448.70 181.33
-9755131.98 5135451.67 181.26
-9755128.23 5135450.85 181.28
-9755131.01 5135446.26 182.40
-9755128.45 5135446.11 182.26
-9755130.81 5135446.86 182.50
-9755122.33 5135450.21 181.31
-9755131.21 5135446.06 182.58
-9755126.72 5135450.19 181.31
-9755123.77 5135450.24 181.31
-9755130.79 5135446.59 182.00
-9755128.41 5135446.42 181.29
-9755131.40 5135446.01 182.58
-9755123.48 5135450.23 181.31
-9755120.48 5135450.49 181.30
-9755131.77 5135446.56 183.14
-9755119.19 5135465.87 181.30
-9755118.60 5135466.43 181.29
-9755119.20 5135463.53 181.29
-9755118.89 5135468.46 181.30
-9755118.67 5135467.11 181.29
-9755118.62 5135469.72 181.31
-9755119.00 5135455.80 181.28
-9755119.34 5135452.86 181.29
-9755119.31 5135454.89 181.29
-9755119.02 5135454.27 181.28
-9755118.75 5135451.92 181.28
-9755118.10 5135456.72 181.27
-9755118.66 5135463.79 181.28
-9755119.25 5135459.97 181.29
-9755118.68 5135461.78 181.30
-9755117.84 5135457.89 181.28
-9755117.81 5135464.06 181.27
-9755107.54 5135465.81 186.80
-9755110.17 5135465.03 185.55
-9755109.52 5135468.21 187.31
-9755116.00 5135464.64 181.25
-9755109.52 5135465.04 185.57
-9755107.99 5135469.71 186.68
-9755105.69 5135468.32 188.12
-9755106.38 5135469.30 188.35
-9755105.99 5135465.30 189.83
-9755110.45 5135468.91 185.39
-9755106.23 5135468.12 187.28
-9755106.32 5135467.91 186.86
-9755109.34 5135469.04 186.01
-9755105.62 5135468.69 188.37
-9755111.59 5135465.79 181.38
-9755107.52 5135467.38 185.68
-9755106.55 5135466.84 186.16
-9755106.51 5135467.50 187.74
-9755106.36 5135465.36 189.02
-9755107.73 5135467.70 187.77
-9755112.18 5135469.29 183.33
-9755116.01 5135466.46 181.25
-9755112.19 5135464.90 183.23
-9755107.22 5135465.04 187.60
-9755107.31 5135469.08 187.45
-9755111.85 5135465.22 181.38
-9755105.43 5135465.81 188.26
-9755110.44 5135464.53 184.93
-9755106.18 5135469.73 185.81
-9755106.93 5135465.29 187.87
-9755108.10 5135464.31 187.51
-9755105.40 5135468.21 181.40
-9755112.18 5135467.01 181.40
-9755108.33 5135469.91 188.23
-9755106.65 5135469.38 188.56
-9755106.71 5135465.68 189.12
-9755106.51 5135466.73 187.86
-9755106.61 5135468.48 188.61
-9755110.32 5135469.34 185.32
-9755111.56 5135466.68 182.13
-9755108.93 5135468.62 187.60
-9755108.36 5135465.68 185.05
-9755105.69 5135465.29 187.08
-9755108.45 5135466.90 185.36
-9755106.36 5135465.82 186.54
-9755114.20 5135469.17 181.24
-9755107.98 5135464.40 186.43
-9755106.03 5135468.16 188.17
-9755112.26 5135469.28 183.80
-9755108.04 5135469.13 188.10
-9755105.40 5135465.33 188.99
-9755106.41 5135464.32 188.03
-9755108.72 5135465.01 187.21
-9755111.96 5135466.34 182.35
-9755112.16 5135464.50 182.37
-9755107.92 5135469.37 188.91
-9755108.92 5135469.93 188.81
-9755112.14 5135468.28 183.09
-9755105.47 5135464.71 190.08
-9755105.83 5135464.82 190.07
-9755109.89 5135464.29 184.73
-9755105.97 5135466.66 186.32
-9755106.12 5135464.83 187.19
-9755107.23 5135468.39 188.53
-9755109.83 5135465.28 184.81
-9755108.08 5135467.07 185.57
-9755107.49 5135469.76 188.38
-9755105.64 5135464.81 189.07
-9755106.12 5135467.64 185.93
-9755112.16 5135466.72 181.40
-9755106.93 5135469.34 187.66
-9755113.02 5135464.62 181.36
-9755106.08 5135469.81 189.07
-9755110.71 5135465.12 182.17
-9755109.30 5135468.16 187.32
-9755108.38 5135467.83 186.91
-9755113.65 5135468.20 181.25
-9755107.75 5135467.11 185.58
-9755115.67 5135466.78 181.24
-9755111.05 5135465.77 181.74
-9755114.81 5135469.06 181.25
-9755106.80 5135468.51 188.10
-9755112.25 5135465.18 183.69
-9755110.41 5135469.48 185.21
-9755107.87 5135466.52 185.50
-9755113.29 5135469.07 181.36
-9755111.26 5135467.06 181.41
-9755110.44 5135466.44 181.39
-9755108.73 5135467.93 186.90
-9755106.28 5135465.78 187.86
-9755112.74 5135469.43 181.40
-9755107.06 5135469.99 188.46
-9755108.15 5135468.97 188.35
-9755109.70 5135466.82 186.95
-9755110.94 5135464.92 182.17
-9755108.94 5135464.32 187.25
-9755107.14 5135465.69 187.75
-9755108.68 5135467.86 187.81
-9755110.39 5135466.06 181.58
-9755112.15 5135465.12 183.13
-9755112.18 5135466.32 183.81
-9755106.69 5135468.95 187.49
-9755108.71 5135465.20 187.85
-9755112.43 5135466.71 183.26
-9755109.25 5135469.39 186.65
-9755113.64 5135467.30 181.24
-9755105.54 5135465.42 188.22
-9755115.09 5135468.88 181.26
-9755107.11 5135469.88 187.87
-9755107.21 5135469.25 188.77
-9755111.59 5135467.63 181.41
-9755106.92 5135466.05 187.87
-9755108.58 5135469.56 188.41
-9755108.79 5135468.21 187.26
-9755106.91 5135466.44 187.10
-9755106.37 5135468.36 189.11
-9755112.28 5135467.50 183.16
