-9755589.78 5135330.05 183.83
-9755588.49 5135329.99 181.27
-9755588.16 5135331.51 181.28
-9755587.02 5135329.06 181.27
-9755587.96 5135330.33 181.28
-9755587.05 5135332.40 181.30
-9755586.78 5135328.48 181.27
-9755588.19 5135331.68 184.49
-9755587.92 5135336.25 181.10
-9755588.22 5135327.63 181.28
-9755587.33 5135334.16 181.28
-9755587.02 5135331.44 181.28
-9755587.56 5135338.24 181.09
-9755586.65 5135337.71 181.09
-9755587.30 5135330.59 181.28
-9755586.74 5135338.87 181.10
-9755587.04 5135329.72 181.29
-9755587.38 5135328.24 181.28
-9755586.77 5135330.05 181.28
-9755587.59 5135334.73 181.27
-9755587.01 5135331.22 181.29
-9755578.80 5135327.03 186.43
-9755582.08 5135327.38 186.10
-9755580.87 5135327.33 186.59
-9755582.02 5135327.68 185.05
-9755579.17 5135327.36 186.71
-9755580.00 5135327.02 185.97
-9755585.60 5135327.32 181.26
-9755582.41 5135326.72 184.15
-9755581.61 5135326.75 186.47
-9755576.22 5135326.50 185.47
-9755575.89 5135327.42 184.83
-9755579.74 5135326.50 186.01
-9755577.07 5135326.74 185.79
-9755580.32 5135327.86 187.54
-9755576.01 5135326.51 185.45
-9755584.51 5135326.79 184.93
-9755577.96 5135327.03 186.46
-9755583.09 5135326.90 184.09
-9755584.13 5135327.21 183.24
-9755582.14 5135327.70 185.60
-9755579.72 5135327.03 186.90
-9755584.74 5135326.98 183.30
-9755582.44 5135327.68 186.49
-9755582.81 5135327.14 183.50
-9755581.60 5135326.88 184.77
-9755583.47 5135327.01 183.41
-9755582.07 5135326.60 184.82
-9755584.09 5135327.76 185.29
-9755581.75 5135327.72 186.36
-9755581.23 5135327.34 186.59
-9755576.02 5135327.43 184.36
-9755579.25 5135326.43 186.75
-9755580.10 5135326.48 185.04
-9755582.17 5135327.46 185.06
-9755582.41 5135327.31 186.36
-9755578.86 5135326.70 186.10
-9755582.12 5135327.62 186.87
-9755582.61 5135327.00 181.27
-9755583.10 5135327.72 185.96
-9755585.02 5135326.96 183.31
-9755582.55 5135326.65 184.15
-9755585.57 5135327.91 181.27
-9755581.77 5135327.71 185.04
-9755585.02 5135327.84 183.40
-9755576.44 5135326.20 185.29
-9755577.32 5135326.95 184.41
-9755577.08 5135327.64 185.69
-9755578.20 5135327.89 187.21
-9755576.72 5135326.45 185.44
-9755575.65 5135327.70 184.85
-9755583.16 5135326.68 184.02
-9755581.28 5135327.17 185.12
-9755579.97 5135326.68 186.86
-9755578.87 5135327.28 186.99
-9755582.39 5135326.47 181.24
-9755582.10 5135327.14 184.98
-9755583.84 5135326.87 184.04
-9755583.80 5135326.76 181.26
-9755582.63 5135327.50 185.08
-9755576.34 5135327.35 185.54
-9755584.69 5135327.82 183.40
-9755581.61 5135326.49 184.72
-9755579.77 5135327.34 187.31
-9755582.38 5135326.56 184.83
-9755583.21 5135327.16 184.03
-9755579.34 5135327.59 187.78
-9755580.68 5135326.41 186.66
-9755582.03 5135326.49 186.24
-9755587.07 5135327.34 181.27
-9755578.29 5135326.45 186.44
-9755580.64 5135327.80 187.99
-9755580.88 5135326.51 184.68
-9755577.95 5135327.37 185.66
-9755581.54 5135327.62 186.08
-9755583.40 5135326.31 183.44
-9755580.63 5135327.20 185.96
-9755583.03 5135327.33 184.01
-9755583.54 5135327.39 184.97
-9755582.26 5135326.87 184.52
-9755583.05 5135327.67 185.07
-9755576.29 5135326.27 185.58
-9755575.50 5135326.57 185.08
-9755582.91 5135327.34 181.28
-9755580.05 5135327.37 187.53
-9755576.84 5135327.67 185.69
-9755584.72 5135327.36 181.29
-9755583.25 5135326.82 184.90
-9755581.44 5135327.43 188.07
-9755575.03 5135327.74 183.36
-9755564.07 5135326.91 181.26
-9755564.34 5135327.24 181.27
-9755574.83 5135327.19 183.39
-9755562.55 5135326.92 181.27
-9755564.97 5135326.93 181.26
-9755562.03 5135326.86 181.26
-9755570.56 5135326.97 181.27
-9755564.95 5135326.63 181.24
-9755567.02 5135327.51 181.35
-9755562.32 5135327.51 181.27
-9755580.13 5135328.14 188.02
-9755582.15 5135328.25 186.62
-9755584.41 5135328.35 183.38
-9755583.80 5135329.44 186.41
-9755582.61 5135328.28 186.25
-9755582.11 5135328.19 186.95
-9755578.49 5135334.86 185.04
-9755578.21 5135333.05 186.68
-9755577.09 5135327.95 185.86
-9755579.65 5135329.89 188.25
-9755584.16 5135328.90 185.75
-9755584.06 5135331.64 184.77
-9755577.30 5135336.20 185.58
-9755581.76 5135327.74 185.66
-9755582.94 5135332.25 184.97
-9755579.15 5135330.24 188.12
-9755577.95 5135335.95 185.54
-9755583.32 5135330.03 186.57
-9755578.84 5135330.31 187.66
-9755582.67 5135330.94 184.99
-9755585.32 5135328.25 181.28
-9755577.11 5135330.25 187.07
-9755576.74 5135329.46 186.62
-9755582.50 5135329.03 185.72
-9755577.36 5135334.41 185.15
-9755576.53 5135333.85 186.89
-9755583.86 5135330.58 185.62
-9755583.48 5135331.60 184.13
-9755577.22 5135330.63 186.04
-9755583.62 5135329.44 185.31
-9755585.52 5135337.64 181.09
-9755583.33 5135330.62 186.16
-9755584.35 5135329.41 186.25
-9755575.96 5135338.98 185.12
-9755576.14 5135327.76 185.03
-9755577.30 5135334.43 187.12
-9755584.97 5135329.07 185.13
-9755578.80 5135333.61 185.53
-9755576.72 5135337.17 185.71
-9755584.69 5135329.30 183.61
-9755576.41 5135335.67 185.48
-9755580.38 5135328.48 188.03
-9755582.40 5135330.31 186.00
-9755576.45 5135334.72 188.15
-9755580.94 5135329.73 187.63
-9755585.29 5135327.85 183.42
-9755582.39 5135331.54 185.21
-9755575.87 5135335.81 187.43
-9755582.35 5135332.45 184.97
-9755577.98 5135328.20 187.25
-9755576.19 5135332.65 186.79
-9755583.85 5135330.94 185.69
-9755578.83 5135331.79 186.03
-9755580.02 5135335.23 185.00
-9755575.97 5135328.04 184.98
-9755577.27 5135333.50 186.56
-9755584.08 5135329.74 185.76
-9755575.94 5135328.14 184.32
-9755582.10 5135331.43 187.24
-9755584.11 5135328.92 185.28
-9755575.56 5135332.28 186.96
-9755582.04 5135331.87 185.48
-9755584.51 5135328.15 181.31
-9755578.16 5135332.99 186.48
-9755577.68 5135332.65 186.60
-9755580.36 5135329.78 187.52
-9755580.55 5135331.47 186.89
-9755582.51 5135329.83 185.68
-9755575.86 5135338.87 185.51
-9755575.94 5135328.58 184.82
-9755584.48 5135329.74 185.94
-9755580.53 5135330.18 187.29
-9755579.60 5135333.30 185.33
-9755577.14 5135334.72 186.77
-9755579.16 5135329.44 187.51
-9755580.36 5135329.05 188.07
-9755579.17 5135334.42 185.95
-9755581.52 5135328.13 187.82
-9755582.65 5135332.78 185.05
-9755575.88 5135330.44 187.52
-9755580.91 5135333.59 185.91
-9755575.93 5135328.62 185.65
-9755580.86 5135331.50 186.08
-9755575.03 5135331.51 187.44
-9755575.65 5135336.78 187.42
-9755579.94 5135328.36 186.71
-9755585.30 5135328.64 185.06
-9755583.22 5135332.99 184.26
-9755578.81 5135333.57 186.36
-9755576.47 5135333.50 186.81
-9755579.90 5135336.78 181.09
-9755582.06 5135330.53 187.38
-9755584.49 5135329.46 185.69
-9755584.55 5135330.70 183.40
-9755581.37 5135331.91 186.57
-9755578.11 5135329.39 186.44
-9755584.11 5135329.21 185.29
-9755576.46 5135329.42 186.52
-9755578.52 5135329.55 187.78
-9755575.94 5135330.57 185.50
-9755585.00 5135327.54 183.35
-9755579.71 5135329.04 188.49
-9755581.18 5135330.60 187.61
-9755576.79 5135332.06 186.59
-9755578.90 5135331.49 187.09
-9755575.98 5135331.78 186.14
-9755581.43 5135335.28 181.26
-9755575.51 5135333.74 186.48
-9755576.50 5135334.46 186.77
-9755582.38 5135328.20 186.98
-9755576.73 5135330.90 186.52
-9755576.11 5135332.30 186.64
-9755579.14 5135328.45 188.11
-9755576.46 5135329.72 186.43
-9755582.63 5135330.67 185.95
-9755579.92 5135334.80 185.38
-9755585.84 5135329.99 181.30
-9755584.05 5135327.94 181.26
-9755577.76 5135328.74 187.51
-9755575.53 5135329.47 184.84
-9755575.70 5135333.51 186.56
-9755580.43 5135328.19 187.50
-9755575.51 5135334.35 186.46
-9755577.53 5135338.55 181.07
-9755583.82 5135328.53 185.34
-9755575.53 5135330.05 185.49
-9755576.55 5135335.98 187.40
-9755586.15 5135332.71 181.29
-9755578.85 5135328.12 187.29
-9755577.92 5135333.56 186.40
-9755578.23 5135334.46 186.57
-9755581.75 5135330.93 187.67
-9755585.08 5135330.25 183.71
-9755582.29 5135334.13 181.26
-9755584.65 5135329.28 184.02
-9755576.54 5135334.70 186.08
-9755583.03 5135328.83 185.31
-9755582.13 5135333.17 184.12
-9755578.30 5135332.44 186.32
-9755576.88 5135328.26 185.20
-9755577.33 5135336.54 184.54
-9755580.34 5135330.60 187.57
-9755583.86 5135329.06 181.25
-9755583.27 5135332.10 184.96
-9755581.80 5135329.07 187.45
-9755578.53 5135332.38 185.56
-9755584.48 5135328.49 183.43
-9755576.16 5135334.30 188.61
-9755576.76 5135336.77 185.70
-9755579.67 5135328.75 188.45
-9755581.90 5135330.35 186.67
-9755579.73 5135328.14 188.12
-9755576.09 5135336.26 185.08
-9755584.16 5135330.18 183.62
-9755584.35 5135331.10 184.11
-9755576.84 5135331.48 186.05
-9755582.60 5135330.32 186.38
-9755583.95 5135330.92 183.94
-9755584.05 5135338.31 181.10
-9755581.68 5135335.92 181.25
-9755583.21 5135332.23 184.11
-9755577.06 5135331.46 186.03
-9755586.72 5135335.90 181.22
-9755580.86 5135329.69 187.37
-9755579.98 5135334.80 184.84
-9755577.60 5135333.28 186.91
-9755583.88 5135332.15 184.86
-9755577.09 5135334.74 187.12
-9755576.77 5135336.75 185.12
-9755581.55 5135333.06 184.01
-9755582.13 5135332.73 184.15
-9755576.61 5135338.45 181.12
-9755576.45 5135330.34 186.42
-9755576.36 5135332.97 186.46
-9755575.95 5135327.97 185.04
-9755575.40 5135334.14 186.84
-9755580.38 5135329.34 188.14
-9755581.12 5135333.51 186.26
-9755580.31 5135334.21 185.36
-9755584.44 5135330.07 185.81
-9755577.35 5135336.11 185.54
-9755581.16 5135333.03 186.04
-9755575.63 5135331.56 185.85
-9755576.15 5135339.07 181.09
-9755575.31 5135329.50 184.86
-9755582.37 5135328.05 185.50
-9755575.54 5135338.37 185.94
-9755585.87 5135331.48 181.30
-9755575.58 5135336.22 187.26
-9755577.68 5135328.14 187.23
-9755582.95 5135330.38 185.22
-9755576.13 5135332.11 185.74
-9755582.43 5135331.97 181.32
-9755575.59 5135329.52 185.12
-9755577.18 5135333.54 186.17
-9755584.10 5135328.70 183.57
-9755580.06 5135328.40 187.69
-9755575.64 5135337.97 185.74
-9755575.69 5135332.14 187.47
-9755575.34 5135333.10 186.07
-9755579.73 5135330.72 187.02
-9755582.11 5135331.50 186.06
-9755577.98 5135332.34 185.93
-9755579.21 5135332.79 184.93
-9755577.94 5135329.33 187.13
-9755584.08 5135329.45 185.79
-9755583.75 5135338.25 181.09
-9755575.89 5135337.80 185.67
-9755580.01 5135327.63 186.83
-9755580.63 5135332.60 185.12
-9755581.43 5135332.74 185.51
-9755578.30 5135332.04 185.65
-9755576.51 5135334.72 187.51
-9755580.81 5135337.40 181.11
-9755579.74 5135333.72 184.74
-9755576.43 5135335.85 186.36
-9755579.85 5135328.46 187.11
-9755583.20 5135334.73 181.26
-9755580.02 5135333.05 186.03
-9755582.30 5135336.51 181.09
-9755581.20 5135331.45 186.88
-9755583.89 5135331.96 184.09
-9755575.57 5135332.38 186.16
-9755582.73 5135331.61 185.55
-9755576.62 5135331.58 185.34
-9755576.77 5135335.02 186.84
-9755585.57 5135331.49 181.29
-9755581.21 5135331.56 186.08
-9755577.10 5135331.80 186.06
-9755575.58 5135334.75 188.21
-9755580.55 5135334.83 184.86
-9755578.83 5135332.19 185.19
-9755583.20 5135329.20 185.31
-9755581.23 5135332.21 185.60
-9755581.59 5135331.47 185.47
-9755577.11 5135329.38 186.65
-9755579.27 5135332.93 186.43
-9755575.87 5135335.26 187.71
-9755584.99 5135328.59 185.49
-9755583.83 5135330.24 181.22
-9755576.45 5135335.70 186.31
-9755578.19 5135328.83 186.40
-9755584.99 5135329.27 185.18
-9755580.27 5135333.96 184.51
-9755581.48 5135328.22 186.24
-9755584.37 5135329.42 181.30
-9755578.24 5135334.82 184.99
-9755580.10 5135328.26 187.61
-9755581.20 5135328.50 187.60
-9755580.38 5135332.29 186.95
-9755584.65 5135336.51 181.08
-9755582.40 5135331.44 186.27
-9755582.39 5135328.24 186.38
-9755575.19 5135337.59 186.44
-9755581.43 5135334.69 181.27
-9755575.65 5135330.57 188.17
-9755577.65 5135334.15 186.84
-9755583.22 5135336.52 181.08
-9755577.66 5135333.55 186.96
-9755578.14 5135336.74 181.10
-9755583.82 5135328.85 185.90
-9755583.50 5135332.53 185.01
-9755576.67 5135329.75 185.70
-9755583.34 5135328.52 186.77
-9755577.83 5135333.93 185.32
-9755584.68 5135331.30 184.10
-9755575.35 5135331.40 187.16
-9755577.98 5135330.59 187.19
-9755578.12 5135330.13 185.99
-9755584.03 5135332.46 184.05
-9755577.30 5135338.57 181.07
-9755584.12 5135330.86 181.30
-9755575.61 5135332.66 186.35
-9755580.75 5135334.90 184.87
-9755580.83 5135330.20 187.99
-9755575.50 5135329.45 185.71
-9755583.82 5135331.33 183.83
-9755584.69 5135330.28 183.53
-9755580.96 5135329.18 186.25
-9755577.87 5135334.21 185.39
-9755580.89 5135333.00 186.27
-9755579.70 5135329.30 188.09
-9755580.63 5135334.05 186.48
-9755579.63 5135336.80 181.09
-9755575.60 5135334.70 187.68
-9755580.43 5135330.86 186.08
-9755585.60 5135328.58 181.29
-9755581.67 5135332.39 187.27
-9755581.16 5135333.08 185.70
-9755582.49 5135330.01 184.97
-9755579.81 5135332.12 186.88
-9755580.34 5135328.48 186.79
-9755576.75 5135334.97 181.26
-9755583.87 5135327.94 186.11
-9755582.27 5135338.86 181.10
-9755577.23 5135335.05 185.30
-9755581.72 5135334.67 181.27
-9755575.15 5135338.20 186.32
-9755577.19 5135329.06 186.77
-9755580.95 5135329.32 188.13
-9755578.78 5135333.92 185.34
-9755575.94 5135333.55 187.33
-9755575.62 5135337.94 186.47
-9755576.44 5135332.08 186.95
-9755581.25 5135332.05 187.27
-9755575.57 5135330.07 184.91
-9755575.50 5135332.53 188.95
-9755578.90 5135330.52 187.13
-9755577.27 5135337.13 183.48
-9755585.59 5135329.09 181.27
-9755579.08 5135334.80 184.83
-9755576.74 5135332.67 186.37
-9755576.79 5135333.05 185.61
-9755579.76 5135337.15 181.09
-9755582.98 5135332.10 185.64
-9755575.84 5135337.96 185.69
-9755582.04 5135328.58 186.90
-9755577.10 5135330.23 186.61
-9755576.48 5135330.60 186.64
-9755582.07 5135330.99 185.96
-9755584.66 5135335.60 181.24
-9755577.12 5135336.33 184.66
-9755575.54 5135330.66 185.49
-9755585.83 5135338.06 181.09
-9755576.74 5135331.45 185.80
-9755576.98 5135331.76 186.43
-9755580.96 5135331.94 185.64
-9755576.82 5135334.46 187.09
-9755582.09 5135332.46 185.53
-9755580.35 5135329.38 188.36
-9755579.20 5135330.16 188.51
-9755575.90 5135330.06 185.29
-9755579.98 5135336.26 181.22
-9755576.05 5135337.69 181.11
-9755584.17 5135330.56 186.17
-9755583.51 5135330.81 181.30
-9755581.86 5135329.43 187.34
-9755575.91 5135331.75 187.51
-9755585.07 5135330.01 183.83
-9755575.30 5135332.33 186.84
-9755582.43 5135328.85 186.60
-9755581.76 5135330.27 187.62
-9755577.64 5135332.34 185.74
-9755581.27 5135329.66 187.64
-9755583.44 5135328.97 185.27
-9755575.82 5135329.40 185.77
-9755578.22 5135334.74 185.74
-9755585.52 5135330.31 181.30
-9755575.71 5135338.20 181.12
-9755581.21 5135332.35 187.31
-9755583.77 5135332.64 181.29
-9755581.42 5135333.02 184.28
-9755576.09 5135333.88 186.87
-9755580.90 5135333.91 185.89
-9755581.63 5135328.88 186.12
-9755583.31 5135328.95 185.87
-9755575.93 5135331.42 186.79
-9755575.81 5135329.44 185.06
-9755583.73 5135337.44 181.08
-9755578.05 5135335.58 184.87
-9755581.69 5135338.24 181.10
-9755584.05 5135328.35 181.29
-9755582.88 5135330.01 185.50
-9755582.60 5135330.55 186.36
-9755583.62 5135328.22 186.00
-9755579.13 5135332.63 186.16
-9755574.96 5135337.95 187.22
-9755578.83 5135331.22 186.87
-9755583.61 5135329.49 185.75
-9755578.17 5135334.44 185.66
-9755580.01 5135328.50 188.39
-9755584.09 5135335.05 181.27
-9755581.16 5135329.38 187.53
-9755578.28 5135328.82 187.45
-9755578.18 5135330.31 186.98
-9755581.00 5135331.77 187.35
-9755578.06 5135329.47 187.01
-9755576.97 5135330.97 185.94
-9755578.09 5135329.31 188.24
-9755582.26 5135330.66 187.75
-9755579.40 5135330.81 186.45
-9755574.99 5135334.65 189.29
-9755578.18 5135333.92 185.64
-9755582.04 5135329.10 186.53
-9755576.71 5135332.36 186.92
-9755582.09 5135331.08 185.25
-9755575.55 5135333.34 186.71
-9755580.93 5135331.83 186.94
-9755575.89 5135334.18 188.62
-9755582.55 5135331.93 185.01
-9755577.61 5135337.46 184.73
-9755577.37 5135331.54 186.37
-9755577.35 5135333.26 185.97
-9755577.65 5135334.69 186.73
-9755582.98 5135328.30 185.97
-9755577.96 5135330.53 187.05
-9755577.68 5135329.34 186.09
-9755580.05 5135330.72 186.49
-9755578.49 5135333.96 185.34
-9755578.90 5135328.86 187.47
-9755586.15 5135335.89 181.22
-9755575.85 5135338.75 184.68
-9755577.74 5135330.56 186.98
-9755577.04 5135333.19 187.15
-9755580.62 5135329.50 187.32
-9755575.60 5135331.37 185.61
-9755581.81 5135331.51 186.12
-9755584.19 5135328.09 183.33
-9755576.44 5135333.06 186.78
-9755576.26 5135333.48 187.64
-9755579.78 5135327.91 188.07
-9755582.58 5135330.30 186.70
-9755577.85 5135331.46 187.25
-9755583.48 5135335.90 181.25
-9755579.91 5135337.97 181.09
-9755581.18 5135333.55 185.99
-9755574.94 5135337.98 186.85
-9755578.20 5135333.27 186.70
-9755577.50 5135338.24 181.09
-9755580.93 5135333.49 184.38
-9755585.00 5135328.50 181.29
-9755576.86 5135334.48 186.62
-9755582.67 5135329.72 185.93
-9755576.49 5135328.07 184.36
-9755580.96 5135328.81 187.52
-9755575.27 5135333.99 188.11
-9755584.13 5135328.63 185.30
-9755583.73 5135334.10 181.29
-9755575.31 5135332.83 186.80
-9755576.14 5135332.00 186.56
-9755580.27 5135329.16 187.33
-9755584.10 5135330.29 186.41
-9755576.40 5135336.84 185.98
-9755577.72 5135334.15 186.39
-9755585.06 5135328.42 183.47
-9755575.21 5135337.50 185.54
-9755575.44 5135337.33 185.11
-9755582.45 5135330.73 185.09
-9755581.56 5135331.79 186.98
-9755578.47 5135330.54 187.20
-9755583.81 5135329.16 185.78
-9755578.58 5135333.55 185.57
-9755585.34 5135328.44 183.42
-9755584.64 5135334.72 181.27
-9755582.11 5135329.74 186.69
-9755576.43 5135334.81 186.41
-9755575.56 5135330.93 185.56
-9755581.59 5135330.66 185.93
-9755577.04 5135327.98 185.04
-9755575.27 5135336.44 186.96
-9755583.26 5135330.53 185.16
-9755577.98 5135331.42 186.98
-9755576.92 5135336.47 184.87
-9755577.58 5135332.42 186.15
-9755582.48 5135328.63 186.61
-9755583.02 5135329.53 186.18
-9755579.13 5135331.49 186.97
-9755580.83 5135334.72 181.28
-9755576.52 5135327.93 185.59
-9755578.89 5135333.66 185.17
-9755576.82 5135328.28 185.53
-9755581.73 5135329.99 186.45
-9755582.64 5135331.51 186.04
-9755584.06 5135333.57 181.28
-9755575.55 5135337.68 186.28
-9755585.35 5135328.96 184.98
-9755584.06 5135334.17 181.27
-9755576.22 5135332.35 186.15
-9755584.97 5135329.05 183.49
-9755575.23 5135328.39 183.24
-9755583.21 5135328.66 186.33
-9755585.56 5135336.23 181.17
-9755581.25 5135333.07 184.18
-9755583.00 5135328.89 186.06
-9755575.21 5135331.50 185.73
-9755577.61 5135337.17 184.69
-9755577.64 5135329.81 186.24
-9755584.93 5135329.24 184.13
-9755578.87 5135331.10 187.60
-9755582.70 5135329.72 186.64
-9755583.17 5135334.44 181.27
-9755581.40 5135334.39 181.28
-9755575.88 5135333.98 186.21
-9755584.62 5135337.99 181.09
-9755575.17 5135337.28 185.39
-9755576.68 5135336.24 185.46
-9755580.85 5135336.81 181.09
-9755578.53 5135333.86 186.12
-9755577.61 5135336.71 181.09
-9755576.45 5135333.59 188.36
-9755583.12 5135337.71 181.08
-9755579.92 5135328.95 188.49
-9755583.84 5135331.31 185.62
-9755575.54 5135334.40 181.23
-9755575.16 5135336.78 181.11
-9755572.32 5135331.89 189.69
-9755562.29 5135339.02 181.08
-9755574.56 5135338.84 185.61
-9755574.76 5135333.13 188.82
-9755572.95 5135331.64 188.10
-9755572.61 5135333.01 190.36
-9755574.76 5135328.58 184.81
-9755574.21 5135330.80 187.10
-9755575.27 5135337.35 186.03
-9755572.68 5135332.69 190.21
-9755572.92 5135337.38 187.85
-9755570.29 5135336.39 188.13
-9755574.99 5135337.08 188.17
-9755571.34 5135338.96 184.90
-9755574.86 5135333.56 188.19
-9755570.91 5135329.87 187.46
-9755565.80 5135328.99 181.33
-9755568.82 5135331.81 186.88
-9755572.82 5135335.58 187.59
-9755574.23 5135329.42 185.68
-9755575.13 5135329.78 184.90
-9755574.25 5135333.86 188.44
-9755574.68 5135332.64 188.62
-9755569.66 5135338.38 184.10
-9755572.29 5135329.91 181.29
-9755574.17 5135331.39 187.67
-9755572.58 5135336.17 188.14
-9755574.96 5135330.88 185.11
-9755572.33 5135337.60 188.25
-9755564.87 5135333.19 181.65
-9755574.66 5135337.36 188.26
-9755572.30 5135334.84 190.40
-9755574.77 5135334.01 189.03
-9755569.43 5135336.68 187.62
-9755571.08 5135338.47 188.18
-9755572.66 5135338.54 187.58
-9755571.52 5135331.39 187.61
-9755573.47 5135332.58 188.99
-9755569.63 5135334.83 189.16
-9755571.42 5135331.99 188.64
-9755573.45 5135335.45 181.28
-9755574.98 5135328.65 184.74
-9755570.61 5135333.98 189.68
-9755571.10 5135336.76 187.64
-9755574.39 5135328.28 184.89
-9755573.54 5135334.83 189.66
-9755570.82 5135334.59 188.90
-9755570.56 5135337.30 187.26
-9755570.83 5135334.31 188.86
-9755568.15 5135338.39 183.95
-9755573.13 5135338.87 187.62
-9755572.60 5135338.77 188.00
-9755572.28 5135336.15 188.11
-9755567.04 5135328.23 184.29
-9755564.88 5135333.41 181.65
-9755574.14 5135331.10 186.09
-9755574.41 5135333.48 188.85
-9755573.57 5135329.97 186.62
-9755572.60 5135338.51 185.13
-9755572.37 5135335.48 188.63
-9755573.13 5135329.74 186.78
-9755574.41 5135334.30 188.93
-9755573.77 5135336.37 187.94
-9755569.08 5135335.18 187.65
-9755572.52 5135330.85 187.63
-9755571.75 5135335.09 189.65
-9755568.23 5135329.60 181.34
-9755575.30 5135332.83 188.95
-9755563.74 5135334.92 181.34
-9755563.44 5135338.50 181.09
-9755574.41 5135335.78 187.58
-9755572.41 5135336.44 188.60
-9755570.85 5135335.13 190.11
-9755565.45 5135333.88 181.67
-9755574.36 5135337.62 188.27
-9755575.00 5135334.00 188.68
-9755568.68 5135338.43 184.75
-9755563.43 5135335.21 181.33
-9755572.28 5135333.12 189.30
-9755572.72 5135333.85 189.00
-9755573.55 5135330.56 184.94
-9755574.12 5135330.57 186.11
-9755572.74 5135331.42 188.13
-9755568.39 5135337.95 184.65
-9755573.76 5135327.57 181.27
-9755567.28 5135333.29 183.76
-9755566.93 5135328.08 185.54
-9755570.36 5135338.07 188.19
-9755572.07 5135334.57 190.09
-9755570.32 5135336.70 187.49
-9755575.04 5135336.28 185.30
-9755572.15 5135333.07 189.86
-9755562.56 5135328.10 181.28
-9755574.64 5135330.28 184.89
-9755572.35 5135332.67 190.38
-9755571.84 5135331.85 188.14
-9755562.85 5135333.55 187.03
-9755572.92 5135335.16 189.32
-9755574.05 5135329.70 184.49
-9755574.29 5135333.36 189.39
-9755573.00 5135333.39 190.19
-9755574.76 5135334.59 189.29
-9755571.79 5135335.44 189.63
-9755574.41 5135334.98 186.81
-9755569.66 5135334.00 189.28
-9755571.71 5135332.91 181.34
-9755571.14 5135337.26 187.95
-9755574.25 5135333.08 189.36
-9755573.51 5135336.06 188.99
-9755571.64 5135336.04 187.59
-9755570.11 5135337.52 184.42
-9755572.34 5135335.20 188.59
-9755569.64 5135329.04 181.33
-9755573.21 5135333.74 188.74
-9755572.63 5135333.05 190.65
-9755572.72 5135333.93 190.80
-9755572.60 5135332.57 188.35
-9755567.09 5135331.96 181.68
-9755572.32 5135333.63 190.82
-9755574.54 5135330.11 186.17
-9755574.80 5135334.19 187.84
-9755562.24 5135338.43 181.07
-9755570.84 5135328.40 181.30
-9755566.96 5135328.18 186.37
-9755575.01 5135336.43 187.54
-9755572.12 5135336.42 188.11
-9755565.48 5135332.52 181.94
-9755571.84 5135328.85 184.63
-9755572.78 5135330.21 188.41
-9755572.42 5135334.55 189.68
-9755573.86 5135337.48 187.39
-9755574.89 5135332.27 188.39
-9755572.21 5135330.31 187.11
-9755573.01 5135331.65 188.76
-9755568.16 5135335.57 186.72
-9755571.42 5135336.37 188.85
-9755570.53 5135330.96 185.93
-9755563.80 5135333.99 186.44
-9755570.61 5135330.25 187.78
-9755572.40 5135330.89 187.75
-9755572.47 5135332.02 188.72
-9755565.47 5135332.55 181.25
-9755573.15 5135333.64 189.92
-9755573.55 5135330.77 187.22
-9755562.84 5135334.00 185.68
-9755567.66 5135334.17 184.09
-9755575.00 5135329.43 183.82
-9755572.35 5135338.02 185.05
-9755570.87 5135332.24 189.32
-9755570.94 5135331.69 187.76
-9755570.38 5135338.36 188.21
-9755570.72 5135335.17 188.84
-9755569.32 5135336.07 187.30
-9755573.20 5135329.90 186.05
-9755569.49 5135333.32 189.09
-9755570.26 5135330.53 187.96
-9755570.78 5135332.23 188.67
-9755574.79 5135334.28 189.25
-9755573.24 5135336.41 188.51
-9755572.40 5135330.72 188.56
-9755568.21 5135332.00 186.81
-9755568.20 5135333.03 183.61
-9755565.25 5135332.54 181.94
-9755568.87 5135332.55 186.87
-9755574.24 5135333.96 189.83
-9755571.85 5135335.55 188.37
-9755570.07 5135331.14 185.89
-9755564.34 5135333.73 181.68
-9755573.55 5135335.58 189.48
-9755569.26 5135336.50 187.73
-9755570.97 5135330.90 187.57
-9755573.75 5135334.12 188.93
-9755573.58 5135338.07 188.30
-9755566.07 5135335.23 181.29
-9755572.40 5135331.06 189.33
-9755568.10 5135334.32 185.44
-9755574.18 5135334.80 187.96
-9755568.47 5135338.82 184.75
-9755568.51 5135334.84 188.85
-9755575.01 5135333.55 187.26
-9755570.09 5135333.10 188.96
-9755565.18 5135333.08 181.93
-9755569.43 5135331.98 188.25
-9755565.53 5135332.21 181.69
-9755572.42 5135335.71 188.10
-9755573.83 5135333.98 189.63
-9755572.05 5135337.37 187.76
-9755569.37 5135334.85 189.16
-9755569.37 5135331.84 184.88
-9755572.37 5135332.17 189.73
-9755570.89 5135338.11 187.70
-9755574.31 5135335.76 181.31
-9755562.61 5135329.85 181.29
-9755574.62 5135333.80 188.20
-9755567.58 5135333.85 185.44
-9755567.05 5135328.51 186.03
-9755566.07 5135332.30 181.67
-9755570.27 5135334.88 188.94
-9755574.42 5135328.63 184.91
-9755563.11 5135334.91 181.33
-9755575.01 5135328.86 184.80
-9755573.83 5135331.37 188.00
-9755571.82 5135329.34 187.48
-9755572.49 5135330.51 181.29
-9755571.42 5135334.21 190.59
-9755573.33 5135329.67 187.31
-9755564.95 5135330.14 181.29
-9755573.48 5135337.31 187.94
-9755573.81 5135331.66 188.00
-9755574.36 5135335.20 187.67
-9755571.78 5135329.68 184.99
-9755570.92 5135336.69 188.93
-9755572.10 5135337.50 187.37
-9755572.99 5135330.18 188.46
-9755573.19 5135338.75 187.98
-9755562.54 5135337.29 181.08
-9755574.42 5135336.71 187.84
-9755571.77 5135329.67 187.30
-9755572.40 5135333.91 190.52
-9755573.44 5135335.41 187.70
-9755574.00 5135329.04 181.27
-9755573.02 5135331.71 187.57
-9755563.73 5135330.15 181.27
-9755572.26 5135329.66 188.22
-9755574.21 5135329.45 183.53
-9755574.97 5135334.93 181.25
-9755570.53 5135331.93 188.15
-9755567.65 5135336.01 184.69
-9755573.86 5135330.50 186.79
-9755569.65 5135335.83 188.31
-9755572.60 5135335.13 189.44
-9755574.18 5135333.99 188.16
-9755574.43 5135331.63 188.38
-9755570.87 5135332.17 187.82
-9755568.46 5135338.18 183.93
-9755568.03 5135335.95 186.00
-9755568.73 5135333.14 186.40
-9755562.56 5135338.17 181.07
-9755573.53 5135331.75 187.00
-9755569.42 5135335.76 188.33
-9755574.41 5135333.43 188.21
-9755573.98 5135328.58 183.56
-9755566.70 5135330.20 181.31
-9755573.50 5135332.27 188.87
-9755565.83 5135329.88 181.30
-9755563.50 5135334.52 184.44
-9755574.69 5135334.64 188.95
-9755568.50 5135335.49 187.63
-9755572.99 5135329.29 186.82
-9755568.14 5135332.85 181.24
-9755567.33 5135332.57 181.25
-9755570.31 5135333.40 188.51
-9755573.87 5135332.06 188.78
-9755571.09 5135331.78 189.38
-9755562.55 5135333.09 181.30
-9755571.68 5135335.58 189.31
-9755563.43 5135333.41 181.29
-9755571.84 5135333.59 190.84
-9755574.40 5135337.35 187.25
-9755567.64 5135329.36 185.48
-9755573.27 5135338.17 187.47
-9755571.83 5135332.42 190.25
-9755569.03 5135338.35 183.94
-9755575.24 5135335.83 187.59
-9755571.73 5135338.50 188.22
-9755564.35 5135333.72 181.28
-9755570.18 5135334.45 188.18
-9755571.95 5135338.21 188.08
-9755574.71 5135335.20 187.63
-9755574.24 5135333.09 187.76
-9755573.14 5135333.83 190.54
-9755574.65 5135333.19 188.21
-9755575.01 5135338.06 185.89
-9755568.21 5135331.97 187.11
-9755574.73 5135336.75 187.82
-9755567.37 5135328.12 187.12
-9755572.70 5135334.58 189.21
-9755563.95 5135337.92 181.08
-9755571.36 5135338.74 188.16
-9755574.00 5135336.46 187.19
-9755573.79 5135334.29 189.67
-9755573.27 5135333.58 188.20
-9755569.06 5135334.62 187.45
-9755573.52 5135331.36 187.71
-9755572.43 5135329.95 187.21
-9755574.70 5135328.18 184.42
-9755573.79 5135331.88 188.56
-9755569.99 5135330.36 185.70
-9755574.39 5135331.10 187.73
-9755573.51 5135328.25 184.94
-9755574.28 5135330.49 186.77
-9755574.66 5135332.85 187.55
-9755574.65 5135332.67 181.30
-9755571.45 5135337.21 187.85
-9755572.94 5135336.16 188.54
-9755574.98 5135337.62 187.86
-9755571.45 5135338.39 184.90
-9755573.29 5135332.00 188.57
-9755564.05 5135334.90 181.33
-9755572.11 5135335.73 188.82
-9755572.55 5135337.88 188.25
-9755563.47 5135333.76 181.30
-9755562.65 5135333.52 186.20
-9755571.48 5135330.24 185.52
-9755572.68 5135330.21 187.19
-9755570.89 5135331.40 187.98
-9755571.74 5135337.54 188.26
-9755573.55 5135329.35 181.26
-9755574.49 5135333.68 188.56
-9755568.46 5135333.49 186.16
-9755572.68 5135334.75 181.31
-9755570.78 5135333.73 188.69
-9755570.67 5135332.76 189.37
-9755571.06 5135334.98 188.02
-9755571.77 5135330.01 184.19
-9755573.92 5135332.93 188.96
-9755567.31 5135328.99 181.32
-9755571.42 5135335.18 189.10
-9755573.14 5135334.95 188.88
-9755565.82 5135330.75 181.30
-9755570.55 5135331.05 188.97
-9755574.69 5135330.60 187.33
-9755562.56 5135333.69 181.32
-9755571.98 5135338.16 186.87
-9755571.15 5135337.30 188.82
-9755572.93 5135330.75 188.07
-9755568.48 5135329.88 181.33
-9755574.09 5135336.67 188.71
-9755567.39 5135329.47 185.37
-9755571.48 5135332.44 189.67
-9755573.50 5135333.10 188.85
-9755573.51 5135336.39 188.58
-9755573.85 5135334.68 188.58
-9755573.53 5135334.14 190.11
-9755574.38 5135336.44 187.82
-9755573.56 5135338.54 188.14
-9755572.58 5135332.57 188.75
-9755572.73 5135335.75 187.99
-9755564.57 5135335.81 181.31
-9755567.86 5135331.69 181.26
-9755567.94 5135336.41 184.85
-9755574.64 5135330.04 185.59
-9755573.86 5135332.53 188.64
-9755574.29 5135336.29 188.99
-9755574.60 5135338.39 185.59
-9755567.61 5135331.39 181.26
-9755573.41 5135336.68 187.77
-9755563.12 5135334.69 184.50
-9755574.84 5135333.09 181.30
-9755569.37 5135333.47 188.64
-9755573.92 5135332.82 189.68
-9755572.85 5135332.33 188.57
-9755570.35 5135333.41 189.57
-9755572.02 5135329.36 186.84
-9755570.62 5135332.60 186.89
-9755568.49 5135329.05 181.35
-9755566.43 5135331.93 181.69
-9755567.37 5135328.49 183.94
-9755573.63 5135332.56 189.69
-9755569.38 5135335.84 186.75
-9755566.04 5135333.68 184.05
-9755563.35 5135338.16 181.08
-9755572.25 5135335.53 181.24
-9755574.16 5135334.29 189.67
-9755569.37 5135336.69 186.12
-9755573.45 5135336.62 188.96
-9755571.84 5135331.10 188.06
-9755564.93 5135337.92 181.08
-9755572.66 5135332.46 190.20
-9755571.43 5135331.47 188.25
-9755569.97 5135328.74 181.32
-9755569.34 5135336.98 186.37
-9755574.72 5135331.47 187.93
-9755568.15 5135332.72 183.68
-9755573.90 5135335.15 189.46
-9755573.50 5135330.52 187.95
-9755572.62 5135333.14 188.85
-9755566.67 5135333.90 183.84
-9755569.38 5135329.33 181.33
-9755567.65 5135332.08 186.69
-9755569.13 5135338.33 184.75
-9755572.37 5135335.89 187.89
-9755570.37 5135329.89 187.97
-9755565.77 5135332.47 181.84
-9755573.50 5135334.32 189.60
-9755564.32 5135332.53 181.95
-9755570.91 5135336.82 181.08
-9755574.11 5135334.71 187.40
-9755570.85 5135332.10 189.74
-9755571.70 5135336.71 186.83
-9755574.20 5135330.33 187.88
-9755570.25 5135329.74 185.10
-9755569.77 5135330.66 185.70
-9755571.47 5135331.10 187.75
-9755574.38 5135329.86 184.68
-9755573.42 5135331.13 185.04
-9755570.27 5135334.30 188.82
-9755573.53 5135336.96 188.56
-9755564.65 5135333.07 181.97
-9755574.98 5135332.33 187.93
-9755571.82 5135333.03 190.22
-9755574.35 5135337.92 188.16
-9755574.73 5135331.51 186.48
-9755572.91 5135329.96 187.26
-9755565.23 5135331.68 181.27
-9755572.68 5135331.05 188.48
-9755567.01 5135328.01 185.11
-9755572.17 5135332.78 189.12
-9755573.79 5135333.09 188.45
-9755573.87 5135332.62 187.92
-9755571.71 5135330.05 185.45
-9755566.68 5135338.47 181.05
-9755571.79 5135334.58 181.33
-9755571.31 5135335.93 187.99
-9755563.18 5135332.54 181.29
-9755573.26 5135332.31 188.38
-9755573.97 5135330.68 184.72
-9755572.37 5135331.52 181.33
-9755571.02 5135333.57 190.42
-9755571.38 5135329.92 181.30
-9755570.89 5135330.77 188.91
-9755572.87 5135334.07 189.43
-9755570.62 5135333.96 188.88
-9755573.20 5135337.64 181.06
-9755573.81 5135335.22 181.30
-9755569.27 5135335.59 187.03
-9755567.86 5135332.29 186.65
-9755563.29 5135334.30 184.56
-9755571.69 5135337.62 188.37
-9755573.89 5135335.60 187.72
-9755570.87 5135334.25 189.69
-9755566.44 5135333.91 183.90
-9755564.97 5135338.77 181.06
-9755573.76 5135330.05 184.85
-9755574.36 5135331.70 187.42
-9755573.01 5135335.75 188.55
-9755574.88 5135333.45 181.28
-9755574.79 5135338.87 186.28
-9755565.84 5135331.35 181.30
-9755574.64 5135329.01 183.38
-9755573.59 5135335.16 189.02
-9755564.42 5135333.45 181.68
-9755573.50 5135332.54 187.66
-9755573.78 5135334.62 188.95
-9755568.72 5135337.49 184.18
-9755566.77 5135332.81 183.61
-9755571.76 5135337.61 187.78
-9755569.96 5135337.67 187.57
-9755566.73 5135327.85 185.59
-9755566.39 5135334.92 181.28
-9755569.71 5135332.58 189.05
-9755571.54 5135338.79 188.40
-9755570.28 5135333.03 188.66
-9755569.10 5135332.38 185.13
-9755573.52 5135332.31 187.65
-9755573.00 5135332.00 188.11
-9755572.74 5135333.56 190.24
-9755571.78 5135336.78 187.87
-9755574.01 5135331.64 188.56
-9755573.27 5135336.50 187.77
-9755567.56 5135327.85 186.93
-9755573.44 5135338.92 187.13
-9755565.23 5135335.79 181.29
-9755566.74 5135328.76 187.12
-9755570.01 5135333.23 188.24
-9755566.06 5135333.89 184.09
-9755572.29 5135338.31 184.45
-9755569.38 5135329.87 181.32
-9755573.99 5135333.75 181.23
-9755570.59 5135337.22 188.54
-9755571.82 5135332.24 189.61
-9755567.87 5135333.89 185.43
-9755571.15 5135337.59 188.88
-9755571.33 5135334.07 189.65
-9755571.29 5135333.47 181.32
-9755566.65 5135333.03 183.79
-9755571.83 5135333.33 190.24
-9755574.51 5135330.11 186.70
-9755570.43 5135331.47 188.66
-9755571.28 5135330.78 188.58
-9755563.79 5135334.03 181.30
-9755569.08 5135331.14 184.79
-9755572.35 5135330.01 183.99
-9755573.29 5135336.04 187.76
-9755573.24 5135331.08 187.66
-9755572.73 5135335.47 189.17
-9755574.05 5135338.51 187.73
-9755573.47 5135329.93 186.96
-9755569.11 5135337.80 183.88
-9755574.39 5135335.45 188.24
-9755573.90 5135333.39 188.89
-9755573.05 5135332.56 188.25
-9755566.39 5135333.13 181.93
-9755572.36 5135329.87 183.99
-9755569.70 5135333.08 189.06
-9755572.29 5135329.35 186.85
-9755566.71 5135327.97 184.70
-9755571.48 5135331.92 189.90
-9755573.50 5135329.77 184.82
-9755571.82 5135329.90 188.10
-9755574.70 5135336.38 188.01
-9755573.57 5135331.01 188.02
-9755567.29 5135336.01 184.74
-9755562.51 5135336.10 181.28
-9755561.39 5135330.80 181.30
-9755562.25 5135333.98 181.32
-9755561.10 5135329.87 181.29
-9755561.66 5135333.15 181.31
-9755561.33 5135337.26 181.06
-9755561.70 5135328.97 181.27
-9755561.03 5135332.80 181.34
-9755560.81 5135332.22 181.31
-9755561.13 5135331.33 181.31
-9755561.56 5135327.11 181.92
-9755561.07 5135330.40 181.29
-9755561.93 5135335.80 181.31
-9755561.35 5135336.36 181.25
-9755561.66 5135333.73 181.31
-9755590.02 5135312.95 181.05
-9755589.78 5135312.33 181.03
-9755590.37 5135312.52 181.04
-9755588.88 5135312.38 181.06
-9755590.30 5135321.73 181.08
-9755589.19 5135316.73 181.09
-9755590.32 5135322.39 181.09
-9755589.70 5135320.20 181.09
-9755590.36 5135317.02 181.07
-9755589.18 5135321.73 181.08
-9755589.19 5135315.76 181.07
-9755589.43 5135321.68 181.10
-9755589.16 5135320.83 181.07
-9755590.11 5135316.12 181.08
-9755590.01 5135322.61 181.08
-9755589.49 5135323.77 181.06
-9755588.91 5135318.77 181.06
-9755589.22 5135317.62 181.07
-9755590.02 5135325.93 181.25
-9755588.85 5135326.18 181.25
-9755588.63 5135320.84 181.07
-9755588.82 5135323.50 181.09
-9755588.87 5135317.59 181.08
-9755587.90 5135324.39 181.07
-9755587.96 5135326.46 181.24
-9755588.01 5135318.81 181.06
-9755588.03 5135323.39 181.10
-9755588.30 5135317.01 181.07
-9755587.70 5135316.10 181.08
-9755588.26 5135322.60 181.09
-9755587.04 5135325.84 181.21
-9755587.03 5135325.02 181.08
-9755588.24 5135325.89 181.21
-9755587.06 5135318.75 181.06
-9755588.02 5135320.23 181.06
-9755587.96 5135325.26 181.10
-9755587.17 5135314.01 181.04
-9755588.02 5135321.73 181.08
-9755588.50 5135325.00 181.07
-9755587.37 5135321.39 181.06
-9755578.33 5135313.18 180.97
-9755586.57 5135311.94 181.03
-9755582.50 5135312.53 181.01
-9755587.20 5135312.26 181.05
-9755584.45 5135313.43 181.01
-9755586.81 5135315.17 181.07
-9755578.89 5135313.95 180.97
-9755578.32 5135311.99 180.96
-9755583.32 5135311.93 181.02
-9755579.68 5135313.68 180.98
-9755580.82 5135312.85 180.98
-9755585.71 5135312.88 181.05
-9755581.24 5135311.94 181.01
-9755586.24 5135311.98 181.04
-9755582.41 5135313.39 181.01
-9755578.85 5135312.85 180.96
-9755583.28 5135312.49 181.01
-9755586.51 5135312.46 181.02
-9755577.09 5135312.13 180.95
-9755585.37 5135312.83 181.04
-9755582.71 5135313.72 181.01
-9755585.36 5135314.33 181.02
-9755581.60 5135314.01 181.01
-9755582.15 5135312.55 181.00
-9755576.85 5135314.32 180.97
-9755575.59 5135314.28 180.95
-9755568.83 5135313.41 180.92
-9755575.01 5135312.88 180.96
-9755571.76 5135311.93 180.95
-9755573.04 5135311.93 180.94
-9755565.85 5135313.64 180.94
-9755563.26 5135313.34 180.95
-9755564.16 5135312.48 180.94
-9755568.51 5135312.07 180.93
-9755570.65 5135313.04 180.92
-9755569.47 5135312.09 180.93
-9755570.01 5135313.96 180.91
-9755575.58 5135312.15 180.95
-9755569.96 5135311.89 180.92
-9755571.22 5135314.30 180.92
-9755569.74 5135312.43 180.94
-9755571.74 5135313.06 180.92
-9755561.22 5135312.04 180.96
-9755584.73 5135326.08 183.17
-9755581.29 5135324.70 185.35
-9755578.53 5135324.95 186.33
-9755579.97 5135320.18 181.03
-9755576.78 5135325.66 186.11
-9755582.10 5135323.97 183.65
-9755582.14 5135323.64 183.65
-9755578.86 5135324.73 185.67
-9755582.43 5135323.20 181.05
-9755579.68 5135325.63 185.93
-9755576.52 5135326.55 184.97
-9755585.63 5135325.31 181.09
-9755579.71 5135325.34 185.87
-9755578.86 5135323.93 184.56
-9755578.90 5135326.08 186.84
-9755578.83 5135325.10 185.05
-9755581.16 5135326.56 184.68
-9755578.52 5135324.46 185.70
-9755576.34 5135325.73 185.27
-9755580.86 5135324.82 186.16
-9755580.88 5135326.26 184.65
-9755577.41 5135320.83 181.02
-9755578.25 5135314.87 180.97
-9755582.97 5135325.99 184.87
-9755583.26 5135318.45 181.03
-9755581.34 5135326.19 186.22
-9755585.69 5135316.97 181.04
-9755577.42 5135321.12 181.04
-9755579.10 5135324.15 185.76
-9755580.59 5135320.78 181.04
-9755579.70 5135322.26 181.04
-9755576.57 5135325.00 185.77
-9755579.22 5135325.23 186.00
-9755579.71 5135325.56 185.82
-9755576.43 5135316.97 180.97
-9755580.70 5135318.12 181.03
-9755577.08 5135323.49 181.05
-9755585.69 5135321.10 181.05
-9755586.87 5135321.10 181.06
-9755578.94 5135324.35 185.27
-9755583.28 5135314.88 181.02
-9755579.98 5135321.15 181.03
-9755585.66 5135324.44 181.09
-9755576.21 5135325.29 186.12
-9755577.86 5135325.85 185.56
-9755585.00 5135318.47 181.07
-9755583.93 5135321.11 181.07
-9755583.54 5135320.29 181.06
-9755583.03 5135324.26 183.61
-9755577.08 5135324.97 186.17
-9755583.86 5135318.10 181.04
-9755580.05 5135324.40 185.94
-9755579.24 5135325.65 186.50
-9755582.21 5135314.93 181.03
-9755578.33 5135325.81 186.56
-9755579.96 5135326.20 185.80
-9755579.22 5135324.15 184.60
-9755579.12 5135326.15 186.92
-9755581.26 5135324.96 184.47
-9755576.21 5135316.00 180.96
-9755578.54 5135325.26 185.96
-9755586.05 5135324.10 181.08
-9755582.39 5135322.62 181.07
-9755578.54 5135325.88 185.61
-9755582.63 5135325.18 183.60
-9755585.57 5135320.82 181.05
-9755581.05 5135324.86 185.26
-9755583.26 5135316.34 181.02
-9755575.63 5135314.90 180.95
-9755581.00 5135324.03 183.68
-9755581.54 5135315.50 181.00
-9755580.03 5135315.99 180.98
-9755582.98 5135324.78 184.96
-9755579.08 5135320.22 181.03
-9755583.05 5135317.02 181.01
-9755578.00 5135321.71 181.04
-9755577.57 5135324.31 181.05
-9755581.01 5135323.37 183.78
-9755582.33 5135318.36 181.02
-9755582.12 5135324.75 184.21
-9755581.19 5135325.60 185.79
-9755575.63 5135325.30 185.62
-9755582.11 5135326.25 184.89
-9755578.91 5135324.41 181.07
-9755582.35 5135325.66 184.82
-9755578.77 5135324.79 184.50
-9755576.79 5135325.99 184.97
-9755576.75 5135325.36 185.91
-9755577.28 5135322.02 181.02
-9755580.93 5135315.19 181.00
-9755580.00 5135325.00 185.73
-9755581.47 5135324.69 183.63
-9755582.09 5135325.12 184.80
-9755584.77 5135325.25 181.08
-9755582.56 5135320.25 181.03
-9755585.94 5135320.77 181.08
-9755582.43 5135324.17 184.52
-9755578.28 5135323.47 181.05
-9755583.79 5135324.61 181.07
-9755576.22 5135325.95 186.04
-9755581.22 5135324.39 185.25
-9755582.48 5135317.30 181.02
-9755576.15 5135324.40 181.06
-9755580.97 5135325.58 185.83
-9755580.02 5135323.60 183.23
-9755580.59 5135323.96 183.18
-9755584.41 5135325.85 181.16
-9755583.83 5135322.55 181.05
-9755579.75 5135326.11 186.66
-9755576.48 5135325.26 185.75
-9755578.90 5135324.98 186.47
-9755583.12 5135324.06 181.05
-9755579.06 5135319.80 181.01
-9755577.76 5135325.03 185.45
-9755580.63 5135323.67 183.25
-9755578.04 5135326.15 185.65
-9755577.06 5135325.92 185.89
-9755580.06 5135325.07 185.92
-9755579.14 5135317.00 181.01
-9755578.79 5135321.92 181.04
-9755578.27 5135326.13 186.47
-9755581.53 5135322.30 181.04
-9755575.94 5135326.16 185.35
-9755578.79 5135324.52 184.49
-9755577.99 5135315.43 180.96
-9755581.55 5135324.77 184.73
-9755580.86 5135323.70 183.29
-9755578.83 5135323.50 181.05
-9755582.67 5135325.81 183.73
-9755581.22 5135323.59 183.65
-9755578.92 5135324.12 185.77
-9755582.46 5135321.45 181.05
-9755580.60 5135324.10 186.07
-9755582.45 5135323.71 183.56
-9755583.79 5135326.15 181.24
-9755578.00 5135316.65 181.01
-9755575.78 5135319.30 181.00
-9755581.78 5135326.02 184.54
-9755578.90 5135316.59 181.01
-9755584.11 5135326.12 181.23
-9755576.48 5135318.06 180.97
-9755578.31 5135319.81 181.02
-9755580.05 5135324.10 185.91
-9755578.86 5135314.52 181.00
-9755579.18 5135325.31 185.82
-9755576.72 5135320.21 181.02
-9755584.50 5135318.20 181.05
-9755580.68 5135317.20 181.02
-9755582.13 5135325.81 184.22
-9755583.25 5135325.01 181.05
-9755582.37 5135317.81 181.03
-9755578.85 5135324.05 185.31
-9755580.60 5135319.04 181.03
-9755579.45 5135323.61 184.67
-9755575.69 5135316.57 180.97
-9755579.44 5135324.15 184.58
-9755582.17 5135320.88 181.04
-9755582.40 5135324.11 184.77
-9755577.65 5135320.23 180.99
-9755584.20 5135321.71 181.08
-9755577.08 5135325.26 185.57
-9755580.56 5135324.33 186.07
-9755582.99 5135324.52 184.95
-9755585.06 5135319.09 181.05
-9755583.50 5135326.07 184.51
-9755582.71 5135315.14 181.03
-9755582.74 5135326.09 183.82
-9755583.33 5135322.90 181.07
-9755583.79 5135326.60 183.04
-9755586.77 5135324.38 181.07
-9755579.23 5135325.55 185.79
-9755584.86 5135315.22 181.03
-9755585.64 5135322.89 181.07
-9755581.49 5135324.18 184.70
-9755579.21 5135321.70 181.06
-9755578.61 5135326.21 186.70
-9755582.94 5135326.02 183.77
-9755578.28 5135325.30 186.70
-9755580.57 5135325.30 185.78
-9755580.02 5135318.47 181.01
-9755585.58 5135322.57 181.07
-9755577.34 5135325.05 184.60
-9755575.62 5135318.02 180.98
-9755581.57 5135323.10 183.43
-9755577.12 5135319.32 180.99
-9755585.55 5135321.61 181.08
-9755580.05 5135317.81 181.01
-9755575.85 5135324.05 181.06
-9755575.57 5135322.21 181.04
-9755580.02 5135318.69 181.02
-9755580.65 5135322.58 181.05
-9755581.99 5135325.05 185.25
-9755576.78 5135324.33 186.24
-9755584.69 5135325.00 181.08
-9755580.35 5135316.74 181.01
-9755577.14 5135325.50 184.99
-9755575.58 5135323.48 181.06
-9755579.12 5135325.04 186.53
-9755585.90 5135319.90 181.09
-9755575.92 5135321.75 181.03
-9755577.17 5135324.33 186.07
-9755580.94 5135326.26 186.04
-9755578.29 5135324.38 186.40
-9755580.58 5135324.08 184.37
-9755567.58 5135326.05 181.17
-9755566.08 5135326.64 181.27
-9755575.64 5135321.15 181.01
-9755566.20 5135314.26 180.96
-9755575.62 5135316.29 180.96
-9755575.07 5135323.76 181.07
-9755572.47 5135317.76 180.94
-9755566.12 5135317.80 180.96
-9755564.14 5135324.51 181.07
-9755564.03 5135321.04 181.04
-9755562.42 5135321.05 181.02
-9755570.33 5135317.81 180.91
-9755562.61 5135324.29 181.05
-9755575.03 5135322.82 181.03
-9755571.46 5135316.86 180.91
-9755565.81 5135316.31 180.95
-9755562.88 5135325.15 181.06
-9755567.35 5135320.97 181.01
-9755569.16 5135316.34 180.92
-9755565.95 5135319.84 180.99
-9755567.61 5135322.24 181.01
-9755572.95 5135315.42 180.92
-9755562.57 5135323.70 181.06
-9755569.96 5135324.58 181.07
-9755569.05 5135324.00 181.03
-9755572.36 5135322.85 181.02
-9755565.82 5135326.08 181.15
-9755567.38 5135315.97 180.94
-9755571.20 5135320.12 181.00
-9755568.49 5135325.15 181.06
-9755573.89 5135320.19 180.98
-9755574.37 5135325.17 180.98
-9755575.27 5135316.62 180.95
-9755564.98 5135323.36 181.06
-9755567.34 5135315.09 180.93
-9755568.22 5135317.26 180.94
-9755562.61 5135325.75 181.07
-9755562.66 5135315.13 180.97
-9755568.27 5135316.62 180.93
-9755562.69 5135316.72 180.97
-9755571.21 5135322.52 181.04
-9755574.18 5135317.58 180.95
-9755573.30 5135315.64 180.95
-9755563.23 5135323.31 181.05
-9755563.57 5135321.59 181.03
-9755562.92 5135326.03 181.10
-9755568.28 5135320.50 181.01
-9755569.16 5135318.31 180.94
-9755573.85 5135325.13 181.06
-9755568.57 5135318.67 180.94
-9755574.76 5135326.48 185.06
-9755563.85 5135323.41 181.05
-9755564.66 5135320.11 181.01
-9755573.31 5135316.61 180.92
-9755574.06 5135321.10 180.99
-9755564.40 5135325.72 181.09
-9755568.55 5135326.65 181.30
-9755571.81 5135321.02 181.01
-9755565.20 5135322.29 181.04
-9755563.28 5135320.12 180.99
-9755568.91 5135321.06 181.01
-9755573.83 5135324.92 181.04
-9755575.31 5135324.26 181.04
-9755566.73 5135326.66 181.28
-9755564.09 5135322.73 181.05
-9755564.13 5135315.29 180.97
-9755569.96 5135324.89 181.07
-9755568.27 5135319.86 180.98
-9755570.04 5135316.29 180.92
-9755569.73 5135324.19 181.07
-9755573.85 5135321.71 181.00
-9755572.99 5135322.64 181.03
-9755565.62 5135316.91 180.96
-9755570.63 5135319.57 180.95
-9755573.29 5135317.86 180.95
-9755573.50 5135318.41 180.97
-9755569.71 5135318.78 180.94
-9755567.36 5135318.72 180.97
-9755569.68 5135321.03 181.00
-9755562.61 5135320.16 181.02
-9755566.08 5135323.12 181.03
-9755569.45 5135323.29 181.04
-9755569.08 5135323.34 181.05
-9755570.24 5135325.81 181.10
-9755569.16 5135321.93 181.02
-9755568.52 5135322.49 181.03
-9755563.49 5135319.59 180.98
-9755564.99 5135318.35 180.98
-9755570.55 5135322.78 181.01
-9755574.41 5135316.86 180.96
-9755564.71 5135319.23 180.98
-9755566.14 5135324.29 181.07
-9755565.91 5135318.96 180.98
-9755567.32 5135325.12 181.06
-9755563.25 5135319.56 180.99
-9755572.73 5135315.43 180.91
-9755565.03 5135319.53 180.97
-9755565.58 5135321.93 181.01
-9755568.52 5135317.48 180.93
-9755564.71 5135322.54 181.04
-9755575.07 5135316.38 180.95
-9755565.06 5135324.88 181.10
-9755571.50 5135318.98 180.96
-9755571.19 5135321.93 181.02
-9755574.15 5135314.57 180.95
-9755567.37 5135326.06 181.19
-9755571.27 5135316.07 180.89
-9755563.58 5135321.81 181.03
-9755562.62 5135315.95 180.95
-9755562.99 5135316.82 180.98
-9755571.76 5135324.86 181.08
-9755569.71 5135316.57 180.92
-9755565.02 5135316.62 180.95
-9755573.51 5135316.91 180.95
-9755565.84 5135322.47 181.05
-9755574.73 5135321.97 181.03
-9755565.92 5135316.60 180.95
-9755570.25 5135315.14 180.92
-9755571.42 5135326.11 181.22
-9755572.91 5135324.31 181.05
-9755565.29 5135320.18 180.99
-9755564.38 5135318.29 180.98
-9755570.07 5135321.99 181.01
-9755569.16 5135319.58 180.96
-9755567.89 5135317.78 180.95
-9755564.99 5135317.45 180.95
-9755572.91 5135325.80 181.09
-9755562.07 5135323.35 181.06
-9755561.70 5135323.68 181.08
-9755561.46 5135325.16 181.07
-9755561.77 5135321.54 181.05
-9755562.24 5135322.16 181.03
-9755561.72 5135320.09 181.03
-9755562.06 5135317.46 180.98
-9755561.49 5135317.70 180.98
-9755562.02 5135316.54 180.98
-9755561.42 5135323.34 181.05
-9755560.82 5135325.71 181.07
-9755560.78 5135334.00 181.33
-9755560.52 5135328.36 181.25
-9755560.24 5135331.88 181.33
-9755560.24 5135333.41 181.37
-9755560.18 5135337.23 181.05
-9755560.26 5135328.08 181.25
-9755560.21 5135331.31 181.31
-9755559.38 5135326.89 181.26
-9755556.78 5135327.46 187.87
-9755556.70 5135327.17 188.41
-9755556.23 5135326.78 186.21
-9755557.62 5135327.27 186.30
-9755556.29 5135327.43 188.42
-9755559.36 5135326.60 181.24
-9755557.30 5135326.96 186.53
-9755556.97 5135327.39 188.48
-9755556.19 5135327.52 187.87
-9755556.97 5135326.88 181.24
-9755556.64 5135326.94 186.55
-9755556.70 5135326.58 187.45
-9755556.08 5135327.52 181.23
-9755556.96 5135326.98 186.12
-9755557.58 5135327.43 181.25
-9755556.54 5135327.10 188.10
-9755556.18 5135326.50 186.10
-9755556.57 5135326.82 188.70
-9755556.45 5135327.43 181.25
-9755557.65 5135331.03 187.29
-9755556.11 5135328.24 189.07
-9755557.92 5135327.56 186.23
-9755559.23 5135339.03 181.08
-9755556.84 5135331.57 186.75
-9755556.96 5135329.82 188.08
-9755556.52 5135331.00 188.49
-9755556.47 5135329.20 186.56
-9755556.10 5135332.82 186.80
-9755557.86 5135328.60 187.37
-9755557.06 5135331.37 187.18
-9755556.49 5135331.94 186.83
-9755557.30 5135327.59 186.40
-9755555.98 5135330.69 186.81
-9755557.51 5135329.27 186.88
