-9755098.07 5135556.66 181.27
-9755101.69 5135557.51 185.72
-9755102.27 5135559.98 185.51
-9755103.41 5135556.22 185.94
-9755103.43 5135558.14 181.44
-9755100.72 5135561.22 184.68
-9755100.71 5135558.86 185.21
-9755102.56 5135556.66 181.44
-9755101.92 5135555.63 185.31
-9755100.69 5135559.22 184.28
-9755099.54 5135558.69 181.34
-9755099.22 5135561.35 181.32
-9755102.77 5135555.46 181.42
-9755100.46 5135556.77 184.98
-9755101.93 5135559.44 186.48
-9755100.73 5135560.09 185.19
-9755100.16 5135557.12 185.09
-9755099.86 5135557.94 185.11
-9755103.11 5135555.55 185.10
-9755101.25 5135563.51 181.37
-9755100.67 5135558.10 181.38
-9755102.57 5135558.00 185.31
-9755099.86 5135558.15 181.36
-9755101.28 5135561.11 181.38
-9755103.32 5135563.39 184.31
-9755098.07 5135560.81 181.31
-9755102.74 5135558.83 184.35
-9755103.24 5135555.09 186.06
-9755103.07 5135557.76 185.01
-9755102.79 5135558.29 184.89
-9755102.78 5135563.05 184.34
-9755102.01 5135555.24 185.70
-9755100.13 5135554.06 181.35
-9755102.47 5135557.30 181.40
-9755100.92 5135558.84 184.92
-9755103.96 5135555.57 185.32
-9755102.22 5135560.38 185.55
-9755100.02 5135558.06 184.08
-9755102.80 5135563.01 185.06
-9755101.59 5135558.31 184.09
-9755101.26 5135556.65 181.41
-9755100.41 5135561.42 181.37
-9755102.13 5135565.87 181.40
-9755101.40 5135560.38 184.35
-9755103.11 5135563.34 184.87
-9755101.37 5135556.38 181.41
-9755102.46 5135564.06 181.39
-9755100.64 5135558.84 184.26
-9755103.65 5135558.67 181.46
-9755102.22 5135555.88 185.90
-9755101.52 5135561.26 185.05
-9755101.69 5135559.95 181.40
-9755103.67 5135562.46 185.06
-9755102.98 5135562.05 181.43
-9755102.55 5135554.81 185.88
-9755101.78 5135556.22 185.79
-9755103.90 5135563.69 185.05
-9755103.58 5135562.09 184.43
-9755102.24 5135559.91 184.59
-9755098.95 5135563.81 181.31
-9755103.63 5135563.40 184.43
-9755104.55 5135555.75 181.45
-9755102.77 5135561.32 181.44
-9755103.22 5135556.19 185.65
-9755102.51 5135560.00 186.65
-9755102.79 5135562.60 181.40
-9755102.80 5135557.87 181.44
-9755098.66 5135554.29 181.26
-9755102.45 5135559.69 181.41
-9755101.10 5135560.10 185.33
-9755102.01 5135559.42 185.22
-9755101.93 5135557.25 181.37
-9755098.92 5135558.63 181.29
-9755099.51 5135563.75 181.31
-9755101.99 5135558.69 184.33
-9755103.72 5135556.99 181.48
-9755103.16 5135560.86 186.28
-9755103.09 5135556.87 181.44
-9755102.52 5135559.53 184.91
-9755101.06 5135559.69 186.14
-9755102.87 5135558.91 185.67
-9755100.72 5135559.66 184.28
-9755098.89 5135561.06 181.32
-9755102.20 5135560.25 181.40
-9755103.23 5135562.05 186.35
-9755102.25 5135561.27 184.93
-9755101.32 5135557.56 181.30
-9755101.55 5135557.97 185.68
-9755104.00 5135554.92 181.46
-9755103.72 5135555.83 181.45
-9755101.47 5135556.74 185.86
-9755103.10 5135563.55 184.31
-9755103.62 5135562.07 185.12
-9755100.70 5135557.29 181.38
-9755099.83 5135555.81 181.37
-9755103.36 5135554.82 184.30
-9755103.17 5135557.40 185.38
-9755101.58 5135565.51 181.38
-9755104.01 5135555.79 181.44
-9755103.03 5135561.25 181.42
-9755101.57 5135557.33 181.37
-9755099.49 5135559.08 181.34
-9755104.19 5135558.83 184.07
-9755098.92 5135559.03 181.30
-9755103.31 5135557.54 181.47
-9755103.28 5135556.87 184.21
-9755102.05 5135559.46 184.97
-9755102.50 5135560.35 184.71
-9755102.45 5135558.79 181.41
-9755102.83 5135560.09 184.76
-9755102.77 5135558.78 181.41
-9755102.85 5135560.06 184.11
-9755099.82 5135562.29 181.34
-9755102.88 5135556.17 185.35
-9755099.81 5135559.05 181.36
-9755099.84 5135561.38 181.34
-9755098.62 5135564.65 181.31
-9755103.69 5135556.26 184.54
-9755098.05 5135562.35 181.32
-9755102.96 5135558.81 184.35
-9755102.99 5135563.17 181.42
-9755101.86 5135555.79 181.41
-9755101.04 5135560.95 184.89
-9755101.56 5135559.94 185.99
-9755102.96 5135559.46 181.43
-9755101.84 5135564.67 181.39
-9755103.78 5135558.00 185.96
-9755103.92 5135556.75 181.48
-9755100.67 5135563.16 181.35
-9755102.02 5135559.49 185.88
-9755100.42 5135555.20 181.37
-9755099.22 5135560.51 181.34
-9755103.01 5135560.06 185.90
-9755102.48 5135558.03 184.89
-9755103.13 5135556.42 181.44
-9755104.00 5135557.43 185.34
-9755101.63 5135559.12 181.44
-9755103.60 5135564.07 181.45
-9755103.12 5135554.91 181.42
-9755098.62 5135557.52 181.27
-9755100.26 5135555.79 184.85
-9755104.45 5135566.50 181.51
-9755103.87 5135566.84 184.19
-9755101.22 5135565.85 181.37
-9755101.25 5135566.14 181.37
-9755098.30 5135566.41 181.32
-9755102.77 5135566.12 181.40
-9755096.55 5135567.00 181.36
-9755103.60 5135566.73 181.45
-9755097.79 5135565.82 181.32
-9755091.55 5135566.88 181.41
-9755092.19 5135562.27 181.42
-9755097.23 5135559.02 181.32
-9755097.75 5135558.18 181.29
-9755092.20 5135563.72 181.41
-9755093.34 5135558.39 181.40
-9755093.93 5135555.74 181.38
-9755093.39 5135559.85 181.39
-9755094.78 5135564.87 181.40
-9755097.48 5135563.73 181.33
-9755096.00 5135562.27 181.35
-9755097.72 5135564.63 181.33
-9755093.32 5135564.64 181.41
-9755096.91 5135560.75 181.34
-9755094.79 5135563.73 181.39
-9755093.33 5135558.08 181.41
-9755095.68 5135556.63 181.34
-9755093.60 5135565.23 181.39
-9755097.72 5135561.71 181.33
-9755092.42 5135564.89 181.41
-9755092.43 5135565.21 181.41
-9755097.81 5135556.68 181.28
-9755093.09 5135556.00 181.40
-9755097.76 5135561.33 181.32
-9755095.71 5135562.30 181.36
-9755096.61 5135558.41 181.33
-9755093.65 5135556.05 181.37
-9755096.29 5135558.08 181.34
-9755093.60 5135560.20 181.39
-9755096.60 5135558.13 181.34
-9755095.45 5135554.56 181.34
-9755093.67 5135562.83 181.39
-9755093.95 5135564.03 181.39
-9755091.54 5135564.61 181.41
-9755094.84 5135554.29 181.35
-9755091.61 5135556.63 181.40
-9755094.57 5135562.24 181.39
-9755095.99 5135554.83 181.33
-9755091.59 5135557.19 181.39
-9755095.41 5135561.09 181.37
-9755095.73 5135558.97 181.33
-9755093.37 5135561.39 181.38
-9755096.24 5135562.86 181.36
-9755093.86 5135563.76 181.40
-9755096.85 5135562.27 181.35
-9755093.33 5135555.70 181.39
-9755094.26 5135558.11 181.37
-9755096.56 5135561.37 181.34
-9755095.97 5135559.90 181.34
-9755093.62 5135559.00 181.37
-9755091.65 5135554.86 181.40
-9755095.99 5135560.46 181.35
-9755093.59 5135564.32 181.40
-9755091.83 5135559.03 181.40
-9755096.58 5135564.66 181.35
-9755091.51 5135564.31 181.41
-9755092.47 5135557.76 181.40
-9755093.40 5135554.86 181.40
-9755093.62 5135561.69 181.39
-9755092.12 5135561.06 181.40
-9755092.19 5135555.74 181.40
-9755096.22 5135565.51 181.37
-9755097.78 5135559.09 181.30
-9755094.55 5135554.82 181.36
-9755097.13 5135560.53 181.33
-9755091.90 5135554.29 181.39
-9755091.60 5135563.44 181.40
-9755097.20 5135555.19 181.30
-9755097.16 5135557.28 181.31
-9755093.67 5135556.95 181.39
-9755092.79 5135554.90 181.39
-9755097.12 5135565.24 181.33
-9755094.47 5135566.09 181.41
-9755092.35 5135566.11 181.40
-9755097.10 5135566.17 181.34
-9755092.67 5135566.44 181.41
-9755091.23 5135571.38 181.39
-9755090.92 5135568.18 181.41
-9755090.93 5135569.92 181.38
-9755090.88 5135574.03 181.37
-9755083.61 5135569.53 181.25
-9755083.22 5135573.55 180.24
-9755083.72 5135572.33 180.31
-9755088.25 5135567.24 181.38
-9755083.19 5135573.21 180.24
-9755083.29 5135569.07 180.16
-9755083.24 5135569.92 180.18
-9755088.56 5135568.16 181.36
-9755083.77 5135570.23 181.51
-9755082.93 5135572.88 180.25
-9755083.59 5135567.23 181.87
-9755083.79 5135569.93 181.18
-9755083.26 5135567.25 180.19
-9755083.30 5135574.67 181.83
-9755090.33 5135570.47 181.38
-9755083.81 5135569.34 180.17
-9755086.79 5135571.36 181.35
-9755087.04 5135573.72 181.30
-9755082.92 5135567.00 180.27
-9755083.79 5135568.66 180.81
-9755083.90 5135568.98 182.47
-9755083.48 5135574.42 180.27
-9755083.50 5135571.55 181.80
-9755087.37 5135572.32 181.34
-9755084.44 5135574.68 182.44
-9755083.84 5135568.46 181.49
-9755082.37 5135566.66 180.29
-9755083.87 5135571.00 182.47
-9755083.29 5135572.22 181.58
-9755083.68 5135574.13 181.90
-9755083.49 5135570.29 180.19
-9755082.94 5135569.07 180.12
-9755083.52 5135574.58 181.05
-9755083.80 5135569.00 182.07
-9755083.48 5135569.87 181.24
-9755082.93 5135568.51 180.14
-9755083.72 5135570.27 180.22
-9755083.62 5135568.14 180.52
-9755083.78 5135568.16 180.18
-9755082.39 5135575.26 180.16
-9755083.84 5135573.12 182.47
-9755083.87 5135572.51 180.68
-9755083.24 5135568.38 182.38
-9755083.84 5135570.41 182.47
-9755083.86 5135573.50 180.29
-9755089.19 5135571.68 181.36
-9755083.28 5135568.56 181.50
-9755083.48 5135570.38 181.97
-9755083.68 5135572.02 180.62
-9755086.80 5135573.14 181.32
-9755087.94 5135572.29 181.34
-9755083.56 5135569.81 182.47
-9755085.63 5135568.43 181.52
-9755083.72 5135568.96 180.88
-9755083.18 5135575.09 182.39
-9755083.54 5135569.85 181.67
-9755084.72 5135574.94 181.47
-9755085.62 5135573.74 181.46
-9755085.34 5135568.07 181.51
-9755088.02 5135567.85 181.37
-9755084.09 5135575.18 182.44
-9755083.35 5135569.24 180.60
-9755082.66 5135572.02 180.15
-9755083.84 5135574.00 181.48
-9755087.06 5135574.07 181.30
-9755083.49 5135569.93 180.61
-9755083.63 5135575.36 181.22
-9755083.45 5135574.05 181.65
-9755083.87 5135572.70 180.87
-9755084.98 5135574.94 181.46
-9755082.95 5135572.04 180.20
-9755083.51 5135574.08 180.24
-9755086.46 5135574.08 181.33
-9755084.71 5135568.39 181.52
-9755084.09 5135569.84 182.48
-9755082.99 5135567.27 180.18
-9755083.84 5135572.86 180.46
-9755084.74 5135566.90 181.53
-9755083.59 5135573.24 180.91
-9755082.94 5135571.74 180.19
-9755088.20 5135574.10 181.33
-9755083.64 5135574.38 180.77
-9755089.41 5135572.01 181.36
-9755082.95 5135574.67 180.29
-9755083.78 5135575.24 180.26
-9755084.10 5135574.29 182.46
-9755082.01 5135574.64 180.11
-9755083.26 5135567.86 180.15
-9755083.85 5135567.17 180.30
-9755082.95 5135573.48 180.22
-9755085.89 5135571.67 181.49
-9755083.43 5135571.61 181.19
-9755083.27 5135566.71 180.53
-9755083.75 5135574.65 180.27
-9755084.06 5135573.46 181.50
-9755083.36 5135572.82 181.42
-9755083.73 5135574.42 180.28
-9755083.57 5135571.10 180.79
-9755083.39 5135567.00 181.00
-9755083.75 5135571.16 180.25
-9755089.73 5135574.94 181.36
-9755084.45 5135572.19 181.49
-9755089.44 5135573.20 181.36
-9755083.52 5135569.84 182.00
-9755085.92 5135570.18 181.49
-9755082.06 5135569.06 179.99
-9755089.42 5135574.62 181.35
-9755088.81 5135573.41 181.34
-9755083.54 5135569.51 182.47
-9755083.54 5135567.93 180.84
-9755088.24 5135575.29 181.33
-9755085.30 5135573.19 181.49
-9755084.12 5135569.47 182.51
-9755083.45 5135568.46 181.12
-9755082.37 5135567.88 180.12
-9755083.69 5135570.25 180.68
-9755083.54 5135572.03 180.26
-9755085.26 5135573.73 181.47
-9755083.75 5135573.70 181.86
-9755083.75 5135571.73 180.41
-9755083.27 5135568.15 180.16
-9755083.81 5135570.88 180.30
-9755083.57 5135572.82 181.79
-9755083.67 5135566.66 181.54
-9755083.25 5135571.16 180.22
-9755084.11 5135573.70 182.45
-9755085.84 5135574.08 181.47
-9755090.99 5135555.67 181.40
-9755090.62 5135565.48 181.40
-9755091.24 5135554.84 181.40
-9755091.30 5135558.39 181.39
-9755091.23 5135557.48 181.39
-9755090.91 5135564.88 181.41
-9755083.27 5135563.98 180.68
-9755083.47 5135563.24 180.62
-9755083.49 5135559.80 180.41
-9755083.87 5135558.89 182.51
-9755089.84 5135558.09 181.41
-9755083.26 5135561.96 180.94
-9755081.76 5135564.58 180.23
-9755083.65 5135554.11 182.53
-9755083.26 5135558.89 181.49
-9755084.44 5135564.82 181.54
-9755083.28 5135554.48 181.83
-9755088.62 5135563.98 181.40
-9755083.25 5135559.76 181.81
-9755085.31 5135564.83 181.54
-9755086.15 5135565.39 181.48
-9755083.32 5135560.97 182.49
-9755084.76 5135557.47 181.55
-9755084.76 5135564.27 181.54
-9755083.92 5135565.08 182.48
-9755083.38 5135555.63 180.78
-9755083.13 5135558.36 181.85
-9755083.38 5135558.17 181.61
-9755083.89 5135559.48 182.52
-9755085.05 5135563.95 181.54
-9755083.28 5135557.87 181.15
-9755090.09 5135554.88 181.41
-9755083.66 5135559.84 181.24
-9755083.67 5135563.99 180.84
-9755087.99 5135560.10 181.42
-9755089.47 5135556.59 181.41
-9755083.23 5135565.51 180.24
-9755084.76 5135561.33 181.55
-9755083.37 5135562.88 180.79
-9755088.63 5135559.60 181.42
-9755086.30 5135558.95 181.43
-9755083.41 5135562.78 181.93
-9755081.51 5135564.64 180.00
-9755083.84 5135564.18 182.49
-9755085.37 5135560.40 181.55
-9755083.56 5135563.13 180.34
-9755090.02 5135563.73 181.41
-9755083.69 5135555.00 182.54
-9755090.38 5135561.34 181.41
-9755083.35 5135557.69 180.91
-9755087.76 5135557.17 181.42
-9755085.59 5135562.21 181.55
-9755083.27 5135564.62 180.16
-9755086.37 5135555.13 181.43
-9755084.73 5135565.42 181.53
-9755083.47 5135555.80 180.05
-9755083.04 5135561.42 180.06
-9755085.05 5135563.66 181.54
-9755083.38 5135557.17 182.12
-9755083.92 5135562.14 182.49
-9755085.64 5135565.45 181.53
-9755083.02 5135557.21 182.53
-9755083.63 5135564.48 181.14
-9755083.84 5135561.28 182.52
-9755083.81 5135562.48 180.13
-9755082.15 5135558.67 179.96
-9755083.86 5135565.38 182.47
-9755083.01 5135558.41 180.04
-9755083.14 5135561.04 181.81
-9755083.04 5135558.74 180.07
-9755083.13 5135554.81 180.87
-9755085.11 5135559.83 181.56
-9755082.07 5135560.49 179.94
-9755083.31 5135554.27 180.09
-9755083.48 5135561.39 180.11
-9755089.52 5135559.60 181.41
-9755086.55 5135556.60 181.42
-9755083.32 5135556.59 180.05
-9755082.99 5135563.74 180.11
-9755083.31 5135559.27 180.89
-9755083.42 5135559.16 181.76
-9755083.34 5135561.94 180.68
-9755083.86 5135559.24 180.54
-9755087.13 5135560.72 181.42
-9755083.56 5135564.07 180.20
-9755085.39 5135557.42 181.58
-9755083.27 5135555.47 181.87
-9755089.31 5135554.82 181.42
-9755087.44 5135562.83 181.41
-9755088.37 5135556.55 181.42
-9755083.53 5135561.71 180.79
-9755083.02 5135555.71 180.03
-9755083.91 5135557.04 182.54
-9755083.32 5135554.53 180.76
-9755081.82 5135563.15 179.96
-9755083.10 5135555.97 182.51
-9755085.07 5135556.30 181.58
-9755083.88 5135561.82 182.49
-9755083.90 5135563.35 183.44
-9755083.36 5135558.86 181.84
-9755083.60 5135560.39 180.11
-9755082.96 5135557.57 180.05
-9755083.31 5135557.27 180.99
-9755086.31 5135556.88 181.42
-9755081.79 5135563.75 179.96
-9755083.07 5135555.67 181.76
-9755086.02 5135555.70 181.46
-9755089.12 5135562.54 181.40
-9755083.87 5135564.56 182.51
-9755083.42 5135555.92 181.74
-9755085.06 5135564.54 181.53
-9755083.27 5135560.77 181.22
-9755083.88 5135562.41 182.51
-9755083.42 5135558.69 181.08
-9755083.06 5135554.30 180.75
-9755083.05 5135560.07 182.50
-9755083.40 5135556.54 181.07
-9755083.59 5135556.53 182.10
-9755087.46 5135556.28 181.41
-9755083.33 5135560.07 181.58
-9755082.40 5135559.02 179.99
-9755089.15 5135563.11 181.41
-9755083.87 5135556.53 183.25
-9755086.81 5135565.47 181.39
-9755083.29 5135555.98 181.45
-9755083.38 5135562.61 180.68
-9755083.25 5135560.08 180.34
-9755084.19 5135559.29 181.56
-9755083.42 5135559.84 181.24
-9755085.35 5135563.10 181.55
-9755083.45 5135556.28 180.97
-9755086.51 5135564.58 181.40
-9755083.46 5135562.95 181.23
-9755083.82 5135565.74 180.19
-9755082.41 5135559.56 180.02
-9755086.23 5135564.90 181.41
-9755083.36 5135554.15 181.39
-9755083.33 5135556.18 182.52
-9755082.99 5135565.51 180.25
-9755083.03 5135562.45 180.91
-9755089.80 5135557.18 181.41
-9755081.82 5135554.82 179.81
-9755082.94 5135562.22 180.07
-9755089.21 5135561.32 181.42
-9755083.24 5135560.46 181.95
-9755082.99 5135557.80 180.04
-9755083.35 5135561.57 181.81
-9755090.33 5135563.38 181.41
-9755089.43 5135565.52 181.39
-9755088.04 5135560.48 181.41
-9755083.30 5135562.29 180.09
-9755082.38 5135565.69 180.25
-9755083.64 5135563.69 180.16
-9755083.58 5135557.79 180.99
-9755083.00 5135563.11 180.08
-9755082.13 5135555.43 179.88
-9755090.93 5135566.38 181.40
-9755081.76 5135565.74 180.17
-9755086.23 5135567.01 181.39
-9755085.33 5135565.77 181.54
-9755082.35 5135566.08 180.18
-9755086.53 5135566.09 181.39
-9755083.89 5135566.51 180.11
-9755083.45 5135566.36 180.58
-9755084.18 5135565.73 182.50
-9755084.46 5135566.38 181.53
-9755083.89 5135566.27 182.13
-9755083.56 5135566.57 181.15
-9755085.33 5135566.33 181.53
-9755134.08 5135553.04 181.31
-9755133.79 5135553.92 181.31
-9755134.09 5135552.72 181.32
-9755132.51 5135553.56 181.33
-9755133.15 5135552.68 181.31
-9755128.46 5135554.43 181.34
-9755125.20 5135552.41 181.34
-9755126.99 5135553.00 181.33
-9755123.75 5135553.00 181.34
-9755124.07 5135554.11 181.34
-9755120.17 5135552.61 181.33
-9755124.31 5135553.87 181.34
-9755125.83 5135552.97 181.33
-9755123.12 5135553.23 181.32
-9755129.05 5135554.19 181.33
-9755131.09 5135553.30 181.33
-9755127.90 5135552.70 181.32
-9755118.72 5135553.56 181.30
-9755124.34 5135552.97 181.34
-9755134.09 5135549.79 181.32
-9755134.10 5135548.88 181.34
-9755131.15 5135552.09 181.32
-9755132.59 5135549.46 181.29
-9755132.86 5135548.57 181.30
-9755133.16 5135549.46 181.30
-9755131.98 5135548.85 181.28
-9755131.99 5135550.94 181.28
-9755133.16 5135550.94 181.29
-9755127.85 5135552.07 181.32
-9755131.08 5135551.55 181.31
-9755129.94 5135552.38 181.31
-9755119.60 5135552.32 181.31
-9755130.52 5135552.40 181.32
-9755127.34 5135548.48 181.30
-9755129.38 5135550.27 181.30
-9755123.48 5135549.09 181.30
-9755129.42 5135549.16 181.30
-9755122.25 5135550.88 181.31
-9755123.16 5135549.70 181.31
-9755123.48 5135549.41 181.30
-9755130.85 5135548.26 181.30
-9755120.25 5135549.08 181.28
-9755122.87 5135549.10 181.30
-9755123.46 5135550.28 181.31
-9755130.82 5135551.81 181.32
-9755126.99 5135551.80 181.33
-9755121.97 5135551.76 181.33
-9755131.17 5135550.91 181.30
-9755119.06 5135548.46 181.27
-9755121.12 5135549.68 181.29
-9755124.98 5135550.61 181.31
-9755125.84 5135549.75 181.31
-9755120.83 5135549.40 181.29
-9755128.75 5135551.82 181.32
-9755129.33 5135551.78 181.31
-9755124.04 5135550.62 181.33
-9755121.11 5135549.40 181.29
-9755119.63 5135548.49 181.27
-9755124.29 5135551.17 181.33
-9755122.87 5135551.49 181.32
-9755120.22 5135550.26 181.29
-9755130.55 5135551.51 181.32
-9755124.93 5135551.74 181.34
-9755120.83 5135549.10 181.27
-9755133.94 5135537.30 188.45
-9755134.17 5135531.11 188.22
-9755134.13 5135532.35 187.01
-9755133.92 5135536.98 188.63
-9755134.12 5135535.82 181.21
-9755133.96 5135531.66 186.99
-9755134.08 5135547.39 181.36
-9755133.82 5135542.62 181.23
-9755134.10 5135545.34 181.25
-9755134.10 5135546.22 181.30
-9755134.13 5135537.61 181.24
-9755134.12 5135532.57 181.22
-9755133.96 5135530.24 188.64
-9755133.29 5135529.60 181.24
-9755132.69 5135536.77 181.24
-9755134.05 5135530.35 186.99
-9755133.37 5135531.03 186.96
-9755132.46 5135537.03 181.24
-9755133.64 5135531.16 181.23
-9755133.34 5135532.88 187.22
-9755132.79 5135536.91 188.41
-9755134.19 5135529.33 181.23
-9755134.12 5135536.72 181.26
-9755133.47 5135532.04 188.46
-9755132.73 5135529.64 181.25
-9755132.64 5135535.56 181.24
-9755134.05 5135530.88 187.99
-9755133.39 5135536.93 188.45
-9755132.39 5135536.42 181.25
-9755132.10 5135537.62 181.25
-9755133.01 5135535.23 181.22
-9755133.73 5135538.57 188.25
-9755132.93 5135534.34 181.22
-9755131.80 5135533.16 181.26
-9755125.96 5135531.65 181.33
-9755122.69 5135531.60 181.30
-9755119.71 5135533.40 181.27
-9755119.70 5135532.52 181.26
-9755125.92 5135533.42 181.33
-9755129.20 5135529.92 181.29
-9755124.99 5135535.48 181.32
-9755121.82 5135532.21 181.30
-9755129.48 5135533.41 181.30
-9755123.58 5135529.23 181.31
-9755128.29 5135535.81 181.31
-9755125.95 5135529.60 181.33
-9755120.36 5135528.96 181.28
-9755125.90 5135538.16 181.30
-9755131.52 5135529.89 181.25
-9755127.09 5135536.06 181.30
-9755130.05 5135534.35 181.29
-9755130.94 5135534.36 181.29
-9755126.19 5135533.68 181.33
-9755121.22 5135534.60 181.29
-9755124.44 5135529.28 181.32
-9755121.16 5135538.72 181.29
-9755127.38 5135531.08 181.32
-9755128.60 5135531.07 181.30
-9755125.04 5135534.00 181.32
-9755119.73 5135531.89 181.27
-9755120.59 5135534.25 181.27
-9755125.04 5135529.63 181.32
-9755119.19 5135531.86 181.27
-9755122.38 5135536.66 181.30
-9755122.69 5135533.10 181.30
-9755123.57 5135537.28 181.31
-9755129.74 5135531.96 181.28
-9755121.84 5135536.06 181.29
-9755129.52 5135529.54 181.29
-9755119.43 5135534.88 181.25
-9755121.18 5135536.33 181.28
-9755129.50 5135529.30 181.29
-9755130.58 5135536.68 181.27
-9755124.14 5135536.70 181.30
-9755125.06 5135530.72 181.32
-9755120.62 5135533.37 181.28
-9755130.00 5135537.59 181.27
-9755125.92 5135531.91 181.32
-9755127.14 5135531.92 181.33
-9755125.64 5135530.14 181.32
-9755123.26 5135534.29 181.28
-9755130.63 5135531.05 181.27
-9755127.39 5135537.28 181.30
-9755122.10 5135531.91 181.30
-9755126.23 5135528.97 181.33
-9755119.46 5135529.27 181.27
-9755123.22 5135536.68 181.31
-9755128.52 5135537.02 181.28
-9755123.55 5135536.13 181.32
-9755120.02 5135536.65 181.27
-9755130.94 5135538.50 181.27
-9755126.47 5135534.90 181.32
-9755123.51 5135538.18 181.30
-9755128.84 5135537.59 181.30
-9755125.89 5135536.72 181.31
-9755130.94 5135533.50 181.27
-9755122.95 5135535.79 181.32
-9755119.75 5135535.18 181.27
-9755122.10 5135528.69 181.30
-9755125.35 5135529.88 181.33
-9755124.13 5135536.40 181.32
-9755123.01 5135528.65 181.31
-9755127.99 5135529.29 181.32
-9755120.85 5135538.14 181.29
-9755130.35 5135529.33 181.27
-9755118.87 5135530.74 181.24
-9755125.30 5135536.05 181.32
-9755120.31 5135529.54 181.29
-9755118.79 5135534.55 181.24
-9755127.65 5135538.73 181.28
-9755118.85 5135536.65 181.27
-9755118.80 5135532.79 181.26
-9755127.70 5135531.12 181.30
-9755128.33 5135532.28 181.31
-9755128.32 5135530.45 181.31
-9755133.56 5135547.38 181.32
-9755134.13 5135540.59 181.25
-9755131.48 5135539.10 181.25
-9755133.83 5135539.99 181.24
-9755132.69 5135539.96 181.24
-9755133.51 5135545.62 181.25
-9755133.56 5135539.67 181.24
-9755133.23 5135539.09 181.24
-9755132.05 5135544.41 181.24
-9755131.78 5135540.29 181.25
-9755132.40 5135539.36 181.24
-9755133.26 5135543.78 181.22
-9755133.54 5135541.13 181.24
-9755131.48 5135541.78 181.25
-9755122.58 5135547.91 181.29
-9755124.39 5135547.91 181.29
-9755131.49 5135541.44 181.25
-9755129.42 5135546.16 181.27
-9755131.44 5135545.56 181.26
-9755123.57 5135540.52 181.29
-9755124.38 5135547.62 181.29
-9755125.91 5135543.47 181.27
-9755126.43 5135548.23 181.29
-9755124.66 5135546.79 181.30
-9755130.88 5135541.43 181.25
-9755130.52 5135546.53 181.27
-9755121.14 5135542.87 181.28
-9755129.44 5135542.35 181.27
-9755130.01 5135544.11 181.26
-9755125.84 5135541.69 181.27
-9755128.55 5135539.11 181.27
-9755128.26 5135541.71 181.27
-9755128.19 5135547.40 181.29
-9755127.00 5135544.48 181.26
-9755126.13 5135547.34 181.28
-9755124.37 5135543.22 181.28
-9755120.83 5135547.60 181.27
-9755127.94 5135539.06 181.27
-9755128.78 5135542.60 181.26
-9755128.23 5135539.02 181.28
-9755125.91 5135539.94 181.27
-9755126.70 5135545.89 181.26
-9755127.03 5135540.86 181.27
-9755124.39 5135541.72 181.27
-9755121.45 5135544.06 181.29
-9755128.24 5135539.95 181.27
-9755124.40 5135542.31 181.27
-9755122.05 5135541.70 181.28
-9755130.28 5135544.69 181.25
-9755122.33 5135540.80 181.31
-9755125.27 5135545.86 181.28
-9755124.40 5135544.94 181.28
-9755127.64 5135542.33 181.26
-9755120.79 5135544.32 181.28
-9755128.76 5135545.88 181.28
-9755124.95 5135544.68 181.28
-9755121.15 5135541.39 181.29
-9755130.57 5135543.25 181.26
-9755124.15 5135543.20 181.28
-9755126.18 5135545.90 181.28
-9755127.61 5135545.85 181.28
-9755127.62 5135544.69 181.26
-9755130.58 5135540.82 181.26
-9755126.74 5135542.60 181.27
-9755129.39 5135543.79 181.26
-9755118.75 5135544.62 181.27
-9755122.65 5135546.17 181.28
-9755130.26 5135546.17 181.27
-9755130.32 5135542.96 181.26
-9755126.74 5135541.43 181.27
-9755127.03 5135542.32 181.27
-9755123.49 5135543.75 181.28
-9755129.11 5135544.98 181.26
-9755118.77 5135544.35 181.27
-9755126.75 5135544.05 181.25
-9755128.54 5135539.36 181.27
-9755126.45 5135539.30 181.28
-9755124.71 5135539.30 181.28
-9755122.62 5135541.99 181.28
-9755121.43 5135546.73 181.27
-9755123.53 5135542.27 181.30
-9755119.39 5135547.88 181.26
-9755122.04 5135545.80 181.28
-9755127.34 5135544.09 181.26
-9755119.41 5135543.20 181.27
-9755124.92 5135545.55 181.28
-9755127.03 5135545.83 181.27
-9755127.66 5135543.52 181.26
-9755123.56 5135539.06 181.29
-9755120.25 5135542.26 181.29
-9755121.14 5135544.64 181.30
-9755122.58 5135545.49 181.29
-9755122.34 5135544.08 181.29
-9755130.55 5135544.99 181.25
-9755120.23 5135544.08 181.27
-9755118.78 5135545.25 181.26
-9755129.67 5135544.38 181.26
-9755122.06 5135538.71 181.30
-9755123.46 5135547.34 181.29
-9755118.80 5135542.30 181.27
-9755121.14 5135540.23 181.30
-9755126.44 5135543.14 181.26
-9755127.41 5135540.23 181.28
-9755128.19 5135540.82 181.26
-9755118.78 5135539.89 181.27
-9755124.98 5135546.14 181.29
-9755127.31 5135546.51 181.28
-9755119.38 5135546.72 181.27
-9755121.75 5135546.43 181.28
-9755129.67 5135545.00 181.26
-9755128.54 5135541.15 181.27
-9755128.75 5135547.68 181.29
-9755130.27 5135543.85 181.26
-9755127.70 5135540.57 181.27
-9755119.64 5135543.41 181.28
-9755121.15 5135539.03 181.29
-9755131.14 5135547.08 181.27
-9755131.14 5135547.67 181.29
-9755120.24 5135547.02 181.26
-9755130.23 5135547.10 181.28
-9755133.37 5135528.71 181.23
-9755133.63 5135527.55 181.26
-9755133.06 5135527.59 181.24
-9755127.10 5135528.67 181.33
-9755123.00 5135527.76 181.31
-9755120.69 5135528.40 181.29
-9755126.85 5135528.05 181.33
-9755121.83 5135527.49 181.30
-9755130.67 5135527.52 181.28
-9755125.06 5135527.81 181.33
-9755129.51 5135527.25 181.29
-9755128.30 5135528.67 181.30
-9755123.91 5135528.39 181.32
-9755125.92 5135527.18 181.34
-9755124.76 5135528.34 181.31
-9755127.70 5135528.40 181.31
-9755128.86 5135527.81 181.30
-9755120.93 5135527.17 181.28
-9755122.12 5135527.78 181.31
-9755129.48 5135528.41 181.29
-9755118.44 5135552.32 181.30
-9755118.45 5135553.81 181.30
-9755117.00 5135552.64 181.29
-9755117.01 5135554.12 181.27
-9755117.83 5135549.08 181.26
-9755117.90 5135548.17 181.26
-9755117.27 5135549.93 181.26
-9755117.61 5135548.48 181.26
-9755106.97 5135552.16 184.10
-9755112.24 5135552.28 181.62
-9755112.85 5135552.25 182.22
-9755113.71 5135552.28 181.44
-9755104.91 5135551.76 184.75
-9755113.75 5135552.34 182.35
-9755116.72 5135552.30 181.29
-9755112.83 5135551.66 182.23
-9755109.59 5135552.01 181.39
-9755104.99 5135552.28 185.29
-9755110.50 5135551.97 181.39
-9755113.89 5135551.77 181.83
-9755107.49 5135552.28 181.39
-9755112.22 5135553.76 181.61
-9755112.62 5135552.00 181.86
-9755113.97 5135552.47 182.40
-9755109.60 5135552.56 181.39
-9755116.04 5135554.35 181.28
-9755108.41 5135552.55 181.39
-9755113.71 5135552.61 181.45
-9755113.86 5135552.89 183.59
-9755114.10 5135554.08 183.28
-9755108.09 5135553.76 181.39
-9755111.04 5135553.48 181.40
-9755112.83 5135553.15 181.81
-9755114.25 5135553.01 183.59
-9755113.78 5135552.47 182.61
-9755109.02 5135552.56 181.38
-9755113.82 5135553.94 183.22
-9755113.73 5135554.10 182.23
-9755112.55 5135553.72 181.76
-9755110.19 5135552.61 181.40
-9755115.83 5135552.56 181.28
-9755114.04 5135553.80 183.22
-9755112.77 5135552.52 182.02
-9755111.93 5135554.03 181.40
-9755113.72 5135552.84 181.45
-9755112.48 5135553.50 181.71
-9755113.83 5135552.74 183.70
-9755107.24 5135553.76 181.40
-9755108.41 5135553.42 181.39
-9755105.11 5135552.57 181.49
-9755104.36 5135552.19 183.80
-9755104.57 5135551.79 185.23
-9755104.61 5135552.21 185.29
-9755102.66 5135552.09 184.26
-9755101.72 5135551.80 184.82
-9755102.25 5135552.10 184.83
-9755101.31 5135551.77 185.13
-9755104.00 5135552.12 184.40
-9755099.86 5135552.25 181.37
-9755104.01 5135551.85 184.12
-9755101.65 5135552.32 184.88
-9755101.34 5135552.20 181.40
-9755101.94 5135551.89 184.24
-9755103.99 5135552.16 184.15
-9755098.04 5135551.64 181.24
-9755104.27 5135552.65 184.32
-9755104.29 5135552.40 184.22
-9755098.94 5135553.99 181.30
-9755099.55 5135552.50 181.36
-9755101.32 5135552.52 181.39
-9755100.45 5135553.98 181.34
-9755101.03 5135554.02 181.39
-9755101.65 5135553.09 181.39
-9755099.00 5135553.13 181.33
-9755098.12 5135552.53 181.24
-9755101.01 5135552.53 181.39
-9755107.57 5135551.71 181.37
-9755116.99 5135550.88 181.27
-9755113.75 5135551.11 182.80
-9755116.95 5135547.87 181.25
-9755106.04 5135551.54 184.25
-9755104.91 5135550.51 186.03
-9755106.94 5135547.76 183.96
-9755113.74 5135549.25 182.27
-9755106.08 5135551.42 184.66
-9755113.80 5135549.66 181.85
-9755106.03 5135551.66 181.51
-9755106.79 5135548.96 183.84
-9755105.77 5135550.85 184.61
-9755104.93 5135548.87 186.17
-9755111.10 5135549.60 181.37
-9755116.37 5135551.73 181.26
-9755113.87 5135551.49 182.04
-9755105.04 5135548.94 184.34
-9755109.89 5135551.68 181.38
-9755104.67 5135548.15 184.79
-9755111.06 5135549.04 181.37
-9755113.34 5135551.62 182.26
-9755112.64 5135550.25 181.66
-9755104.60 5135551.52 184.45
-9755105.46 5135548.81 184.92
-9755110.23 5135550.19 181.39
-9755106.37 5135549.08 184.48
-9755114.07 5135549.37 181.39
-9755112.52 5135550.47 181.71
-9755110.80 5135548.42 181.39
-9755113.94 5135550.13 182.34
-9755112.30 5135551.42 181.65
-9755112.58 5135551.37 181.74
-9755104.97 5135550.91 186.01
-9755106.97 5135548.93 184.78
-9755111.11 5135550.83 181.38
-9755115.79 5135549.03 181.25
-9755113.79 5135547.52 182.19
-9755105.19 5135549.03 183.84
-9755113.79 5135548.89 181.81
-9755112.85 5135548.73 181.41
-9755116.34 5135549.97 181.25
-9755105.24 5135548.78 185.80
-9755113.38 5135549.79 182.17
-9755112.83 5135550.24 181.44
-9755105.49 5135548.12 181.51
-9755106.74 5135549.95 183.88
-9755113.76 5135550.21 181.41
-9755113.17 5135548.49 181.40
-9755104.98 5135549.35 184.88
-9755114.01 5135550.82 183.37
-9755113.89 5135550.85 181.88
-9755113.74 5135547.86 181.39
-9755115.50 5135552.31 181.26
-9755106.39 5135550.03 184.83
-9755106.31 5135548.97 183.87
-9755106.95 5135550.40 183.97
-9755112.22 5135551.14 181.52
-9755106.96 5135549.64 181.40
-9755106.94 5135549.74 184.06
-9755109.31 5135551.13 181.37
-9755116.40 5135548.16 181.25
-9755104.83 5135551.46 185.18
-9755106.38 5135548.29 184.10
-9755104.93 5135549.68 186.53
-9755113.81 5135552.24 183.58
-9755111.35 5135550.21 181.38
-9755114.01 5135551.67 183.08
-9755108.47 5135547.57 181.39
-9755105.79 5135547.66 184.60
-9755115.48 5135549.34 181.25
-9755107.54 5135550.48 184.65
-9755105.82 5135550.84 185.73
-9755113.75 5135549.87 182.58
-9755114.09 5135548.03 183.65
-9755104.91 5135550.00 181.51
-9755113.77 5135548.99 183.53
-9755104.94 5135550.99 184.61
-9755106.34 5135550.45 181.40
-9755116.09 5135549.93 181.24
-9755113.72 5135548.10 183.47
-9755112.86 5135549.91 181.44
-9755112.75 5135550.44 181.84
-9755109.93 5135548.16 181.40
-9755112.57 5135548.45 181.44
-9755105.26 5135550.53 181.50
-9755104.71 5135548.67 183.44
-9755104.59 5135548.38 181.50
-9755104.19 5135550.91 184.10
-9755104.36 5135549.19 185.09
-9755104.36 5135550.42 184.29
-9755104.39 5135551.29 183.72
-9755104.31 5135548.78 185.09
-9755104.26 5135549.71 185.08
-9755104.63 5135549.34 184.88
-9755104.39 5135549.56 181.50
-9755104.67 5135547.98 183.79
-9755102.78 5135551.67 181.43
-9755104.12 5135549.41 184.09
-9755100.75 5135552.03 184.52
-9755100.14 5135550.92 184.36
-9755101.15 5135549.29 185.18
-9755103.19 5135550.13 184.82
-9755103.16 5135549.41 184.08
-9755101.39 5135551.50 185.09
-9755103.94 5135550.03 185.35
-9755101.12 5135550.27 184.84
-9755103.15 5135548.03 183.65
-9755101.02 5135550.91 184.75
-9755100.48 5135551.05 181.38
-9755103.05 5135548.21 184.66
-9755103.45 5135547.65 184.48
-9755104.04 5135551.43 185.15
-9755103.10 5135548.57 183.69
-9755101.55 5135550.26 185.58
-9755103.78 5135550.78 186.37
-9755101.11 5135549.73 184.47
-9755101.38 5135548.10 181.39
-9755102.60 5135551.45 185.23
-9755101.07 5135551.48 184.84
-9755100.99 5135549.99 184.28
-9755101.62 5135549.78 184.43
-9755103.49 5135549.84 183.96
-9755101.63 5135551.53 184.84
-9755103.44 5135549.21 181.43
-9755100.57 5135550.25 184.29
-9755101.10 5135549.70 185.31
-9755103.67 5135549.41 184.43
-9755103.11 5135549.73 184.13
-9755103.31 5135547.63 184.38
-9755103.80 5135548.55 184.49
-9755102.82 5135548.01 183.54
-9755102.55 5135549.77 184.97
-9755099.58 5135548.38 181.38
-9755100.48 5135550.12 185.20
-9755103.73 5135549.08 184.40
-9755102.81 5135548.79 184.62
-9755102.20 5135550.62 181.42
-9755103.82 5135549.64 185.40
-9755103.50 5135549.35 185.21
-9755101.08 5135549.85 181.40
-9755101.04 5135550.87 185.21
-9755101.34 5135548.67 181.40
-9755103.19 5135548.92 183.69
-9755100.77 5135549.27 181.40
-9755101.93 5135549.60 184.12
-9755102.85 5135548.66 181.44
-9755103.65 5135547.77 183.54
-9755102.24 5135548.11 181.41
-9755101.58 5135549.25 184.43
-9755103.78 5135547.84 181.46
-9755103.51 5135547.97 184.81
-9755103.10 5135550.86 184.62
-9755101.30 5135551.52 183.98
-9755101.73 5135551.16 184.44
-9755102.34 5135551.80 184.13
-9755101.02 5135551.39 181.40
-9755104.00 5135549.04 185.96
-9755100.79 5135550.66 184.42
-9755101.39 5135550.74 181.41
-9755101.12 5135549.17 184.54
-9755098.10 5135549.88 181.23
-9755102.82 5135549.22 184.20
-9755102.53 5135548.97 181.42
-9755102.51 5135551.11 184.95
-9755103.73 5135549.54 181.45
-9755104.02 5135550.91 185.26
-9755103.47 5135551.45 184.55
-9755104.34 5135548.75 183.85
-9755102.89 5135549.39 184.17
-9755098.99 5135549.28 181.35
-9755102.62 5135548.84 183.93
-9755101.05 5135550.55 185.29
-9755100.82 5135551.41 185.10
-9755102.85 5135549.71 184.19
-9755101.31 5135549.86 181.41
-9755101.04 5135551.25 184.58
-9755103.49 5135548.76 184.95
-9755102.73 5135550.25 181.45
-9755102.85 5135547.77 183.74
-9755102.79 5135548.58 184.60
-9755100.70 5135551.13 184.75
-9755099.99 5135549.35 185.16
-9755104.05 5135548.20 183.72
-9755100.22 5135551.08 181.38
-9755100.47 5135548.66 181.38
-9755104.09 5135549.38 184.48
-9755101.37 5135551.05 181.41
-9755103.64 5135550.47 181.43
-9755102.83 5135548.29 184.61
-9755103.38 5135548.08 181.44
-9755102.79 5135549.20 181.42
-9755101.88 5135549.28 181.40
-9755101.64 5135549.26 181.40
-9755093.65 5135553.96 181.38
-9755095.76 5135554.26 181.34
-9755097.22 5135552.47 181.29
-9755093.08 5135553.37 181.39
-9755095.76 5135552.52 181.33
-9755093.32 5135553.95 181.40
-9755094.80 5135553.37 181.36
-9755096.29 5135553.41 181.32
-9755097.18 5135553.95 181.28
-9755093.09 5135550.41 181.40
-9755095.21 5135551.59 181.34
-9755095.15 5135550.11 181.34
-9755094.89 5135550.43 181.35
-9755094.91 5135550.12 181.35
-9755094.88 5135547.75 181.34
-9755093.38 5135548.95 181.37
-9755094.53 5135551.55 181.37
-9755118.55 5135534.55 181.24
-9755118.84 5135535.74 181.26
-9755118.00 5135530.12 181.26
-9755118.34 5135529.49 181.26
-9755117.97 5135530.40 181.23
-9755118.59 5135528.96 181.27
-9755117.95 5135533.36 181.23
-9755117.99 5135531.90 181.25
-9755118.29 5135531.04 181.24
-9755117.96 5135532.78 181.23
-9755117.98 5135529.27 181.26
-9755117.94 5135538.42 181.24
-9755117.07 5135536.93 181.23
-9755117.69 5135532.51 181.23
-9755117.65 5135537.54 181.24
-9755117.08 5135532.51 181.23
-9755117.39 5135530.12 181.24
-9755117.68 5135531.01 181.24
-9755117.94 5135541.08 181.25
-9755118.49 5135547.02 181.26
-9755118.21 5135547.61 181.25
-9755118.49 5135544.68 181.27
-9755118.22 5135541.08 181.25
-9755117.95 5135540.83 181.25
-9755117.89 5135542.58 181.26
-9755117.05 5135538.99 181.23
-9755117.28 5135547.29 181.25
-9755117.63 5135541.96 181.25
-9755117.02 5135545.82 181.25
-9755117.01 5135547.00 181.25
-9755117.08 5135531.27 181.23
-9755112.08 5135536.26 181.54
-9755107.70 5135536.65 186.15
-9755106.10 5135536.55 181.33
-9755105.56 5135534.77 184.91
-9755113.46 5135533.44 182.55
-9755113.06 5135534.05 182.45
-9755105.54 5135536.60 181.51
-9755113.51 5135537.56 181.38
-9755112.88 5135536.55 182.14
-9755109.10 5135536.84 181.36
-9755107.35 5135537.47 186.64
-9755108.24 5135530.05 181.35
-9755113.54 5135532.93 182.55
-9755113.54 5135537.35 181.77
-9755112.93 5135535.35 182.15
-9755109.42 5135529.49 181.31
-9755105.95 5135534.07 184.68
-9755108.05 5135538.16 185.91
-9755107.01 5135537.26 185.53
-9755106.49 5135538.42 185.97
-9755106.79 5135537.73 185.00
-9755105.04 5135536.65 185.28
-9755107.96 5135538.11 186.46
-9755105.24 5135533.76 184.53
-9755112.68 5135533.89 182.17
-9755107.97 5135531.57 181.34
-9755105.57 5135537.82 185.07
-9755107.09 5135529.17 181.37
-9755110.86 5135535.10 181.31
-9755105.62 5135535.51 184.89
-9755112.32 5135536.96 181.48
-9755112.65 5135531.38 181.92
-9755109.98 5135532.74 181.31
-9755109.71 5135533.31 181.32
-9755115.29 5135535.41 181.19
-9755112.25 5135536.02 181.89
-9755113.49 5135533.63 181.94
-9755107.31 5135538.12 186.36
-9755112.63 5135533.62 182.18
-9755113.46 5135535.42 181.99
-9755112.61 5135535.40 182.16
-9755111.48 5135534.20 181.29
-9755108.85 5135534.22 181.34
-9755106.48 5135538.10 186.50
-9755116.81 5135536.06 181.22
-9755113.84 5135534.30 182.25
-9755112.04 5135532.76 181.56
-9755107.64 5135529.43 181.36
-9755106.41 5135534.54 184.57
-9755108.53 5135537.24 185.89
-9755112.23 5135532.14 181.73
-9755114.44 5135535.14 181.31
-9755112.63 5135532.10 182.16
-9755106.20 5135537.79 185.39
-9755111.49 5135533.29 181.27
-9755112.69 5135532.99 182.17
-9755107.64 5135533.62 181.38
-9755112.32 5135537.48 181.41
-9755105.99 5135536.46 184.36
-9755110.61 5135534.26 181.30
-9755114.68 5135535.13 181.26
-9755105.90 5135536.66 185.32
-9755107.65 5135535.99 181.37
-9755107.32 5135537.71 186.08
-9755113.48 5135532.75 182.30
-9755112.65 5135532.37 182.16
-9755109.71 5135535.08 181.33
-9755112.63 5135537.83 181.40
-9755112.03 5135533.61 181.57
-9755112.35 5135536.51 181.67
-9755113.12 5135529.98 183.36
-9755107.15 5135537.19 185.64
-9755108.89 5135530.66 181.34
-9755106.17 5135534.91 184.05
-9755113.58 5135531.38 183.75
-9755106.75 5135538.44 186.01
-9755113.53 5135530.04 183.74
-9755106.51 5135537.23 186.48
-9755107.68 5135530.96 181.37
-9755113.58 5135537.61 183.75
-9755113.36 5135534.09 182.28
-9755111.77 5135534.86 181.30
-9755105.53 5135536.05 184.98
-9755115.34 5135534.25 181.15
-9755113.54 5135529.94 182.27
-9755113.47 5135531.17 182.72
-9755106.21 5135536.89 181.40
-9755113.48 5135533.25 182.05
-9755116.84 5135530.70 181.22
-9755105.17 5135538.09 181.53
-9755113.41 5135530.32 181.87
-9755113.59 5135537.16 182.01
-9755107.33 5135537.48 185.96
-9755106.43 5135537.19 185.74
-9755113.46 5135528.82 181.90
-9755116.50 5135534.29 181.19
-9755115.90 5135536.64 181.20
-9755112.95 5135531.81 182.16
-9755113.26 5135531.07 183.32
-9755105.22 5135537.06 184.63
-9755112.95 5135532.02 182.18
-9755106.43 5135538.21 185.42
-9755112.42 5135529.49 181.39
-9755116.49 5135530.39 181.23
-9755107.97 5135537.44 181.37
-9755105.88 5135537.41 181.55
-9755109.16 5135531.89 181.33
-9755110.56 5135537.47 181.33
-9755113.72 5135534.46 182.05
-9755111.82 5135529.17 181.38
-9755109.72 5135530.38 181.31
-9755107.97 5135538.72 186.53
-9755111.83 5135531.57 181.35
-9755113.50 5135538.08 181.39
-9755108.83 5135531.24 181.34
-9755112.34 5135533.57 182.15
-9755112.83 5135534.57 182.15
-9755107.09 5135535.99 184.93
-9755113.46 5135531.00 182.30
-9755112.05 5135533.95 181.58
-9755107.68 5135531.85 181.36
-9755105.85 5135534.90 184.84
-9755107.60 5135537.08 185.96
-9755106.65 5135534.95 184.69
-9755113.25 5135535.13 181.36
-9755114.43 5135528.92 181.31
-9755113.20 5135530.07 182.26
-9755107.68 5135536.69 185.50
-9755113.33 5135529.64 182.71
-9755115.88 5135532.80 181.19
-9755113.42 5135530.01 183.11
-9755113.69 5135537.40 181.94
-9755115.01 5135533.08 181.16
-9755107.19 5135537.00 185.55
-9755105.32 5135538.17 184.63
-9755112.69 5135530.38 181.37
-9755113.64 5135537.14 182.27
-9755112.61 5135534.83 181.92
-9755110.87 5135537.48 181.33
-9755113.62 5135531.89 183.02
-9755112.10 5135530.70 181.38
-9755109.96 5135537.53 181.34
-9755104.91 5135534.86 184.32
-9755107.38 5135530.06 181.38
-9755113.04 5135533.33 182.06
-9755106.18 5135534.09 184.46
-9755111.75 5135535.17 181.29
-9755108.41 5135536.96 186.26
-9755111.75 5135535.72 181.30
-9755111.46 5135531.90 181.28
-9755107.65 5135533.06 181.38
-9755112.95 5135536.02 181.36
-9755110.01 5135534.21 181.32
-9755112.98 5135532.71 181.37
-9755105.08 5135537.34 184.55
-9755114.76 5135531.89 181.22
-9755110.32 5135531.23 181.31
-9755106.17 5135537.02 185.39
-9755113.50 5135528.86 182.69
-9755114.71 5135538.34 181.25
-9755104.76 5135537.24 183.50
-9755113.48 5135532.55 182.89
-9755111.25 5135528.91 181.22
-9755113.53 5135538.37 182.91
-9755108.50 5135536.00 181.36
-9755106.71 5135537.37 185.01
-9755112.91 5135536.85 182.14
-9755116.16 5135538.41 181.22
-9755114.76 5135528.65 181.21
-9755105.03 5135536.65 184.45
-9755113.85 5135534.91 182.34
-9755113.24 5135533.37 181.37
-9755111.93 5135536.55 182.07
-9755105.58 5135535.09 181.52
-9755108.27 5135533.63 181.36
-9755106.61 5135537.67 184.78
-9755112.99 5135532.48 182.15
-9755105.29 5135538.20 184.14
-9755113.77 5135536.92 183.76
-9755113.04 5135535.69 182.18
-9755113.07 5135537.42 182.31
-9755113.48 5135531.47 183.03
-9755105.28 5135532.69 181.52
-9755105.60 5135529.44 181.54
-9755107.01 5135538.06 185.91
-9755111.40 5135547.55 181.37
-9755106.12 5135539.01 185.87
-9755107.96 5135541.94 185.09
-9755112.86 5135547.89 181.43
-9755105.61 5135545.62 184.04
-9755108.73 5135547.54 181.39
-9755106.04 5135543.33 186.38
-9755107.66 5135538.95 181.35
-9755106.34 5135546.77 184.59
-9755107.13 5135540.59 185.42
-9755105.90 5135542.52 186.18
-9755106.58 5135539.29 185.94
-9755107.99 5135542.24 185.75
-9755107.37 5135539.56 187.19
-9755104.79 5135540.78 184.89
-9755109.35 5135541.10 185.49
-9755107.53 5135542.07 186.52
-9755104.91 5135538.67 186.11
-9755105.61 5135540.74 186.47
-9755106.45 5135539.43 183.76
-9755107.13 5135540.27 185.25
-9755107.69 5135538.98 187.26
-9755113.73 5135545.74 183.81
-9755105.26 5135542.79 186.92
-9755105.24 5135539.01 186.46
-9755107.27 5135542.29 186.15
-9755105.55 5135541.64 186.32
-9755113.66 5135544.72 181.96
-9755112.90 5135539.59 181.41
-9755105.80 5135545.00 183.85
-9755106.41 5135544.31 185.85
-9755113.88 5135546.59 183.25
-9755112.15 5135544.20 181.58
-9755113.83 5135542.91 182.55
-9755106.24 5135542.92 186.12
-9755106.48 5135540.00 185.19
-9755104.77 5135542.21 187.48
-9755109.34 5135546.39 181.38
-9755104.72 5135542.82 186.99
-9755109.36 5135538.78 185.18
-9755114.32 5135547.26 181.38
-9755104.93 5135541.31 186.72
-9755113.62 5135540.80 182.97
-9755113.41 5135547.53 181.43
-9755105.59 5135542.55 185.75
-9755106.36 5135543.28 185.64
-9755105.52 5135540.20 185.36
-9755113.77 5135540.08 182.06
-9755113.79 5135543.95 182.16
-9755106.13 5135543.33 185.71
-9755108.57 5135540.77 185.28
-9755106.12 5135539.37 184.74
-9755106.50 5135540.21 185.98
-9755116.15 5135541.61 181.22
-9755105.54 5135547.14 184.47
-9755113.56 5135539.21 183.33
-9755105.89 5135542.22 187.26
-9755113.54 5135541.16 182.75
-9755116.41 5135544.91 181.23
-9755110.19 5135545.74 181.37
-9755112.18 5135543.16 181.51
-9755106.79 5135541.95 187.25
-9755113.58 5135545.78 181.90
-9755106.27 5135540.11 186.55
-9755107.52 5135541.46 187.33
-9755109.33 5135545.47 181.37
-9755114.63 5135546.70 181.36
-9755106.47 5135539.03 186.90
-9755113.22 5135539.84 181.42
-9755107.30 5135538.30 181.37
-9755106.28 5135538.45 184.71
-9755105.52 5135540.21 186.18
-9755105.35 5135542.44 186.40
-9755110.58 5135539.52 181.33
-9755113.19 5135547.53 181.43
-9755105.01 5135541.64 187.28
-9755106.14 5135546.16 184.62
-9755106.78 5135541.58 187.36
-9755110.55 5135540.43 181.34
-9755106.08 5135540.20 185.57
-9755116.39 5135546.71 181.24
-9755113.43 5135545.17 181.96
-9755107.12 5135539.01 186.27
-9755106.08 5135539.75 185.08
-9755112.95 5135540.77 181.42
-9755107.35 5135542.58 184.32
-9755109.32 5135544.92 181.37
-9755106.97 5135538.68 187.29
-9755107.59 5135539.51 187.19
-9755106.27 5135539.27 184.29
-9755106.75 5135541.92 181.36
-9755105.55 5135544.31 186.00
-9755107.56 5135540.73 181.39
-9755113.73 5135538.56 183.02
-9755109.38 5135541.31 181.37
-9755112.10 5135543.40 181.62
-9755106.46 5135540.34 187.51
-9755111.98 5135545.50 181.37
-9755105.54 5135540.54 186.69
-9755112.21 5135543.95 181.43
-9755110.82 5135541.64 181.36
-9755109.43 5135539.13 185.16
-9755105.18 5135539.10 184.06
-9755106.71 5135543.42 186.82
-9755109.34 5135541.42 185.35
-9755115.83 5135542.27 181.22
-9755105.28 5135547.36 184.42
-9755105.60 5135539.06 184.66
-9755107.05 5135541.02 187.28
-9755112.99 5135539.83 181.41
-9755105.22 5135546.78 184.67
-9755105.93 5135541.16 185.82
-9755113.50 5135542.50 181.41
-9755106.52 5135542.44 186.03
-9755104.72 5135541.92 186.69
-9755112.53 5135545.18 181.69
-9755105.25 5135546.12 184.90
-9755113.83 5135539.59 182.60
-9755108.22 5135542.64 184.94
-9755107.38 5135542.24 186.68
-9755114.92 5135547.59 181.29
-9755106.81 5135538.97 186.64
-9755115.59 5135538.46 181.19
-9755112.85 5135546.08 181.44
-9755106.27 5135545.34 183.87
-9755113.92 5135547.18 183.45
-9755105.90 5135539.97 184.73
-9755104.94 5135546.60 181.49
-9755104.79 5135540.85 184.39
-9755105.80 5135539.58 185.07
-9755112.51 5135543.63 181.82
-9755107.54 5135545.72 181.38
-9755107.65 5135538.93 186.07
-9755113.51 5135541.06 181.42
-9755113.45 5135539.29 182.99
-9755113.51 5135544.30 182.91
-9755105.84 5135543.96 186.76
-9755112.62 5135543.93 182.23
-9755105.62 5135541.57 187.40
-9755104.89 5135544.86 181.48
-9755113.70 5135545.20 183.57
-9755113.77 5135541.54 182.63
-9755113.16 5135542.43 182.19
-9755107.96 5135541.31 185.73
-9755106.98 5135543.00 185.54
-9755104.75 5135539.21 186.66
-9755105.52 5135541.00 185.63
-9755106.50 5135542.44 187.19
-9755105.73 5135543.31 185.69
-9755106.12 5135542.82 185.66
-9755113.76 5135540.79 182.15
-9755107.28 5135542.81 181.36
-9755107.53 5135542.53 186.70
-9755105.71 5135539.64 186.69
-9755106.17 5135543.99 186.35
-9755112.93 5135541.88 182.21
-9755105.01 5135543.14 187.15
-9755113.76 5135542.29 183.76
-9755106.75 5135540.14 185.20
-9755114.36 5135542.79 181.36
-9755111.73 5135538.98 181.33
-9755106.71 5135539.23 186.93
-9755113.72 5135539.31 183.19
-9755112.32 5135541.02 181.63
-9755113.79 5135546.64 182.56
-9755113.71 5135539.67 182.58
-9755113.47 5135544.77 182.47
-9755113.76 5135541.50 183.48
-9755105.50 5135539.27 181.55
-9755115.88 5135544.64 181.24
-9755105.29 5135541.22 181.52
-9755112.88 5135541.00 182.19
-9755107.08 5135543.12 185.76
-9755108.53 5135542.25 181.37
-9755105.03 5135539.24 186.45
-9755109.66 5135539.11 184.92
-9755104.95 5135543.75 186.65
-9755104.68 5135543.66 187.10
-9755107.23 5135547.49 181.38
-9755107.15 5135538.71 186.19
-9755113.27 5135541.86 182.53
-9755104.98 5135543.97 186.65
-9755113.66 5135542.98 183.40
-9755106.41 5135546.39 184.30
-9755112.55 5135545.41 181.69
-9755113.69 5135541.24 182.47
-9755112.61 5135542.75 181.99
-9755106.41 5135543.86 186.74
-9755113.46 5135546.68 182.28
-9755113.80 5135545.13 183.79
-9755105.29 5135541.08 185.35
-9755106.78 5135538.75 186.71
-9755113.68 5135545.89 183.51
-9755104.84 5135540.71 186.06
-9755105.42 5135542.30 186.10
-9755114.64 5135544.95 181.37
-9755113.81 5135545.21 182.37
-9755113.93 5135544.98 182.46
-9755105.48 5135539.81 184.03
-9755113.77 5135546.96 181.99
-9755106.42 5135544.81 181.41
-9755113.62 5135546.49 183.15
-9755112.87 5135544.85 182.22
-9755113.72 5135540.41 182.76
-9755113.68 5135541.74 183.25
-9755112.29 5135545.17 181.65
-9755105.04 5135540.27 184.04
-9755106.99 5135544.57 181.37
-9755105.88 5135540.79 185.82
-9755106.13 5135545.65 184.47
-9755112.92 5135538.94 181.40
-9755106.13 5135544.41 185.88
-9755107.68 5135540.20 184.98
-9755105.63 5135539.93 184.73
-9755105.17 5135540.52 184.24
-9755107.36 5135540.03 187.16
-9755112.56 5135545.69 182.21
-9755113.76 5135539.00 183.19
-9755113.52 5135540.11 183.09
-9755108.49 5135540.21 186.07
-9755107.63 5135540.70 185.15
-9755109.93 5135543.98 181.37
-9755107.03 5135539.87 185.61
-9755104.86 5135541.90 185.86
-9755105.60 5135542.30 185.50
-9755105.41 5135542.89 181.49
-9755105.73 5135541.92 185.59
-9755107.00 5135542.01 186.98
-9755106.39 5135540.36 181.39
-9755106.17 5135540.32 186.83
-9755105.97 5135543.12 186.22
-9755113.53 5135546.28 182.57
-9755112.57 5135544.57 182.22
-9755112.67 5135541.69 181.55
-9755105.52 5135540.76 181.51
-9755107.88 5135547.23 181.39
-9755113.85 5135545.88 183.83
-9755104.84 5135544.03 186.41
-9755105.01 5135543.23 184.83
-9755106.79 5135539.88 186.48
-9755105.06 5135540.20 185.98
-9755114.99 5135544.30 181.22
-9755106.80 5135542.40 187.27
-9755106.68 5135543.12 185.35
-9755113.93 5135545.85 182.26
-9755112.64 5135541.00 182.20
-9755115.26 5135539.00 181.20
-9755110.80 5135544.88 181.35
-9755107.43 5135538.92 186.05
-9755112.87 5135542.80 182.21
-9755108.78 5135540.20 185.59
-9755105.57 5135543.16 185.99
