-9755108.89 5135383.57 187.10
-9755116.56 5135385.92 188.27
-9755117.60 5135385.63 187.80
-9755110.43 5135377.43 186.54
-9755117.56 5135384.53 191.04
-9755109.43 5135388.20 187.85
-9755111.20 5135377.44 185.17
-9755112.15 5135383.75 188.45
-9755109.13 5135385.63 186.77
-9755117.31 5135387.16 186.96
-9755115.99 5135384.54 191.21
-9755108.71 5135378.65 185.14
-9755118.15 5135386.14 186.66
-9755111.03 5135381.55 186.00
-9755114.65 5135385.91 187.08
-9755108.55 5135379.71 186.63
-9755113.54 5135387.94 186.21
-9755114.46 5135387.02 187.09
-9755110.37 5135385.04 186.21
-9755117.80 5135387.62 188.49
-9755116.93 5135379.03 189.38
-9755112.15 5135382.09 187.10
-9755109.48 5135381.52 185.51
-9755109.49 5135380.58 185.40
-9755116.55 5135385.22 188.93
-9755108.87 5135386.85 186.63
-9755112.38 5135377.85 186.25
-9755112.80 5135379.92 186.56
-9755116.38 5135385.87 187.98
-9755112.77 5135378.51 187.12
-9755115.03 5135387.62 188.24
-9755117.80 5135381.93 189.46
-9755108.67 5135386.80 186.58
-9755109.96 5135386.42 188.18
-9755117.38 5135378.49 188.81
-9755116.47 5135381.47 189.09
-9755109.75 5135385.16 189.12
-9755112.79 5135380.84 188.15
-9755117.51 5135376.97 188.44
-9755117.52 5135378.42 189.09
-9755117.75 5135387.14 186.73
-9755117.89 5135378.22 188.92
-9755116.00 5135379.41 187.78
-9755114.87 5135379.63 187.67
-9755116.34 5135380.24 188.52
-9755118.31 5135387.34 188.86
-9755116.45 5135386.85 185.68
-9755117.88 5135381.65 190.34
-9755113.81 5135385.73 187.05
-9755112.14 5135382.24 187.15
-9755114.86 5135387.48 185.07
-9755115.90 5135386.85 187.23
-9755112.01 5135378.67 186.24
-9755108.52 5135387.68 185.89
-9755111.52 5135384.89 188.40
-9755111.12 5135381.16 186.96
-9755115.28 5135385.59 186.92
-9755112.69 5135379.78 186.56
-9755115.28 5135381.47 188.30
-9755113.32 5135386.83 185.39
-9755115.71 5135383.96 189.95
-9755108.52 5135382.37 185.73
-9755114.81 5135381.04 188.88
-9755114.94 5135387.01 185.55
-9755113.60 5135387.19 185.92
-9755116.26 5135381.03 189.03
-9755108.29 5135385.29 186.30
-9755108.61 5135383.60 184.54
-9755113.26 5135384.87 188.34
-9755117.71 5135385.57 188.39
-9755115.99 5135386.74 188.49
-9755107.89 5135385.62 181.55
-9755109.49 5135384.10 186.85
-9755117.40 5135383.43 190.60
-9755112.74 5135377.27 187.62
-9755115.10 5135380.68 187.81
-9755108.84 5135381.47 185.89
-9755115.68 5135385.68 186.75
-9755111.03 5135384.65 187.10
-9755109.15 5135383.61 186.76
-9755109.02 5135380.23 186.85
-9755111.53 5135385.74 188.11
-9755117.52 5135379.02 189.60
-9755111.59 5135378.70 185.87
-9755109.79 5135381.77 185.45
-9755117.51 5135380.26 188.62
-9755113.55 5135383.58 189.71
-9755113.43 5135378.48 188.35
-9755115.37 5135383.11 189.96
-9755107.95 5135383.51 186.57
-9755115.64 5135384.33 189.07
-9755113.56 5135384.70 189.40
-9755113.58 5135384.62 188.31
-9755114.52 5135387.49 185.30
-9755111.90 5135386.36 184.64
-9755114.75 5135379.44 187.59
-9755109.43 5135385.99 187.10
-9755113.34 5135381.08 188.04
-9755111.08 5135383.18 187.34
-9755118.11 5135378.24 188.48
-9755115.59 5135385.90 188.13
-9755108.70 5135381.51 185.85
-9755117.38 5135386.46 188.50
-9755114.81 5135379.43 188.21
-9755117.84 5135384.09 190.21
-9755116.24 5135383.10 190.32
-9755116.90 5135382.59 189.92
-9755111.26 5135379.83 186.33
-9755116.36 5135385.18 191.20
-9755117.59 5135385.81 187.80
-9755108.00 5135383.61 184.48
-9755117.62 5135386.92 188.37
-9755113.02 5135386.10 189.32
-9755108.36 5135386.16 187.42
-9755110.00 5135381.77 185.82
-9755115.68 5135382.31 189.28
-9755114.87 5135378.63 187.30
-9755108.87 5135388.01 186.09
-9755114.82 5135386.81 187.10
-9755113.89 5135381.10 187.54
-9755111.72 5135378.60 185.52
-9755110.34 5135387.98 186.84
-9755118.44 5135385.83 189.55
-9755113.30 5135377.83 189.23
-9755109.16 5135387.47 186.14
-9755110.15 5135384.70 188.96
-9755116.70 5135387.60 187.75
-9755115.66 5135387.03 188.01
-9755116.33 5135381.92 189.08
-9755111.56 5135377.95 186.37
-9755117.83 5135377.92 189.09
-9755110.38 5135380.74 186.25
-9755118.11 5135378.95 188.27
-9755118.27 5135387.24 189.27
-9755112.01 5135384.08 188.02
-9755112.48 5135379.80 188.14
-9755112.72 5135379.00 187.90
-9755111.51 5135385.30 188.20
-9755112.74 5135386.42 189.26
-9755111.65 5135382.31 188.51
-9755111.58 5135387.56 187.78
-9755116.89 5135383.04 190.92
-9755113.89 5135382.70 188.30
-9755115.39 5135383.46 189.55
-9755108.53 5135382.38 185.53
-9755110.40 5135379.80 186.35
-9755108.23 5135386.58 186.60
-9755116.86 5135379.60 189.22
-9755109.51 5135387.97 186.18
-9755108.36 5135382.62 186.35
-9755115.01 5135385.38 187.02
-9755109.72 5135385.68 186.79
-9755109.41 5135384.33 186.93
-9755116.02 5135385.27 188.87
-9755112.75 5135387.52 187.93
-9755116.90 5135387.81 185.49
-9755108.88 5135386.89 186.19
-9755110.01 5135382.40 186.70
-9755113.67 5135385.70 186.99
-9755117.72 5135384.83 186.84
-9755109.16 5135387.11 187.43
-9755108.26 5135386.22 186.47
-9755116.89 5135379.85 189.69
-9755109.03 5135383.29 186.74
-9755111.99 5135387.76 184.70
-9755113.34 5135384.27 188.63
-9755115.68 5135382.81 189.93
-9755115.11 5135384.84 188.84
-9755114.91 5135379.48 186.28
-9755110.40 5135379.43 187.16
-9755112.85 5135378.47 188.39
-9755111.93 5135385.69 189.56
-9755112.75 5135378.16 187.52
-9755115.14 5135388.03 186.34
-9755111.24 5135380.98 187.40
-9755112.76 5135386.79 188.73
-9755112.44 5135377.79 186.27
-9755110.66 5135379.68 187.04
-9755116.82 5135381.10 189.49
-9755117.41 5135377.74 186.33
-9755109.80 5135384.43 186.06
-9755117.77 5135387.95 188.38
-9755110.83 5135386.75 185.87
-9755114.43 5135387.60 185.71
-9755109.46 5135379.47 186.08
-9755113.29 5135385.27 188.30
-9755112.08 5135385.47 188.56
-9755111.55 5135385.60 188.13
-9755115.80 5135384.26 190.77
-9755116.02 5135381.91 189.26
-9755111.35 5135381.96 187.98
-9755114.00 5135383.38 190.36
-9755109.21 5135383.61 185.85
-9755110.38 5135377.65 186.53
-9755113.15 5135381.09 187.80
-9755108.30 5135380.00 185.65
-9755110.33 5135381.14 187.52
-9755115.60 5135381.63 186.26
-9755112.75 5135379.30 189.35
-9755108.45 5135380.32 186.28
-9755111.07 5135381.02 187.14
-9755109.85 5135379.81 186.68
-9755110.25 5135386.24 186.71
-9755111.31 5135387.01 187.06
-9755111.20 5135381.57 185.96
-9755109.36 5135385.14 186.12
-9755114.48 5135378.88 188.41
-9755111.88 5135384.29 189.05
-9755107.91 5135387.67 185.98
-9755117.68 5135383.21 190.90
-9755115.71 5135385.90 186.80
-9755113.55 5135385.21 188.89
-9755115.07 5135387.35 187.16
-9755113.10 5135387.45 186.25
-9755109.48 5135386.13 187.78
-9755116.40 5135387.76 187.39
-9755113.29 5135384.36 188.22
-9755113.13 5135387.49 185.84
-9755114.11 5135385.17 189.57
-9755115.21 5135379.48 186.61
-9755109.01 5135379.48 185.57
-9755117.08 5135387.74 187.07
-9755112.93 5135381.51 187.21
-9755115.97 5135385.53 188.79
-9755111.21 5135378.18 186.48
-9755117.88 5135379.80 188.11
-9755114.02 5135379.71 188.14
-9755116.21 5135385.59 188.17
-9755115.92 5135384.74 186.68
-9755108.65 5135385.58 187.43
-9755113.35 5135379.41 187.79
-9755111.60 5135377.94 187.27
-9755118.12 5135378.41 188.85
-9755118.18 5135380.91 188.03
-9755110.83 5135387.34 188.14
-9755111.57 5135386.09 184.93
-9755114.45 5135378.75 188.33
-9755113.76 5135384.82 188.30
-9755115.62 5135387.52 185.97
-9755115.83 5135385.60 187.11
-9755115.13 5135379.40 187.80
-9755117.76 5135378.25 186.20
-9755108.63 5135379.97 186.55
-9755110.79 5135384.42 187.74
-9755117.82 5135384.20 191.22
-9755112.70 5135381.15 186.80
-9755108.01 5135383.97 186.32
-9755108.25 5135387.65 186.14
-9755111.59 5135379.21 185.61
-9755111.27 5135386.37 189.28
-9755116.07 5135382.75 189.31
-9755111.59 5135383.40 188.94
-9755110.68 5135385.25 188.85
-9755118.07 5135387.33 189.26
-9755114.86 5135377.90 186.66
-9755115.60 5135385.42 186.77
-9755117.67 5135382.53 189.74
-9755115.41 5135384.23 190.76
-9755112.74 5135384.55 188.14
-9755109.04 5135387.70 185.74
-9755111.96 5135379.05 188.02
-9755110.05 5135386.86 186.29
-9755114.57 5135384.28 188.84
-9755109.81 5135386.84 186.40
-9755113.90 5135379.46 188.02
-9755116.54 5135384.87 190.68
-9755117.81 5135383.38 191.15
-9755116.00 5135385.99 187.03
-9755117.82 5135380.79 188.61
-9755117.93 5135387.27 188.62
-9755111.52 5135381.09 181.65
-9755108.95 5135386.67 187.42
-9755115.76 5135386.25 188.46
-9755110.99 5135377.40 186.40
-9755113.29 5135381.98 187.60
-9755111.60 5135377.96 185.56
-9755117.40 5135381.59 190.10
-9755108.58 5135381.48 185.48
-9755117.48 5135379.92 189.10
-9755114.17 5135385.29 189.43
-9755109.83 5135381.10 187.56
-9755114.20 5135386.84 186.58
-9755110.96 5135385.94 187.41
-9755110.70 5135381.06 186.95
-9755110.69 5135379.41 186.64
-9755115.42 5135377.79 189.37
-9755116.15 5135387.40 187.29
-9755112.81 5135379.33 189.26
-9755115.58 5135383.66 188.72
-9755108.64 5135384.33 187.05
-9755117.12 5135388.03 185.79
-9755112.46 5135387.52 185.42
-9755116.39 5135384.26 191.24
-9755116.38 5135379.33 187.09
-9755116.34 5135382.47 189.62
-9755111.25 5135381.10 187.12
-9755118.03 5135386.76 186.59
-9755111.51 5135385.37 186.61
-9755112.39 5135387.42 184.78
-9755115.34 5135387.73 186.51
-9755115.73 5135381.96 190.35
-9755112.97 5135386.92 189.10
-9755116.72 5135387.25 187.19
-9755113.64 5135379.64 188.00
-9755117.79 5135381.90 190.11
-9755108.24 5135383.63 184.38
-9755109.31 5135387.53 185.95
-9755114.72 5135386.25 187.45
-9755110.28 5135384.17 185.47
-9755116.33 5135384.85 191.49
-9755115.35 5135378.89 187.34
-9755109.71 5135386.43 187.96
-9755112.05 5135387.22 184.47
-9755117.97 5135387.73 187.15
-9755115.66 5135381.09 188.74
-9755111.35 5135377.38 186.32
-9755112.10 5135378.18 186.37
-9755109.51 5135379.43 184.34
-9755113.91 5135381.08 189.32
-9755116.30 5135386.87 185.68
-9755113.60 5135380.91 187.99
-9755111.60 5135377.61 187.25
-9755117.78 5135388.12 187.00
-9755113.35 5135377.83 189.27
-9755109.91 5135379.63 184.36
-9755116.26 5135379.60 189.54
-9755112.06 5135387.62 187.82
-9755109.48 5135380.73 185.34
-9755112.69 5135379.11 188.07
-9755110.07 5135380.54 187.46
-9755109.50 5135386.87 187.29
-9755115.14 5135378.62 186.67
-9755116.92 5135378.77 188.53
-9755112.52 5135379.77 188.15
-9755111.54 5135376.72 186.36
-9755111.49 5135382.67 186.39
-9755114.89 5135378.59 186.14
-9755111.55 5135386.66 189.20
-9755111.95 5135383.15 189.05
-9755118.02 5135384.27 191.26
-9755116.58 5135379.39 187.37
-9755115.27 5135386.53 187.33
-9755110.45 5135379.44 187.39
-9755109.07 5135387.70 187.64
-9755111.69 5135379.00 187.63
-9755114.49 5135383.54 190.57
-9755114.74 5135384.37 188.87
-9755117.78 5135378.41 189.06
-9755111.55 5135386.82 185.16
-9755109.46 5135382.67 187.53
-9755115.99 5135387.67 187.32
-9755108.61 5135380.92 184.92
-9755112.41 5135379.48 187.72
-9755110.36 5135387.98 187.93
-9755116.50 5135384.92 189.11
-9755114.22 5135379.05 188.58
-9755109.28 5135382.39 185.50
-9755112.03 5135385.99 185.31
-9755116.37 5135385.17 189.85
-9755115.01 5135384.79 186.71
-9755108.65 5135386.49 185.85
-9755111.16 5135382.61 188.49
-9755110.17 5135380.65 185.55
-9755111.50 5135380.60 187.59
-9755113.21 5135382.54 187.57
-9755116.14 5135378.79 188.86
-9755114.52 5135383.43 189.94
-9755112.22 5135377.58 187.48
-9755108.26 5135379.34 186.17
-9755116.49 5135383.64 190.42
-9755112.51 5135386.05 189.57
-9755112.15 5135382.21 188.09
-9755112.18 5135378.18 188.16
-9755118.15 5135389.24 187.48
-9755116.82 5135388.61 187.08
-9755117.96 5135390.43 187.20
-9755114.43 5135388.59 186.31
-9755116.50 5135388.60 187.10
-9755110.67 5135389.23 185.74
-9755117.55 5135388.70 186.71
-9755113.27 5135388.33 186.10
-9755116.96 5135388.34 185.55
-9755109.95 5135388.58 186.08
-9755109.74 5135388.90 185.92
-9755109.19 5135388.36 186.23
-9755116.80 5135390.60 186.90
-9755117.11 5135389.66 184.61
-9755115.70 5135388.59 185.12
-9755116.72 5135389.84 184.68
-9755110.25 5135388.19 186.10
-9755109.14 5135388.35 185.84
-9755110.92 5135389.76 185.96
-9755109.80 5135388.53 188.14
-9755117.07 5135389.59 188.21
-9755116.47 5135389.79 187.49
-9755114.53 5135389.05 185.27
-9755108.93 5135388.31 186.20
-9755116.91 5135389.59 186.19
-9755108.65 5135388.86 186.15
-9755109.38 5135390.04 185.86
-9755116.60 5135389.41 186.85
-9755115.70 5135388.39 185.37
-9755118.34 5135390.20 185.87
-9755115.36 5135388.37 186.37
-9755116.82 5135389.70 186.15
-9755116.88 5135388.48 185.47
-9755116.79 5135389.75 187.92
-9755117.32 5135389.55 184.93
-9755117.75 5135389.12 186.76
-9755117.75 5135388.86 187.39
-9755117.94 5135388.49 187.31
-9755116.76 5135389.32 184.50
-9755110.39 5135388.88 187.75
-9755111.19 5135388.78 187.96
-9755118.03 5135388.75 185.79
-9755109.16 5135388.69 185.88
-9755117.75 5135389.81 187.30
-9755111.20 5135389.97 186.00
-9755117.15 5135390.07 187.14
-9755117.68 5135390.75 186.58
-9755117.80 5135389.57 187.41
-9755110.28 5135388.91 185.89
-9755111.05 5135388.60 185.06
-9755110.91 5135388.49 187.99
-9755116.88 5135388.59 186.64
-9755113.83 5135390.55 184.11
-9755117.76 5135390.04 187.28
-9755113.62 5135388.99 185.96
-9755113.24 5135388.87 185.91
-9755117.98 5135390.09 187.28
-9755117.83 5135376.35 185.55
-9755117.77 5135375.64 184.29
-9755118.02 5135375.70 184.26
-9755118.43 5135375.98 185.75
-9755108.27 5135376.11 181.64
-9755112.80 5135375.38 185.99
-9755117.74 5135376.24 185.71
-9755117.72 5135376.24 184.33
-9755111.28 5135376.09 181.69
-9755120.21 5135374.45 185.18
-9755119.30 5135374.50 184.58
-9755120.04 5135372.37 184.50
-9755119.58 5135374.50 184.54
-9755119.88 5135372.14 183.89
-9755119.57 5135373.66 185.39
-9755119.54 5135368.49 182.16
-9755119.83 5135371.96 181.71
-9755119.53 5135365.80 181.69
-9755118.67 5135374.89 185.17
-9755118.97 5135368.53 182.97
-9755118.96 5135371.98 181.72
-9755119.00 5135372.68 184.56
-9755118.60 5135369.83 182.95
-9755118.99 5135373.64 185.36
-9755119.05 5135373.94 185.11
-9755118.16 5135368.65 182.69
-9755110.03 5135372.93 185.79
-9755111.58 5135368.63 182.59
-9755109.28 5135372.92 187.09
-9755111.60 5135367.71 182.44
-9755108.90 5135373.12 185.14
-9755108.72 5135372.86 185.19
-9755111.93 5135370.75 182.34
-9755108.73 5135373.38 185.11
-9755109.51 5135373.78 185.18
-9755109.80 5135373.59 185.44
-9755109.52 5135374.37 185.35
-9755112.99 5135370.82 182.40
-9755110.14 5135372.87 186.33
-9755108.64 5135372.94 185.42
-9755108.39 5135372.88 186.07
-9755109.46 5135373.12 186.23
-9755109.58 5135373.25 186.33
-9755112.76 5135369.87 182.38
-9755117.82 5135374.20 184.50
-9755109.60 5135371.59 185.72
-9755108.92 5135372.91 185.28
-9755110.45 5135372.14 185.42
-9755111.63 5135368.37 182.57
-9755108.86 5135373.82 185.11
-9755109.27 5135373.25 186.97
-9755109.17 5135373.12 186.23
-9755109.32 5135372.82 184.82
-9755110.04 5135372.40 185.21
-9755112.73 5135373.69 181.68
-9755110.61 5135373.80 184.29
-9755109.49 5135372.66 183.40
-9755112.40 5135372.81 182.34
-9755112.42 5135371.36 182.37
-9755108.73 5135372.48 186.04
-9755118.19 5135368.31 182.70
-9755110.30 5135372.44 185.68
-9755113.70 5135367.81 182.39
-9755112.75 5135368.97 182.36
-9755108.67 5135373.26 186.62
-9755113.67 5135369.06 181.70
-9755112.17 5135373.68 182.39
-9755109.53 5135373.47 186.32
-9755113.46 5135370.70 182.46
-9755113.99 5135367.83 181.67
-9755117.72 5135373.46 181.68
-9755110.20 5135372.85 185.98
-9755110.35 5135374.31 181.67
-9755110.15 5135372.10 185.37
-9755108.32 5135372.91 185.42
-9755108.03 5135369.55 181.58
-9755108.64 5135366.30 181.56
-9755111.57 5135372.82 182.37
-9755109.86 5135372.32 186.09
-9755111.53 5135370.13 182.53
-9755108.74 5135372.82 185.61
-9755109.87 5135374.12 185.24
-9755109.54 5135371.97 185.52
-9755118.40 5135370.30 182.03
-9755112.75 5135370.47 182.41
-9755106.81 5135382.31 181.60
-9755107.45 5135383.49 186.47
-9755107.35 5135382.73 184.88
-9755107.12 5135384.40 186.34
-9755107.74 5135379.44 185.77
-9755107.73 5135385.63 186.24
-9755107.40 5135383.61 185.37
-9755107.09 5135386.12 181.54
-9755106.23 5135380.87 181.56
-9755106.14 5135387.27 181.54
-9755100.97 5135382.63 186.63
-9755101.22 5135379.06 186.56
-9755104.15 5135381.97 181.55
-9755100.36 5135386.09 185.65
-9755100.41 5135382.43 187.87
-9755100.04 5135385.01 185.29
-9755104.15 5135377.83 181.62
-9755100.13 5135381.91 186.92
-9755100.07 5135387.03 187.32
-9755103.28 5135377.85 181.65
-9755105.30 5135378.18 181.55
-9755099.37 5135387.62 187.40
-9755100.37 5135382.29 187.88
-9755100.91 5135385.56 187.48
-9755102.06 5135387.53 183.65
-9755099.11 5135381.87 189.63
-9755099.22 5135381.25 188.67
-9755102.08 5135376.55 184.17
-9755099.94 5135385.47 187.55
-9755100.62 5135386.68 187.08
-9755099.19 5135383.79 188.42
-9755099.55 5135381.40 187.93
-9755102.91 5135379.30 183.60
-9755100.39 5135379.36 186.43
-9755099.97 5135379.40 186.75
-9755101.48 5135378.98 186.46
-9755102.22 5135376.68 182.62
-9755100.06 5135380.65 188.31
-9755100.38 5135383.16 187.36
-9755099.52 5135380.64 189.65
-9755101.76 5135376.98 182.17
-9755102.06 5135376.83 182.65
-9755102.95 5135385.20 182.49
-9755101.79 5135387.77 182.91
-9755099.58 5135381.90 188.88
-9755101.26 5135378.21 186.29
-9755099.46 5135387.25 187.63
-9755102.93 5135380.23 182.11
-9755102.37 5135376.82 185.00
-9755101.27 5135385.23 187.15
-9755101.25 5135385.48 186.79
-9755102.18 5135376.75 184.72
-9755100.09 5135387.27 187.29
-9755102.43 5135376.65 182.38
-9755099.21 5135380.35 188.60
-9755101.44 5135376.57 182.95
-9755101.28 5135384.62 187.33
-9755102.00 5135379.27 186.14
-9755102.91 5135385.50 182.39
-9755101.48 5135386.04 183.42
-9755099.77 5135382.50 188.34
-9755101.85 5135379.41 183.07
-9755102.12 5135380.28 186.83
-9755099.81 5135386.04 184.71
-9755099.54 5135386.10 187.51
-9755099.99 5135386.69 187.56
-9755099.74 5135384.20 188.31
-9755099.12 5135387.34 187.50
-9755101.98 5135386.11 182.92
-9755100.01 5135385.23 187.84
-9755101.20 5135382.65 186.65
-9755100.91 5135387.67 181.57
-9755101.28 5135385.29 186.86
-9755100.60 5135385.21 187.44
-9755101.66 5135385.25 183.46
-9755103.25 5135378.65 183.76
-9755102.29 5135388.12 183.37
-9755100.12 5135379.59 188.38
-9755101.48 5135385.70 183.60
-9755099.75 5135385.23 187.69
-9755103.22 5135381.10 181.56
-9755099.25 5135387.60 185.45
-9755103.33 5135379.28 183.20
-9755100.69 5135386.09 187.41
-9755100.05 5135380.16 188.32
-9755101.54 5135379.36 186.30
-9755102.95 5135384.89 182.52
-9755100.02 5135381.09 188.37
-9755099.44 5135379.02 186.70
-9755102.85 5135377.20 182.21
-9755099.24 5135384.25 189.20
-9755102.47 5135380.18 183.12
-9755099.47 5135381.78 189.52
-9755102.07 5135377.18 182.47
-9755099.53 5135383.16 186.79
-9755102.09 5135387.78 183.64
-9755101.59 5135388.36 183.43
-9755102.39 5135389.09 182.18
-9755102.40 5135389.29 182.33
-9755101.36 5135389.33 183.21
-9755101.78 5135389.35 183.01
-9755099.61 5135388.48 187.04
-9755100.88 5135390.20 181.57
-9755102.06 5135388.41 183.39
-9755102.01 5135389.37 183.08
-9755106.22 5135375.78 181.58
-9755101.23 5135376.93 181.63
-9755102.10 5135376.27 184.63
-9755102.97 5135375.51 183.40
-9755102.67 5135375.70 182.46
-9755102.14 5135374.98 184.43
-9755102.08 5135375.33 182.23
-9755103.70 5135375.93 183.17
-9755103.01 5135375.65 183.08
-9755103.68 5135375.99 182.46
-9755103.01 5135376.03 182.62
-9755103.84 5135375.90 184.15
-9755102.04 5135375.92 184.19
-9755102.70 5135375.39 182.55
-9755101.72 5135375.17 182.37
-9755102.12 5135375.11 182.50
-9755102.10 5135375.33 182.30
-9755103.66 5135374.90 182.97
-9755103.23 5135375.72 182.67
-9755102.45 5135375.30 182.87
-9755103.64 5135375.81 183.11
-9755101.60 5135375.13 183.67
-9755099.46 5135375.71 181.48
-9755102.43 5135374.98 184.15
-9755102.12 5135375.22 182.29
-9755102.18 5135375.66 182.40
-9755102.37 5135375.19 184.51
-9755103.29 5135375.09 182.57
-9755097.16 5135384.18 190.88
-9755097.39 5135386.60 189.08
-9755099.14 5135385.24 187.92
-9755098.31 5135380.37 190.00
-9755097.14 5135384.18 190.54
-9755095.02 5135378.71 187.39
-9755098.80 5135388.17 187.27
-9755097.17 5135381.21 190.75
-9755095.08 5135382.40 189.98
-9755097.94 5135387.62 187.75
-9755096.33 5135384.16 191.22
-9755093.05 5135384.20 189.62
-9755098.86 5135385.25 188.02
-9755097.97 5135384.35 190.83
-9755093.91 5135383.87 189.92
-9755097.93 5135386.01 189.06
-9755098.88 5135378.97 187.17
-9755096.55 5135379.45 191.21
-9755096.49 5135385.14 190.41
-9755097.01 5135379.95 189.93
-9755096.44 5135384.64 190.80
-9755093.05 5135381.99 190.14
-9755097.09 5135382.76 191.33
-9755092.72 5135381.85 188.32
-9755095.83 5135387.60 187.77
-9755093.91 5135382.98 190.78
-9755096.79 5135379.72 191.36
-9755096.09 5135385.17 188.54
-9755093.84 5135384.45 189.63
-9755099.15 5135384.88 189.14
-9755099.16 5135382.71 190.24
-9755096.29 5135381.17 192.00
-9755098.01 5135378.22 185.75
-9755099.11 5135388.43 187.34
-9755099.09 5135385.10 189.15
-9755097.15 5135384.75 190.80
-9755095.05 5135380.78 191.50
-9755096.29 5135378.09 187.46
-9755097.64 5135386.90 187.87
-9755099.15 5135383.67 188.60
-9755098.89 5135387.23 187.74
-9755093.47 5135382.32 190.74
-9755096.82 5135382.93 191.59
-9755097.46 5135385.07 190.80
-9755096.17 5135385.15 189.16
-9755097.11 5135385.37 190.69
-9755094.19 5135383.86 189.93
-9755095.88 5135386.80 189.06
-9755094.76 5135380.64 191.55
-9755095.96 5135383.48 191.70
-9755098.02 5135384.32 188.47
-9755095.57 5135381.90 190.99
-9755097.10 5135383.49 191.50
-9755093.04 5135382.96 190.40
-9755097.67 5135377.61 185.22
-9755096.01 5135383.63 191.11
-9755096.16 5135386.01 186.89
-9755093.81 5135382.47 191.53
-9755096.11 5135385.51 188.03
-9755094.67 5135383.02 190.87
-9755096.27 5135381.12 191.66
-9755093.54 5135386.05 187.18
-9755094.22 5135385.99 188.48
-9755093.60 5135380.73 189.97
-9755096.75 5135386.03 188.71
-9755096.60 5135385.08 190.44
-9755098.00 5135387.23 187.86
-9755093.57 5135382.44 190.33
-9755093.48 5135383.92 188.29
-9755094.47 5135386.04 188.73
-9755095.99 5135379.44 190.83
-9755098.64 5135385.21 188.08
-9755097.17 5135385.03 188.71
-9755093.60 5135381.69 190.78
-9755094.60 5135384.21 189.93
-9755097.68 5135381.84 190.78
-9755094.69 5135385.68 188.13
-9755097.47 5135385.98 190.47
-9755095.96 5135381.14 191.98
-9755093.96 5135382.01 192.17
-9755098.39 5135382.48 189.57
-9755095.07 5135383.49 191.63
-9755093.56 5135382.47 191.20
-9755094.79 5135386.00 188.82
-9755094.35 5135381.78 191.65
-9755096.26 5135386.91 189.35
-9755096.32 5135382.90 190.11
-9755096.74 5135383.85 190.85
-9755097.96 5135387.59 184.88
-9755096.04 5135380.48 191.63
-9755095.11 5135385.61 188.99
-9755097.15 5135383.63 190.52
-9755097.12 5135385.90 190.04
-9755093.45 5135385.81 187.16
-9755097.96 5135386.94 188.67
-9755093.69 5135382.40 191.51
-9755094.61 5135381.77 189.62
-9755095.40 5135383.48 191.23
-9755092.97 5135380.79 189.60
-9755098.00 5135382.18 189.59
-9755094.40 5135383.52 188.42
-9755094.26 5135383.49 190.91
-9755095.06 5135387.26 187.57
-9755096.84 5135385.99 189.12
-9755096.80 5135384.36 191.00
-9755096.30 5135379.76 191.15
-9755095.94 5135386.55 189.23
-9755098.86 5135382.75 190.13
-9755093.53 5135384.62 188.27
-9755098.16 5135380.18 187.00
-9755093.78 5135380.06 189.82
-9755097.10 5135382.08 191.43
-9755095.95 5135380.91 189.09
-9755095.91 5135385.70 189.10
-9755094.61 5135384.85 189.06
-9755098.34 5135382.17 189.99
-9755093.70 5135382.10 190.02
-9755097.19 5135381.90 189.77
-9755095.40 5135382.41 190.83
-9755097.80 5135378.16 185.74
-9755093.48 5135382.15 190.76
-9755096.27 5135380.60 191.73
-9755098.85 5135379.02 187.14
-9755094.26 5135381.84 190.42
-9755097.99 5135384.72 190.46
-9755093.00 5135382.05 190.46
-9755096.25 5135378.71 187.67
-9755097.14 5135385.98 188.47
-9755096.27 5135382.92 191.83
-9755095.43 5135384.43 191.11
-9755094.25 5135385.79 188.84
-9755097.17 5135381.44 190.78
-9755094.70 5135384.42 189.38
-9755095.66 5135384.76 190.46
-9755095.30 5135384.98 190.35
-9755095.06 5135386.69 186.07
-9755096.47 5135387.27 187.68
-9755096.46 5135381.70 191.57
-9755096.48 5135381.39 192.00
-9755093.59 5135382.28 192.25
-9755096.53 5135382.37 191.50
-9755097.40 5135385.68 190.83
-9755092.85 5135382.25 187.52
-9755095.89 5135384.44 190.66
-9755095.97 5135384.51 188.52
-9755092.76 5135381.13 191.27
-9755098.34 5135378.13 186.66
-9755097.97 5135380.25 190.35
-9755097.97 5135383.91 190.72
-9755095.76 5135382.34 191.78
-9755093.67 5135382.72 189.13
-9755097.21 5135387.99 187.12
-9755098.01 5135384.21 190.54
-9755093.87 5135380.83 191.09
-9755098.67 5135385.18 188.99
-9755094.68 5135386.94 186.75
-9755095.87 5135386.29 189.13
-9755093.03 5135382.06 190.89
-9755096.47 5135385.42 190.44
-9755097.12 5135382.39 191.47
-9755098.03 5135382.32 189.88
-9755093.28 5135382.66 190.87
-9755096.59 5135383.81 191.54
-9755092.98 5135380.25 188.58
-9755097.10 5135387.69 186.97
-9755098.79 5135384.32 186.96
-9755096.78 5135387.49 186.67
-9755093.75 5135381.06 191.96
-9755095.62 5135382.24 190.83
-9755096.54 5135385.99 188.72
-9755093.08 5135381.45 190.64
-9755097.42 5135379.04 187.64
-9755093.00 5135380.82 191.42
-9755099.18 5135380.35 187.67
-9755096.22 5135385.32 190.26
-9755096.45 5135383.55 191.17
-9755096.06 5135380.31 190.33
-9755094.81 5135381.13 191.60
-9755097.65 5135384.33 185.82
-9755093.53 5135385.97 181.34
-9755095.99 5135381.13 191.65
-9755095.62 5135378.99 187.55
-9755094.64 5135386.95 181.30
-9755098.85 5135385.96 188.29
-9755095.02 5135386.60 188.64
-9755094.29 5135382.48 190.13
-9755097.16 5135377.92 185.15
-9755094.56 5135385.06 188.99
-9755095.61 5135381.51 191.33
-9755094.49 5135381.15 191.51
-9755096.75 5135383.20 191.57
-9755096.77 5135387.80 186.68
-9755096.69 5135382.87 191.63
-9755097.11 5135385.12 190.72
-9755096.15 5135379.51 187.33
-9755095.91 5135378.56 187.45
-9755098.33 5135382.10 189.56
-9755092.93 5135383.94 189.85
-9755094.99 5135386.63 189.12
-9755093.49 5135383.95 189.74
-9755093.03 5135380.62 190.18
-9755093.09 5135382.04 191.68
-9755093.95 5135381.47 191.96
-9755094.73 5135383.88 190.89
-9755098.60 5135378.24 185.93
-9755097.13 5135387.95 186.85
-9755097.42 5135381.48 190.78
-9755096.79 5135386.58 188.79
-9755092.94 5135379.87 188.50
-9755096.20 5135380.04 190.00
-9755097.97 5135386.57 189.07
-9755094.44 5135382.28 191.44
-9755097.14 5135380.73 191.43
-9755096.20 5135387.27 187.86
-9755096.60 5135380.57 191.30
-9755094.80 5135379.45 189.92
-9755094.23 5135382.26 192.28
-9755097.65 5135386.02 188.60
-9755093.57 5135381.20 191.27
-9755097.10 5135387.40 186.67
-9755094.71 5135384.80 190.17
-9755094.07 5135384.81 188.33
-9755095.38 5135385.64 189.10
-9755097.76 5135381.54 189.61
-9755098.00 5135386.40 187.47
-9755095.94 5135381.15 191.61
-9755092.72 5135384.50 186.67
-9755093.37 5135381.81 191.95
-9755096.76 5135387.83 187.02
-9755093.61 5135386.35 187.18
-9755098.85 5135384.34 187.99
-9755095.79 5135380.67 191.38
-9755093.90 5135386.37 187.29
-9755098.05 5135382.69 190.16
-9755094.48 5135386.37 188.23
-9755096.39 5135383.23 190.51
-9755097.91 5135384.03 189.10
-9755096.26 5135384.40 191.06
-9755095.09 5135381.73 191.80
-9755096.27 5135384.70 191.03
-9755095.66 5135386.01 189.03
-9755095.09 5135382.06 191.77
-9755094.06 5135379.89 189.80
-9755095.94 5135384.44 191.31
-9755093.07 5135380.93 189.86
-9755096.24 5135383.31 191.67
-9755093.85 5135386.04 187.30
-9755096.83 5135378.46 187.82
-9755098.62 5135379.85 189.56
-9755097.16 5135386.34 189.03
-9755094.87 5135380.69 190.27
-9755098.33 5135383.05 189.88
-9755093.84 5135376.29 181.35
-9755107.44 5135372.82 181.60
-9755107.44 5135369.54 181.58
-9755107.73 5135367.18 181.56
-9755106.60 5135371.91 181.57
-9755102.13 5135371.52 182.80
-9755101.60 5135368.34 182.55
-9755102.18 5135369.14 182.81
-9755102.71 5135373.30 182.75
-9755102.12 5135374.79 182.87
-9755099.21 5135367.05 189.85
-9755099.94 5135365.28 188.39
-9755102.89 5135373.37 182.89
-9755102.04 5135369.19 182.47
-9755103.05 5135366.61 184.93
-9755101.91 5135365.47 183.79
-9755102.72 5135369.14 182.73
-9755102.51 5135374.75 184.25
-9755102.11 5135374.42 184.22
-9755101.53 5135369.53 182.31
-9755099.83 5135367.14 182.28
-9755101.61 5135371.85 182.75
-9755101.55 5135368.32 182.79
-9755100.22 5135365.30 188.37
-9755104.56 5135366.26 181.52
-9755100.22 5135366.30 188.40
-9755099.24 5135368.03 189.32
-9755102.48 5135369.82 182.84
-9755103.66 5135366.39 184.00
-9755105.41 5135369.55 181.57
-9755101.25 5135366.48 184.69
-9755101.29 5135369.25 182.39
-9755100.82 5135365.39 188.75
-9755099.42 5135368.30 189.36
-9755102.24 5135366.95 184.75
-9755099.21 5135368.00 189.15
-9755102.13 5135374.22 182.42
-9755102.16 5135368.23 182.90
-9755100.03 5135367.72 181.98
-9755102.16 5135373.33 182.76
-9755102.97 5135367.06 185.16
-9755099.83 5135365.45 188.66
-9755101.36 5135368.67 182.50
-9755103.06 5135370.37 182.75
-9755102.12 5135370.93 182.81
-9755099.55 5135367.99 189.38
-9755103.15 5135365.81 185.06
-9755102.54 5135369.16 182.62
-9755101.35 5135370.34 182.70
-9755099.31 5135368.15 189.20
-9755096.88 5135368.81 189.94
-9755095.45 5135366.29 192.32
-9755093.98 5135365.88 193.57
-9755099.20 5135367.35 189.88
-9755098.95 5135367.76 189.15
-9755096.38 5135365.28 190.46
-9755096.36 5135365.36 192.37
-9755096.85 5135369.49 187.57
-9755098.15 5135366.15 189.60
-9755093.33 5135366.61 186.99
-9755094.57 5135368.52 188.72
-9755094.29 5135367.68 189.02
-9755096.96 5135365.42 191.70
-9755096.70 5135365.30 190.76
-9755095.01 5135368.95 188.23
-9755097.90 5135373.61 184.09
-9755099.17 5135368.03 181.45
-9755093.05 5135367.36 188.61
-9755096.36 5135369.04 189.35
-9755094.58 5135365.48 192.18
-9755093.10 5135364.62 192.69
-9755095.74 5135367.89 189.99
-9755093.49 5135366.11 192.90
-9755096.31 5135368.22 189.80
-9755094.65 5135365.33 191.80
-9755098.73 5135367.36 189.63
-9755097.17 5135367.87 188.58
-9755098.37 5135365.49 190.07
-9755094.25 5135368.92 187.99
-9755094.58 5135367.14 189.13
-9755094.10 5135365.35 193.26
-9755097.97 5135371.53 181.49
-9755097.52 5135365.45 191.52
-9755095.25 5135365.88 192.74
-9755097.48 5135367.68 188.58
-9755095.14 5135368.57 189.86
-9755095.82 5135366.05 191.73
-9755095.44 5135369.45 188.16
-9755093.12 5135365.44 193.16
-9755093.09 5135366.17 190.09
-9755095.24 5135367.84 190.76
-9755094.32 5135365.37 192.75
-9755096.75 5135369.16 187.63
-9755097.97 5135372.44 181.47
-9755097.23 5135365.36 191.94
-9755096.05 5135367.86 190.12
-9755096.39 5135365.49 190.76
-9755095.52 5135365.30 191.09
-9755094.19 5135368.64 188.17
-9755095.50 5135368.21 189.99
-9755095.87 5135368.54 189.95
-9755096.78 5135367.15 188.74
-9755094.83 5135368.26 188.82
-9755096.98 5135365.84 189.89
-9755094.79 5135367.87 190.56
-9755093.12 5135367.18 190.69
-9755096.36 5135365.44 192.31
-9755096.03 5135367.54 191.68
-9755094.56 5135369.13 188.18
-9755096.26 5135365.76 191.57
-9755096.86 5135366.30 191.58
-9755097.43 5135367.03 190.18
-9755094.85 5135368.56 188.77
-9755099.17 5135367.51 189.81
-9755094.31 5135368.49 188.71
-9755097.47 5135367.87 189.85
-9755096.31 5135368.83 187.96
-9755093.47 5135365.47 193.19
-9755093.19 5135367.05 188.43
-9755098.37 5135365.83 188.39
-9755096.39 5135364.62 192.49
-9755094.03 5135367.40 190.64
-9755096.35 5135368.86 189.52
-9755093.19 5135367.56 188.68
-9755095.55 5135366.60 192.38
-9755093.68 5135368.36 188.69
-9755095.86 5135367.54 190.13
-9755095.86 5135366.58 192.34
-9755093.75 5135366.63 188.57
-9755098.24 5135368.58 189.56
-9755094.86 5135366.62 190.77
-9755093.92 5135368.29 181.35
-9755094.23 5135369.48 187.55
-9755095.72 5135369.15 188.88
-9755093.88 5135367.10 188.53
-9755098.40 5135367.06 189.79
-9755095.21 5135369.57 187.25
-9755096.00 5135366.62 190.66
-9755095.15 5135366.33 192.33
-9755097.41 5135366.29 189.52
-9755098.63 5135371.16 184.24
-9755094.57 5135365.06 193.46
-9755093.94 5135367.45 188.88
-9755094.33 5135367.88 190.50
-9755096.05 5135368.05 189.93
-9755095.20 5135366.55 192.32
-9755094.60 5135366.08 191.58
-9755094.36 5135367.98 188.12
-9755099.05 5135364.68 190.21
-9755093.15 5135366.74 187.48
-9755094.57 5135366.63 190.80
-9755094.31 5135367.99 188.76
-9755095.13 5135366.30 191.82
-9755095.00 5135367.97 189.46
-9755093.04 5135366.38 190.07
-9755098.72 5135367.55 186.40
-9755096.09 5135367.63 189.13
-9755098.33 5135366.25 189.07
-9755095.17 5135369.21 188.23
-9755096.67 5135367.76 190.30
-9755095.74 5135365.41 192.54
-9755095.13 5135368.16 189.97
-9755095.12 5135366.71 190.66
-9755093.14 5135365.07 193.68
-9755097.22 5135364.66 192.82
-9755093.77 5135365.16 192.00
-9755093.61 5135368.64 188.00
-9755095.48 5135365.39 192.71
-9755095.45 5135368.43 189.99
-9755093.86 5135369.19 181.35
-9755095.56 5135366.55 190.46
-9755095.10 5135368.58 188.85
-9755094.88 5135365.40 192.72
-9755099.02 5135365.43 188.62
-9755097.63 5135366.88 187.05
-9755093.64 5135366.68 191.15
-9755093.95 5135366.64 189.53
-9755093.59 5135367.93 188.84
-9755095.39 5135367.96 190.74
-9755097.10 5135366.06 191.44
-9755095.18 5135369.24 187.48
-9755093.10 5135366.72 189.17
-9755094.63 5135367.86 190.50
-9755093.15 5135365.92 188.99
-9755095.49 5135366.40 191.59
-9755098.32 5135374.46 184.23
-9755095.56 5135367.01 190.13
-9755094.24 5135365.29 193.95
-9755092.94 5135381.18 190.37
-9755092.67 5135383.54 190.30
-9755092.44 5135384.40 187.69
-9755092.63 5135384.48 189.56
-9755092.68 5135381.84 190.85
-9755092.37 5135381.36 188.13
-9755092.30 5135384.48 187.86
-9755092.64 5135381.95 181.39
-9755092.91 5135384.96 189.46
-9755092.20 5135380.30 188.43
-9755092.64 5135376.87 181.38
-9755092.98 5135381.18 191.33
-9755092.28 5135386.41 181.37
-9755092.51 5135381.92 187.35
-9755092.14 5135380.73 188.14
-9755092.39 5135380.40 188.40
-9755093.01 5135382.08 190.86
-9755092.10 5135385.13 186.99
-9755092.05 5135383.05 190.07
-9755092.04 5135382.28 187.70
-9755092.43 5135384.00 187.80
-9755092.38 5135383.54 190.22
-9755092.43 5135381.50 190.51
-9755092.63 5135383.60 189.93
-9755092.05 5135381.92 188.07
-9755092.61 5135384.54 188.30
-9755091.88 5135382.75 187.98
-9755092.09 5135383.00 190.27
-9755091.80 5135384.45 189.81
-9755091.83 5135384.56 187.50
-9755091.79 5135378.67 181.41
-9755091.25 5135381.33 188.24
-9755091.83 5135383.00 190.10
-9755091.25 5135381.08 187.79
-9755091.84 5135383.51 190.01
-9755087.30 5135381.33 181.45
-9755084.67 5135383.90 181.48
-9755090.57 5135379.82 181.41
-9755091.21 5135382.23 187.77
-9755081.69 5135383.97 181.93
-9755081.81 5135379.42 182.50
-9755090.88 5135381.89 187.82
-9755081.73 5135377.37 182.49
-9755082.26 5135378.31 182.16
-9755082.02 5135385.60 182.49
-9755084.38 5135381.88 181.46
-9755090.89 5135382.24 187.28
-9755082.00 5135384.47 182.47
-9755090.27 5135381.92 187.22
-9755091.00 5135381.08 187.76
-9755091.84 5135382.74 187.61
-9755082.34 5135378.27 181.63
-9755091.84 5135380.75 187.57
-9755081.68 5135382.32 181.95
-9755087.66 5135376.88 181.45
-9755091.62 5135381.04 188.18
-9755091.64 5135383.14 188.00
-9755090.70 5135381.96 187.25
-9755085.54 5135379.86 181.46
-9755085.84 5135382.80 181.46
-9755083.16 5135387.76 181.50
-9755089.71 5135375.70 181.42
-9755084.38 5135375.33 181.48
-9755084.12 5135375.38 181.49
-9755083.51 5135375.06 181.49
-9755092.58 5135364.65 191.39
-9755092.51 5135367.02 189.41
-9755092.71 5135366.15 189.13
-9755092.60 5135366.42 189.77
-9755092.30 5135365.05 193.25
-9755092.25 5135365.22 191.05
-9755092.76 5135368.62 187.67
-9755092.22 5135365.42 191.65
-9755092.26 5135365.54 190.08
-9755092.82 5135365.91 190.32
-9755092.43 5135365.81 190.08
-9755092.59 5135367.04 189.05
-9755093.00 5135368.33 181.36
-9755092.22 5135366.91 188.41
-9755092.28 5135366.41 189.10
-9755092.56 5135365.39 191.93
-9755092.51 5135365.04 191.66
-9755092.14 5135365.80 190.17
-9755092.16 5135365.88 181.39
-9755092.29 5135367.34 189.01
-9755090.12 5135364.62 190.15
-9755090.15 5135365.90 188.26
-9755090.50 5135364.88 191.43
-9755090.47 5135366.17 188.29
-9755091.79 5135365.54 189.22
-9755091.74 5135365.50 190.43
-9755090.73 5135365.91 188.39
-9755091.36 5135366.36 188.68
-9755090.66 5135366.51 187.97
-9755091.66 5135365.89 189.23
-9755091.34 5135365.82 190.22
-9755082.33 5135366.16 181.62
-9755091.74 5135365.65 189.41
-9755091.41 5135365.87 188.32
-9755081.53 5135369.97 182.50
-9755090.94 5135366.33 187.98
-9755091.60 5135367.08 188.60
-9755090.47 5135365.91 188.30
-9755091.43 5135365.50 188.76
-9755092.03 5135365.00 191.44
-9755090.99 5135365.45 190.72
-9755091.33 5135364.96 191.02
-9755092.14 5135366.51 189.32
-9755091.03 5135366.47 188.42
-9755090.99 5135367.04 187.92
-9755092.19 5135367.10 188.61
-9755081.52 5135372.66 181.67
-9755091.26 5135367.05 181.41
-9755082.40 5135365.85 181.62
-9755082.65 5135371.20 181.58
-9755091.93 5135367.36 188.48
-9755092.13 5135365.37 191.08
-9755091.38 5135364.86 191.31
-9755091.21 5135367.06 187.99
-9755081.55 5135367.02 182.50
-9755088.89 5135366.55 181.42
-9755087.43 5135365.85 181.42
-9755090.22 5135364.64 190.12
-9755090.52 5135365.31 187.94
-9755088.89 5135367.97 181.44
-9755132.97 5135414.32 183.44
-9755134.04 5135414.06 183.00
-9755133.07 5135414.34 182.55
-9755130.57 5135414.55 182.75
-9755132.16 5135414.10 181.60
-9755131.93 5135414.08 182.79
-9755121.04 5135414.35 181.37
-9755130.17 5135414.39 181.39
-9755131.00 5135414.06 183.18
-9755131.31 5135414.26 182.69
-9755130.80 5135414.06 182.75
-9755126.03 5135416.46 181.40
-9755132.61 5135411.18 183.56
-9755133.47 5135412.82 183.50
-9755133.09 5135412.26 184.14
-9755132.54 5135412.86 183.52
-9755131.71 5135411.66 183.23
-9755130.45 5135412.26 182.15
-9755130.54 5135413.02 182.67
-9755130.50 5135412.29 182.50
-9755131.74 5135407.09 181.45
-9755130.49 5135412.50 182.37
-9755122.57 5135406.96 181.44
-9755131.66 5135411.13 181.48
-9755131.33 5135411.98 183.31
-9755122.27 5135412.26 181.42
-9755130.97 5135413.54 181.76
-9755130.58 5135412.83 183.22
-9755130.53 5135413.29 183.18
-9755130.50 5135406.74 181.45
-9755132.23 5135411.68 183.36
-9755123.44 5135411.14 181.42
-9755130.79 5135412.86 183.28
-9755130.80 5135413.13 183.25
-9755130.41 5135413.19 182.78
-9755134.08 5135400.49 181.32
-9755133.92 5135395.19 186.61
-9755133.81 5135395.53 186.20
-9755134.11 5135394.89 186.19
-9755133.93 5135394.96 186.71
-9755134.18 5135394.33 186.92
-9755133.69 5135394.61 186.30
-9755133.92 5135394.27 186.92
-9755133.84 5135395.20 186.26
-9755133.84 5135394.97 186.68
-9755134.15 5135394.73 186.54
-9755134.07 5135394.80 186.11
-9755132.93 5135397.54 181.39
-9755127.59 5135395.73 181.41
-9755120.80 5135395.11 181.37
-9755124.69 5135395.98 181.38
-9755123.77 5135401.62 181.44
-9755130.90 5135396.32 181.44
-9755130.57 5135401.66 181.42
-9755127.56 5135403.73 181.52
-9755124.37 5135404.28 181.54
-9755129.66 5135401.69 181.41
-9755122.60 5135404.54 181.55
-9755134.18 5135391.75 188.06
-9755134.19 5135393.68 187.42
-9755132.78 5135391.38 187.44
-9755133.53 5135393.13 187.01
-9755133.39 5135393.41 186.63
-9755134.14 5135391.80 188.00
-9755133.28 5135393.40 186.27
-9755133.44 5135392.49 187.09
-9755133.58 5135393.61 186.28
-9755133.62 5135392.58 187.16
-9755133.50 5135393.44 186.68
-9755132.97 5135391.89 187.82
-9755133.35 5135392.22 187.72
-9755133.69 5135391.36 188.62
-9755133.95 5135391.90 187.95
-9755133.60 5135391.02 188.45
-9755132.64 5135391.93 187.14
-9755134.20 5135391.63 188.75
-9755132.74 5135392.23 187.36
-9755133.78 5135391.00 188.30
-9755132.67 5135394.25 181.57
-9755133.71 5135392.58 187.28
-9755123.04 5135391.07 186.06
-9755121.46 5135394.17 181.44
-9755122.96 5135391.32 186.07
-9755131.72 5135392.50 181.58
-9755125.29 5135394.21 181.43
-9755122.68 5135391.66 186.09
-9755120.93 5135390.96 186.58
-9755130.88 5135393.11 181.61
-9755128.51 5135393.02 181.54
-9755122.64 5135392.20 185.72
-9755132.27 5135390.98 186.86
-9755122.39 5135391.29 185.83
-9755124.69 5135391.85 181.55
-9755122.90 5135392.25 185.46
-9755126.80 5135391.31 181.52
-9755121.53 5135392.01 185.86
-9755122.11 5135391.06 185.90
-9755122.35 5135394.22 181.43
-9755130.89 5135392.20 181.56
-9755122.69 5135391.01 186.11
-9755122.16 5135391.10 185.85
-9755132.46 5135391.06 186.86
-9755129.17 5135391.32 181.53
-9755122.96 5135391.59 186.21
-9755130.91 5135393.34 181.61
-9755109.51 5135414.88 181.37
-9755119.14 5135395.06 181.38
-9755109.86 5135411.58 181.39
-9755110.76 5135408.08 181.41
-9755116.91 5135411.10 181.40
-9755112.77 5135410.43 181.39
-9755110.79 5135406.03 181.43
-9755116.90 5135412.24 181.39
-9755112.78 5135407.79 181.42
-9755112.91 5135395.18 183.37
-9755108.30 5135394.38 183.48
-9755109.13 5135394.95 183.28
-9755112.05 5135394.67 183.58
-9755111.09 5135401.26 181.44
-9755108.61 5135395.04 182.98
-9755108.79 5135394.35 183.41
-9755109.02 5135394.68 183.97
-9755109.05 5135399.78 181.41
-9755112.03 5135394.34 183.55
-9755112.89 5135395.22 182.97
-9755110.26 5135394.70 183.16
-9755112.73 5135394.27 183.57
-9755113.54 5135394.65 184.04
-9755111.11 5135397.41 181.43
-9755110.58 5135395.31 183.38
-9755109.08 5135395.64 183.30
-9755110.27 5135395.43 182.21
-9755112.00 5135397.41 181.44
-9755108.25 5135394.67 183.47
-9755107.87 5135394.68 183.13
-9755108.79 5135395.35 182.19
-9755112.20 5135395.84 183.75
-9755108.80 5135395.74 182.96
-9755110.41 5135394.29 183.19
-9755108.47 5135394.68 183.56
-9755107.95 5135394.15 182.92
-9755110.76 5135395.77 182.19
-9755111.93 5135395.85 183.49
-9755110.34 5135394.39 183.44
-9755110.75 5135405.06 181.50
-9755119.42 5135391.34 184.72
-9755112.00 5135391.97 183.61
-9755112.34 5135394.20 181.67
-9755111.15 5135392.58 183.77
-9755112.29 5135393.54 183.72
-9755112.34 5135393.22 183.48
-9755114.08 5135394.08 183.31
-9755112.07 5135394.11 183.83
-9755112.41 5135391.71 183.72
-9755111.99 5135393.73 183.83
-9755114.08 5135391.69 183.78
-9755113.56 5135391.35 183.48
-9755112.96 5135392.93 183.43
-9755113.86 5135391.36 184.02
-9755114.47 5135392.61 183.99
-9755114.39 5135393.22 183.99
-9755113.21 5135392.87 183.54
-9755111.99 5135392.37 183.49
-9755110.57 5135391.78 181.56
-9755113.20 5135393.75 183.60
-9755111.44 5135393.52 183.55
-9755114.04 5135393.40 183.09
-9755114.35 5135393.06 183.29
-9755117.11 5135391.00 187.11
-9755116.78 5135391.01 186.95
-9755109.29 5135393.92 182.47
-9755114.48 5135391.14 183.77
-9755111.17 5135393.76 183.56
-9755111.17 5135392.67 181.62
-9755117.62 5135391.81 181.59
-9755114.06 5135393.32 183.13
-9755112.95 5135392.56 183.87
-9755113.89 5135391.71 183.79
-9755112.63 5135393.75 183.69
-9755112.40 5135392.08 183.43
-9755112.62 5135393.10 183.72
-9755113.48 5135392.51 183.47
-9755113.27 5135391.08 184.00
-9755114.00 5135391.44 183.97
-9755107.16 5135417.26 181.39
-9755100.12 5135415.91 185.56
-9755100.26 5135416.07 185.82
-9755101.85 5135415.29 185.78
-9755099.15 5135417.28 185.53
-9755102.00 5135416.00 186.26
-9755101.54 5135416.92 188.35
-9755101.26 5135416.69 188.19
-9755101.18 5135416.78 188.20
-9755100.79 5135416.41 186.31
-9755102.11 5135415.74 186.28
-9755100.12 5135416.87 188.51
-9755101.35 5135417.08 189.28
-9755100.90 5135416.51 185.47
-9755099.94 5135416.23 185.82
-9755093.61 5135415.63 181.37
-9755094.48 5135415.72 181.37
-9755095.63 5135415.69 181.34
-9755097.12 5135416.02 181.41
-9755097.13 5135416.92 181.40
-9755107.81 5135408.66 181.41
-9755106.29 5135407.78 181.44
-9755102.19 5135409.48 181.39
-9755099.20 5135408.31 181.33
-9755102.22 5135408.67 181.39
-9755099.57 5135409.51 181.34
-9755101.91 5135412.76 181.49
-9755107.27 5135395.28 182.05
-9755107.01 5135394.73 182.84
-9755106.66 5135394.91 182.22
-9755107.55 5135394.34 182.97
-9755107.85 5135394.34 183.52
-9755106.97 5135394.77 182.40
-9755107.83 5135402.14 181.44
-9755105.52 5135398.81 181.40
-9755101.43 5135394.35 184.82
-9755102.84 5135394.43 185.83
-9755102.91 5135394.80 186.13
-9755102.94 5135394.44 185.98
-9755102.01 5135395.37 185.00
-9755103.17 5135397.97 181.40
-9755102.08 5135393.91 186.26
-9755101.28 5135394.95 186.78
-9755099.59 5135398.85 181.34
-9755102.33 5135395.05 184.05
-9755102.62 5135395.16 185.03
-9755101.33 5135394.66 185.20
-9755101.69 5135394.68 186.76
-9755103.48 5135395.15 185.31
-9755102.00 5135399.15 181.39
-9755102.00 5135395.18 184.29
-9755103.53 5135395.14 185.57
-9755101.12 5135395.06 185.30
-9755102.04 5135394.25 185.54
-9755102.04 5135394.25 185.12
-9755102.31 5135395.00 186.64
-9755102.65 5135394.67 184.05
-9755102.00 5135395.03 186.61
-9755103.91 5135395.04 185.48
-9755101.70 5135394.29 184.47
-9755100.89 5135394.73 185.13
-9755102.05 5135395.83 184.75
-9755101.34 5135394.72 184.51
-9755101.75 5135394.11 187.03
-9755103.73 5135394.86 186.02
-9755101.44 5135393.85 186.39
-9755101.98 5135394.06 186.80
-9755101.69 5135395.20 184.60
-9755103.52 5135395.17 185.55
-9755102.84 5135395.25 186.58
-9755103.12 5135404.95 183.45
-9755102.70 5135404.10 183.49
-9755103.16 5135404.71 183.84
-9755102.79 5135404.44 183.44
-9755102.82 5135403.74 183.93
-9755103.38 5135404.34 183.99
-9755095.12 5135410.67 181.33
-9755095.49 5135394.71 181.29
-9755098.74 5135394.70 181.40
-9755097.22 5135402.09 181.32
-9755103.19 5135393.37 185.89
-9755101.87 5135393.61 187.07
-9755101.67 5135394.08 186.37
-9755101.55 5135394.15 185.81
-9755100.88 5135393.53 184.99
-9755100.83 5135392.50 185.22
-9755102.95 5135393.45 185.34
-9755100.86 5135393.90 185.08
-9755102.04 5135392.62 185.24
-9755100.84 5135392.72 185.18
-9755104.95 5135392.75 181.54
-9755101.66 5135392.64 181.57
-9755100.82 5135391.96 185.25
-9755100.93 5135392.60 186.25
-9755102.36 5135392.46 185.39
-9755102.94 5135393.72 185.67
-9755102.88 5135392.66 186.57
-9755101.98 5135392.15 185.38
-9755102.58 5135393.73 184.16
-9755101.52 5135393.52 186.65
-9755100.94 5135394.05 184.56
-9755101.16 5135393.85 186.60
-9755102.95 5135393.31 186.58
-9755100.46 5135394.07 181.43
-9755100.79 5135393.42 184.97
-9755103.75 5135393.85 186.15
-9755100.81 5135393.56 184.67
-9755100.80 5135392.65 181.55
-9755102.17 5135393.30 186.64
-9755102.98 5135393.33 185.89
-9755102.20 5135391.87 182.15
-9755102.08 5135393.03 187.20
-9755102.90 5135393.54 185.40
-9755102.12 5135393.51 187.11
-9755102.01 5135393.01 185.46
-9755102.10 5135393.01 186.61
-9755081.81 5135414.34 182.51
-9755082.13 5135414.40 182.52
-9755086.54 5135414.44 181.45
-9755086.53 5135413.58 181.45
-9755081.56 5135414.27 182.51
-9755081.58 5135415.28 182.50
-9755081.52 5135416.75 182.50
-9755082.70 5135415.62 181.62
-9755081.53 5135416.52 181.65
-9755087.73 5135415.71 181.45
-9755088.94 5135412.38 181.42
-9755092.14 5135407.10 181.38
-9755081.87 5135406.96 182.51
-9755086.26 5135407.43 181.44
-9755083.01 5135411.58 182.52
-9755082.20 5135409.06 182.50
-9755084.83 5135410.31 181.45
-9755083.33 5135410.26 181.56
-9755081.52 5135406.42 182.49
-9755085.41 5135405.79 181.45
-9755082.19 5135412.30 182.51
-9755088.98 5135397.54 181.41
-9755088.11 5135398.83 181.45
-9755088.12 5135395.56 181.42
-9755082.27 5135394.33 182.04
-9755091.32 5135400.25 181.39
-9755081.93 5135398.38 181.66
-9755081.94 5135397.80 182.51
-9755086.65 5135400.82 181.43
-9755083.37 5135396.34 181.50
-9755082.48 5135397.67 182.53
-9755081.93 5135401.62 182.51
-9755088.08 5135399.94 181.42
-9755082.56 5135398.35 182.48
-9755091.03 5135398.45 181.39
-9755081.91 5135395.09 182.50
-9755092.24 5135405.31 181.36
-9755081.58 5135402.93 182.47
-9755088.09 5135405.00 181.42
-9755082.23 5135402.56 182.53
-9755081.88 5135404.94 182.31
-9755081.92 5135404.26 182.52
-9755092.59 5135392.54 181.35
-9755092.63 5135393.49 181.36
-9755083.14 5135393.42 181.50
-9755090.54 5135392.56 181.39
-9755085.50 5135391.36 181.47
-9755134.14 5135414.37 183.26
-9755134.12 5135414.49 182.89
-9755133.64 5135414.42 182.69
-9755133.56 5135414.36 183.21
-9755133.44 5135413.76 183.53
-9755133.17 5135413.45 183.53
-9755134.03 5135414.04 183.55
-9755132.79 5135414.20 183.55
-9755133.20 5135414.57 182.80
-9755132.59 5135413.70 183.61
-9755133.15 5135414.16 181.62
-9755133.98 5135414.69 183.51
-9755131.10 5135414.75 182.69
-9755131.85 5135414.10 181.61
-9755132.50 5135414.37 183.51
-9755131.70 5135413.75 183.57
-9755131.20 5135414.53 183.14
-9755124.27 5135415.56 181.39
-9755131.72 5135414.37 183.06
-9755126.95 5135415.31 181.39
-9755125.46 5135415.60 181.39
-9755127.52 5135414.45 181.40
-9755122.48 5135414.96 181.39
-9755126.96 5135414.11 181.40
-9755130.14 5135415.07 181.41
-9755131.68 5135414.28 183.55
-9755132.07 5135414.25 182.79
-9755131.34 5135414.72 181.52
-9755132.68 5135414.65 183.49
-9755123.72 5135414.11 181.40
-9755132.28 5135414.57 183.51
-9755127.83 5135414.13 181.40
-9755131.68 5135414.60 183.07
-9755131.33 5135414.35 183.38
-9755131.91 5135414.37 182.35
-9755126.03 5135415.26 181.39
-9755133.42 5135415.88 181.47
-9755133.98 5135417.11 181.39
-9755132.54 5135417.07 181.39
-9755121.60 5135417.29 181.36
