-9755183.88 5135410.80 183.40
-9755182.54 5135413.45 183.18
-9755177.95 5135407.87 181.44
-9755185.93 5135406.73 181.44
-9755184.97 5135413.53 182.82
-9755180.89 5135412.19 183.51
-9755183.60 5135411.38 183.42
-9755178.57 5135412.20 183.52
-9755186.81 5135412.57 183.31
-9755183.57 5135413.15 182.33
-9755182.69 5135409.64 181.43
-9755177.68 5135411.64 183.42
-9755185.38 5135407.06 181.43
-9755178.80 5135413.15 181.77
-9755175.92 5135413.44 182.38
-9755179.73 5135413.07 183.47
-9755183.95 5135413.13 183.36
-9755180.36 5135413.62 183.47
-9755184.43 5135407.32 181.43
-9755178.48 5135411.33 182.51
-9755186.54 5135410.76 182.50
-9755176.50 5135411.34 183.40
-9755178.84 5135407.61 181.45
-9755184.45 5135412.54 183.53
-9755178.56 5135412.55 183.51
-9755183.86 5135408.79 181.41
-9755176.81 5135412.48 183.45
-9755183.44 5135412.52 182.91
-9755183.74 5135413.18 182.31
-9755185.55 5135410.86 182.61
-9755176.78 5135411.31 183.39
-9755184.77 5135408.49 181.40
-9755186.85 5135409.71 181.44
-9755181.52 5135413.49 183.41
-9755181.78 5135413.70 183.31
-9755184.77 5135411.66 183.41
-9755185.31 5135410.29 181.48
-9755178.28 5135406.65 181.45
-9755185.61 5135413.59 181.74
-9755182.40 5135408.46 181.41
-9755180.03 5135411.35 183.46
-9755184.73 5135413.09 183.44
-9755177.98 5135409.04 181.41
-9755183.83 5135412.93 181.66
-9755185.93 5135411.94 183.36
-9755177.11 5135406.99 181.45
-9755181.26 5135400.71 183.23
-9755182.09 5135395.48 182.41
-9755179.24 5135396.92 181.37
-9755182.49 5135399.23 183.14
-9755185.40 5135400.76 181.58
-9755176.26 5135397.50 181.42
-9755182.71 5135395.99 182.41
-9755178.66 5135399.52 182.47
-9755179.44 5135396.89 183.04
-9755179.24 5135395.93 181.30
-9755177.43 5135399.83 182.46
-9755182.48 5135398.35 182.55
-9755178.97 5135396.28 182.67
-9755182.58 5135399.22 182.70
-9755183.02 5135400.76 181.50
-9755181.03 5135396.08 182.49
-9755177.23 5135400.32 182.33
-9755176.00 5135398.95 182.47
-9755178.94 5135396.50 182.78
-9755183.06 5135399.34 182.53
-9755182.16 5135399.52 183.20
-9755182.50 5135396.88 182.47
-9755178.62 5135399.84 182.44
-9755181.94 5135398.66 183.17
-9755179.48 5135395.71 182.47
-9755178.92 5135394.93 181.94
-9755181.30 5135398.34 183.14
-9755180.10 5135401.43 181.53
-9755183.37 5135396.67 181.32
-9755182.15 5135400.66 183.21
-9755182.74 5135398.68 182.50
-9755179.24 5135396.03 182.46
-9755179.97 5135396.21 182.52
-9755182.17 5135396.54 182.48
-9755182.65 5135398.65 183.08
-9755180.11 5135397.21 182.46
-9755178.89 5135400.39 182.31
-9755183.36 5135401.74 181.49
-9755182.46 5135395.72 182.39
-9755183.92 5135396.66 181.31
-9755178.64 5135400.50 182.31
-9755181.86 5135400.17 183.25
-9755182.72 5135400.20 181.48
-9755178.63 5135398.44 182.81
-9755178.00 5135399.53 182.49
-9755179.24 5135399.48 182.45
-9755181.35 5135399.20 183.19
-9755178.05 5135396.80 182.90
-9755177.02 5135394.79 181.30
-9755182.78 5135395.72 181.87
-9755182.70 5135400.10 183.14
-9755179.19 5135400.19 182.31
-9755181.77 5135400.90 181.37
-9755176.87 5135400.76 181.58
-9755182.74 5135399.83 182.42
-9755177.21 5135397.47 182.47
-9755180.01 5135399.94 182.45
-9755178.66 5135398.05 182.87
-9755180.48 5135396.61 182.47
-9755181.52 5135396.55 182.54
-9755181.90 5135397.49 183.06
-9755179.74 5135400.49 181.48
-9755181.33 5135395.46 182.41
-9755182.97 5135399.64 182.42
-9755182.22 5135400.96 183.15
-9755182.46 5135395.20 181.98
-9755181.87 5135395.43 182.42
-9755177.44 5135398.95 182.56
-9755176.94 5135400.08 182.34
-9755181.83 5135396.00 182.48
-9755182.76 5135400.77 181.58
-9755185.43 5135396.64 181.31
-9755181.82 5135399.79 183.23
-9755175.50 5135396.64 181.44
-9755182.15 5135398.92 183.16
-9755179.48 5135402.23 181.51
-9755178.85 5135400.50 182.11
-9755179.15 5135394.89 181.93
-9755182.43 5135395.91 181.90
-9755178.92 5135396.96 182.89
-9755183.66 5135401.97 181.48
-9755175.63 5135398.38 181.43
-9755181.01 5135397.47 183.04
-9755182.16 5135397.96 183.08
-9755177.10 5135401.98 181.56
-9755178.90 5135400.72 181.62
-9755175.64 5135399.93 181.51
-9755179.49 5135401.39 181.53
-9755181.34 5135399.82 183.24
-9755178.91 5135397.77 182.87
-9755175.56 5135395.69 182.26
-9755183.93 5135402.32 181.48
-9755183.90 5135398.46 181.37
-9755180.79 5135400.90 183.19
-9755181.74 5135401.52 182.40
-9755178.93 5135399.87 182.42
-9755182.75 5135399.01 182.51
-9755184.30 5135399.02 181.40
-9755181.87 5135399.51 183.22
-9755182.57 5135400.78 182.63
-9755178.28 5135396.61 182.90
-9755179.45 5135398.76 181.44
-9755178.90 5135398.10 182.83
-9755180.97 5135398.08 183.08
-9755182.72 5135401.26 182.33
-9755177.78 5135397.74 182.91
-9755181.86 5135397.78 183.06
-9755179.27 5135398.08 181.41
-9755183.57 5135395.16 181.26
-9755179.03 5135397.64 182.34
-9755183.39 5135398.46 181.39
-9755176.81 5135395.14 181.33
-9755185.97 5135402.28 181.46
-9755180.33 5135399.09 183.12
-9755185.08 5135399.88 181.41
-9755186.30 5135397.58 181.35
-9755182.83 5135398.08 182.48
-9755185.14 5135396.39 181.31
-9755178.03 5135398.07 182.90
-9755182.69 5135397.23 182.47
-9755182.49 5135396.55 182.47
-9755181.93 5135398.95 183.18
-9755177.79 5135401.03 181.61
-9755178.59 5135400.67 182.13
-9755177.85 5135398.54 182.81
-9755183.58 5135403.19 181.44
-9755179.75 5135405.51 181.44
-9755177.72 5135405.52 181.43
-9755183.01 5135404.05 181.41
-9755183.87 5135405.56 181.41
-9755182.42 5135404.06 181.40
-9755175.92 5135404.28 181.42
-9755180.39 5135403.15 181.46
-9755185.10 5135402.61 181.43
-9755184.51 5135402.92 181.44
-9755183.02 5135405.56 181.42
-9755176.22 5135406.12 181.44
-9755181.23 5135402.85 181.45
-9755182.09 5135405.24 181.41
-9755181.80 5135404.60 181.41
-9755180.96 5135404.66 181.42
-9755176.82 5135403.44 181.48
-9755185.11 5135405.57 181.40
-9755180.89 5135404.38 181.41
-9755179.76 5135403.75 181.46
-9755176.23 5135403.09 181.47
-9755183.63 5135404.66 181.41
-9755178.59 5135405.50 181.42
-9755179.18 5135404.32 181.42
-9755181.84 5135402.87 181.45
-9755176.80 5135404.33 181.41
-9755184.18 5135403.80 181.45
-9755179.16 5135404.92 181.43
-9755178.00 5135403.75 181.47
-9755174.07 5135413.34 183.53
-9755173.85 5135409.91 181.43
-9755175.06 5135414.02 181.82
-9755173.91 5135413.52 183.20
-9755174.70 5135412.21 183.53
-9755175.32 5135411.37 183.46
-9755174.65 5135413.89 182.86
-9755174.74 5135413.07 183.49
-9755174.38 5135412.54 183.61
-9755174.99 5135411.03 183.38
-9755174.97 5135413.59 182.55
-9755174.79 5135411.09 181.55
-9755175.46 5135399.53 181.51
-9755174.74 5135401.00 182.30
-9755173.90 5135399.84 182.42
-9755175.08 5135400.13 182.42
-9755175.11 5135398.31 182.84
-9755175.34 5135401.37 181.57
-9755174.74 5135400.09 182.44
-9755175.11 5135395.69 182.30
-9755174.48 5135395.70 182.33
-9755173.87 5135401.28 182.06
-9755174.42 5135402.29 181.56
-9755175.22 5135395.60 181.86
-9755174.26 5135398.63 182.81
-9755175.08 5135395.03 181.32
-9755175.42 5135401.03 181.58
-9755175.46 5135396.96 181.43
-9755175.16 5135395.99 182.34
-9755175.46 5135398.14 181.44
-9755175.08 5135400.79 182.31
-9755174.47 5135400.42 182.40
-9755175.36 5135398.96 181.44
-9755175.43 5135403.11 181.48
-9755175.30 5135404.92 181.43
-9755173.91 5135402.51 181.53
-9755174.42 5135403.43 181.49
-9755184.00 5135394.34 181.23
-9755186.88 5135394.32 181.27
-9755186.23 5135391.63 181.18
-9755183.64 5135392.80 181.16
-9755178.69 5135393.71 181.21
-9755180.41 5135393.43 181.13
-9755182.14 5135394.29 181.19
-9755185.42 5135393.45 181.21
-9755186.03 5135393.67 181.22
-9755180.71 5135394.03 181.17
-9755176.08 5135393.68 181.29
-9755182.52 5135391.93 181.09
-9755183.98 5135391.69 181.14
-9755184.85 5135394.35 181.23
-9755183.06 5135393.11 181.14
-9755179.25 5135394.04 181.20
-9755176.86 5135394.18 181.28
-9755181.59 5135391.93 181.07
-9755176.03 5135391.34 181.21
-9755181.85 5135393.95 181.16
-9755178.36 5135392.79 181.17
-9755175.11 5135393.67 181.31
-9755174.58 5135392.85 181.29
-9755175.06 5135394.27 181.32
-9755174.30 5135391.87 181.27
-9755163.96 5135414.23 182.33
-9755164.77 5135414.12 182.72
-9755170.55 5135414.33 181.93
-9755169.52 5135413.99 183.27
-9755173.16 5135415.78 182.51
-9755164.41 5135413.85 183.48
-9755166.74 5135414.92 182.11
-9755170.84 5135413.76 183.27
-9755173.50 5135414.99 182.26
-9755171.97 5135413.72 182.66
-9755173.18 5135414.04 181.86
-9755173.20 5135413.81 183.35
-9755165.53 5135413.64 183.24
-9755166.76 5135414.05 181.77
-9755166.44 5135413.89 182.33
-9755165.33 5135413.92 183.45
-9755167.88 5135413.65 183.03
-9755167.37 5135414.54 181.93
-9755172.05 5135414.94 182.12
-9755165.84 5135414.33 181.88
-9755172.59 5135414.10 182.52
-9755169.12 5135414.85 182.09
-9755171.86 5135413.95 183.11
-9755167.83 5135413.78 182.78
-9755165.16 5135414.22 182.53
-9755165.27 5135415.76 182.44
-9755168.23 5135414.89 182.11
-9755167.04 5135413.66 182.77
-9755166.34 5135414.33 182.73
-9755170.23 5135413.77 182.51
-9755164.99 5135413.86 183.46
-9755173.23 5135414.98 182.12
-9755165.01 5135413.94 182.66
-9755165.89 5135413.85 182.46
-9755169.67 5135413.70 183.40
-9755166.36 5135413.70 183.04
-9755169.41 5135414.37 181.95
-9755167.92 5135415.78 182.45
-9755164.48 5135413.93 182.81
-9755164.11 5135415.72 182.46
-9755169.71 5135416.66 182.58
-9755168.81 5135417.27 182.54
-9755160.31 5135414.13 182.22
-9755162.03 5135413.86 183.51
-9755163.50 5135414.86 182.14
-9755162.90 5135413.91 182.69
-9755164.06 5135414.23 183.36
-9755163.76 5135414.38 183.29
-9755161.43 5135414.29 182.31
-9755161.41 5135413.87 183.64
-9755160.86 5135414.16 182.95
-9755163.19 5135413.65 183.36
-9755160.81 5135414.84 182.11
-9755161.70 5135414.14 183.36
-9755161.20 5135413.93 182.67
-9755159.94 5135413.86 182.75
-9755162.91 5135414.55 181.98
-9755160.43 5135413.79 182.32
-9755162.38 5135416.04 182.54
-9755160.01 5135414.08 183.44
-9755160.24 5135413.82 183.54
-9755163.84 5135413.35 183.62
-9755162.09 5135413.91 182.81
-9755160.29 5135413.26 183.61
-9755158.15 5135413.81 183.63
-9755157.86 5135414.82 182.08
-9755159.32 5135414.82 182.05
-9755157.61 5135413.84 183.59
-9755156.42 5135414.21 182.76
-9755158.77 5135414.53 181.94
-9755159.07 5135414.88 182.12
-9755158.18 5135413.90 182.77
-9755157.94 5135414.26 181.85
-9755159.66 5135413.91 183.54
-9755158.80 5135413.88 183.53
-9755157.01 5135416.02 182.46
-9755158.01 5135414.19 183.23
-9755158.26 5135413.89 182.40
-9755157.29 5135414.80 182.06
-9755157.37 5135414.24 182.54
-9755162.31 5135416.92 182.57
-9755158.13 5135417.17 182.49
-9755157.55 5135417.15 182.50
-9755156.25 5135413.82 182.71
-9755155.83 5135413.73 182.96
-9755154.04 5135413.88 182.91
-9755150.03 5135413.90 183.06
-9755153.76 5135414.19 183.33
-9755155.74 5135413.74 183.13
-9755154.27 5135413.89 182.30
-9755152.59 5135414.23 182.72
-9755151.33 5135414.17 182.89
-9755150.50 5135413.81 183.54
-9755148.17 5135413.88 183.46
-9755150.11 5135414.34 183.14
-9755151.71 5135413.85 183.58
-9755150.47 5135414.22 183.32
-9755147.22 5135414.16 183.33
-9755152.02 5135413.80 183.53
-9755152.64 5135413.86 183.53
-9755151.21 5135413.84 183.22
-9755156.44 5135413.87 183.59
-9755153.22 5135413.85 183.53
-9755156.39 5135415.70 182.38
-9755155.60 5135414.26 182.90
-9755150.46 5135413.90 182.94
-9755149.06 5135414.28 182.30
-9755150.74 5135413.87 182.05
-9755152.50 5135413.82 183.85
-9755151.06 5135414.17 183.40
-9755153.15 5135414.10 182.30
-9755147.60 5135414.11 182.61
-9755152.23 5135414.00 182.43
-9755146.86 5135414.24 182.57
-9755147.00 5135413.85 183.47
-9755150.55 5135414.16 182.06
-9755149.13 5135413.94 181.65
-9755154.25 5135414.21 183.24
-9755155.79 5135414.10 183.48
-9755148.55 5135413.91 183.26
-9755152.36 5135414.23 183.35
-9755150.31 5135414.00 183.91
-9755146.77 5135413.94 182.68
-9755149.88 5135415.08 181.93
-9755147.27 5135415.65 182.22
-9755148.51 5135413.95 183.40
-9755151.37 5135413.81 183.58
-9755149.91 5135413.94 182.44
-9755152.54 5135413.86 182.36
-9755148.79 5135415.61 182.15
-9755152.58 5135415.71 182.28
-9755147.54 5135414.54 181.79
-9755149.81 5135413.73 181.80
-9755149.04 5135414.15 183.59
-9755153.18 5135417.14 182.55
-9755155.52 5135417.19 182.51
-9755147.90 5135416.52 182.47
-9755149.68 5135417.17 182.51
-9755173.74 5135413.89 182.22
-9755173.47 5135413.89 183.20
-9755173.57 5135413.09 183.55
-9755173.33 5135413.46 181.76
-9755172.07 5135413.68 183.51
-9755170.80 5135413.46 182.45
-9755168.23 5135413.69 183.43
-9755173.53 5135410.53 181.55
-9755167.07 5135411.25 183.32
-9755166.53 5135413.73 182.87
-9755171.13 5135413.73 182.40
-9755167.11 5135411.83 183.32
-9755172.32 5135413.38 181.76
-9755173.53 5135409.01 181.42
-9755171.82 5135412.46 183.60
-9755167.91 5135411.30 183.35
-9755164.37 5135413.02 183.55
-9755166.20 5135413.91 183.47
-9755166.59 5135412.72 181.78
-9755170.24 5135413.72 181.77
-9755168.00 5135413.45 182.66
-9755172.93 5135411.04 183.44
-9755172.69 5135411.84 183.54
-9755167.86 5135412.46 183.54
-9755173.57 5135406.72 181.45
-9755168.78 5135407.79 181.43
-9755170.25 5135413.59 182.92
-9755171.77 5135411.90 183.53
-9755167.35 5135409.59 181.41
-9755172.08 5135411.25 183.47
-9755168.21 5135413.07 183.51
-9755166.47 5135413.39 183.51
-9755172.35 5135410.99 183.44
-9755173.51 5135408.46 181.43
-9755170.58 5135410.47 183.35
-9755168.54 5135412.45 183.43
-9755164.91 5135410.79 182.76
-9755165.02 5135407.46 181.45
-9755172.01 5135413.35 183.54
-9755164.10 5135411.29 183.39
-9755170.57 5135411.60 183.45
-9755166.50 5135406.84 181.45
-9755166.73 5135408.96 181.44
-9755164.44 5135412.72 183.52
-9755171.49 5135412.47 183.63
-9755169.49 5135413.39 181.76
-9755171.37 5135413.43 182.37
-9755172.35 5135413.39 183.53
-9755169.44 5135413.65 183.44
-9755170.56 5135413.62 182.45
-9755165.60 5135411.86 183.42
-9755171.20 5135407.52 181.44
-9755171.19 5135409.05 181.42
-9755169.67 5135413.51 182.84
-9755172.96 5135407.26 181.44
-9755164.71 5135412.14 183.50
-9755169.15 5135412.52 183.48
-9755171.49 5135413.09 183.55
-9755168.81 5135410.97 183.39
-9755167.96 5135410.19 181.46
-9755165.33 5135413.44 181.95
-9755164.03 5135412.38 183.60
-9755166.20 5135411.82 183.35
-9755166.15 5135412.44 183.37
-9755164.13 5135411.84 183.53
-9755172.34 5135407.28 181.45
-9755165.01 5135409.00 181.43
-9755164.68 5135411.88 183.41
-9755165.04 5135411.29 183.36
-9755168.57 5135411.78 182.68
-9755171.96 5135413.35 182.56
-9755167.59 5135410.77 183.28
-9755166.12 5135412.16 183.40
-9755173.54 5135411.87 183.56
-9755173.56 5135406.35 181.43
-9755167.05 5135409.33 181.42
-9755173.01 5135406.93 181.44
-9755166.40 5135412.43 183.41
-9755173.26 5135409.32 181.41
-9755166.21 5135410.46 181.51
-9755172.39 5135412.51 183.59
-9755171.79 5135413.05 183.58
-9755167.35 5135410.48 183.22
-9755166.19 5135413.59 183.54
-9755172.93 5135407.87 181.45
-9755170.27 5135412.49 183.51
-9755164.73 5135412.14 182.87
-9755168.84 5135409.90 181.42
-9755172.79 5135413.41 182.67
-9755164.36 5135410.46 183.36
-9755169.11 5135410.67 183.41
-9755169.38 5135410.64 183.40
-9755169.39 5135413.44 182.76
-9755172.37 5135412.41 181.51
-9755172.66 5135410.71 183.44
-9755165.03 5135411.81 183.41
-9755162.40 5135413.96 183.40
-9755163.55 5135412.40 183.57
-9755163.21 5135413.61 183.64
-9755160.84 5135413.04 183.57
-9755158.77 5135413.58 183.59
-9755160.82 5135413.87 183.42
-9755162.71 5135410.64 183.37
-9755162.36 5135413.49 181.80
-9755158.57 5135413.37 181.73
-9755160.83 5135411.24 183.34
-9755163.19 5135412.71 183.59
-9755162.04 5135409.59 181.44
-9755161.09 5135412.45 183.54
-9755161.76 5135413.26 183.60
-9755162.34 5135412.70 183.60
-9755161.43 5135407.77 181.46
-9755162.34 5135411.25 183.41
-9755162.90 5135413.60 182.50
-9755160.71 5135410.77 183.35
-9755162.98 5135412.72 183.56
-9755162.04 5135412.97 183.66
-9755160.87 5135409.83 181.43
-9755163.83 5135407.81 181.45
-9755161.46 5135406.32 181.46
-9755163.24 5135408.36 181.45
-9755160.87 5135410.45 181.53
-9755162.36 5135410.96 183.41
-9755161.17 5135410.89 183.36
-9755163.47 5135412.08 183.46
-9755162.86 5135410.11 181.45
-9755163.17 5135413.00 183.59
-9755162.90 5135412.14 183.49
-9755160.59 5135406.91 181.47
-9755162.94 5135411.26 183.43
-9755158.16 5135413.27 183.53
-9755160.01 5135409.24 181.44
-9755159.10 5135407.46 181.46
-9755158.79 5135406.87 181.46
-9755157.33 5135413.35 183.66
-9755160.03 5135408.64 181.45
-9755156.68 5135410.75 183.40
-9755159.70 5135412.42 183.48
-9755157.62 5135413.00 183.64
-9755159.08 5135410.40 181.50
-9755159.42 5135406.83 181.46
-9755156.67 5135412.49 182.87
-9755158.25 5135411.52 183.45
-9755159.67 5135410.72 183.31
-9755156.76 5135411.50 183.43
-9755159.11 5135410.13 181.43
-9755158.17 5135411.81 183.51
-9755157.00 5135408.35 181.46
-9755157.86 5135412.98 183.59
-9755157.08 5135412.70 183.62
-9755159.08 5135411.51 183.41
-9755157.94 5135406.54 181.45
-9755157.92 5135407.17 181.47
-9755158.82 5135407.80 181.46
-9755158.26 5135406.84 181.45
-9755159.11 5135412.11 183.48
-9755159.36 5135410.41 181.52
-9755173.90 5135395.65 182.34
-9755173.83 5135396.46 182.37
-9755171.31 5135395.64 182.42
-9755172.18 5135395.17 181.39
-9755173.67 5135394.83 181.36
-9755173.61 5135395.17 181.32
-9755166.56 5135399.58 181.49
-9755165.69 5135394.74 181.43
-9755171.25 5135396.06 182.40
-9755164.27 5135398.33 181.48
-9755165.65 5135401.59 182.39
-9755171.86 5135400.11 182.38
-9755168.57 5135396.62 181.43
-9755171.74 5135398.31 182.82
-9755165.02 5135400.70 181.51
-9755171.35 5135398.87 182.79
-9755172.08 5135398.90 181.48
-9755165.59 5135401.65 181.56
-9755172.13 5135400.90 182.26
-9755165.65 5135399.57 181.49
-9755171.89 5135399.24 181.51
-9755164.47 5135402.37 183.72
-9755171.88 5135398.56 182.79
-9755167.10 5135394.55 181.40
-9755172.16 5135397.93 182.50
-9755167.36 5135399.23 181.47
-9755167.16 5135398.30 181.45
-9755165.06 5135395.10 181.43
-9755173.03 5135399.90 181.51
-9755167.17 5135396.53 181.44
-9755172.12 5135396.88 181.43
-9755173.02 5135402.19 181.56
-9755173.57 5135401.64 181.55
-9755172.31 5135400.63 182.30
-9755166.54 5135395.12 181.42
-9755171.20 5135401.28 182.28
-9755172.26 5135400.91 182.04
-9755165.24 5135401.48 183.57
-9755164.21 5135400.95 181.51
-9755166.48 5135396.88 181.44
-9755164.16 5135397.42 181.48
-9755172.16 5135398.26 182.04
-9755166.55 5135397.46 181.45
-9755171.58 5135395.94 182.42
-9755173.00 5135401.03 181.54
-9755168.95 5135401.03 181.57
-9755170.41 5135395.25 182.67
-9755172.18 5135401.34 182.04
-9755164.78 5135394.52 181.44
-9755166.78 5135400.06 181.50
-9755170.82 5135401.40 181.99
-9755167.96 5135397.40 181.46
-9755167.43 5135399.78 181.49
-9755164.81 5135395.67 181.44
-9755169.50 5135399.26 181.47
-9755172.17 5135397.80 181.41
-9755164.42 5135401.79 183.72
-9755172.31 5135399.34 182.37
-9755168.62 5135399.22 181.48
-9755173.21 5135398.40 182.46
-9755172.75 5135395.99 181.39
-9755173.58 5135401.00 182.21
-9755168.32 5135396.94 181.44
-9755167.09 5135404.00 181.45
-9755171.18 5135403.05 181.46
-9755168.83 5135404.89 181.41
-9755168.26 5135405.73 181.41
-9755165.60 5135403.95 181.48
-9755173.60 5135404.34 181.41
-9755173.01 5135406.04 181.43
-9755172.10 5135403.13 181.48
-9755167.09 5135403.11 181.47
-9755167.64 5135405.08 181.41
-9755169.73 5135405.49 181.41
-9755164.14 5135405.12 181.42
-9755165.30 5135402.30 183.60
-9755172.11 5135404.05 181.43
-9755164.10 5135403.93 181.49
-9755173.03 5135402.59 181.53
-9755171.52 5135403.93 181.48
-9755167.98 5135403.96 181.45
-9755169.74 5135404.33 181.40
-9755168.82 5135403.08 181.46
-9755164.99 5135403.97 181.48
-9755169.74 5135403.07 181.44
-9755166.83 5135404.20 181.43
-9755170.99 5135402.76 181.52
-9755164.22 5135395.08 181.44
-9755159.84 5135401.05 182.44
-9755163.88 5135402.12 183.72
-9755161.53 5135400.74 182.37
-9755161.29 5135400.37 181.67
-9755159.97 5135401.49 181.91
-9755161.27 5135397.61 184.08
-9755162.12 5135400.39 181.53
-9755160.68 5135396.38 184.04
-9755160.93 5135400.98 181.64
-9755161.57 5135396.99 184.06
-9755161.58 5135395.80 184.05
-9755161.27 5135395.80 184.05
-9755162.69 5135402.37 181.61
-9755160.92 5135400.25 184.09
-9755161.56 5135394.90 184.06
-9755161.99 5135398.80 182.44
-9755163.61 5135401.81 183.72
-9755162.41 5135401.58 181.52
-9755162.03 5135398.35 182.46
-9755162.69 5135401.85 181.75
-9755162.08 5135400.29 184.07
-9755162.45 5135402.06 181.76
-9755160.68 5135397.00 184.07
-9755161.26 5135398.76 184.10
-9755160.39 5135395.79 184.06
-9755159.78 5135397.30 184.08
-9755160.32 5135401.85 182.23
-9755162.11 5135396.39 184.04
-9755162.16 5135399.46 184.07
-9755161.82 5135398.00 181.66
-9755160.65 5135398.15 184.09
-9755161.82 5135396.70 181.80
-9755160.64 5135402.37 182.21
-9755162.42 5135394.45 181.46
-9755162.00 5135396.84 183.39
-9755161.57 5135400.24 184.08
-9755160.33 5135400.93 182.42
-9755160.10 5135401.47 181.69
-9755160.82 5135400.80 182.44
-9755160.38 5135394.86 184.08
-9755162.06 5135396.71 182.18
-9755161.18 5135401.72 181.57
-9755160.23 5135401.80 181.95
-9755160.34 5135400.57 184.07
-9755162.08 5135394.94 183.06
-9755160.71 5135396.13 184.04
-9755163.31 5135396.78 181.46
-9755162.35 5135398.49 184.00
-9755161.00 5135400.86 182.30
-9755162.37 5135400.67 181.52
-9755163.34 5135400.64 181.53
-9755160.34 5135399.66 184.09
-9755160.64 5135397.87 184.09
-9755162.69 5135396.55 181.46
-9755162.18 5135395.35 181.48
-9755161.85 5135398.22 181.86
-9755161.52 5135397.68 181.41
-9755161.80 5135399.16 181.62
-9755161.82 5135395.96 182.45
-9755160.41 5135394.65 184.09
-9755161.60 5135397.47 181.47
-9755160.37 5135399.05 184.09
-9755162.10 5135397.13 182.14
-9755161.77 5135400.05 181.56
-9755161.23 5135401.82 182.21
-9755161.88 5135395.92 181.51
-9755160.06 5135396.14 184.04
-9755159.19 5135401.55 182.33
-9755159.15 5135401.77 182.33
-9755159.17 5135397.84 184.08
-9755159.98 5135401.54 182.41
-9755157.40 5135401.54 181.45
-9755159.48 5135402.34 182.31
-9755158.63 5135397.25 184.08
-9755158.90 5135396.36 184.07
-9755157.10 5135395.04 181.42
-9755158.28 5135395.60 184.10
-9755159.10 5135400.87 181.92
-9755160.01 5135402.46 182.39
-9755157.38 5135400.65 181.44
-9755158.34 5135400.22 182.53
-9755159.49 5135396.69 184.06
-9755158.85 5135395.20 184.07
-9755158.23 5135401.15 182.56
-9755158.34 5135401.15 182.23
-9755158.34 5135399.05 184.19
-9755159.78 5135400.90 184.10
-9755159.18 5135396.70 184.06
-9755159.16 5135400.79 184.11
-9755158.26 5135399.75 182.61
-9755163.00 5135404.23 181.44
-9755161.26 5135402.75 182.20
-9755162.09 5135403.34 181.49
-9755160.89 5135403.26 181.48
-9755160.58 5135405.72 181.44
-9755161.73 5135403.22 182.19
-9755162.26 5135402.16 181.95
-9755161.52 5135402.91 183.52
-9755163.82 5135406.00 181.44
-9755161.83 5135402.65 182.21
-9755159.98 5135403.05 181.48
-9755163.84 5135403.06 181.48
-9755160.08 5135402.67 182.19
-9755160.28 5135402.74 182.16
-9755162.70 5135405.11 181.42
-9755158.25 5135405.67 181.44
-9755159.41 5135405.96 181.45
-9755158.82 5135403.03 181.49
-9755159.23 5135402.43 181.65
-9755157.08 5135403.33 181.47
-9755157.11 5135405.40 181.44
-9755158.83 5135403.93 181.51
-9755157.04 5135404.48 181.44
-9755159.73 5135402.99 181.49
-9755157.44 5135402.45 181.48
-9755157.65 5135405.07 181.44
-9755151.45 5135412.07 183.52
-9755147.56 5135410.94 183.36
-9755150.22 5135413.92 182.95
-9755150.52 5135413.24 183.61
-9755149.36 5135411.82 183.45
-9755149.69 5135413.93 181.66
-9755152.28 5135413.29 183.53
-9755151.77 5135407.44 181.46
-9755152.00 5135411.50 183.46
-9755151.42 5135413.57 183.58
-9755150.49 5135409.82 181.43
-9755153.54 5135410.69 181.51
-9755146.71 5135413.52 183.58
-9755152.86 5135413.55 183.51
-9755149.21 5135413.27 183.37
-9755149.94 5135412.65 183.50
-9755155.85 5135411.23 183.40
-9755154.87 5135413.65 181.71
-9755147.27 5135412.95 183.52
-9755153.21 5135412.95 183.50
-9755153.20 5135412.70 183.51
-9755152.56 5135412.37 183.51
-9755148.77 5135411.79 183.45
-9755147.60 5135410.92 181.51
-9755151.78 5135408.29 181.45
-9755152.35 5135407.78 181.47
-9755153.51 5135406.85 181.46
-9755152.93 5135408.93 181.45
-9755154.92 5135412.98 183.57
-9755152.37 5135408.32 181.45
-9755152.89 5135412.07 183.45
-9755154.95 5135412.42 183.57
-9755154.13 5135410.97 181.52
-9755147.91 5135411.70 183.44
-9755147.58 5135409.17 181.43
-9755153.75 5135411.22 183.44
-9755155.57 5135412.68 183.62
-9755153.04 5135412.17 182.75
-9755154.66 5135409.22 181.45
-9755153.76 5135410.12 181.44
-9755148.19 5135408.63 181.44
-9755153.78 5135409.24 181.45
-9755148.50 5135412.63 183.47
-9755153.20 5135411.27 182.76
-9755147.93 5135406.51 181.45
-9755154.11 5135410.66 183.44
-9755148.74 5135413.94 181.68
-9755151.46 5135410.41 181.46
-9755155.86 5135412.68 183.61
-9755148.33 5135413.53 181.63
-9755150.83 5135412.94 183.54
-9755147.34 5135407.05 181.45
-9755157.11 5135396.20 181.45
-9755156.78 5135400.05 181.43
-9755148.18 5135394.50 192.20
-9755147.67 5135398.20 188.29
-9755150.00 5135394.92 188.53
-9755147.47 5135396.14 189.11
-9755147.53 5135395.70 191.31
-9755147.50 5135399.03 187.82
-9755148.68 5135396.05 189.31
-9755147.19 5135396.89 189.92
-9755147.93 5135400.28 181.43
-9755149.04 5135395.32 191.12
-9755148.52 5135396.96 187.52
-9755150.88 5135398.23 181.49
-9755147.89 5135395.90 181.50
-9755147.05 5135396.06 190.32
-9755149.53 5135394.76 191.69
-9755149.49 5135395.54 189.14
-9755146.89 5135395.34 191.70
-9755147.44 5135394.41 181.54
-9755150.92 5135394.39 188.36
-9755148.88 5135396.34 189.31
-9755148.17 5135395.84 188.81
-9755155.63 5135399.76 181.44
-9755147.77 5135394.41 192.34
-9755149.17 5135394.35 181.56
-9755147.43 5135395.76 181.51
-9755155.94 5135396.80 181.45
-9755147.46 5135397.68 188.17
-9755150.11 5135394.61 190.43
-9755151.30 5135394.31 188.93
-9755150.93 5135394.29 189.63
-9755150.06 5135394.66 188.91
-9755149.18 5135396.03 187.02
-9755147.68 5135396.73 181.51
-9755147.92 5135398.21 181.47
-9755147.98 5135395.80 189.17
-9755153.28 5135398.52 181.47
-9755148.24 5135395.82 188.06
-9755149.15 5135396.12 188.78
-9755148.65 5135395.99 185.10
-9755146.83 5135396.89 191.14
-9755148.37 5135396.58 189.19
-9755150.40 5135395.22 188.62
-9755150.08 5135394.94 188.85
-9755150.25 5135395.86 186.02
-9755147.49 5135396.16 191.41
-9755150.91 5135399.16 181.45
-9755154.73 5135399.13 181.44
-9755148.40 5135396.41 189.69
-9755148.68 5135396.07 188.78
-9755147.99 5135396.19 181.51
-9755147.40 5135396.65 189.74
-9755155.37 5135397.36 181.45
-9755148.35 5135397.26 188.84
-9755149.27 5135395.66 189.28
-9755149.27 5135394.48 191.18
-9755148.92 5135397.63 188.58
-9755147.98 5135397.34 181.50
-9755150.32 5135396.77 181.51
-9755148.81 5135394.97 181.52
-9755153.28 5135397.37 181.49
-9755147.13 5135396.38 190.02
-9755149.57 5135394.52 190.88
-9755149.47 5135395.19 190.95
-9755148.96 5135395.82 188.68
-9755146.81 5135397.32 190.66
-9755148.97 5135395.48 189.67
-9755147.55 5135396.03 190.33
-9755150.10 5135395.18 188.99
-9755147.35 5135397.56 189.31
-9755150.34 5135394.60 190.09
-9755155.90 5135396.16 181.47
-9755147.96 5135398.11 188.50
-9755147.36 5135395.72 189.78
-9755148.62 5135396.08 189.71
-9755149.55 5135395.96 189.56
-9755148.09 5135395.37 191.35
-9755147.40 5135397.32 188.14
-9755149.01 5135397.19 188.58
-9755148.26 5135395.79 181.50
-9755147.72 5135397.44 186.50
-9755147.10 5135396.22 191.06
-9755153.26 5135399.44 181.45
-9755148.58 5135396.07 187.79
-9755148.95 5135396.35 189.69
-9755148.01 5135396.44 189.71
-9755148.33 5135397.09 186.12
-9755149.56 5135395.16 190.28
-9755148.68 5135396.36 190.03
-9755153.01 5135395.01 181.51
-9755147.21 5135398.77 186.73
-9755148.12 5135396.10 189.67
-9755148.33 5135395.66 189.32
-9755148.62 5135396.64 188.21
-9755152.11 5135397.33 181.49
-9755150.63 5135398.84 181.46
-9755147.51 5135397.21 190.91
-9755147.13 5135397.64 188.22
-9755146.88 5135398.28 191.43
-9755150.46 5135394.89 189.63
-9755149.29 5135395.16 191.01
-9755151.44 5135397.04 181.51
-9755153.82 5135400.06 181.44
-9755150.39 5135395.46 186.02
-9755148.02 5135396.09 190.97
-9755147.21 5135398.38 189.12
-9755146.87 5135396.26 191.45
-9755147.09 5135397.55 190.60
-9755149.30 5135395.65 191.04
-9755148.38 5135396.33 185.70
-9755150.77 5135394.64 188.92
-9755149.22 5135396.74 188.53
-9755149.17 5135399.71 181.43
-9755147.80 5135395.28 190.77
-9755147.17 5135398.20 189.19
-9755146.79 5135398.16 190.07
-9755148.08 5135397.47 189.56
-9755147.54 5135396.67 189.54
-9755148.25 5135397.90 188.22
-9755150.77 5135394.86 188.81
-9755148.07 5135396.63 189.99
-9755151.79 5135400.91 181.42
-9755153.85 5135395.89 181.50
-9755147.13 5135395.40 191.42
-9755149.17 5135397.65 181.51
-9755146.73 5135395.01 191.35
-9755148.13 5135397.70 189.17
-9755148.03 5135397.09 189.86
-9755148.09 5135397.45 185.97
-9755149.23 5135395.43 189.62
-9755146.90 5135395.66 191.75
-9755148.92 5135396.07 189.70
-9755149.16 5135395.36 191.67
-9755149.13 5135396.34 188.67
-9755147.48 5135398.44 189.13
-9755148.97 5135394.70 192.44
-9755149.55 5135394.76 190.86
-9755149.16 5135396.23 181.54
-9755150.01 5135394.35 190.87
-9755152.09 5135394.35 181.61
-9755151.49 5135394.39 181.55
-9755148.47 5135396.11 188.07
-9755148.92 5135396.06 188.03
-9755149.31 5135395.31 187.25
-9755147.97 5135395.72 190.42
-9755149.16 5135395.26 181.52
-9755150.09 5135394.58 190.20
-9755147.63 5135395.79 189.95
-9755147.45 5135397.50 191.20
-9755149.86 5135394.72 192.45
-9755152.39 5135396.54 181.49
-9755147.08 5135394.32 192.78
-9755152.36 5135399.71 181.45
-9755149.51 5135394.94 188.29
-9755146.69 5135398.61 186.95
-9755147.94 5135395.98 188.42
-9755148.30 5135398.15 188.20
-9755153.90 5135395.03 181.48
-9755149.50 5135395.60 190.98
-9755152.38 5135400.64 181.43
-9755148.37 5135395.83 191.15
-9755147.64 5135399.13 181.44
-9755154.47 5135398.29 181.44
-9755150.15 5135394.35 192.38
-9755148.96 5135396.42 188.25
-9755148.82 5135399.40 181.45
-9755150.30 5135402.39 181.50
-9755147.11 5135398.05 190.83
-9755146.88 5135397.45 191.18
-9755146.79 5135394.45 192.89
-9755152.42 5135394.66 181.55
-9755148.83 5135398.18 181.48
-9755148.00 5135395.32 181.49
-9755149.05 5135395.08 191.20
-9755146.91 5135396.00 191.66
-9755146.64 5135394.67 192.13
-9755149.17 5135394.51 192.37
-9755146.67 5135397.61 189.47
-9755151.02 5135394.93 188.61
-9755148.09 5135396.47 188.49
-9755147.73 5135395.75 190.38
-9755156.25 5135402.40 181.45
-9755153.81 5135403.01 181.47
-9755153.23 5135404.47 181.46
-9755151.73 5135405.09 181.44
-9755156.15 5135405.66 181.45
-9755150.83 5135405.62 181.44
-9755153.83 5135405.07 181.44
-9755147.34 5135405.90 181.43
-9755154.75 5135403.02 181.43
-9755150.30 5135404.81 181.44
-9755154.42 5135404.76 181.44
-9755150.26 5135405.68 181.45
-9755147.92 5135404.71 181.44
-9755173.60 5135392.73 181.31
-9755173.34 5135391.86 181.28
-9755171.30 5135393.95 181.34
-9755172.74 5135394.19 181.35
-9755171.87 5135391.87 181.32
-9755172.17 5135393.91 181.35
-9755168.98 5135392.12 181.35
-9755171.02 5135393.64 181.37
-9755168.62 5135391.57 181.36
-9755166.32 5135393.57 181.39
-9755165.62 5135391.48 181.40
-9755172.77 5135392.42 181.30
-9755170.68 5135393.58 181.39
-9755164.15 5135394.13 181.43
-9755164.19 5135393.55 181.41
-9755173.10 5135391.59 181.30
-9755169.87 5135391.54 181.34
-9755160.64 5135392.39 181.47
-9755161.82 5135393.58 181.47
-9755163.06 5135392.09 181.44
-9755163.63 5135391.80 181.43
-9755161.55 5135393.84 181.47
-9755158.08 5135391.16 181.53
-9755157.72 5135391.72 181.53
-9755158.57 5135392.62 181.52
-9755160.38 5135392.66 181.48
-9755159.52 5135391.20 181.49
-9755157.42 5135391.17 181.55
-9755158.33 5135393.24 181.52
-9755157.17 5135393.46 181.51
-9755156.82 5135392.67 181.53
-9755159.18 5135391.46 181.51
-9755159.19 5135391.83 181.52
-9755157.16 5135393.24 181.52
-9755151.38 5135391.83 192.13
-9755149.27 5135391.83 193.07
-9755151.00 5135391.18 188.12
-9755151.34 5135391.09 188.85
-9755151.01 5135392.76 190.94
-9755147.38 5135393.03 193.13
-9755150.76 5135392.81 191.64
-9755150.52 5135394.14 192.08
-9755148.67 5135391.75 193.30
-9755150.70 5135392.78 191.31
-9755150.08 5135392.99 193.14
-9755147.60 5135392.43 193.81
-9755149.94 5135393.03 191.24
-9755146.93 5135394.18 191.95
-9755148.37 5135393.01 192.61
-9755147.21 5135392.35 193.39
-9755147.54 5135393.72 192.08
-9755148.91 5135391.18 191.84
-9755150.66 5135392.70 190.91
-9755148.84 5135391.14 193.61
-9755147.47 5135393.30 193.05
-9755148.68 5135392.38 192.96
-9755148.47 5135391.99 194.00
-9755151.09 5135392.47 192.31
-9755148.67 5135393.56 192.66
-9755148.69 5135392.36 192.55
-9755148.71 5135391.48 192.65
-9755149.98 5135393.43 192.91
-9755148.79 5135391.95 192.52
-9755148.45 5135392.37 193.05
-9755147.54 5135392.04 194.11
-9755150.72 5135392.11 192.14
-9755147.21 5135392.00 194.61
-9755149.21 5135391.51 191.61
-9755147.89 5135391.56 193.00
-9755149.00 5135391.69 194.27
-9755148.05 5135392.99 193.23
-9755150.38 5135393.25 192.47
-9755147.19 5135391.07 194.75
-9755150.35 5135393.69 192.56
-9755148.43 5135391.73 193.25
-9755148.61 5135394.00 192.80
-9755148.07 5135392.56 193.65
-9755150.04 5135393.65 190.02
-9755147.18 5135392.81 193.35
-9755149.79 5135392.66 192.71
-9755148.08 5135392.96 192.68
-9755150.79 5135393.92 190.95
-9755149.27 5135391.72 191.36
-9755148.90 5135392.04 193.93
-9755150.94 5135391.91 189.20
-9755152.18 5135392.04 192.16
-9755153.84 5135393.59 181.58
-9755148.10 5135391.43 193.99
-9755151.26 5135394.26 188.64
-9755152.14 5135392.30 190.20
-9755150.00 5135393.99 191.73
-9755149.82 5135391.46 192.46
-9755149.78 5135391.09 190.99
-9755151.40 5135391.22 192.69
-9755149.22 5135391.25 191.52
-9755148.75 5135392.53 193.89
-9755149.30 5135391.44 193.21
-9755146.94 5135393.21 193.52
-9755149.00 5135391.73 192.07
-9755150.41 5135394.09 191.28
-9755151.82 5135393.51 191.52
-9755155.40 5135392.61 181.56
-9755150.43 5135393.62 191.27
-9755149.47 5135391.68 181.61
-9755150.51 5135393.52 187.78
-9755148.69 5135391.11 194.14
-9755148.45 5135392.51 191.51
-9755150.36 5135391.26 190.83
-9755151.85 5135392.70 190.06
-9755151.34 5135392.60 193.23
-9755151.71 5135392.71 190.90
-9755150.81 5135393.80 190.20
-9755151.60 5135392.60 181.63
-9755150.82 5135391.63 191.28
-9755150.37 5135391.69 181.63
-9755150.65 5135391.23 189.85
-9755146.75 5135392.30 193.96
-9755151.27 5135391.94 188.80
-9755149.73 5135392.69 191.15
-9755147.29 5135391.46 193.27
-9755148.58 5135392.16 192.98
-9755150.56 5135393.11 192.96
-9755149.53 5135393.32 192.75
-9755149.23 5135391.54 192.25
-9755152.35 5135394.18 181.61
-9755148.81 5135392.67 181.62
-9755150.37 5135391.28 191.42
-9755156.21 5135393.21 181.54
-9755148.37 5135394.14 192.24
-9755149.15 5135391.81 181.60
-9755151.56 5135393.96 190.02
-9755153.84 5135391.12 181.62
-9755149.67 5135391.60 191.38
-9755150.44 5135392.62 193.00
-9755151.82 5135391.75 181.64
-9755147.46 5135394.10 191.46
-9755153.56 5135392.58 181.60
-9755148.96 5135391.99 192.38
-9755150.68 5135394.15 188.74
-9755148.12 5135392.37 193.91
-9755150.48 5135393.23 192.02
-9755156.26 5135393.47 181.52
-9755156.24 5135392.09 181.54
-9755149.27 5135392.30 193.17
-9755151.37 5135393.59 191.10
-9755152.50 5135393.29 181.60
-9755150.19 5135393.57 192.12
-9755147.27 5135391.06 194.14
-9755152.17 5135393.16 189.85
-9755150.25 5135392.04 192.63
-9755151.52 5135391.91 190.49
-9755150.12 5135392.69 192.68
-9755148.18 5135393.88 192.51
-9755149.59 5135393.64 191.80
-9755149.24 5135394.10 191.88
-9755150.73 5135394.01 190.13
-9755150.15 5135393.60 192.55
-9755148.01 5135393.90 190.99
-9755148.46 5135392.07 192.04
-9755148.92 5135393.01 191.54
-9755152.98 5135394.13 181.57
-9755147.22 5135392.24 194.54
-9755149.80 5135393.32 192.24
-9755146.90 5135391.63 194.57
-9755151.27 5135392.83 190.77
-9755150.81 5135393.15 192.87
-9755153.07 5135391.38 181.59
-9755149.14 5135392.30 181.62
-9755150.36 5135391.13 191.92
-9755148.92 5135391.83 181.61
-9755150.09 5135393.92 190.65
-9755150.04 5135392.04 193.02
-9755154.75 5135391.48 181.58
-9755151.05 5135391.46 189.13
-9755151.38 5135391.33 189.30
-9755154.49 5135393.50 181.58
-9755150.96 5135392.51 190.29
-9755148.93 5135391.24 192.45
-9755150.73 5135393.93 191.26
-9755149.16 5135393.21 181.62
-9755149.19 5135394.10 181.58
-9755149.00 5135391.38 181.60
-9755149.30 5135392.96 192.22
-9755151.34 5135391.73 188.80
-9755147.45 5135393.99 193.12
-9755150.83 5135392.65 192.30
-9755155.36 5135394.18 181.55
-9755148.93 5135392.38 192.41
-9755148.91 5135394.11 181.58
-9755151.31 5135391.66 190.48
-9755146.59 5135392.88 193.35
-9755149.79 5135393.62 190.32
-9755153.91 5135391.76 181.58
-9755149.28 5135391.49 190.68
-9755150.12 5135391.15 192.49
-9755149.90 5135393.91 193.33
-9755147.53 5135393.83 191.52
-9755151.65 5135392.11 192.08
-9755151.35 5135393.68 189.96
-9755149.41 5135393.75 190.89
-9755147.52 5135391.12 194.15
-9755151.23 5135393.64 190.09
-9755152.40 5135392.09 181.58
-9755147.49 5135393.19 192.17
-9755151.28 5135392.79 190.13
-9755149.24 5135393.90 192.53
-9755148.31 5135392.02 192.55
-9755151.31 5135392.65 190.97
-9755150.45 5135392.70 191.73
-9755146.63 5135391.27 193.73
-9755150.35 5135393.55 187.97
-9755147.01 5135414.04 183.47
-9755146.42 5135414.12 183.04
-9755146.47 5135415.28 182.06
-9755146.39 5135413.76 183.54
-9755141.58 5135414.41 182.52
-9755144.90 5135414.20 181.74
-9755146.40 5135415.65 182.26
-9755144.72 5135413.90 182.34
-9755139.31 5135414.74 181.78
-9755143.15 5135414.07 183.15
-9755138.45 5135414.13 183.55
-9755141.67 5135413.97 182.48
-9755138.45 5135414.57 183.11
-9755140.55 5135414.16 183.45
-9755138.12 5135414.23 182.65
-9755143.22 5135414.05 182.75
-9755138.37 5135414.29 182.71
-9755137.53 5135414.18 182.75
-9755141.70 5135413.50 183.55
-9755138.21 5135414.22 182.23
-9755144.10 5135414.20 182.03
-9755140.53 5135413.78 183.57
-9755140.81 5135415.35 182.05
-9755139.02 5135414.25 183.05
-9755142.28 5135414.10 183.57
-9755144.96 5135415.06 181.97
-9755137.85 5135413.76 183.61
-9755143.42 5135414.32 183.05
-9755142.53 5135415.30 182.13
-9755140.26 5135414.32 183.44
-9755140.64 5135414.00 183.87
-9755143.48 5135414.74 181.83
-9755139.26 5135414.62 183.29
-9755137.34 5135414.55 183.23
-9755139.65 5135413.75 183.55
-9755143.15 5135414.09 183.54
-9755141.05 5135414.03 183.47
-9755144.32 5135415.63 182.21
-9755139.82 5135414.68 183.27
-9755137.93 5135414.72 183.50
-9755139.34 5135413.74 183.61
-9755141.79 5135413.94 182.71
-9755140.19 5135414.60 183.31
-9755139.72 5135414.12 182.45
-9755142.49 5135413.99 183.37
-9755141.42 5135414.35 183.37
-9755144.41 5135414.10 182.92
-9755142.84 5135413.88 181.75
-9755144.27 5135414.39 183.20
-9755146.41 5135416.21 182.41
-9755144.06 5135416.52 182.41
-9755141.37 5135415.68 182.19
-9755143.46 5135417.09 182.38
-9755138.12 5135416.49 181.88
-9755145.48 5135416.24 182.43
-9755136.80 5135414.29 183.53
-9755137.23 5135414.97 181.84
-9755136.66 5135414.12 182.27
-9755135.15 5135415.31 181.76
-9755135.20 5135414.32 183.65
-9755135.21 5135414.59 183.07
-9755136.64 5135413.89 181.73
-9755135.32 5135414.57 183.58
-9755136.06 5135414.58 183.44
-9755136.66 5135414.36 182.69
-9755136.69 5135413.75 183.55
-9755136.36 5135414.57 182.31
-9755136.89 5135414.53 183.28
-9755136.39 5135413.46 183.58
-9755136.19 5135414.60 183.36
-9755136.71 5135414.41 182.27
-9755137.26 5135416.49 181.76
-9755135.18 5135416.51 181.48
-9755134.31 5135414.58 182.68
-9755134.34 5135414.33 183.15
-9755134.79 5135413.92 181.69
-9755134.35 5135414.56 183.48
-9755134.32 5135413.73 183.58
-9755134.82 5135414.68 183.51
-9755134.68 5135414.16 182.94
-9755134.89 5135416.16 181.62
-9755146.72 5135406.19 181.43
-9755146.98 5135406.51 181.44
-9755146.37 5135410.89 183.31
-9755144.00 5135413.92 181.72
-9755145.27 5135412.35 183.53
-9755138.12 5135407.66 181.43
-9755138.45 5135410.31 181.42
-9755142.52 5135411.02 183.51
-9755140.59 5135411.43 183.57
-9755137.58 5135409.15 181.43
-9755142.62 5135408.27 181.44
-9755145.84 5135411.45 183.50
-9755145.85 5135410.98 183.29
-9755142.32 5135406.79 181.44
-9755138.80 5135406.49 181.44
-9755145.82 5135407.72 181.44
-9755142.36 5135411.11 183.48
-9755139.65 5135412.32 183.49
-9755142.62 5135411.42 183.52
-9755137.58 5135411.39 183.48
-9755141.80 5135413.79 183.83
-9755142.01 5135411.07 183.46
-9755141.41 5135411.37 183.52
-9755139.04 5135411.03 183.40
-9755144.32 5135410.02 181.42
-9755144.68 5135411.43 183.44
-9755138.17 5135412.31 183.50
-9755141.70 5135411.46 183.51
-9755146.19 5135406.54 181.44
-9755146.09 5135410.66 181.46
-9755138.76 5135407.38 181.44
-9755137.92 5135406.48 181.43
-9755144.97 5135412.65 183.55
-9755144.37 5135410.37 181.42
-9755144.95 5135412.87 183.57
-9755143.21 5135407.06 181.45
-9755140.24 5135413.20 183.52
-9755145.52 5135409.18 181.44
-9755139.08 5135412.88 183.54
-9755145.24 5135407.70 181.44
-9755139.03 5135411.95 183.50
-9755137.58 5135410.30 181.43
-9755140.27 5135411.10 183.45
-9755137.57 5135407.07 181.45
-9755141.12 5135413.23 183.61
-9755137.21 5135411.53 183.34
-9755141.43 5135411.70 183.54
-9755144.06 5135406.51 181.46
-9755145.75 5135411.19 183.07
-9755145.51 5135412.07 183.44
-9755143.53 5135409.18 181.43
-9755139.92 5135411.02 183.46
-9755141.44 5135412.62 183.50
-9755145.86 5135409.46 181.44
-9755143.79 5135412.61 183.54
-9755145.85 5135413.05 183.05
-9755138.44 5135409.11 181.43
-9755138.16 5135407.93 181.44
-9755146.83 5135396.51 191.80
-9755146.80 5135397.29 181.51
-9755146.76 5135397.67 181.47
-9755147.34 5135396.20 181.52
-9755146.27 5135395.66 192.28
-9755146.76 5135398.42 188.09
-9755146.76 5135399.97 181.41
-9755146.34 5135395.64 191.83
-9755146.36 5135396.18 191.77
-9755146.35 5135398.59 187.03
-9755146.32 5135396.54 191.66
-9755146.85 5135394.99 192.84
-9755146.69 5135397.03 189.37
-9755146.39 5135397.42 192.27
-9755146.22 5135398.27 186.81
-9755146.53 5135398.60 186.65
-9755146.28 5135396.77 191.68
-9755147.37 5135394.94 181.52
-9755146.34 5135398.31 187.26
-9755146.62 5135394.33 191.43
-9755146.60 5135397.56 192.14
-9755146.75 5135399.08 181.42
-9755146.26 5135398.62 187.69
-9755146.20 5135399.15 186.94
-9755146.75 5135396.77 181.50
-9755146.67 5135394.74 191.06
-9755146.18 5135398.68 190.07
-9755146.70 5135396.51 189.27
-9755147.05 5135398.54 181.45
-9755146.59 5135397.74 191.02
-9755146.56 5135399.12 187.20
-9755146.29 5135398.60 191.46
-9755146.23 5135397.61 181.46
-9755146.57 5135397.14 192.51
-9755146.27 5135394.94 190.92
-9755146.52 5135399.06 190.08
-9755146.01 5135397.10 192.32
-9755141.00 5135397.49 191.57
-9755142.74 5135396.50 192.52
-9755140.57 5135395.78 192.62
-9755145.95 5135398.92 190.75
-9755145.11 5135395.92 192.45
-9755138.86 5135396.91 189.41
-9755140.99 5135397.71 191.57
-9755146.33 5135399.11 191.37
-9755147.29 5135398.10 184.92
-9755138.51 5135395.43 191.20
-9755141.29 5135394.48 192.38
-9755140.95 5135396.18 192.54
-9755140.14 5135398.06 189.77
-9755139.45 5135396.16 189.89
-9755142.66 5135394.52 194.34
-9755141.57 5135395.85 192.43
-9755138.03 5135394.46 190.95
-9755144.16 5135398.22 190.24
-9755144.79 5135395.65 192.98
-9755140.74 5135395.92 191.73
-9755139.83 5135394.39 192.00
-9755138.82 5135401.45 181.37
-9755145.09 5135396.14 193.09
-9755139.17 5135397.29 191.63
-9755145.98 5135398.36 188.10
-9755137.93 5135397.57 181.38
-9755140.95 5135396.48 192.56
-9755144.31 5135398.48 190.16
-9755146.00 5135397.40 191.88
-9755139.28 5135396.55 191.80
-9755146.47 5135397.41 181.48
-9755144.19 5135398.55 191.46
-9755137.73 5135397.10 187.66
-9755144.24 5135396.47 192.31
-9755140.96 5135398.05 191.53
-9755143.78 5135398.91 188.37
-9755141.00 5135396.76 190.98
-9755140.63 5135399.05 189.26
-9755143.83 5135395.91 191.06
-9755141.39 5135400.57 181.38
-9755145.98 5135399.02 187.73
-9755143.07 5135399.22 190.12
-9755142.26 5135395.63 192.49
-9755143.44 5135399.32 190.13
-9755143.40 5135396.20 193.18
-9755140.43 5135396.07 192.66
-9755143.10 5135394.76 192.51
-9755144.08 5135398.76 181.42
-9755143.60 5135394.86 192.42
-9755141.86 5135395.19 193.21
-9755145.17 5135395.90 191.11
-9755144.87 5135396.43 192.97
-9755142.71 5135399.45 191.09
-9755145.44 5135399.18 189.82
-9755145.38 5135398.87 187.49
-9755138.96 5135398.23 189.58
-9755140.66 5135395.59 191.53
-9755143.95 5135399.62 190.71
-9755145.53 5135395.04 192.36
-9755145.62 5135396.50 191.63
-9755143.11 5135399.24 191.47
-9755139.50 5135396.92 189.81
-9755140.72 5135395.91 190.73
-9755143.06 5135396.84 191.92
-9755141.63 5135394.78 192.27
-9755145.75 5135396.48 192.40
-9755143.97 5135394.93 194.02
-9755143.94 5135394.95 193.16
-9755145.90 5135396.24 191.41
-9755144.00 5135396.14 192.79
-9755139.50 5135396.12 192.23
-9755140.14 5135395.32 191.69
-9755140.98 5135394.32 193.19
-9755143.28 5135398.02 190.27
-9755140.29 5135398.54 186.72
-9755145.40 5135395.29 192.53
-9755137.82 5135396.64 189.06
-9755141.18 5135400.28 181.37
-9755138.08 5135397.47 188.22
-9755143.35 5135396.83 191.79
-9755143.06 5135397.67 191.69
-9755140.12 5135399.88 186.79
-9755143.00 5135395.63 192.98
-9755141.62 5135394.95 193.30
-9755143.93 5135394.36 193.75
-9755143.90 5135396.55 192.45
-9755142.00 5135396.83 190.49
-9755140.95 5135397.24 189.45
-9755137.70 5135396.99 189.27
-9755140.12 5135396.76 191.74
-9755143.34 5135397.43 191.25
-9755144.74 5135399.68 188.03
-9755143.08 5135399.34 188.64
-9755145.28 5135400.60 181.40
-9755145.45 5135396.09 190.90
-9755140.72 5135397.10 191.39
-9755140.91 5135397.78 189.63
-9755145.86 5135398.86 181.43
-9755143.27 5135399.38 181.38
-9755143.35 5135397.95 191.53
-9755140.59 5135399.42 186.80
-9755144.79 5135398.71 190.13
-9755145.45 5135396.87 192.46
-9755140.88 5135398.82 187.23
-9755140.11 5135394.94 191.97
-9755141.22 5135394.35 192.85
-9755143.05 5135396.14 193.23
-9755142.54 5135394.59 194.69
-9755143.80 5135398.25 181.40
-9755143.96 5135394.83 191.42
-9755145.44 5135397.13 192.43
-9755138.04 5135397.27 188.93
-9755137.65 5135396.61 189.17
-9755139.57 5135397.84 189.77
-9755144.95 5135395.98 191.51
-9755143.08 5135396.60 191.59
-9755145.51 5135395.32 192.11
-9755142.74 5135398.92 190.17
-9755145.60 5135399.69 181.40
-9755145.70 5135399.77 187.74
-9755144.79 5135396.05 190.12
-9755142.26 5135394.69 194.07
-9755145.39 5135398.70 188.28
-9755141.05 5135396.12 193.03
-9755139.08 5135400.26 181.34
-9755145.99 5135397.71 192.07
-9755143.44 5135395.80 192.94
-9755143.12 5135397.31 191.74
-9755140.58 5135395.67 191.64
-9755145.12 5135398.10 191.05
-9755142.78 5135396.81 191.48
-9755145.05 5135398.94 190.89
-9755144.36 5135397.12 191.59
-9755143.37 5135398.92 191.09
-9755144.20 5135397.91 188.51
-9755142.26 5135394.82 194.69
-9755145.55 5135396.83 191.66
-9755137.73 5135397.78 189.46
-9755138.67 5135395.07 191.12
-9755145.70 5135398.26 192.06
-9755139.17 5135396.77 191.78
-9755137.64 5135397.66 186.44
-9755140.72 5135398.23 191.55
-9755143.17 5135397.06 192.77
-9755143.75 5135396.61 191.25
-9755141.87 5135396.17 192.69
-9755142.18 5135395.76 193.34
-9755139.55 5135396.94 190.45
-9755143.86 5135399.14 190.88
-9755144.26 5135396.16 192.78
-9755142.75 5135395.87 192.14
-9755143.13 5135394.36 193.91
-9755145.05 5135399.64 186.72
-9755139.54 5135394.91 191.21
-9755145.22 5135396.56 191.74
-9755140.14 5135394.37 191.21
-9755144.84 5135396.25 191.68
-9755140.71 5135397.39 191.36
-9755141.18 5135397.33 190.55
-9755142.58 5135394.88 194.63
-9755141.54 5135396.44 192.15
-9755144.81 5135397.69 192.60
-9755145.16 5135395.29 192.82
-9755144.18 5135395.26 192.72
-9755137.76 5135396.90 189.58
-9755143.62 5135396.91 191.05
-9755143.56 5135399.17 186.31
-9755140.72 5135396.93 192.54
-9755139.35 5135397.23 191.33
-9755141.88 5135396.46 192.49
-9755142.00 5135396.83 190.14
-9755139.17 5135394.33 192.79
-9755140.99 5135396.56 193.07
-9755142.40 5135399.72 186.88
-9755140.99 5135394.38 192.83
-9755142.21 5135397.77 191.48
-9755139.80 5135394.75 190.57
-9755139.70 5135400.26 181.35
-9755139.91 5135395.76 191.42
-9755141.61 5135394.35 194.63
-9755140.08 5135394.42 192.32
-9755141.92 5135396.75 192.52
-9755140.90 5135398.14 181.37
-9755142.74 5135398.50 191.86
-9755143.06 5135397.72 191.45
-9755145.80 5135398.77 191.54
-9755142.14 5135395.17 192.37
-9755144.53 5135399.10 187.31
-9755137.41 5135396.34 189.03
-9755143.21 5135400.86 181.40
-9755137.99 5135396.89 189.08
-9755145.93 5135398.33 190.68
-9755145.96 5135398.96 189.98
-9755144.74 5135398.22 192.67
-9755139.90 5135397.76 189.69
-9755144.90 5135398.00 192.42
-9755139.52 5135398.20 189.44
-9755138.56 5135396.36 191.77
-9755143.57 5135399.11 181.40
-9755141.34 5135396.16 192.13
-9755137.53 5135396.46 187.77
-9755140.09 5135395.97 191.28
-9755144.24 5135399.41 187.40
-9755144.09 5135400.04 181.37
-9755140.91 5135395.68 190.25
