-9755075.89 5135769.87 184.77
-9755076.46 5135760.28 181.49
-9755076.17 5135763.76 181.83
-9755076.15 5135765.85 181.24
-9755076.15 5135765.18 182.41
-9755075.65 5135761.96 180.12
-9755075.25 5135767.46 180.22
-9755075.87 5135760.90 180.33
-9755076.51 5135764.11 182.76
-9755076.44 5135767.67 181.13
-9755076.48 5135764.98 181.24
-9755076.54 5135760.48 182.69
-9755076.56 5135763.70 182.92
-9755076.19 5135761.69 182.18
-9755076.53 5135764.96 182.44
-9755076.43 5135769.99 181.77
-9755075.94 5135764.79 180.52
-9755076.12 5135760.59 182.18
-9755076.67 5135762.45 181.48
-9755076.50 5135767.43 181.11
-9755075.68 5135761.75 180.17
-9755076.19 5135761.53 182.41
-9755075.64 5135765.92 181.27
-9755076.48 5135763.72 181.89
-9755075.30 5135764.97 181.03
-9755075.26 5135764.06 181.14
-9755075.28 5135760.25 181.90
-9755075.22 5135761.17 180.20
-9755074.98 5135766.13 180.31
-9755075.23 5135760.47 181.88
-9755074.87 5135767.16 180.23
-9755074.66 5135765.85 180.55
-9755075.26 5135765.98 180.66
-9755074.93 5135767.34 179.93
-9755074.06 5135767.76 179.06
-9755074.10 5135769.82 179.11
-9755075.06 5135766.15 180.67
-9755076.10 5135770.73 185.30
-9755076.51 5135771.27 185.89
-9755076.55 5135771.40 185.17
-9755076.66 5135771.56 184.62
-9755074.00 5135771.55 179.22
-9755074.15 5135771.30 184.96
-9755062.56 5135771.61 177.19
-9755067.52 5135768.92 178.06
-9755072.87 5135768.60 179.16
-9755071.68 5135769.22 178.86
-9755067.06 5135762.46 178.01
-9755068.57 5135761.76 178.38
-9755066.71 5135767.45 177.99
-9755062.59 5135763.28 177.08
-9755067.67 5135763.85 178.03
-9755067.59 5135768.65 178.06
-9755071.80 5135762.70 178.82
-9755067.90 5135764.25 178.09
-9755064.93 5135768.65 177.39
-9755070.84 5135765.41 178.53
-9755072.71 5135760.89 178.85
-9755068.44 5135764.51 178.33
-9755064.34 5135769.85 177.25
-9755067.37 5135761.21 178.02
-9755072.02 5135765.94 178.84
-9755071.41 5135768.36 178.81
-9755071.39 5135768.06 178.82
-9755072.01 5135765.68 178.85
-9755070.24 5135762.38 178.45
-9755070.86 5135760.35 178.52
-9755069.12 5135764.19 178.30
-9755065.90 5135768.01 177.67
-9755066.72 5135767.75 177.87
-9755066.73 5135770.02 177.94
-9755070.87 5135769.80 178.72
-9755071.44 5135762.42 178.79
-9755067.91 5135762.47 178.24
-9755067.98 5135761.52 178.27
-9755069.15 5135767.45 178.37
-9755066.05 5135767.73 177.77
-9755069.05 5135766.87 178.29
-9755069.96 5135764.77 178.52
-9755068.49 5135764.81 178.03
-9755069.37 5135767.50 178.36
-9755070.84 5135761.49 178.78
-9755070.31 5135762.17 178.56
-9755072.12 5135761.24 179.00
-9755069.68 5135763.30 178.29
-9755067.06 5135761.55 177.80
-9755068.84 5135763.29 178.33
-9755070.85 5135769.86 178.48
-9755062.61 5135763.88 177.09
-9755070.55 5135767.75 178.45
-9755064.95 5135761.27 177.38
-9755067.61 5135766.21 178.03
-9755063.45 5135762.45 177.10
-9755067.30 5135770.45 178.00
-9755068.75 5135770.72 178.34
-9755069.61 5135770.72 178.43
-9755062.54 5135766.58 177.15
-9755062.55 5135764.55 177.14
-9755062.55 5135769.26 177.17
-9755062.54 5135766.88 177.15
-9755061.74 5135761.53 177.12
-9755062.02 5135765.77 177.15
-9755060.46 5135769.85 176.44
-9755059.31 5135764.50 176.42
-9755061.68 5135762.14 176.79
-9755058.47 5135761.30 176.41
-9755055.20 5135765.42 176.49
-9755053.32 5135785.53 176.64
-9755053.94 5135778.13 176.58
-9755051.84 5135779.26 176.61
-9755042.76 5135779.82 176.52
-9755037.16 5135785.93 177.07
-9755036.86 5135783.38 176.99
-9755036.27 5135780.98 176.77
-9755037.07 5135779.74 176.27
-9755053.08 5135774.54 176.57
-9755043.63 5135773.64 176.50
-9755040.65 5135775.69 176.48
-9755033.26 5135783.03 176.88
-9755052.84 5135763.29 176.50
-9755054.92 5135760.36 176.45
-9755050.16 5135766.56 176.54
-9755053.18 5135762.42 176.47
-9755046.00 5135769.47 176.52
-9755048.11 5135770.64 176.55
-9755038.67 5135762.05 176.33
-9755044.90 5135760.86 176.43
-9755041.01 5135769.50 176.44
-9755043.14 5135763.24 176.42
-9755036.65 5135764.91 177.45
-9755036.97 5135760.21 177.42
-9755036.62 5135768.44 176.74
-9755036.66 5135763.19 176.83
-9755035.46 5135764.09 176.67
-9755036.89 5135760.81 176.77
-9755036.36 5135762.05 176.70
-9755036.64 5135765.27 176.78
-9755036.64 5135768.55 177.50
-9755036.61 5135770.57 177.51
-9755034.55 5135766.16 176.71
-9755034.57 5135761.66 176.67
-9755081.33 5135786.06 182.67
-9755081.28 5135785.56 183.12
-9755080.80 5135786.31 183.01
-9755080.84 5135785.70 182.31
-9755080.53 5135785.56 183.63
-9755080.53 5135785.79 182.70
-9755081.31 5135786.29 182.22
-9755079.70 5135786.01 183.10
-9755079.13 5135785.13 182.48
-9755080.78 5135785.38 183.66
-9755080.87 5135785.38 183.36
-9755080.50 5135784.82 183.17
-9755076.72 5135785.76 179.98
-9755080.67 5135786.29 181.12
-9755080.55 5135785.78 181.06
-9755080.40 5135784.18 182.76
-9755081.37 5135783.67 182.72
-9755081.34 5135780.77 180.72
-9755080.65 5135784.25 183.29
-9755079.65 5135778.25 181.25
-9755077.24 5135779.59 179.73
-9755076.69 5135779.62 179.61
-9755079.92 5135782.73 183.07
-9755080.47 5135779.58 180.48
-9755077.56 5135780.44 179.81
-9755079.66 5135778.38 180.30
-9755076.67 5135781.96 179.64
-9755079.64 5135779.58 180.30
-9755080.55 5135784.53 182.24
-9755080.63 5135785.29 184.26
-9755081.11 5135784.87 182.16
-9755080.50 5135785.32 183.91
-9755076.66 5135784.32 179.69
-9755080.24 5135784.82 183.82
-9755080.54 5135784.50 182.70
-9755080.49 5135784.80 184.74
-9755076.36 5135785.20 179.89
-9755075.86 5135785.99 179.72
-9755076.33 5135785.77 179.63
-9755076.34 5135786.05 179.72
-9755074.30 5135786.17 179.47
-9755077.53 5135778.41 179.78
-9755066.86 5135786.13 177.97
-9755066.94 5135785.30 177.71
-9755064.82 5135785.81 177.24
-9755066.54 5135785.77 177.92
-9755064.83 5135785.29 177.23
-9755064.24 5135786.15 177.19
-9755066.61 5135786.14 177.91
-9755065.94 5135785.82 177.86
-9755073.11 5135785.20 179.10
-9755072.02 5135785.41 178.89
-9755072.51 5135786.12 178.80
-9755066.60 5135785.55 178.09
-9755073.04 5135786.11 178.96
-9755065.71 5135785.25 177.38
-9755066.12 5135785.44 178.06
-9755075.34 5135783.80 179.60
-9755076.32 5135779.29 179.63
-9755075.85 5135783.97 179.83
-9755075.49 5135781.38 179.40
-9755074.29 5135780.47 179.42
-9755074.57 5135778.96 179.27
-9755074.27 5135779.86 179.16
-9755074.82 5135781.35 179.40
-9755074.03 5135780.41 179.38
-9755074.00 5135780.76 179.42
-9755074.03 5135781.61 179.41
-9755075.48 5135784.61 179.74
-9755075.82 5135784.85 179.67
-9755073.99 5135784.61 179.19
-9755074.91 5135784.59 179.57
-9755065.13 5135784.96 177.28
-9755067.19 5135783.15 178.03
-9755072.53 5135779.90 178.97
-9755066.89 5135783.12 178.11
-9755066.87 5135779.87 177.78
-9755072.55 5135778.66 178.50
-9755065.79 5135783.14 177.84
-9755071.33 5135780.82 178.66
-9755071.62 5135783.45 178.71
-9755063.23 5135779.54 176.56
-9755073.41 5135778.38 179.14
-9755072.91 5135780.42 178.97
-9755067.17 5135782.01 178.15
-9755067.66 5135783.15 178.19
-9755072.25 5135778.40 178.70
-9755070.70 5135781.00 178.58
-9755067.22 5135779.62 177.97
-9755068.51 5135782.88 178.29
-9755067.79 5135779.89 177.99
-9755073.11 5135778.38 179.02
-9755068.52 5135783.09 178.28
-9755072.18 5135779.58 178.66
-9755065.72 5135779.04 177.77
-9755068.67 5135782.57 178.31
-9755066.02 5135783.70 177.87
-9755066.32 5135778.35 177.73
-9755072.24 5135780.25 178.99
-9755070.08 5135781.95 178.28
-9755070.11 5135783.70 178.58
-9755063.39 5135780.24 177.23
-9755067.76 5135783.98 178.11
-9755072.27 5135781.62 179.01
-9755066.38 5135780.69 177.96
-9755067.24 5135781.36 178.05
-9755068.84 5135778.91 178.23
-9755069.91 5135780.78 178.30
-9755066.00 5135781.97 177.73
-9755064.20 5135783.48 177.17
-9755066.69 5135778.45 178.04
-9755073.35 5135784.06 179.09
-9755067.16 5135782.47 178.16
-9755069.00 5135779.28 178.23
-9755067.18 5135782.85 178.09
-9755066.90 5135784.17 178.09
-9755065.99 5135782.85 178.07
-9755070.67 5135783.42 178.64
-9755065.99 5135783.15 177.74
-9755070.75 5135780.80 178.64
-9755064.87 5135779.60 177.29
-9755067.46 5135779.90 178.08
-9755066.02 5135779.10 177.69
-9755065.78 5135778.73 177.70
-9755072.44 5135780.98 179.08
-9755071.37 5135780.16 178.65
-9755068.43 5135780.91 178.25
-9755071.89 5135782.12 179.13
-9755067.39 5135777.78 178.13
-9755062.77 5135782.03 176.46
-9755069.88 5135778.70 178.34
-9755066.92 5135779.62 177.99
-9755063.94 5135780.23 177.15
-9755066.84 5135783.47 178.13
-9755073.67 5135783.12 179.27
-9755065.10 5135783.49 177.31
-9755066.32 5135781.35 177.89
-9755072.24 5135779.91 178.70
-9755068.35 5135782.20 178.24
-9755063.13 5135781.35 177.24
-9755066.87 5135780.45 178.12
-9755064.27 5135778.44 177.28
-9755069.81 5135784.34 178.26
-9755068.09 5135782.86 178.02
-9755063.65 5135781.13 177.19
-9755072.77 5135784.61 179.09
-9755070.13 5135779.26 178.63
-9755063.97 5135783.44 177.16
-9755068.43 5135778.72 178.10
-9755066.59 5135780.48 178.08
-9755073.39 5135782.23 179.32
-9755066.00 5135781.36 177.46
-9755068.10 5135779.00 178.01
-9755071.10 5135780.77 178.66
-9755071.68 5135783.74 178.91
-9755070.70 5135779.91 178.60
-9755070.50 5135778.11 178.37
-9755065.94 5135779.32 177.59
-9755067.50 5135778.13 178.06
-9755068.40 5135784.64 178.03
-9755062.77 5135784.36 177.31
-9755067.52 5135784.63 178.14
-9755071.61 5135784.94 178.77
-9755065.98 5135784.67 177.41
-9755066.51 5135784.15 178.07
-9755066.94 5135784.89 178.04
-9755066.21 5135784.83 178.04
-9755079.62 5135778.00 181.66
-9755077.93 5135774.56 185.33
-9755080.32 5135778.05 180.47
-9755077.39 5135774.75 183.13
-9755078.13 5135773.01 187.14
-9755080.20 5135775.34 181.06
-9755079.97 5135772.41 182.35
-9755081.14 5135774.67 182.28
-9755079.98 5135775.91 182.42
-9755078.50 5135774.25 182.66
-9755079.32 5135772.72 184.26
-9755081.42 5135777.37 182.67
-9755078.35 5135774.04 184.94
-9755081.31 5135771.70 181.74
-9755079.58 5135772.21 184.11
-9755076.74 5135775.29 183.52
-9755079.69 5135773.06 185.82
-9755081.28 5135771.71 183.32
-9755078.34 5135772.41 187.16
-9755078.54 5135772.41 187.76
-9755079.51 5135772.89 184.77
-9755079.33 5135771.79 183.19
-9755080.20 5135775.00 181.42
-9755081.08 5135778.03 182.27
-9755079.65 5135776.42 182.49
-9755079.26 5135772.86 185.81
-9755078.74 5135774.68 186.07
-9755081.46 5135777.46 180.70
-9755077.66 5135774.55 179.78
-9755077.25 5135771.70 183.44
-9755079.88 5135775.90 181.23
-9755079.27 5135773.09 184.90
-9755077.60 5135778.10 179.80
-9755078.17 5135774.00 185.51
-9755081.43 5135772.08 182.77
-9755080.86 5135774.70 182.21
-9755079.61 5135774.10 181.80
-9755079.18 5135773.02 186.80
-9755080.53 5135776.32 181.83
-9755079.59 5135772.53 185.27
-9755078.50 5135773.66 186.15
-9755078.25 5135772.18 184.86
-9755079.74 5135773.92 180.90
-9755079.32 5135772.46 187.39
-9755079.08 5135774.91 183.17
-9755081.41 5135772.05 180.56
-9755077.27 5135773.62 186.02
-9755079.71 5135773.78 181.83
-9755077.85 5135774.97 183.74
-9755078.51 5135771.83 186.34
-9755078.55 5135773.34 186.11
-9755077.59 5135774.82 179.76
-9755079.29 5135774.14 181.09
-9755081.40 5135776.22 182.55
-9755079.66 5135773.07 180.81
-9755077.56 5135773.95 185.76
-9755080.03 5135773.84 182.01
-9755079.64 5135772.80 186.07
-9755078.74 5135774.72 181.81
-9755081.08 5135773.30 180.95
-9755077.80 5135776.63 179.94
-9755079.30 5135774.12 182.68
-9755077.50 5135774.89 183.47
-9755078.21 5135772.44 185.31
-9755079.64 5135774.54 181.00
-9755080.14 5135772.27 183.17
-9755080.08 5135772.69 181.62
-9755077.14 5135772.96 184.32
-9755080.33 5135773.98 185.01
-9755079.67 5135775.03 182.90
-9755079.59 5135772.26 183.55
-9755080.24 5135774.76 181.88
-9755079.72 5135773.52 183.91
-9755077.08 5135774.68 184.48
-9755079.07 5135772.09 185.58
-9755078.93 5135775.04 180.75
-9755079.52 5135773.00 180.97
-9755078.59 5135774.69 182.53
-9755080.77 5135774.24 182.80
-9755079.15 5135774.65 182.69
-9755080.43 5135774.11 181.45
-9755080.02 5135775.23 182.81
-9755080.04 5135774.77 183.05
-9755077.97 5135772.76 186.68
-9755080.61 5135775.79 180.55
-9755076.77 5135774.03 185.15
-9755079.14 5135773.40 185.18
-9755080.36 5135772.26 183.07
-9755079.58 5135775.32 181.80
-9755077.69 5135772.95 187.21
-9755077.94 5135772.44 186.41
-9755079.33 5135772.83 185.95
-9755078.61 5135772.08 187.76
-9755079.10 5135774.74 182.08
-9755079.73 5135772.73 180.84
-9755078.83 5135775.02 182.10
-9755077.64 5135774.97 183.81
-9755079.66 5135774.28 185.27
-9755079.72 5135771.63 185.66
-9755077.98 5135773.02 186.27
-9755081.45 5135775.09 182.17
-9755078.38 5135773.58 185.81
-9755079.74 5135774.48 181.71
-9755080.85 5135775.00 182.90
-9755080.29 5135772.02 182.76
-9755078.72 5135775.06 182.38
-9755079.97 5135774.72 182.45
-9755080.90 5135774.70 181.77
-9755079.66 5135773.41 184.84
-9755077.95 5135771.83 186.70
-9755079.40 5135771.98 184.12
-9755079.09 5135774.08 183.23
-9755079.51 5135774.37 183.28
-9755079.45 5135772.98 181.91
-9755078.91 5135773.47 185.36
-9755079.67 5135772.07 182.58
-9755080.00 5135772.93 180.35
-9755080.54 5135773.58 182.00
-9755077.93 5135774.24 186.22
-9755078.54 5135772.90 184.25
-9755077.62 5135774.96 183.15
-9755078.19 5135771.63 187.50
-9755080.22 5135771.76 183.08
-9755080.63 5135773.13 184.71
-9755078.63 5135772.57 184.20
-9755080.88 5135773.24 182.12
-9755078.75 5135773.87 186.21
-9755078.72 5135771.59 185.58
-9755079.77 5135771.72 183.65
-9755080.05 5135772.68 182.07
-9755079.67 5135772.06 183.05
-9755081.11 5135771.74 182.33
-9755077.90 5135773.33 186.20
-9755081.41 5135776.80 182.81
-9755078.99 5135775.20 180.97
-9755078.02 5135771.56 182.26
-9755080.02 5135772.66 184.70
-9755079.65 5135774.11 182.48
-9755080.09 5135773.15 183.47
-9755078.66 5135771.91 186.67
-9755080.22 5135774.06 182.09
-9755080.54 5135772.06 182.33
-9755078.75 5135771.60 185.17
-9755078.31 5135772.13 187.09
-9755078.52 5135775.42 181.65
-9755078.48 5135774.70 185.49
-9755080.86 5135777.72 182.10
-9755078.49 5135772.45 186.08
-9755078.51 5135771.84 187.41
-9755080.35 5135772.94 182.23
-9755078.26 5135772.25 183.79
-9755080.05 5135775.57 183.02
-9755078.48 5135777.14 181.32
-9755080.28 5135776.90 180.87
-9755077.37 5135774.97 183.18
-9755077.97 5135773.59 186.46
-9755079.26 5135771.98 186.46
-9755078.00 5135772.01 185.27
-9755078.12 5135774.34 182.94
-9755079.35 5135771.70 183.76
-9755079.73 5135775.05 181.98
-9755080.81 5135777.25 181.88
-9755080.92 5135772.60 182.84
-9755079.96 5135777.67 182.20
-9755078.80 5135771.67 183.58
-9755079.65 5135774.45 182.54
-9755079.37 5135773.25 181.93
-9755077.61 5135774.55 185.18
-9755077.60 5135773.96 183.26
-9755078.83 5135772.09 182.89
-9755079.10 5135772.37 184.65
-9755077.92 5135774.68 179.83
-9755075.47 5135773.36 185.13
-9755075.89 5135773.45 184.29
-9755076.03 5135772.23 185.20
-9755075.51 5135773.70 184.66
-9755076.20 5135774.60 184.16
-9755075.12 5135772.46 186.53
-9755076.41 5135775.29 183.72
-9755075.55 5135773.42 184.26
-9755075.28 5135772.38 186.12
-9755075.53 5135772.15 185.16
-9755074.93 5135773.35 185.52
-9755075.83 5135772.21 184.77
-9755075.43 5135773.02 185.34
-9755075.44 5135772.69 185.79
-9755076.51 5135774.31 185.77
-9755076.52 5135773.41 184.70
-9755075.27 5135773.63 185.25
-9755075.89 5135774.99 183.57
-9755075.56 5135771.76 184.26
-9755075.57 5135772.45 185.20
-9755075.36 5135772.50 185.88
-9755075.59 5135773.38 184.69
-9755075.53 5135772.82 186.01
-9755075.64 5135773.86 184.09
-9755075.09 5135772.48 185.37
-9755076.43 5135774.57 185.75
-9755075.47 5135772.11 186.60
-9755076.57 5135774.96 185.22
-9755075.85 5135774.87 184.05
-9755075.79 5135773.42 185.29
-9755075.48 5135778.06 179.33
-9755075.58 5135773.95 185.12
-9755076.02 5135774.07 183.48
-9755076.55 5135774.55 185.42
-9755076.06 5135773.40 185.90
-9755074.27 5135772.17 184.98
-9755074.38 5135771.62 184.96
-9755074.42 5135772.99 185.75
-9755074.15 5135772.48 186.45
-9755074.87 5135772.57 186.09
-9755074.78 5135772.54 186.37
-9755074.69 5135772.81 186.31
-9755075.01 5135772.91 184.75
-9755074.47 5135771.63 185.75
-9755075.04 5135772.78 185.80
-9755074.72 5135772.14 185.85
-9755074.15 5135772.83 186.15
-9755074.72 5135773.06 185.89
-9755066.07 5135777.83 177.91
-9755068.10 5135771.88 178.18
-9755072.00 5135772.50 178.87
-9755066.39 5135772.18 177.96
-9755066.08 5135771.66 177.85
-9755065.79 5135776.64 177.79
-9755066.57 5135777.85 178.05
-9755071.69 5135773.92 178.87
-9755073.45 5135776.72 178.94
-9755066.84 5135774.27 177.77
-9755072.28 5135773.71 179.01
-9755073.73 5135777.20 179.27
-9755068.48 5135772.13 178.29
-9755073.41 5135773.38 179.26
-9755065.74 5135777.88 177.72
-9755073.21 5135774.27 179.11
-9755066.65 5135774.32 178.06
-9755068.63 5135775.66 178.20
-9755070.66 5135774.84 178.71
-9755064.86 5135775.49 177.33
-9755070.45 5135776.64 178.41
-9755067.49 5135774.02 178.09
-9755062.99 5135776.33 176.87
-9755067.85 5135773.36 178.13
-9755070.67 5135774.79 178.72
-9755062.82 5135772.50 177.19
-9755069.88 5135772.51 178.29
-9755067.23 5135774.89 177.99
-9755072.30 5135775.09 179.02
-9755071.14 5135771.86 178.59
-9755065.70 5135773.06 177.91
-9755067.81 5135772.56 178.16
-9755067.56 5135773.02 178.10
-9755065.55 5135777.46 177.70
-9755070.51 5135773.03 178.51
-9755068.13 5135775.42 178.12
-9755071.04 5135773.31 178.74
-9755072.73 5135775.79 178.89
-9755072.25 5135777.82 178.94
-9755066.07 5135774.29 177.82
-9755068.42 5135777.79 178.12
-9755072.23 5135776.01 178.99
-9755068.16 5135772.53 177.97
-9755063.69 5135774.87 177.13
-9755066.06 5135775.45 177.89
-9755070.22 5135773.38 178.61
-9755065.52 5135777.17 177.77
-9755067.28 5135772.50 178.05
-9755065.80 5135771.60 177.72
-9755072.85 5135775.44 179.02
-9755063.43 5135772.23 177.08
-9755070.75 5135777.84 178.56
-9755071.94 5135775.81 178.87
-9755066.98 5135773.94 178.06
-9755070.18 5135777.56 178.46
-9755070.80 5135773.06 178.66
-9755072.17 5135776.21 178.96
-9755066.92 5135773.08 178.02
-9755070.46 5135777.21 178.42
-9755068.21 5135774.33 177.95
-9755064.25 5135777.57 177.26
-9755072.58 5135772.21 178.96
-9755068.98 5135777.21 178.23
-9755065.84 5135774.69 177.78
-9755066.06 5135776.03 177.89
-9755066.71 5135771.85 177.98
-9755061.82 5135785.56 176.50
-9755059.83 5135785.22 176.55
-9755061.01 5135785.26 176.53
-9755062.48 5135783.52 176.47
-9755059.23 5135785.27 176.56
-9755061.60 5135780.86 176.48
-9755061.57 5135783.77 176.50
-9755059.86 5135779.60 176.51
-9755058.31 5135780.18 176.55
-9755058.36 5135778.43 176.54
-9755057.76 5135779.89 176.54
-9755060.69 5135782.31 176.52
-9755058.62 5135778.76 176.54
-9755059.85 5135778.12 176.50
-9755060.97 5135783.18 176.51
-9755059.56 5135778.74 176.52
-9755058.59 5135784.07 176.57
-9755061.88 5135784.08 176.50
-9755060.67 5135784.10 176.54
-9755057.73 5135784.66 176.58
-9755054.19 5135784.90 176.62
-9755055.38 5135784.93 176.62
-9755055.95 5135786.15 176.64
-9755050.36 5135786.08 176.67
-9755052.15 5135785.50 176.66
-9755048.00 5135785.50 176.64
-9755047.41 5135786.34 176.64
-9755041.23 5135786.01 176.56
-9755041.83 5135785.45 176.56
-9755057.81 5135778.11 176.54
-9755052.45 5135780.76 176.61
-9755049.22 5135783.13 176.64
-9755050.73 5135779.88 176.63
-9755050.09 5135778.41 176.62
-9755056.87 5135784.06 176.60
-9755052.72 5135778.40 176.60
-9755048.59 5135781.96 176.60
-9755048.64 5135778.42 176.60
-9755052.16 5135782.86 176.63
-9755050.36 5135782.21 176.63
-9755054.28 5135778.45 176.58
-9755051.52 5135782.85 176.63
-9755056.60 5135782.55 176.59
-9755048.36 5135780.74 176.60
-9755050.67 5135780.80 176.64
-9755056.02 5135779.29 176.58
-9755053.32 5135777.82 176.60
-9755056.30 5135782.84 176.59
-9755050.69 5135778.99 176.62
-9755050.37 5135783.74 176.65
-9755053.07 5135780.75 176.60
-9755048.29 5135782.25 176.60
-9755057.48 5135779.03 176.55
-9755051.55 5135782.25 176.63
-9755056.29 5135779.63 176.57
-9755051.89 5135781.06 176.62
-9755047.78 5135777.77 176.59
-9755047.44 5135781.61 176.60
-9755045.98 5135779.52 176.57
-9755045.04 5135781.61 176.58
-9755044.76 5135783.07 176.59
-9755045.39 5135778.94 176.56
-9755053.60 5135784.34 176.64
-9755056.86 5135785.22 176.60
-9755054.47 5135784.64 176.62
-9755050.67 5135784.58 176.66
-9755045.04 5135783.99 176.60
-9755045.35 5135784.58 176.61
-9755042.76 5135783.10 176.55
-9755044.78 5135780.72 176.57
-9755038.88 5135778.92 176.46
-9755040.31 5135780.10 176.50
-9755040.34 5135783.35 176.53
-9755041.29 5135780.13 176.52
-9755039.18 5135783.11 176.51
-9755042.41 5135780.43 176.52
-9755040.38 5135780.74 176.50
-9755043.60 5135783.97 176.57
-9755043.57 5135780.75 176.55
-9755041.26 5135781.28 176.52
-9755038.89 5135782.51 176.47
-9755043.63 5135780.42 176.56
-9755040.33 5135779.26 176.50
-9755040.43 5135778.34 176.49
-9755041.24 5135779.20 176.50
-9755042.12 5135783.98 176.55
-9755038.56 5135786.34 176.49
-9755036.51 5135784.82 176.80
-9755037.18 5135784.87 176.65
-9755037.75 5135785.10 177.07
-9755037.37 5135784.78 177.63
-9755037.13 5135786.21 177.63
-9755037.37 5135785.73 176.79
-9755037.94 5135784.83 176.48
-9755037.16 5135780.63 177.58
-9755036.31 5135781.74 177.55
-9755038.35 5135778.92 176.43
-9755037.52 5135782.39 176.81
-9755037.68 5135780.41 176.46
-9755037.51 5135783.31 176.62
-9755035.67 5135779.15 176.77
-9755037.55 5135783.73 176.68
-9755037.15 5135779.91 176.36
-9755037.66 5135782.12 176.68
-9755037.50 5135780.63 176.94
-9755035.93 5135779.76 176.77
-9755037.64 5135781.31 176.78
-9755037.85 5135778.02 176.81
-9755036.63 5135781.99 177.60
-9755038.56 5135782.50 176.47
-9755038.60 5135783.33 176.48
-9755038.02 5135778.35 176.43
-9755037.26 5135778.33 176.96
-9755037.96 5135783.06 176.46
-9755037.43 5135781.24 176.50
-9755037.14 5135780.35 177.58
-9755037.33 5135783.39 176.75
-9755037.13 5135779.17 177.56
-9755037.17 5135782.42 177.60
-9755037.64 5135783.56 177.59
-9755037.48 5135781.16 176.91
-9755036.84 5135782.92 177.60
-9755038.26 5135783.94 176.48
-9755037.10 5135784.50 176.32
-9755037.65 5135784.26 176.92
-9755062.26 5135774.26 177.20
-9755058.40 5135776.04 176.52
-9755058.65 5135772.50 176.48
-9755061.61 5135774.34 176.42
-9755058.69 5135773.42 176.49
-9755060.18 5135777.54 176.50
-9755058.95 5135777.88 176.51
-9755059.26 5135774.59 176.49
-9755061.03 5135775.21 176.45
-9755058.39 5135777.56 176.52
-9755059.87 5135775.79 176.49
-9755061.60 5135776.99 176.45
-9755051.27 5135778.06 176.61
-9755051.59 5135775.46 176.59
-9755055.44 5135772.49 176.55
-9755052.47 5135773.05 176.56
-9755048.38 5135777.22 176.58
-9755057.52 5135771.84 176.49
-9755056.89 5135775.72 176.53
-9755048.08 5135773.03 176.56
-9755048.38 5135773.04 176.56
-9755048.33 5135776.62 176.60
-9755051.65 5135773.38 176.56
-9755056.04 5135771.91 176.53
-9755052.78 5135772.76 176.56
-9755053.11 5135773.34 176.56
-9755051.62 5135772.45 176.57
-9755049.55 5135775.41 176.60
-9755053.13 5135772.14 176.55
-9755050.73 5135772.19 176.57
-9755049.26 5135774.53 176.59
-9755056.04 5135773.69 176.53
-9755048.36 5135774.23 176.57
-9755046.03 5135775.98 176.56
-9755045.17 5135773.32 176.53
-9755047.18 5135773.03 176.55
-9755045.39 5135775.67 176.55
-9755045.36 5135776.86 176.55
-9755046.04 5135772.70 176.55
-9755045.12 5135773.59 176.53
-9755047.48 5135772.73 176.55
-9755047.46 5135777.21 176.57
-9755046.62 5135772.20 176.53
-9755045.15 5135774.55 176.53
-9755045.17 5135772.11 176.52
-9755044.24 5135776.31 176.53
-9755042.12 5135776.29 176.50
-9755044.53 5135773.03 176.52
-9755038.93 5135772.42 176.42
-9755044.55 5135775.10 176.53
-9755040.66 5135776.58 176.49
-9755045.13 5135777.77 176.55
-9755040.71 5135774.18 176.47
-9755042.73 5135777.77 176.52
-9755043.09 5135773.95 176.49
-9755043.39 5135771.55 176.49
-9755039.23 5135771.77 176.42
-9755038.63 5135777.72 176.44
-9755037.71 5135776.55 176.43
-9755036.27 5135771.52 176.71
-9755037.07 5135773.70 176.33
-9755036.90 5135775.90 177.56
-9755035.38 5135776.77 176.77
-9755037.15 5135773.28 176.62
-9755036.58 5135776.21 177.57
-9755038.35 5135775.66 176.41
-9755037.01 5135772.64 176.67
-9755037.46 5135773.21 177.53
-9755037.23 5135772.01 177.52
-9755036.88 5135774.14 177.53
-9755037.12 5135775.57 176.57
-9755035.44 5135774.74 176.75
-9755036.35 5135771.76 177.51
-9755037.40 5135774.75 176.49
-9755035.66 5135773.27 176.73
-9755037.45 5135774.75 177.54
-9755037.18 5135773.79 177.21
-9755038.34 5135774.77 176.42
-9755037.29 5135772.51 177.15
-9755037.42 5135777.09 177.15
-9755036.01 5135772.66 176.71
-9755037.74 5135772.12 176.42
-9755037.04 5135776.48 176.37
-9755036.57 5135772.44 176.72
-9755038.07 5135776.24 176.41
-9755037.18 5135776.81 177.54
-9755037.51 5135774.39 177.52
-9755037.37 5135773.82 177.10
-9755034.14 5135786.25 176.87
-9755032.09 5135786.24 176.91
-9755030.93 5135784.77 176.92
-9755033.27 5135786.28 176.90
-9755033.01 5135785.67 176.90
-9755030.92 5135785.64 176.93
-9755033.57 5135785.66 176.88
-9755035.36 5135781.58 176.80
-9755034.73 5135782.12 176.82
-9755035.33 5135779.78 176.79
-9755035.34 5135782.49 176.80
-9755032.39 5135784.74 176.90
-9755030.30 5135783.86 176.92
-9755028.88 5135779.42 176.92
-9755032.98 5135781.52 176.88
-9755029.76 5135778.58 176.89
-9755032.46 5135778.30 176.87
-9755031.55 5135781.54 176.89
-9755030.64 5135778.27 176.88
-9755030.04 5135782.40 176.93
-9755031.82 5135782.40 176.89
-9755031.23 5135781.82 176.89
-9755033.84 5135784.49 176.87
-9755035.12 5135772.96 176.74
-9755034.25 5135776.51 176.79
-9755031.24 5135777.71 176.87
-9755033.91 5135777.39 176.81
-9755029.51 5135777.65 176.90
-9755032.42 5135777.38 176.85
-9755033.33 5135774.13 176.80
-9755031.60 5135772.32 176.82
-9755029.78 5135777.37 176.88
-9755030.36 5135775.88 176.87
-9755033.93 5135773.57 176.78
-9755029.81 5135774.41 176.86
-9755077.56 5135770.20 182.74
-9755080.61 5135768.01 181.97
-9755077.07 5135759.54 182.62
-9755078.08 5135770.67 182.03
-9755077.68 5135764.65 182.83
-9755078.54 5135761.01 182.28
-9755081.45 5135764.41 183.19
-9755081.24 5135761.71 181.81
-9755079.47 5135760.58 180.98
-9755078.80 5135769.66 183.13
-9755081.36 5135769.42 183.29
-9755078.81 5135769.32 182.87
-9755078.28 5135758.84 181.42
-9755078.13 5135762.31 181.50
-9755078.46 5135768.58 182.27
-9755079.33 5135767.31 181.45
-9755081.20 5135765.84 182.69
-9755078.30 5135759.35 181.98
-9755080.03 5135764.94 182.37
-9755078.85 5135760.54 182.37
-9755080.40 5135764.21 181.64
-9755080.91 5135770.00 182.72
-9755079.20 5135759.67 180.90
-9755081.22 5135763.46 183.10
-9755081.50 5135760.63 180.75
-9755079.96 5135770.56 182.43
-9755076.75 5135770.57 183.87
-9755077.12 5135759.36 183.12
-9755080.55 5135766.28 182.67
-9755080.26 5135765.85 182.86
-9755080.89 5135765.99 183.14
-9755076.77 5135769.66 182.85
-9755077.20 5135761.44 182.21
-9755078.81 5135760.19 182.42
-9755080.38 5135767.09 182.65
-9755079.65 5135763.96 181.11
-9755077.61 5135762.24 183.31
-9755079.69 5135762.57 181.91
-9755079.21 5135760.60 180.99
-9755078.37 5135762.95 181.40
-9755079.96 5135765.57 181.51
-9755078.47 5135768.10 182.62
-9755078.22 5135767.65 181.86
-9755077.10 5135761.95 182.27
-9755081.24 5135766.84 180.60
-9755079.17 5135761.08 182.21
-9755076.97 5135770.58 183.18
-9755078.07 5135770.41 185.71
-9755081.26 5135769.40 181.57
-9755078.19 5135762.30 182.18
-9755078.05 5135759.88 181.30
-9755079.94 5135770.26 182.65
-9755078.30 5135760.23 182.34
-9755080.02 5135759.45 181.10
-9755077.63 5135759.66 182.26
-9755079.99 5135769.94 183.26
-9755080.55 5135770.00 182.90
-9755080.06 5135762.55 182.26
-9755077.89 5135761.43 182.24
-9755078.53 5135766.53 181.46
-9755080.04 5135769.70 182.67
-9755079.92 5135769.75 181.89
-9755078.97 5135759.67 181.56
-9755081.25 5135760.58 181.67
-9755080.97 5135764.42 181.98
-9755081.02 5135760.01 180.33
-9755079.99 5135766.79 181.64
-9755081.23 5135766.36 183.06
-9755078.79 5135766.81 181.58
-9755078.88 5135765.22 182.69
-9755077.52 5135770.17 183.11
-9755079.70 5135764.26 181.16
-9755077.48 5135763.48 181.89
-9755079.70 5135764.37 182.40
-9755079.13 5135765.39 183.23
-9755077.04 5135764.93 182.63
-9755080.52 5135760.58 181.65
-9755080.26 5135762.01 182.35
-9755078.82 5135763.86 182.24
-9755081.50 5135765.49 182.72
-9755077.03 5135765.59 182.36
-9755079.32 5135764.63 182.87
-9755077.56 5135762.59 181.87
-9755079.18 5135767.60 182.37
-9755078.19 5135762.32 181.16
-9755078.22 5135766.56 181.19
-9755079.66 5135766.42 182.24
-9755077.11 5135766.33 180.80
-9755078.52 5135767.27 182.34
-9755078.34 5135760.27 182.58
-9755079.99 5135770.38 182.91
-9755079.68 5135767.91 182.53
-9755080.91 5135765.26 181.81
-9755077.58 5135769.28 182.86
-9755079.87 5135764.63 181.92
-9755079.20 5135762.30 182.31
-9755078.23 5135759.38 181.36
-9755076.69 5135767.94 180.77
-9755078.76 5135760.85 181.68
-9755078.53 5135764.23 180.86
-9755078.01 5135763.18 183.78
-9755079.14 5135759.49 180.19
-9755080.91 5135763.83 182.61
-9755078.80 5135765.61 181.05
-9755080.85 5135765.24 183.23
-9755080.05 5135769.17 181.95
-9755078.04 5135761.95 180.68
-9755080.75 5135763.79 180.53
-9755076.82 5135761.81 182.09
-9755079.14 5135770.20 183.08
-9755079.66 5135763.44 181.82
-9755076.77 5135766.48 180.72
-9755080.66 5135764.46 182.87
-9755081.24 5135759.14 181.55
-9755080.22 5135765.21 181.83
-9755076.80 5135763.99 182.76
-9755079.77 5135769.98 182.81
-9755080.59 5135768.75 182.34
-9755078.25 5135758.81 181.01
-9755079.93 5135768.84 181.37
-9755081.15 5135761.82 181.00
-9755080.70 5135766.48 182.51
-9755080.05 5135760.55 181.76
-9755080.10 5135759.67 181.86
-9755077.97 5135770.59 184.49
-9755078.58 5135765.56 181.06
-9755077.96 5135766.44 181.62
-9755077.63 5135765.06 179.77
-9755076.80 5135759.35 182.89
-9755077.47 5135759.86 182.06
-9755078.53 5135768.79 183.19
-9755076.79 5135762.00 181.01
-9755081.39 5135767.02 183.12
-9755080.00 5135767.64 182.12
-9755077.38 5135760.52 182.21
-9755078.27 5135764.96 182.26
-9755080.98 5135770.37 181.88
-9755078.01 5135767.44 181.86
-9755080.80 5135770.36 182.59
-9755081.47 5135762.75 181.16
-9755080.36 5135770.29 183.09
-9755079.24 5135765.22 182.86
-9755078.47 5135769.01 182.55
-9755077.17 5135767.03 180.27
-9755078.36 5135760.93 182.76
-9755079.81 5135759.39 182.20
-9755078.08 5135768.71 182.06
-9755077.21 5135759.93 181.55
-9755079.76 5135764.96 182.34
-9755077.37 5135759.32 182.29
-9755080.94 5135765.09 182.91
-9755077.40 5135759.38 182.22
-9755078.91 5135766.69 182.37
-9755077.70 5135765.60 180.79
-9755080.64 5135760.02 180.53
-9755077.92 5135762.15 179.91
-9755079.15 5135765.85 181.50
-9755079.16 5135770.52 183.30
-9755077.53 5135765.64 180.91
-9755078.22 5135766.46 181.74
-9755077.67 5135760.13 182.09
-9755080.53 5135763.78 182.30
-9755078.54 5135769.10 182.77
-9755076.84 5135759.59 183.08
-9755077.91 5135761.67 181.86
-9755080.43 5135761.95 182.29
-9755077.08 5135765.89 181.06
-9755078.47 5135763.00 181.13
-9755077.70 5135759.07 181.92
-9755080.96 5135761.55 180.97
-9755077.97 5135770.82 183.45
-9755078.07 5135762.84 182.23
-9755079.32 5135761.13 181.60
-9755080.63 5135770.56 182.86
-9755080.94 5135765.55 183.21
-9755077.01 5135766.18 181.06
-9755081.01 5135769.12 181.39
-9755078.05 5135764.69 179.92
-9755078.43 5135765.28 181.09
-9755079.63 5135769.90 183.41
-9755079.84 5135761.66 181.39
-9755077.59 5135766.88 180.62
-9755080.54 5135766.38 183.06
-9755079.28 5135760.26 182.00
-9755077.06 5135769.70 181.34
-9755077.01 5135764.68 181.87
-9755077.63 5135759.04 182.24
-9755079.88 5135758.85 180.36
-9755080.01 5135763.86 181.83
-9755080.11 5135760.23 181.67
-9755079.17 5135759.10 181.71
-9755077.70 5135762.47 181.71
-9755077.63 5135760.64 180.72
-9755077.49 5135762.77 183.66
-9755079.63 5135762.62 182.93
-9755079.05 5135762.67 181.60
-9755080.06 5135767.65 182.72
-9755076.99 5135770.36 185.81
-9755077.20 5135766.72 181.17
-9755081.46 5135770.36 181.38
-9755078.26 5135763.07 183.01
-9755077.64 5135760.25 181.67
-9755078.24 5135769.66 182.91
-9755076.79 5135770.34 186.00
-9755078.19 5135765.03 179.91
-9755077.60 5135769.63 181.36
-9755077.68 5135763.51 181.08
-9755076.74 5135769.88 185.59
-9755081.23 5135769.75 183.20
-9755079.61 5135765.20 181.50
-9755077.62 5135762.00 180.78
-9755081.43 5135768.18 182.40
-9755077.25 5135770.45 186.03
-9755078.86 5135760.31 181.02
-9755080.37 5135767.16 182.10
-9755078.37 5135763.48 183.14
-9755081.32 5135766.61 181.23
-9755079.92 5135760.23 181.15
-9755078.70 5135763.45 183.42
-9755078.84 5135759.36 181.58
-9755079.15 5135766.44 182.31
-9755077.05 5135763.81 181.59
-9755077.55 5135765.05 181.67
-9755081.18 5135770.86 183.15
-9755077.59 5135769.17 181.23
-9755078.33 5135761.55 181.72
-9755078.75 5135763.16 181.78
-9755081.23 5135765.55 183.15
-9755078.90 5135763.44 182.26
-9755079.35 5135762.26 182.63
-9755077.91 5135760.17 182.03
-9755079.79 5135759.34 181.57
-9755079.93 5135764.48 181.93
-9755079.71 5135763.72 183.05
-9755078.13 5135766.34 182.50
-9755081.18 5135762.29 181.90
-9755076.83 5135770.14 185.36
-9755080.12 5135759.12 181.63
-9755077.66 5135766.48 181.56
-9755080.11 5135761.02 182.19
-9755080.07 5135760.25 182.20
-9755077.42 5135759.49 182.66
-9755079.19 5135765.17 182.37
-9755078.53 5135759.89 182.17
-9755078.18 5135769.58 183.28
-9755077.10 5135769.93 185.29
-9755077.16 5135765.81 182.32
-9755078.04 5135763.54 181.99
-9755078.31 5135760.49 182.58
-9755077.88 5135767.39 181.49
-9755081.26 5135759.71 180.69
-9755081.20 5135769.97 181.18
-9755080.07 5135759.63 181.10
-9755077.94 5135765.63 181.21
-9755077.07 5135764.66 182.48
-9755081.01 5135760.92 181.44
-9755077.15 5135762.59 182.43
-9755078.50 5135770.78 185.10
-9755078.23 5135764.72 181.43
-9755077.94 5135759.56 182.15
-9755080.07 5135763.09 183.18
-9755077.33 5135759.44 181.31
-9755080.58 5135766.75 182.41
-9755078.19 5135763.84 183.61
-9755081.17 5135760.85 181.26
-9755081.45 5135767.73 183.23
-9755077.51 5135762.10 180.03
-9755078.79 5135767.32 182.35
-9755078.13 5135770.40 186.36
-9755076.76 5135766.75 181.32
-9755077.15 5135770.42 184.63
-9755081.14 5135765.05 180.66
-9755079.16 5135764.71 181.91
-9755079.69 5135758.91 181.15
-9755078.71 5135769.60 181.83
-9755081.30 5135763.50 181.73
-9755080.62 5135765.84 183.06
-9755078.32 5135759.74 181.71
-9755079.49 5135770.22 183.29
-9755081.48 5135763.72 182.78
-9755079.46 5135766.55 180.17
-9755078.55 5135760.49 180.99
-9755078.23 5135761.77 179.94
-9755078.54 5135758.88 180.10
-9755078.93 5135767.97 182.08
-9755079.63 5135766.88 180.81
-9755078.17 5135764.26 181.51
-9755077.41 5135762.58 183.30
-9755078.36 5135771.28 185.11
-9755080.57 5135770.92 183.37
-9755078.25 5135770.87 182.46
-9755079.97 5135770.90 182.01
-9755079.03 5135772.24 180.11
-9755077.11 5135770.74 185.91
-9755079.73 5135771.15 182.79
-9755078.07 5135771.47 182.97
-9755081.20 5135771.02 181.70
-9755078.22 5135770.52 184.48
-9755081.38 5135771.25 182.24
-9755080.25 5135771.45 182.97
-9755078.28 5135770.86 183.59
-9755078.61 5135770.83 183.24
-9755080.65 5135770.89 182.46
-9755077.95 5135770.96 184.53
-9755077.23 5135770.79 182.94
-9755081.42 5135771.44 182.81
-9755078.85 5135771.36 185.24
-9755078.56 5135770.99 184.90
-9755078.04 5135770.98 185.84
-9755078.41 5135771.33 184.71
-9755078.82 5135770.80 183.17
-9755077.62 5135771.02 182.75
-9755078.80 5135771.04 184.35
-9755078.61 5135771.51 186.41
-9755078.56 5135771.32 186.77
-9755078.23 5135770.99 185.85
-9755079.05 5135770.85 183.13
-9755080.25 5135771.60 182.02
-9755081.47 5135771.40 183.41
-9755077.45 5135771.26 186.33
-9755076.80 5135770.94 186.41
-9755077.87 5135771.05 181.84
-9755079.17 5135771.06 184.14
-9755077.10 5135770.96 186.46
-9755076.56 5135768.95 181.98
-9755075.59 5135760.20 182.04
-9755076.44 5135767.10 180.74
-9755075.83 5135764.65 182.41
-9755076.76 5135765.83 181.37
-9755076.28 5135761.21 181.13
-9755076.69 5135762.99 179.57
-9755076.43 5135769.87 179.51
-9755076.18 5135765.85 180.43
-9755076.48 5135764.61 182.33
-9755075.54 5135765.17 181.57
-9755075.33 5135767.07 180.95
-9755076.30 5135764.03 181.93
-9755076.33 5135759.96 182.36
-9755075.83 5135764.77 180.94
-9755076.24 5135759.84 183.02
-9755075.60 5135759.83 182.17
-9755075.77 5135767.07 180.41
-9755075.85 5135768.79 180.32
-9755075.65 5135770.47 184.58
-9755076.45 5135761.00 181.92
-9755075.58 5135766.44 180.59
-9755075.48 5135768.60 180.45
-9755076.41 5135762.69 182.13
-9755075.61 5135765.26 181.02
-9755075.93 5135759.86 181.26
-9755076.49 5135765.85 180.81
-9755075.67 5135760.20 181.45
-9755075.57 5135762.35 181.77
-9755076.53 5135765.63 180.77
-9755075.63 5135762.01 181.66
-9755076.56 5135765.74 182.02
-9755075.62 5135766.81 180.99
-9755075.05 5135767.93 180.26
-9755075.22 5135763.90 181.54
-9755075.86 5135766.26 180.55
-9755075.58 5135770.39 184.71
-9755075.65 5135765.65 181.44
-9755076.23 5135760.50 182.77
-9755076.44 5135761.69 182.25
-9755075.57 5135761.04 180.94
-9755076.30 5135767.98 181.44
-9755075.70 5135760.57 182.54
-9755075.87 5135771.03 185.23
-9755075.89 5135762.07 180.12
-9755075.60 5135760.49 181.49
-9755076.50 5135769.18 181.98
-9755076.43 5135762.21 182.78
-9755075.50 5135764.55 181.48
-9755076.18 5135763.43 180.74
-9755076.46 5135760.55 181.66
-9755076.14 5135768.27 181.33
-9755076.72 5135767.61 181.69
-9755075.01 5135767.34 180.86
-9755075.09 5135767.01 180.94
-9755075.06 5135766.74 180.99
-9755074.68 5135767.16 180.12
-9755073.99 5135767.03 179.56
-9755074.72 5135766.24 180.79
-9755074.38 5135765.32 180.87
-9755075.00 5135769.14 181.05
-9755075.97 5135770.98 185.54
-9755075.95 5135771.41 184.66
-9755075.68 5135771.27 185.08
-9755075.05 5135771.01 184.04
-9755068.19 5135764.93 178.27
-9755070.21 5135769.18 178.60
-9755068.17 5135765.35 178.26
-9755073.08 5135770.12 179.05
-9755067.04 5135762.46 178.00
-9755072.55 5135766.54 179.02
-9755066.74 5135765.99 177.73
-9755067.60 5135762.39 178.29
-9755071.71 5135768.95 178.65
-9755068.50 5135759.75 178.28
-9755071.75 5135760.02 178.86
-9755070.89 5135765.42 178.72
-9755068.20 5135761.50 178.19
-9755067.57 5135765.96 178.02
-9755067.09 5135759.21 178.00
-9755070.61 5135762.36 178.69
-9755066.65 5135770.41 177.97
-9755072.37 5135761.50 178.91
-9755068.96 5135760.34 178.34
-9755068.43 5135770.38 178.32
-9755069.30 5135769.51 178.32
-9755068.49 5135761.87 178.26
-9755068.19 5135761.21 178.27
-9755067.64 5135763.90 178.14
-9755072.91 5135765.67 179.04
-9755067.81 5135769.56 178.13
-9755070.55 5135766.51 178.56
-9755063.74 5135760.69 177.18
-9755066.91 5135767.45 177.73
-9755067.60 5135764.22 178.13
-9755066.08 5135767.51 177.80
-9755068.17 5135769.55 178.05
-9755071.96 5135767.37 178.87
-9755067.67 5135763.60 178.08
-9755069.06 5135766.50 178.32
-9755069.66 5135765.95 178.36
-9755071.80 5135764.49 178.67
-9755070.70 5135763.64 178.53
-9755070.57 5135761.53 178.46
-9755062.93 5135761.56 177.01
-9755063.48 5135763.32 177.10
-9755071.75 5135763.08 178.88
-9755063.11 5135769.24 177.08
-9755067.25 5135769.53 178.04
-9755066.65 5135769.76 177.82
-9755068.13 5135762.41 178.20
-9755068.76 5135764.25 178.22
-9755068.48 5135760.07 178.28
-9755065.80 5135764.81 177.56
-9755068.44 5135770.15 178.25
-9755067.04 5135767.43 178.02
-9755070.84 5135768.36 178.52
-9755071.99 5135762.35 178.96
-9755066.15 5135768.93 177.72
-9755071.09 5135768.87 178.63
-9755071.42 5135768.64 178.86
-9755067.32 5135762.69 178.16
-9755070.25 5135770.61 178.59
-9755067.88 5135770.12 178.15
-9755068.47 5135764.24 178.06
-9755067.58 5135768.33 178.00
-9755070.46 5135767.46 178.58
-9755071.68 5135765.35 178.88
-9755069.67 5135760.66 178.27
-9755063.48 5135761.25 177.13
-9755062.57 5135768.08 177.16
-9755073.49 5135765.98 178.97
-9755073.07 5135769.23 179.09
-9755068.84 5135763.95 178.27
-9755072.40 5135766.79 179.04
-9755072.65 5135761.16 179.06
-9755073.17 5135763.89 179.23
-9755070.88 5135769.52 178.70
-9755065.20 5135769.24 177.42
-9755066.10 5135766.89 177.80
-9755068.22 5135760.64 178.02
-9755067.83 5135768.64 177.89
-9755072.60 5135768.27 178.88
-9755071.09 5135770.35 178.72
-9755070.21 5135766.59 178.57
-9755067.62 5135761.75 178.09
-9755067.68 5135761.48 178.19
-9755070.00 5135759.48 178.47
-9755071.44 5135761.51 178.85
-9755072.34 5135764.82 178.90
-9755070.58 5135761.78 178.65
-9755067.57 5135765.07 177.86
-9755070.32 5135768.34 178.65
-9755069.11 5135762.11 178.17
-9755070.20 5135765.96 178.48
-9755071.78 5135763.89 178.79
-9755062.88 5135768.38 177.13
-9755067.03 5135760.78 178.18
-9755067.21 5135769.27 178.08
-9755069.91 5135764.75 178.32
-9755063.16 5135760.68 177.08
-9755066.14 5135765.70 177.63
-9755067.86 5135770.45 178.07
-9755067.03 5135768.89 178.09
-9755067.57 5135766.00 177.89
-9755069.37 5135770.46 178.40
-9755071.41 5135767.72 178.90
-9755068.65 5135768.65 178.24
-9755067.16 5135763.28 178.06
-9755068.12 5135771.32 178.18
-9755063.15 5135770.74 177.09
-9755067.32 5135771.31 178.04
-9755066.06 5135771.33 177.90
-9755066.99 5135771.32 177.91
-9755078.57 5135756.42 182.49
-9755078.79 5135756.46 182.42
-9755078.00 5135756.02 184.27
-9755079.80 5135756.00 182.33
-9755078.18 5135756.11 182.65
-9755078.31 5135756.13 183.47
-9755079.78 5135756.97 182.44
-9755079.16 5135757.02 181.71
-9755078.28 5135756.54 184.05
-9755077.99 5135756.38 181.77
-9755078.97 5135756.20 183.13
-9755081.25 5135756.47 180.67
-9755078.50 5135756.44 183.60
-9755078.28 5135756.38 183.11
-9755078.35 5135756.36 182.05
-9755078.26 5135757.45 184.45
-9755078.95 5135756.62 183.01
-9755078.73 5135755.99 183.73
-9755078.29 5135756.02 182.44
-9755079.08 5135756.07 183.05
-9755078.27 5135757.05 181.83
-9755078.29 5135756.50 184.82
-9755077.09 5135756.87 181.64
-9755077.48 5135756.64 184.78
-9755078.14 5135756.78 184.81
-9755076.90 5135756.67 182.87
-9755078.92 5135756.24 183.81
-9755078.01 5135756.94 181.99
-9755079.77 5135756.06 181.48
-9755078.98 5135755.87 182.15
-9755078.11 5135756.24 181.54
-9755080.34 5135756.14 182.13
-9755077.39 5135756.55 183.38
-9755080.49 5135756.06 180.84
-9755080.41 5135757.30 181.93
-9755079.76 5135756.50 181.54
-9755077.14 5135756.39 181.72
-9755079.76 5135756.95 182.86
-9755078.45 5135755.92 184.70
-9755079.41 5135755.93 180.94
-9755079.20 5135756.10 182.67
-9755077.87 5135756.38 184.37
-9755079.16 5135756.36 181.72
-9755078.28 5135755.57 181.12
-9755080.40 5135756.07 182.23
-9755080.00 5135757.01 182.32
-9755078.93 5135756.92 183.01
-9755077.95 5135757.06 180.96
-9755079.51 5135759.05 181.80
-9755078.75 5135758.46 182.03
-9755077.13 5135758.48 181.45
-9755081.24 5135756.79 180.67
-9755077.90 5135757.44 183.95
-9755080.95 5135758.11 182.47
-9755078.57 5135758.20 181.55
-9755081.26 5135758.45 181.78
-9755079.27 5135758.07 181.80
-9755080.90 5135757.06 182.27
-9755077.66 5135757.71 184.02
-9755080.38 5135757.29 182.24
-9755080.08 5135757.79 181.93
-9755078.00 5135757.92 182.27
-9755078.86 5135758.14 182.04
-9755078.35 5135757.18 183.16
-9755077.18 5135757.34 184.82
-9755079.18 5135757.17 184.54
-9755078.38 5135758.50 181.84
-9755080.13 5135757.63 181.46
-9755080.38 5135758.44 181.91
-9755076.81 5135757.57 181.94
-9755078.83 5135757.62 184.50
-9755079.15 5135757.26 182.40
-9755078.89 5135757.30 181.74
-9755077.72 5135757.66 181.54
-9755079.44 5135759.04 181.15
-9755079.74 5135757.26 181.94
-9755079.15 5135758.50 181.76
-9755080.89 5135759.12 181.12
-9755078.69 5135757.52 184.10
-9755079.25 5135757.32 182.13
-9755077.14 5135758.29 183.14
-9755079.73 5135758.17 181.87
-9755077.56 5135757.23 182.35
-9755081.03 5135757.25 182.28
-9755080.06 5135757.91 180.89
-9755077.39 5135758.35 183.10
-9755080.11 5135758.72 181.88
-9755077.12 5135757.13 183.52
-9755080.63 5135757.62 181.99
-9755079.40 5135758.56 180.74
-9755079.07 5135758.09 183.39
-9755078.10 5135758.11 184.41
-9755079.74 5135758.12 180.79
-9755080.99 5135757.89 182.45
-9755080.99 5135757.23 181.98
-9755080.59 5135758.40 182.33
-9755077.95 5135758.43 182.16
-9755076.85 5135758.06 182.06
-9755079.69 5135758.17 182.31
-9755077.34 5135758.09 182.26
-9755076.75 5135757.25 183.20
-9755079.00 5135757.33 181.42
-9755080.01 5135758.74 181.20
-9755078.94 5135757.72 185.20
-9755077.46 5135751.13 180.60
-9755077.12 5135755.85 183.88
-9755078.32 5135749.20 183.60
-9755078.39 5135749.90 181.86
-9755077.68 5135752.14 181.15
-9755077.70 5135749.87 181.75
-9755078.01 5135751.72 180.08
-9755078.00 5135749.36 180.18
-9755081.47 5135755.59 180.72
-9755077.46 5135748.02 183.42
-9755077.17 5135752.03 181.04
-9755078.29 5135755.14 182.66
-9755078.14 5135748.36 183.26
-9755080.63 5135755.17 182.27
-9755078.87 5135750.81 182.76
-9755078.25 5135754.48 184.04
-9755077.90 5135749.05 183.25
-9755078.51 5135747.99 183.28
-9755081.36 5135745.07 185.45
-9755081.29 5135752.90 181.53
-9755078.04 5135750.68 182.09
-9755081.26 5135745.85 185.83
-9755076.97 5135750.01 182.13
-9755078.55 5135754.02 182.03
-9755081.23 5135755.12 182.05
-9755077.24 5135750.44 182.52
-9755077.57 5135750.83 181.13
-9755078.40 5135749.88 184.23
-9755078.08 5135752.20 181.43
-9755080.37 5135752.80 182.57
-9755078.71 5135754.28 183.60
-9755077.45 5135753.07 182.55
-9755078.11 5135749.96 180.54
-9755080.96 5135744.45 185.22
-9755079.78 5135755.24 182.89
-9755077.58 5135750.18 182.90
-9755078.30 5135754.57 181.58
-9755080.09 5135755.51 180.75
-9755077.66 5135748.49 185.45
-9755077.17 5135750.44 183.54
-9755077.05 5135750.62 181.80
-9755081.28 5135745.67 184.36
-9755077.48 5135752.33 180.78
-9755077.72 5135748.35 181.91
-9755081.33 5135752.04 181.72
-9755078.87 5135755.24 181.66
-9755081.38 5135746.23 184.84
-9755078.00 5135755.12 182.74
-9755081.26 5135754.31 182.25
-9755078.69 5135753.92 183.12
-9755078.92 5135753.18 181.59
-9755077.12 5135751.67 180.60
-9755077.67 5135751.41 180.17
-9755078.09 5135748.91 182.83
-9755077.77 5135753.31 181.31
-9755078.34 5135748.19 180.21
-9755078.33 5135748.23 182.58
-9755077.15 5135750.98 181.92
-9755079.78 5135755.21 181.54
-9755079.45 5135750.82 180.38
-9755078.01 5135749.31 181.48
-9755078.03 5135752.61 180.91
-9755077.19 5135749.48 184.66
-9755077.55 5135748.24 184.42
-9755081.33 5135747.28 180.85
-9755081.29 5135748.77 180.84
-9755081.31 5135753.02 181.48
-9755078.56 5135748.77 181.83
-9755079.72 5135754.78 182.88
-9755078.96 5135752.81 181.52
-9755077.67 5135750.74 181.48
-9755077.48 5135748.44 185.47
-9755077.47 5135747.33 182.84
-9755080.47 5135753.00 182.47
-9755077.61 5135752.94 181.14
-9755078.93 5135748.13 182.81
-9755076.58 5135756.07 181.70
-9755077.77 5135749.06 181.90
-9755078.01 5135755.75 181.15
-9755079.77 5135753.22 184.18
-9755081.24 5135751.22 181.68
-9755077.95 5135748.37 184.17
-9755077.68 5135749.62 183.76
-9755081.01 5135745.69 186.54
-9755077.98 5135752.86 180.45
-9755079.41 5135748.74 182.69
-9755076.99 5135748.62 183.03
-9755078.90 5135754.90 180.87
-9755077.48 5135755.15 183.95
-9755078.09 5135751.62 181.54
-9755077.99 5135749.46 182.22
-9755080.41 5135749.34 180.61
-9755079.36 5135754.92 182.78
-9755077.45 5135748.53 182.97
-9755081.23 5135744.37 184.76
-9755080.99 5135753.40 182.55
-9755077.03 5135752.01 180.20
-9755077.05 5135755.74 184.29
-9755080.04 5135755.54 181.80
-9755077.15 5135750.98 182.37
-9755080.39 5135750.25 180.59
-9755077.99 5135753.66 182.19
-9755077.43 5135754.33 182.66
-9755079.83 5135751.13 180.47
-9755080.13 5135746.99 180.55
-9755079.19 5135748.46 180.38
-9755076.99 5135746.59 183.13
-9755080.28 5135753.59 183.88
-9755076.57 5135752.73 183.14
-9755081.05 5135745.46 186.55
-9755077.87 5135750.42 181.66
-9755077.83 5135755.30 183.50
-9755077.62 5135746.88 182.94
-9755079.52 5135748.45 180.42
-9755077.50 5135750.97 182.39
-9755080.97 5135755.74 181.87
-9755081.10 5135746.77 184.48
-9755077.59 5135749.85 181.02
-9755078.86 5135748.76 182.76
-9755080.07 5135749.35 180.54
-9755080.58 5135754.93 181.66
-9755080.73 5135752.11 182.62
-9755077.50 5135751.07 181.52
-9755077.97 5135752.09 181.46
-9755077.13 5135751.45 181.59
-9755079.18 5135755.17 181.59
-9755076.90 5135750.26 179.86
-9755077.94 5135754.80 182.04
-9755076.94 5135755.72 181.84
-9755080.32 5135751.77 182.53
-9755077.91 5135750.88 182.57
-9755080.69 5135753.10 183.97
-9755081.30 5135753.05 183.12
-9755077.80 5135750.80 180.72
-9755078.03 5135750.22 183.99
-9755080.12 5135753.07 182.65
-9755077.07 5135752.79 182.63
-9755078.67 5135749.35 180.29
-9755081.25 5135753.45 184.36
-9755077.64 5135751.05 182.00
-9755078.89 5135754.39 181.55
-9755077.34 5135754.99 184.44
-9755077.69 5135750.78 182.72
-9755077.11 5135753.12 182.54
-9755080.06 5135749.06 180.55
-9755077.62 5135752.22 181.42
-9755080.40 5135754.07 181.16
-9755077.74 5135748.27 184.90
-9755079.18 5135751.10 180.79
-9755078.31 5135754.00 183.09
-9755078.23 5135749.81 182.62
-9755080.12 5135754.97 181.54
-9755080.36 5135753.43 180.77
-9755079.01 5135754.88 182.72
-9755078.28 5135754.74 183.71
-9755077.44 5135750.44 180.81
