-9755090.63 5135338.00 190.59
-9755091.50 5135342.31 185.72
-9755084.93 5135345.70 181.46
-9755089.84 5135344.88 181.41
-9755084.29 5135343.07 181.47
-9755091.41 5135337.69 187.70
-9755086.40 5135337.75 181.44
-9755088.16 5135346.38 181.41
-9755092.02 5135338.88 186.78
-9755091.16 5135337.47 188.26
-9755091.10 5135344.95 181.37
-9755090.57 5135339.63 181.38
-9755089.95 5135338.39 181.38
-9755091.13 5135337.49 181.34
-9755088.72 5135342.48 181.42
-9755091.72 5135339.86 181.34
-9755090.69 5135337.09 189.94
-9755084.63 5135342.52 181.43
-9755083.13 5135345.44 181.44
-9755091.29 5135338.02 190.13
-9755085.46 5135340.14 181.45
-9755091.07 5135342.24 181.38
-9755085.76 5135346.33 181.45
-9755085.83 5135338.07 181.45
-9755086.72 5135337.16 181.43
-9755088.80 5135340.19 181.41
-9755085.81 5135343.40 181.45
-9755091.39 5135340.79 181.34
-9755081.98 5135344.90 181.60
-9755086.65 5135343.07 181.44
-9755088.70 5135346.33 181.42
-9755089.04 5135339.32 181.42
-9755090.84 5135336.58 187.14
-9755087.85 5135345.19 181.43
-9755086.35 5135345.20 181.44
-9755089.92 5135338.00 190.77
-9755090.96 5135337.60 190.55
-9755083.45 5135337.44 181.46
-9755091.60 5135339.25 189.35
-9755083.10 5135346.04 181.45
-9755091.26 5135337.17 188.46
-9755084.84 5135345.45 181.46
-9755086.65 5135346.35 181.43
-9755084.66 5135337.73 181.46
-9755090.23 5135337.52 181.37
-9755083.70 5135346.36 181.44
-9755091.46 5135337.49 188.26
-9755092.28 5135336.29 190.38
-9755084.59 5135340.72 181.46
-9755089.94 5135339.85 181.38
-9755091.98 5135337.70 188.15
-9755085.50 5135338.33 181.45
-9755092.04 5135339.96 191.41
-9755085.18 5135341.57 181.44
-9755091.57 5135342.18 189.48
-9755092.53 5135336.39 187.32
-9755091.50 5135340.97 189.49
-9755081.57 5135346.57 182.46
-9755089.96 5135340.76 181.39
-9755083.17 5135339.24 181.47
-9755087.30 5135343.15 181.42
-9755090.84 5135343.02 189.74
-9755092.11 5135342.29 191.65
-9755087.25 5135341.03 181.43
-9755090.89 5135341.71 190.37
-9755091.44 5135343.01 189.67
-9755090.89 5135336.55 188.46
-9755091.14 5135341.67 181.36
-9755091.89 5135338.86 189.24
-9755091.97 5135340.79 181.34
-9755092.09 5135336.78 189.80
-9755090.46 5135345.18 181.40
-9755091.42 5135338.58 187.91
-9755091.55 5135342.78 190.57
-9755091.65 5135343.03 188.63
-9755087.59 5135345.74 181.44
-9755082.91 5135336.87 181.49
-9755081.97 5135338.33 181.51
-9755089.98 5135343.13 181.38
-9755092.16 5135340.10 188.06
-9755086.66 5135344.87 181.43
-9755087.87 5135343.71 181.43
-9755092.07 5135336.34 187.04
-9755092.06 5135343.80 186.84
-9755091.73 5135338.17 186.90
-9755091.45 5135339.26 181.34
-9755087.58 5135337.20 181.44
-9755086.64 5135338.34 181.43
-9755091.72 5135338.05 187.91
-9755090.58 5135343.66 181.39
-9755091.13 5135340.77 181.36
-9755091.15 5135337.97 185.97
-9755081.97 5135343.95 181.61
-9755082.01 5135341.60 181.61
-9755132.50 5135336.94 190.74
-9755133.36 5135318.80 181.49
-9755133.72 5135318.56 181.51
-9755121.08 5135318.72 181.49
-9755130.73 5135318.99 182.65
-9755131.64 5135318.96 182.62
-9755130.77 5135319.58 182.58
-9755124.47 5135319.33 181.51
-9755124.91 5135318.58 181.50
-9755131.69 5135319.89 182.55
-9755125.81 5135319.35 181.91
-9755132.27 5135318.69 182.63
-9755133.08 5135319.44 181.49
-9755126.94 5135319.61 182.49
-9755131.00 5135319.33 182.60
-9755130.75 5135318.65 182.67
-9755132.20 5135319.94 182.54
-9755127.58 5135319.84 182.47
-9755131.68 5135319.55 182.59
-9755124.21 5135319.57 181.51
-9755131.92 5135319.29 182.60
-9755123.65 5135318.64 182.43
-9755130.80 5135319.97 182.44
-9755128.18 5135319.33 182.51
-9755131.08 5135319.28 182.61
-9755131.87 5135319.95 182.33
-9755130.23 5135318.67 181.50
-9755127.55 5135319.18 182.47
-9755126.33 5135318.50 181.51
-9755131.94 5135319.80 182.55
-9755130.12 5135319.95 181.57
-9755129.60 5135319.36 181.51
-9755128.44 5135319.88 182.41
-9755130.98 5135319.93 182.54
-9755124.90 5135319.42 181.51
-9755133.74 5135326.55 187.07
-9755133.67 5135327.72 187.77
-9755133.59 5135327.87 185.77
-9755133.45 5135321.91 185.78
-9755133.92 5135328.55 186.30
-9755133.74 5135321.84 186.15
-9755133.90 5135327.55 186.04
-9755134.03 5135322.36 186.40
-9755133.72 5135325.96 187.04
-9755133.67 5135330.85 189.27
-9755134.03 5135327.06 187.51
-9755133.83 5135328.50 185.66
-9755134.02 5135328.20 187.07
-9755134.00 5135322.62 187.34
-9755133.95 5135326.41 186.74
-9755134.00 5135325.55 188.38
-9755133.40 5135328.67 185.38
-9755133.34 5135328.59 186.17
-9755133.98 5135327.45 185.95
-9755133.15 5135324.69 188.05
-9755133.37 5135323.95 186.82
-9755133.73 5135322.67 186.77
-9755133.91 5135328.39 185.21
-9755133.73 5135323.54 187.60
-9755133.42 5135328.17 185.60
-9755133.69 5135329.93 188.94
-9755134.07 5135327.99 186.11
-9755134.08 5135322.64 187.71
-9755133.66 5135327.33 187.27
-9755133.64 5135328.96 185.87
-9755133.97 5135331.77 189.48
-9755133.73 5135328.35 186.18
-9755133.96 5135325.64 187.40
-9755133.33 5135328.95 185.78
-9755133.83 5135328.99 185.57
-9755133.62 5135323.73 188.17
-9755133.70 5135327.76 186.04
-9755133.36 5135321.19 184.77
-9755133.41 5135321.16 185.88
-9755133.99 5135329.86 188.95
-9755133.50 5135327.40 186.08
-9755133.75 5135324.92 188.56
-9755133.14 5135327.67 187.02
-9755133.70 5135327.88 187.02
-9755133.32 5135325.91 186.38
-9755134.04 5135324.35 187.85
-9755133.69 5135324.14 188.21
-9755133.99 5135324.74 186.66
-9755133.76 5135326.78 188.04
-9755133.99 5135328.90 185.37
-9755134.03 5135330.27 189.10
-9755133.72 5135321.72 186.69
-9755133.91 5135322.11 186.46
-9755133.98 5135328.91 185.98
-9755133.16 5135331.74 189.45
-9755133.39 5135325.32 187.39
-9755133.81 5135324.16 187.88
-9755133.73 5135322.67 187.80
-9755133.42 5135321.53 186.06
-9755133.37 5135323.21 187.58
-9755133.13 5135324.06 188.37
-9755133.18 5135321.50 185.73
-9755133.10 5135324.96 189.06
-9755132.80 5135324.32 189.03
-9755131.62 5135324.34 188.18
-9755125.73 5135319.89 181.55
-9755131.06 5135324.10 188.13
-9755132.50 5135326.18 187.14
-9755131.90 5135328.05 186.11
-9755132.82 5135331.03 189.30
-9755131.63 5135322.71 186.66
-9755132.30 5135327.44 186.45
-9755130.14 5135333.14 189.81
-9755122.85 5135330.79 189.20
-9755132.48 5135327.69 186.35
-9755133.28 5135325.26 188.46
-9755126.99 5135323.21 182.05
-9755121.59 5135324.33 181.66
-9755133.38 5135326.91 185.55
-9755131.54 5135325.19 186.63
-9755122.15 5135331.08 189.26
-9755132.80 5135325.86 186.74
-9755128.97 5135324.97 181.76
-9755130.15 5135328.04 185.21
-9755132.25 5135326.52 186.91
-9755129.56 5135332.57 189.69
-9755127.49 5135326.72 181.76
-9755127.85 5135331.67 189.45
-9755133.27 5135327.89 185.60
-9755131.59 5135323.12 187.56
-9755130.99 5135326.28 186.92
-9755129.78 5135328.18 181.68
-9755128.38 5135333.14 189.84
-9755130.98 5135325.67 186.32
-9755130.74 5135326.23 186.02
-9755132.92 5135328.30 185.69
-9755132.25 5135331.42 189.39
-9755131.95 5135324.12 188.29
-9755131.04 5135331.10 189.31
-9755131.58 5135322.08 185.37
-9755132.26 5135324.01 189.02
-9755131.08 5135323.28 185.99
-9755131.60 5135325.62 188.60
-9755132.14 5135325.70 187.30
-9755130.41 5135321.72 181.66
-9755130.12 5135332.04 189.58
-9755132.72 5135327.36 186.75
-9755131.09 5135322.72 185.18
-9755132.17 5135325.62 188.35
-9755132.98 5135328.45 185.69
-9755130.18 5135324.73 186.26
-9755132.89 5135322.95 186.87
-9755131.89 5135322.44 186.01
-9755130.82 5135327.45 185.89
-9755131.08 5135324.40 187.21
-9755132.52 5135326.74 186.89
-9755132.31 5135324.38 187.61
-9755131.59 5135323.51 187.94
-9755130.37 5135324.41 186.32
-9755126.00 5135328.56 181.65
-9755132.90 5135326.87 185.82
-9755131.97 5135325.44 187.32
-9755132.55 5135325.67 187.26
-9755122.52 5135333.41 189.84
-9755131.63 5135328.57 185.72
-9755131.92 5135326.78 186.90
-9755126.87 5135326.73 181.75
-9755130.18 5135326.03 185.65
-9755122.47 5135320.25 182.22
-9755129.84 5135324.46 187.01
-9755131.86 5135324.70 189.01
-9755122.75 5135326.39 181.73
-9755128.06 5135322.86 182.25
-9755131.43 5135325.98 186.95
-9755123.97 5135322.55 181.72
-9755129.55 5135328.49 181.66
-9755130.50 5135327.31 185.64
-9755120.74 5135321.68 181.59
-9755129.50 5135325.26 181.75
-9755130.98 5135323.32 184.63
-9755122.72 5135326.98 181.71
-9755122.87 5135332.62 189.66
-9755130.74 5135333.48 189.90
-9755131.04 5135325.91 187.82
-9755131.04 5135321.72 181.66
-9755124.27 5135320.18 181.58
-9755127.53 5135331.66 189.44
-9755133.25 5135321.63 186.05
-9755127.51 5135323.18 182.24
-9755122.75 5135322.58 181.72
-9755127.49 5135320.18 182.41
-9755131.64 5135326.59 186.95
-9755125.76 5135330.78 189.19
-9755129.68 5135325.62 185.93
-9755133.13 5135322.94 187.51
-9755124.81 5135327.28 181.72
-9755130.16 5135326.96 185.09
-9755129.56 5135325.31 185.78
-9755132.86 5135324.93 188.50
-9755131.12 5135320.15 182.51
-9755131.05 5135323.16 187.44
-9755128.07 5135332.60 189.66
-9755132.79 5135326.24 187.00
-9755133.25 5135326.95 185.22
-9755129.28 5135320.78 181.63
-9755122.49 5135323.78 181.70
-9755129.25 5135322.87 181.74
-9755127.16 5135324.90 181.75
-9755132.80 5135327.80 185.29
-9755131.64 5135327.66 186.07
-9755127.16 5135325.82 181.76
-9755132.54 5135326.90 185.86
-9755128.70 5135326.46 181.76
-9755131.08 5135321.93 185.20
-9755130.42 5135325.00 181.77
-9755123.62 5135325.50 181.74
-9755124.51 5135330.47 189.08
-9755131.69 5135322.72 185.55
-9755128.15 5135330.35 189.14
-9755131.00 5135326.60 186.05
-9755130.78 5135327.41 185.34
-9755133.13 5135326.77 186.69
-9755125.08 5135328.22 181.70
-9755132.48 5135328.98 185.76
-9755130.13 5135324.09 187.09
-9755131.05 5135325.03 187.91
-9755129.49 5135324.34 181.73
-9755126.61 5135331.14 189.29
-9755131.77 5135328.85 185.21
-9755126.90 5135321.43 181.64
-9755130.15 5135324.56 185.98
-9755132.24 5135333.44 189.92
-9755128.36 5135324.12 181.75
-9755130.31 5135323.76 185.90
-9755130.77 5135325.00 187.83
-9755129.82 5135323.18 181.71
-9755125.96 5135325.87 181.74
-9755130.48 5135326.78 186.68
-9755133.13 5135327.29 187.05
-9755121.34 5135332.48 189.60
-9755124.08 5135332.56 189.63
-9755130.22 5135328.47 183.21
-9755131.12 5135324.74 187.00
-9755129.58 5135327.68 184.89
-9755131.31 5135322.41 185.22
-9755131.09 5135326.15 186.37
-9755127.81 5135324.67 181.76
-9755129.04 5135330.88 189.26
-9755128.61 5135326.74 181.77
-9755127.40 5135321.96 181.96
-9755123.68 5135331.73 189.44
-9755129.22 5135327.35 181.75
-9755133.07 5135325.78 188.92
-9755129.84 5135332.60 189.68
-9755125.09 5135326.69 181.73
-9755131.63 5135331.09 189.30
-9755132.21 5135327.49 186.19
-9755133.11 5135325.21 189.36
-9755133.07 5135328.73 185.08
-9755132.79 5135332.56 189.69
-9755130.44 5135327.37 186.14
-9755129.82 5135326.82 185.45
-9755121.58 5135330.12 188.98
-9755132.88 5135326.86 185.43
-9755130.32 5135327.80 185.60
-9755129.23 5135322.07 181.70
-9755126.89 5135320.18 182.36
-9755131.02 5135324.78 186.32
-9755130.74 5135325.68 186.21
-9755121.83 5135331.08 189.30
-9755133.14 5135325.49 189.38
-9755132.24 5135324.38 188.70
-9755129.50 5135333.16 189.81
-9755128.66 5135324.97 181.76
-9755121.58 5135324.06 181.66
-9755132.84 5135321.57 185.84
-9755131.83 5135323.24 188.00
-9755131.02 5135327.93 181.76
-9755131.36 5135325.19 187.95
-9755129.86 5135328.07 185.27
-9755131.36 5135329.94 188.95
-9755133.10 5135322.13 186.49
-9755121.27 5135321.98 181.61
-9755132.30 5135323.46 188.53
-9755129.30 5135333.47 189.90
-9755131.06 5135326.04 185.48
-9755131.10 5135326.39 186.93
-9755128.42 5135330.01 189.02
-9755131.88 5135328.19 183.65
-9755132.01 5135322.35 186.98
-9755125.42 5135330.45 189.11
-9755130.74 5135325.37 186.36
-9755120.99 5135323.72 181.69
-9755130.81 5135324.43 187.16
-9755125.69 5135332.29 189.60
-9755132.56 5135322.12 186.98
-9755132.81 5135325.22 189.38
-9755122.52 5135331.91 189.50
-9755131.20 5135323.24 186.35
-9755131.02 5135323.84 187.25
-9755132.90 5135323.27 187.82
-9755130.77 5135327.80 185.96
-9755132.73 5135327.34 186.01
-9755124.22 5135331.41 189.40
-9755125.99 5135328.19 181.69
-9755121.61 5135330.47 189.13
-9755131.63 5135320.27 181.59
-9755131.32 5135328.96 185.50
-9755124.54 5135328.19 181.70
-9755132.27 5135321.96 185.71
-9755132.86 5135323.27 188.23
-9755131.14 5135325.25 188.35
-9755123.73 5135330.78 189.21
-9755131.03 5135325.16 186.98
-9755122.72 5135329.37 181.61
-9755130.44 5135327.36 181.73
-9755122.15 5135328.17 181.67
-9755132.74 5135331.66 189.42
-9755124.87 5135330.42 189.10
-9755132.01 5135325.88 187.78
-9755129.88 5135324.76 185.73
-9755129.92 5135331.09 189.29
-9755131.93 5135329.93 188.93
-9755131.10 5135327.81 185.90
-9755131.63 5135323.80 186.57
-9755121.96 5135329.90 188.96
-9755130.85 5135325.77 185.52
-9755129.83 5135325.34 185.94
-9755132.85 5135326.77 186.62
-9755132.24 5135324.09 188.31
-9755130.11 5135330.19 189.10
-9755130.38 5135328.28 185.97
-9755132.53 5135326.76 186.64
-9755126.27 5135333.23 189.85
-9755127.47 5135332.79 189.70
-9755130.69 5135323.52 181.74
-9755132.56 5135327.44 185.69
-9755129.19 5135325.27 181.77
-9755132.80 5135324.05 189.07
-9755133.09 5135324.30 189.01
-9755133.13 5135328.41 183.55
-9755130.74 5135328.98 185.43
-9755132.79 5135328.03 186.19
-9755131.04 5135331.44 189.42
-9755132.83 5135321.82 185.04
-9755131.52 5135322.42 184.54
-9755124.50 5135332.50 189.64
-9755131.67 5135333.44 189.90
-9755123.12 5135333.46 189.85
-9755124.22 5135327.30 181.72
-9755121.87 5135322.24 181.66
-9755133.00 5135327.51 185.11
-9755126.61 5135333.16 189.81
-9755132.58 5135321.21 184.79
-9755131.74 5135324.96 188.94
-9755131.64 5135328.95 185.48
-9755121.58 5135320.17 181.55
-9755121.04 5135333.07 189.73
-9755125.15 5135332.63 189.67
-9755126.61 5135323.16 181.77
-9755125.11 5135324.92 181.73
-9755131.04 5135332.00 189.55
-9755125.73 5135331.34 189.35
-9755127.80 5135321.12 181.65
-9755127.49 5135323.25 181.78
-9755124.58 5135329.87 188.96
-9755130.73 5135324.12 187.16
-9755133.16 5135321.96 184.81
-9755129.58 5135321.69 181.66
-9755121.86 5135330.70 189.15
-9755129.27 5135330.21 189.08
-9755129.61 5135324.56 185.72
-9755131.87 5135332.59 189.70
-9755132.62 5135322.72 186.21
-9755126.68 5135320.20 182.35
-9755133.12 5135327.99 185.53
-9755128.41 5135320.23 182.37
-9755125.41 5135332.30 189.58
-9755129.56 5135322.59 181.72
-9755127.85 5135320.62 182.22
-9755133.03 5135327.73 186.30
-9755127.20 5135330.79 189.22
-9755133.07 5135326.46 187.00
-9755133.14 5135334.68 190.20
-9755134.00 5135334.34 190.04
-9755121.14 5135336.56 190.58
-9755126.92 5135336.45 190.60
-9755133.10 5135335.85 190.46
-9755125.71 5135334.87 190.23
-9755128.97 5135334.98 190.25
-9755126.29 5135334.86 190.23
-9755129.90 5135336.41 190.64
-9755126.54 5135335.23 190.31
-9755124.25 5135334.30 190.10
-9755120.95 5135336.31 190.54
-9755129.24 5135336.08 190.54
-9755131.32 5135336.39 190.61
-9755124.20 5135336.08 190.49
-9755127.81 5135334.63 190.17
-9755122.72 5135336.02 190.49
-9755125.45 5135335.76 190.45
-9755132.74 5135336.42 190.63
-9755121.28 5135333.99 189.95
-9755123.34 5135335.16 190.28
-9755123.16 5135334.90 190.23
-9755130.11 5135335.73 190.43
-9755125.71 5135334.29 190.05
-9755130.43 5135335.86 190.49
-9755128.69 5135336.42 190.61
-9755127.79 5135335.18 190.27
-9755129.53 5135335.73 190.42
-9755120.46 5135335.16 190.29
-9755126.89 5135335.21 190.30
-9755121.58 5135335.75 190.45
-9755122.75 5135334.33 190.08
-9755126.60 5135336.12 190.53
-9755132.48 5135334.75 190.22
-9755128.12 5135334.05 190.02
-9755121.90 5135333.99 190.01
-9755128.37 5135334.43 190.13
-9755125.67 5135336.33 190.59
-9755131.64 5135336.11 190.53
-9755122.52 5135334.31 190.06
-9755127.16 5135335.77 190.43
-9755124.56 5135334.29 190.06
-9755126.64 5135335.55 190.39
-9755122.48 5135334.00 189.98
-9755131.90 5135335.22 190.32
-9755126.00 5135335.55 190.38
-9755129.04 5135336.39 190.59
-9755120.38 5135335.50 190.35
-9755129.22 5135334.08 190.05
-9755130.42 5135318.47 181.51
-9755131.08 5135318.41 182.69
-9755132.89 5135318.41 181.48
-9755132.83 5135317.92 181.48
-9755126.79 5135317.71 182.86
-9755130.18 5135318.43 182.65
-9755129.87 5135317.85 181.50
-9755130.17 5135317.55 181.50
-9755127.85 5135317.55 182.95
-9755129.91 5135317.22 181.51
-9755127.80 5135317.76 182.94
-9755124.53 5135317.81 181.48
-9755127.34 5135317.56 182.93
-9755126.47 5135317.36 182.61
-9755125.13 5135317.25 181.48
-9755125.75 5135317.78 181.50
-9755128.36 5135317.28 182.97
-9755133.43 5135316.42 181.49
-9755134.03 5135316.08 181.47
-9755133.71 5135313.72 181.44
-9755133.49 5135315.26 181.49
-9755133.71 5135312.54 181.45
-9755121.38 5135313.42 181.43
-9755128.23 5135316.99 182.84
-9755129.61 5135311.93 181.42
-9755130.68 5135316.91 183.15
-9755126.33 5135317.58 181.50
-9755124.29 5135315.77 181.46
-9755123.99 5135313.67 181.43
-9755128.46 5135313.70 181.43
-9755130.84 5135311.99 181.41
-9755122.21 5135315.79 183.31
-9755132.88 5135313.72 181.45
-9755129.35 5135317.32 181.47
-9755125.18 5135317.04 181.47
-9755127.49 5135316.92 182.92
-9755122.47 5135315.62 183.37
-9755125.78 5135315.25 181.44
-9755131.11 5135312.26 181.42
-9755131.35 5135314.34 183.17
-9755130.74 5135315.77 183.19
-9755131.97 5135312.23 181.42
-9755129.64 5135314.40 181.45
-9755128.99 5135314.27 181.44
-9755122.81 5135313.98 181.44
-9755120.40 5135318.44 181.48
-9755123.15 5135312.76 181.41
-9755127.51 5135312.56 181.40
-9755130.19 5135313.13 181.43
-9755124.91 5135315.47 181.46
-9755124.62 5135313.74 181.43
-9755129.94 5135315.49 181.46
-9755126.66 5135313.73 181.42
-9755122.20 5135315.26 183.26
-9755124.03 5135316.05 181.45
-9755121.90 5135313.65 181.42
-9755130.79 5135312.56 181.42
-9755130.69 5135317.26 183.11
-9755126.98 5135316.95 182.91
-9755127.54 5135313.73 181.42
-9755130.53 5135316.63 183.17
-9755125.10 5135316.72 181.45
-9755129.88 5135316.62 181.48
-9755123.11 5135313.42 181.43
-9755121.36 5135315.99 181.46
-9755129.88 5135315.81 181.44
-9755131.65 5135315.73 183.19
-9755130.83 5135315.41 183.20
-9755120.81 5135312.81 181.41
-9755132.26 5135315.83 183.15
-9755130.46 5135315.09 183.19
-9755124.54 5135316.98 181.47
-9755132.27 5135311.99 181.43
-9755122.62 5135316.18 183.32
-9755121.09 5135313.98 181.43
-9755125.72 5135316.70 181.48
-9755121.60 5135312.19 181.38
-9755128.11 5135314.26 181.43
-9755125.78 5135315.75 181.45
-9755131.98 5135314.84 183.15
-9755132.35 5135315.17 183.28
-9755131.06 5135317.22 183.11
-9755124.02 5135316.94 181.46
-9755122.20 5135316.06 183.33
-9755120.51 5135311.97 181.39
-9755120.67 5135316.07 181.47
-9755131.08 5135315.42 183.20
-9755132.90 5135316.75 181.48
-9755124.00 5135312.50 181.41
-9755114.20 5135336.31 190.49
-9755106.41 5135336.46 183.46
-9755096.46 5135336.17 188.99
-9755120.42 5135318.97 181.47
-9755120.42 5135320.80 181.56
-9755120.07 5135333.39 189.83
-9755120.07 5135330.18 189.02
-9755120.07 5135325.55 181.68
-9755120.15 5135323.69 181.71
-9755120.11 5135327.00 181.69
-9755120.09 5135324.01 181.68
-9755120.15 5135319.58 181.50
-9755118.89 5135333.14 189.76
-9755119.18 5135332.21 189.49
-9755119.22 5135320.81 181.55
-9755119.25 5135330.78 189.16
-9755119.50 5135327.56 181.68
-9755118.97 5135323.55 181.73
-9755118.99 5135322.53 182.20
-9755119.54 5135323.10 182.12
-9755119.52 5135320.80 181.55
-9755118.61 5135322.21 182.21
-9755119.50 5135322.58 182.21
-9755119.46 5135332.77 189.67
-9755119.50 5135336.31 190.51
-9755120.07 5135335.12 190.27
-9755120.07 5135336.34 190.56
-9755118.97 5135335.73 190.41
-9755118.65 5135335.21 190.24
-9755119.24 5135335.20 190.24
-9755119.21 5135334.20 190.03
-9755120.45 5135316.94 181.46
-9755120.41 5135317.27 181.46
-9755119.28 5135318.40 181.49
-9755119.21 5135317.81 181.48
-9755117.78 5135319.87 181.51
-9755113.05 5135319.18 181.50
-9755110.10 5135318.92 181.50
-9755118.66 5135318.78 181.48
-9755108.91 5135318.95 181.51
-9755111.24 5135319.23 181.46
-9755116.93 5135319.81 181.50
-9755114.78 5135319.24 181.49
-9755107.69 5135318.62 181.51
-9755110.97 5135319.19 181.47
-9755107.44 5135319.27 181.50
-9755109.57 5135318.65 181.50
-9755108.62 5135319.86 181.50
-9755111.85 5135318.65 181.49
-9755113.03 5135319.57 181.49
-9755108.03 5135322.83 182.80
-9755107.98 5135323.25 182.85
-9755112.23 5135331.59 189.37
-9755106.24 5135331.35 182.65
-9755118.60 5135326.68 181.68
-9755118.95 5135322.82 182.27
-9755110.43 5135320.71 181.50
-9755109.38 5135323.06 182.50
-9755111.54 5135331.66 189.36
-9755108.59 5135322.68 183.11
-9755112.14 5135331.52 191.35
-9755113.00 5135333.67 189.85
-9755114.51 5135329.90 181.57
-9755108.33 5135323.54 182.67
-9755118.60 5135322.22 181.58
-9755116.62 5135325.06 182.69
-9755112.18 5135331.57 190.26
-9755107.75 5135330.96 189.17
-9755117.14 5135332.23 189.52
-9755116.25 5135324.57 182.87
-9755107.72 5135332.58 181.68
-9755117.43 5135330.78 189.13
-9755112.50 5135333.07 189.68
-9755112.78 5135324.87 181.62
-9755107.71 5135331.30 182.76
-9755112.34 5135324.63 182.32
-9755107.28 5135333.09 183.26
-9755118.09 5135323.11 181.83
-9755111.91 5135331.98 189.41
-9755107.11 5135323.24 182.66
-9755106.80 5135331.34 182.73
-9755108.01 5135322.44 182.05
-9755108.35 5135323.39 181.72
-9755108.03 5135332.82 189.35
-9755108.57 5135326.90 181.63
-9755117.74 5135323.40 181.69
-9755110.63 5135326.62 181.63
-9755107.41 5135329.28 181.59
-9755108.33 5135322.81 182.43
-9755115.99 5135323.99 182.91
-9755109.84 5135330.72 189.10
-9755111.56 5135332.48 189.55
-9755118.63 5135320.19 181.53
-9755115.60 5135323.69 182.70
-9755114.19 5135326.05 181.64
-9755114.24 5135333.35 189.78
-9755116.27 5135332.59 189.57
-9755108.90 5135322.80 182.49
-9755116.27 5135332.22 189.52
-9755116.65 5135332.27 189.53
-9755114.51 5135323.97 181.65
-9755107.98 5135322.46 181.59
-9755107.34 5135330.72 182.77
-9755116.65 5135322.29 182.48
-9755106.83 5135324.81 181.59
-9755110.10 5135319.93 181.51
-9755108.31 5135332.43 189.44
-9755119.22 5135323.72 181.71
-9755111.88 5135324.91 181.61
-9755107.13 5135331.86 182.71
-9755109.29 5135323.31 182.67
-9755110.93 5135325.16 181.61
-9755112.15 5135320.71 181.50
-9755107.72 5135323.58 182.70
-9755108.34 5135322.44 182.39
-9755116.65 5135333.11 189.73
-9755112.47 5135331.51 191.70
-9755106.53 5135321.00 181.52
-9755113.25 5135324.24 182.06
-9755106.86 5135322.79 181.66
-9755107.14 5135331.05 182.77
-9755109.22 5135322.47 182.51
-9755111.31 5135333.37 189.74
-9755109.26 5135332.76 189.59
-9755116.40 5135323.35 182.45
-9755112.90 5135323.63 183.08
-9755111.85 5135331.02 189.18
-9755109.78 5135332.50 189.54
-9755114.71 5135323.73 182.90
-9755111.30 5135332.18 189.49
-9755109.19 5135324.29 181.62
-9755107.43 5135323.35 181.71
-9755107.73 5135333.34 183.29
-9755114.24 5135330.49 189.08
-9755112.46 5135323.41 181.69
-9755117.14 5135324.32 181.66
-9755115.94 5135323.64 182.83
-9755110.40 5135331.02 189.20
-9755106.51 5135332.28 181.62
-9755109.52 5135332.40 189.52
-9755109.72 5135325.72 181.63
-9755115.29 5135325.69 182.83
-9755109.80 5135321.64 181.53
-9755117.74 5135331.68 189.37
-9755108.88 5135323.42 183.00
-9755108.36 5135331.51 189.29
-9755107.44 5135320.97 181.52
-9755111.33 5135333.06 189.66
-9755106.31 5135332.78 188.94
-9755117.74 5135325.20 181.67
-9755110.08 5135333.04 189.66
-9755118.00 5135328.73 181.60
-9755117.48 5135328.46 181.63
-9755107.75 5135322.47 181.98
-9755109.19 5135325.69 181.62
-9755108.90 5135322.47 182.56
-9755107.34 5135332.79 181.65
-9755107.60 5135333.11 183.10
-9755108.04 5135332.20 182.49
-9755115.98 5135331.95 189.44
-9755107.45 5135321.88 181.53
-9755116.80 5135327.27 181.68
-9755112.63 5135323.74 182.43
-9755114.48 5135333.08 189.72
-9755107.73 5135324.54 181.59
-9755115.99 5135328.15 181.64
-9755111.89 5135331.34 189.27
-9755106.53 5135328.37 181.66
-9755113.31 5135325.75 181.64
-9755107.15 5135332.25 189.15
-9755109.20 5135327.51 181.64
-9755111.25 5135320.14 181.48
-9755117.14 5135323.08 182.46
-9755108.91 5135322.99 182.62
-9755107.89 5135331.92 182.55
-9755110.97 5135324.56 181.62
-9755118.04 5135321.92 181.57
-9755112.48 5135324.21 182.91
-9755112.40 5135322.77 181.64
-9755107.17 5135320.39 181.52
-9755110.10 5135330.95 189.18
-9755106.87 5135332.27 189.05
-9755118.39 5135322.81 182.13
-9755116.03 5135331.31 189.30
-9755115.96 5135321.63 181.53
-9755116.32 5135324.87 182.81
-9755108.26 5135321.92 182.15
-9755108.94 5135330.75 189.09
-9755108.94 5135323.36 182.47
-9755108.93 5135320.13 181.51
-9755111.53 5135326.97 181.64
-9755107.74 5135326.06 181.62
-9755116.56 5135331.04 189.21
-9755113.96 5135323.40 181.66
-9755111.32 5135329.87 188.91
-9755114.48 5135328.72 181.61
-9755116.27 5135322.51 182.47
-9755111.24 5135321.65 181.53
-9755113.38 5135322.52 181.59
-9755110.38 5135321.58 181.53
-9755108.02 5135321.86 181.55
-9755107.36 5135331.64 182.73
-9755112.87 5135325.08 182.65
-9755107.15 5135331.00 189.16
-9755115.38 5135324.55 182.99
-9755112.46 5135332.45 189.56
-9755111.88 5135321.26 181.51
-9755115.09 5135323.66 182.97
-9755109.16 5135324.10 182.38
-9755107.27 5135323.15 182.49
-9755116.91 5135331.38 189.29
-9755108.02 5135324.88 181.59
-9755107.77 5135329.82 188.94
-9755117.74 5135330.19 188.97
-9755115.40 5135332.86 189.67
-9755110.08 5135322.78 181.63
-9755112.11 5135328.13 181.65
-9755117.75 5135327.57 181.66
-9755114.20 5135324.01 182.76
-9755114.19 5135324.56 182.87
-9755114.17 5135324.79 182.86
-9755112.46 5135321.08 181.51
-9755107.67 5135333.38 189.24
-9755109.18 5135323.57 182.90
-9755118.31 5135324.90 181.67
-9755107.38 5135322.32 182.62
-9755117.71 5135327.24 181.67
-9755106.76 5135329.32 181.59
-9755107.94 5135330.99 182.74
-9755118.04 5135322.57 181.64
-9755112.19 5135331.23 191.36
-9755114.22 5135332.46 189.60
-9755117.15 5135326.68 181.68
-9755113.61 5135324.92 181.62
-9755107.42 5135333.09 189.17
-9755107.97 5135332.60 182.32
-9755107.82 5135321.99 181.96
-9755110.10 5135332.77 189.62
-9755113.06 5135321.06 181.50
-9755109.50 5135333.87 189.69
-9755107.73 5135334.61 189.26
-9755113.60 5135336.50 190.53
-9755109.20 5135334.24 189.61
-9755114.16 5135333.75 189.85
-9755108.90 5135333.34 189.56
-9755111.30 5135336.30 190.43
-9755112.72 5135336.03 190.42
-9755112.99 5135335.74 190.33
-9755115.08 5135333.38 189.80
-9755114.75 5135333.94 189.92
-9755116.64 5135336.35 190.50
-9755117.78 5135336.31 190.52
-9755113.03 5135335.13 190.19
-9755117.14 5135335.16 190.23
-9755111.58 5135335.68 190.26
-9755117.78 5135336.04 190.47
-9755110.64 5135335.69 189.95
-9755106.48 5135335.68 183.53
-9755112.40 5135335.16 190.19
-9755106.78 5135336.03 189.03
-9755112.14 5135334.87 190.11
-9755108.89 5135335.16 189.52
-9755107.09 5135334.28 183.37
-9755115.07 5135335.11 190.20
-9755106.45 5135336.06 183.32
-9755115.66 5135335.78 190.38
-9755115.66 5135333.37 189.81
-9755106.86 5135335.15 189.04
-9755117.16 5135334.87 190.17
-9755117.79 5135334.00 189.98
-9755111.60 5135334.84 190.10
-9755106.51 5135333.91 183.33
-9755109.24 5135336.02 189.59
-9755109.14 5135335.10 189.61
-9755117.19 5135335.43 190.27
-9755107.12 5135334.82 189.15
-9755107.12 5135333.96 183.36
-9755117.76 5135335.68 190.36
-9755117.21 5135334.02 189.95
-9755106.55 5135335.70 188.93
-9755113.01 5135335.77 190.35
-9755116.57 5135335.74 190.38
-9755118.10 5135335.12 190.23
-9755113.95 5135333.98 189.91
-9755106.51 5135334.28 188.94
-9755111.35 5135335.72 190.25
-9755110.36 5135335.98 189.86
-9755115.39 5135333.99 189.96
-9755117.14 5135334.25 190.02
-9755110.36 5135334.52 189.88
-9755112.80 5135334.53 190.06
-9755107.37 5135336.13 189.17
-9755106.43 5135334.96 185.96
-9755107.98 5135334.55 189.32
-9755113.04 5135334.01 189.91
-9755107.34 5135318.30 186.84
-9755106.53 5135319.17 181.48
-9755105.13 5135318.62 187.63
-9755102.93 5135319.78 185.80
-9755104.84 5135319.19 187.98
-9755101.23 5135318.67 188.03
-9755102.41 5135319.12 188.49
-9755104.54 5135319.18 187.57
-9755102.46 5135319.15 185.58
-9755101.07 5135319.23 187.70
-9755105.48 5135318.38 186.99
-9755103.57 5135318.72 185.16
-9755102.80 5135319.15 188.64
-9755104.54 5135318.38 186.88
-9755104.31 5135319.57 186.21
-9755104.46 5135318.72 188.24
-9755102.95 5135318.79 185.38
-9755102.73 5135319.13 189.17
-9755104.80 5135318.60 187.69
-9755102.80 5135318.52 189.29
-9755105.07 5135319.62 185.07
-9755103.10 5135319.55 187.65
-9755102.22 5135319.31 185.49
-9755101.29 5135318.17 185.04
-9755102.43 5135319.90 184.58
-9755100.38 5135318.74 187.79
-9755103.00 5135319.54 185.77
-9755102.29 5135318.57 188.56
-9755104.26 5135319.26 186.17
-9755103.40 5135319.23 188.73
-9755100.15 5135319.43 188.21
-9755106.55 5135322.45 181.57
-9755101.60 5135318.52 188.51
-9755101.47 5135318.85 185.21
-9755103.68 5135319.53 186.97
-9755101.83 5135319.45 187.01
-9755104.03 5135319.22 186.93
-9755104.88 5135318.37 187.42
-9755102.75 5135319.54 188.39
-9755105.19 5135318.91 187.62
-9755104.47 5135319.19 186.49
-9755103.05 5135319.45 188.78
-9755102.67 5135319.90 187.16
-9755101.93 5135319.22 188.25
-9755102.79 5135319.21 188.08
-9755105.13 5135319.87 186.18
-9755103.95 5135318.75 186.94
-9755104.09 5135319.49 185.16
-9755101.61 5135318.61 187.45
-9755101.82 5135318.50 187.89
-9755099.51 5135319.10 188.09
-9755105.52 5135319.11 187.34
-9755104.54 5135319.10 185.10
-9755102.14 5135319.90 185.86
-9755100.04 5135318.48 184.90
-9755105.76 5135318.33 184.75
-9755100.44 5135318.38 186.61
-9755105.20 5135318.33 187.76
-9755103.26 5135319.11 185.17
-9755101.58 5135318.38 185.82
-9755103.58 5135319.01 185.80
-9755105.06 5135319.55 187.56
-9755101.34 5135319.52 187.72
-9755104.21 5135318.34 188.80
-9755101.36 5135318.89 185.88
-9755101.53 5135319.22 186.45
-9755103.73 5135318.89 186.93
-9755103.15 5135319.84 187.65
-9755105.08 5135319.65 186.70
-9755101.60 5135318.20 188.61
-9755103.10 5135319.18 188.74
-9755100.33 5135319.00 185.47
-9755100.56 5135318.41 186.97
-9755102.00 5135318.90 185.70
-9755099.91 5135318.30 188.07
-9755104.33 5135319.25 186.99
-9755105.19 5135319.65 186.18
-9755103.73 5135318.86 184.90
-9755103.29 5135319.67 184.37
-9755101.87 5135318.19 185.56
-9755099.75 5135319.20 181.63
-9755102.80 5135319.66 185.20
-9755104.38 5135318.39 187.97
-9755104.75 5135319.97 187.82
-9755101.63 5135319.58 186.87
-9755106.56 5135323.34 181.71
-9755106.57 5135333.07 188.97
-9755106.24 5135321.56 181.54
-9755106.25 5135322.80 181.66
-9755106.30 5135332.86 183.19
-9755101.92 5135321.84 184.40
-9755103.64 5135323.42 183.16
-9755100.97 5135331.81 184.43
-9755106.19 5135328.99 181.63
-9755101.51 5135331.79 185.76
-9755102.40 5135325.02 183.09
-9755100.90 5135331.49 184.89
-9755100.32 5135332.22 184.71
-9755100.63 5135331.21 184.76
-9755101.91 5135321.38 186.76
-9755103.91 5135324.73 183.36
-9755105.57 5135331.91 181.56
-9755101.04 5135333.04 184.58
-9755100.13 5135321.67 185.57
-9755099.87 5135321.35 185.76
-9755105.98 5135324.82 181.58
-9755102.40 5135324.11 182.69
-9755101.14 5135332.36 184.72
-9755101.82 5135320.42 186.30
-9755100.37 5135320.73 187.41
-9755101.88 5135320.61 184.90
-9755100.59 5135331.72 185.39
-9755101.60 5135321.01 186.56
-9755102.20 5135319.89 186.61
-9755099.84 5135321.91 185.65
-9755102.09 5135326.29 181.62
-9755105.67 5135321.89 181.55
-9755100.61 5135331.86 184.44
-9755101.55 5135322.49 186.29
-9755099.75 5135332.29 184.95
-9755099.65 5135331.01 184.63
-9755100.66 5135321.03 186.10
-9755101.80 5135332.50 185.03
-9755100.32 5135320.67 185.46
-9755101.74 5135321.05 185.04
-9755103.02 5135323.83 183.19
-9755104.76 5135332.60 181.57
-9755103.66 5135319.99 188.56
-9755103.12 5135320.41 187.98
-9755101.76 5135320.69 185.48
-9755103.37 5135320.71 188.02
-9755102.81 5135319.40 188.12
-9755100.40 5135322.27 185.36
-9755100.16 5135321.72 186.13
-9755101.52 5135332.70 185.75
-9755100.44 5135320.54 188.40
-9755100.61 5135332.24 184.84
-9755102.62 5135320.17 185.97
-9755103.88 5135331.35 181.67
-9755101.90 5135321.22 187.08
-9755100.34 5135331.29 181.61
-9755103.83 5135333.10 181.64
-9755102.07 5135322.16 186.33
-9755104.44 5135328.97 181.66
-9755103.65 5135325.33 183.24
-9755099.83 5135328.62 187.43
-9755101.16 5135320.90 185.98
-9755101.78 5135331.49 184.99
-9755102.95 5135328.64 181.62
-9755101.48 5135332.40 184.69
-9755101.97 5135320.78 186.51
-9755099.79 5135326.90 186.77
-9755099.82 5135328.90 187.29
-9755100.96 5135321.61 181.50
-9755103.19 5135320.23 187.49
-9755101.17 5135321.46 185.58
-9755102.97 5135325.16 181.60
-9755104.75 5135324.42 183.28
-9755101.44 5135332.30 185.97
-9755100.30 5135321.16 188.01
-9755101.58 5135321.94 186.36
-9755100.24 5135331.09 184.36
-9755106.00 5135320.98 181.51
-9755101.72 5135320.07 186.86
-9755100.75 5135320.88 188.40
-9755103.59 5135324.85 181.63
-9755099.66 5135321.58 187.45
-9755101.59 5135321.60 186.75
-9755103.16 5135324.47 182.89
-9755104.13 5135332.20 181.66
-9755105.35 5135324.87 181.59
-9755105.63 5135330.45 181.59
-9755101.56 5135324.27 182.97
-9755105.35 5135328.12 181.64
-9755101.25 5135332.81 184.22
-9755101.25 5135324.79 181.60
-9755101.49 5135331.85 184.91
-9755105.36 5135321.90 181.55
-9755100.71 5135321.92 186.14
-9755105.05 5135330.77 181.64
-9755103.27 5135331.65 181.67
-9755104.80 5135320.24 184.74
-9755101.10 5135331.42 186.00
-9755102.77 5135320.05 187.68
-9755102.99 5135320.20 185.22
-9755105.63 5135324.84 181.59
-9755102.76 5135325.34 183.14
-9755100.91 5135321.82 181.50
-9755101.88 5135320.02 188.39
-9755101.06 5135321.82 184.53
-9755104.74 5135333.14 181.57
-9755101.03 5135321.21 187.44
-9755100.35 5135321.62 187.95
-9755105.01 5135325.11 183.23
-9755103.62 5135324.80 183.34
-9755105.63 5135320.04 184.87
-9755101.18 5135332.52 181.63
-9755103.85 5135329.53 181.66
-9755100.35 5135329.53 186.20
-9755104.20 5135322.49 181.57
-9755103.55 5135321.24 186.63
-9755101.27 5135330.92 184.69
-9755104.73 5135325.31 183.12
-9755101.82 5135323.32 181.64
-9755101.93 5135320.07 187.12
-9755100.27 5135332.19 185.13
-9755104.78 5135326.94 181.62
-9755105.08 5135322.46 181.58
-9755104.64 5135320.81 184.73
-9755100.70 5135328.47 185.62
-9755105.02 5135331.62 181.59
-9755102.11 5135328.11 181.62
-9755105.40 5135326.90 181.61
-9755100.43 5135331.06 184.77
-9755103.08 5135322.44 186.18
-9755101.97 5135321.65 186.57
-9755101.41 5135320.02 185.70
-9755103.33 5135321.09 185.98
-9755101.59 5135321.71 185.05
-9755100.57 5135331.61 181.62
-9755101.30 5135332.29 185.53
-9755101.89 5135321.58 187.09
-9755103.39 5135321.64 186.26
-9755102.98 5135325.92 182.95
-9755103.33 5135319.99 185.10
-9755100.62 5135331.32 184.76
-9755104.73 5135328.07 181.64
-9755101.89 5135324.16 183.09
-9755101.85 5135319.90 185.21
-9755102.17 5135322.06 185.10
-9755101.78 5135332.22 184.70
-9755101.24 5135331.14 185.68
-9755103.11 5135322.24 186.26
-9755102.06 5135331.94 181.64
-9755100.54 5135327.79 186.48
-9755103.75 5135320.09 185.11
-9755100.33 5135323.91 181.61
-9755104.41 5135332.52 181.62
-9755101.51 5135331.92 181.65
-9755102.98 5135320.02 184.56
-9755100.75 5135332.60 184.78
-9755102.96 5135325.57 183.04
-9755104.74 5135328.97 181.66
-9755102.02 5135320.54 186.13
-9755104.55 5135320.98 186.26
-9755100.34 5135328.69 187.54
-9755100.54 5135328.63 187.64
-9755101.30 5135321.68 184.58
-9755104.99 5135332.26 181.56
-9755101.58 5135331.45 185.32
-9755101.60 5135319.90 185.24
-9755101.78 5135332.07 185.86
-9755101.08 5135321.14 185.29
-9755100.39 5135321.95 186.32
-9755101.82 5135332.58 185.82
-9755100.68 5135332.27 184.40
-9755104.79 5135325.10 181.60
-9755100.32 5135332.24 183.27
-9755100.62 5135329.28 186.20
-9755101.59 5135321.01 186.25
-9755103.61 5135322.15 181.54
-9755103.12 5135320.09 187.95
-9755103.60 5135325.69 181.61
-9755101.33 5135320.66 187.20
-9755102.72 5135324.74 183.26
-9755101.81 5135321.52 184.46
-9755103.01 5135324.75 183.31
-9755102.71 5135323.62 181.67
-9755103.03 5135320.64 187.95
-9755100.93 5135330.10 181.60
-9755103.99 5135320.96 186.33
-9755099.88 5135320.36 187.84
-9755104.71 5135330.80 181.66
-9755101.82 5135328.63 181.62
-9755105.05 5135329.86 181.65
-9755101.22 5135320.39 188.07
-9755101.29 5135332.35 185.31
-9755102.73 5135324.51 181.59
-9755101.60 5135324.45 182.94
-9755104.77 5135322.46 181.57
-9755102.44 5135324.47 183.18
-9755100.34 5135332.72 183.41
-9755105.90 5135333.67 183.22
-9755106.53 5135335.18 188.94
-9755106.22 5135335.03 184.39
-9755105.61 5135333.38 183.15
-9755105.96 5135335.11 183.33
-9755105.33 5135336.31 183.29
-9755106.18 5135335.69 183.33
-9755106.20 5135336.09 186.53
-9755106.19 5135336.58 184.35
-9755106.19 5135335.63 184.39
-9755105.94 5135334.27 183.31
-9755105.90 5135334.85 183.34
-9755104.07 5135336.38 181.58
-9755101.77 5135333.40 181.62
-9755104.44 5135336.59 183.13
-9755101.80 5135333.99 181.62
-9755105.28 5135335.07 183.28
-9755106.15 5135336.19 182.68
-9755105.03 5135335.75 183.26
-9755100.57 5135336.56 186.38
-9755105.99 5135335.14 188.86
-9755104.13 5135335.84 181.57
-9755101.03 5135335.45 182.22
-9755104.74 5135335.09 183.17
-9755100.61 5135336.13 186.81
-9755100.19 5135336.12 182.08
-9755103.57 5135333.72 181.62
-9755099.99 5135335.37 188.15
-9755103.54 5135335.48 181.59
-9755099.80 5135334.79 188.49
-9755104.75 5135335.99 183.18
-9755102.92 5135333.68 181.65
-9755102.91 5135334.58 181.63
-9755105.61 5135335.76 183.33
-9755116.95 5135318.41 181.48
-9755106.92 5135317.49 186.92
-9755117.41 5135318.33 181.48
-9755112.19 5135317.77 181.51
-9755111.03 5135317.55 181.48
-9755113.94 5135317.76 181.47
-9755110.06 5135316.93 181.48
-9755107.36 5135317.13 186.80
-9755115.06 5135317.72 181.47
-9755106.33 5135317.79 186.69
-9755099.82 5135318.35 187.36
-9755101.34 5135317.86 184.58
-9755100.71 5135317.95 187.57
-9755102.85 5135317.87 188.48
-9755101.35 5135317.97 185.02
-9755102.60 5135317.53 188.85
-9755099.83 5135317.51 186.37
-9755104.87 5135318.41 186.87
-9755104.60 5135317.90 188.52
-9755102.55 5135317.88 189.22
-9755100.77 5135317.55 186.98
-9755100.41 5135318.26 181.69
-9755100.20 5135317.50 186.12
-9755104.87 5135317.46 188.21
-9755105.45 5135316.99 187.36
-9755104.04 5135318.20 188.51
-9755102.84 5135317.95 188.94
-9755104.27 5135317.15 188.58
-9755102.22 5135317.94 189.35
-9755103.44 5135317.02 188.99
-9755104.82 5135317.97 188.21
-9755102.82 5135317.04 188.93
-9755101.39 5135317.13 188.14
-9755103.53 5135317.72 189.33
-9755103.02 5135317.57 188.49
-9755099.87 5135317.37 187.14
-9755099.88 5135317.87 187.87
-9755103.62 5135317.72 188.53
-9755103.47 5135317.78 187.10
-9755101.32 5135317.61 188.70
-9755100.64 5135317.75 186.98
-9755101.05 5135317.81 186.53
-9755105.41 5135317.47 187.69
-9755100.32 5135317.78 187.96
-9755101.89 5135317.48 186.30
-9755101.91 5135317.95 188.68
-9755100.51 5135317.33 186.53
-9755101.38 5135317.48 186.26
-9755101.31 5135317.96 187.48
-9755102.74 5135317.63 185.21
-9755099.71 5135318.01 186.36
-9755102.22 5135317.93 188.31
-9755101.05 5135317.17 187.22
-9755104.50 5135317.05 188.09
-9755100.65 5135317.52 186.05
-9755103.71 5135317.87 188.74
-9755105.16 5135317.73 188.51
-9755101.98 5135317.32 189.31
-9755101.03 5135318.27 188.41
-9755103.60 5135317.73 187.85
-9755099.86 5135317.58 184.73
-9755105.45 5135317.72 188.15
-9755105.19 5135317.99 187.56
-9755101.96 5135317.28 187.49
-9755105.12 5135317.05 188.57
-9755103.89 5135317.08 188.83
-9755100.03 5135318.04 184.94
-9755100.17 5135316.93 186.53
-9755095.63 5135318.52 181.53
-9755099.55 5135319.77 181.62
-9755098.02 5135320.02 181.51
-9755099.61 5135318.04 187.82
-9755094.79 5135320.04 181.37
-9755096.26 5135319.47 181.54
-9755097.98 5135318.57 181.49
-9755098.99 5135318.72 187.39
-9755097.74 5135319.19 181.49
-9755099.48 5135318.56 181.62
-9755099.52 5135328.65 187.22
-9755092.22 5135336.18 190.38
-9755099.27 5135328.18 190.78
-9755094.87 5135330.40 189.78
-9755096.14 5135328.98 191.18
-9755094.81 5135326.05 189.84
-9755097.24 5135328.68 191.41
-9755097.32 5135324.93 189.11
-9755095.63 5135329.25 191.74
-9755098.02 5135332.71 189.32
-9755093.26 5135329.28 191.33
-9755098.58 5135326.07 188.54
-9755097.86 5135333.21 186.39
-9755095.36 5135332.77 188.49
-9755095.38 5135330.95 189.52
-9755098.41 5135330.87 189.64
-9755093.94 5135329.82 191.07
-9755097.46 5135325.89 188.28
-9755097.26 5135325.81 187.07
-9755095.38 5135327.78 186.34
-9755094.21 5135325.04 181.30
-9755096.58 5135332.54 185.79
-9755098.33 5135331.84 189.76
-9755097.94 5135325.71 187.27
-9755093.60 5135327.74 187.40
-9755094.52 5135330.34 190.12
-9755099.52 5135324.81 181.56
-9755099.45 5135321.63 185.66
-9755098.92 5135329.47 189.28
-9755098.42 5135325.09 187.87
-9755098.08 5135328.21 190.44
-9755098.03 5135331.97 188.53
-9755095.37 5135325.37 188.09
-9755095.67 5135325.39 181.50
-9755099.04 5135331.28 189.00
-9755093.26 5135325.93 181.33
-9755098.00 5135328.04 181.51
-9755099.37 5135326.69 189.46
-9755097.15 5135332.61 185.39
-9755097.04 5135331.45 189.36
-9755097.19 5135328.02 190.55
-9755098.56 5135332.51 181.51
-9755098.00 5135325.63 188.24
-9755095.38 5135320.02 181.51
-9755097.04 5135331.56 181.48
-9755095.73 5135327.35 185.92
-9755093.93 5135329.24 191.69
-9755097.45 5135328.57 189.74
-9755097.42 5135331.70 189.95
-9755094.66 5135331.01 181.28
-9755099.13 5135325.00 188.59
-9755093.99 5135325.11 187.03
-9755096.28 5135326.50 189.02
-9755097.67 5135331.10 184.76
-9755097.30 5135325.41 188.22
-9755099.47 5135328.85 190.48
-9755097.59 5135329.07 185.04
-9755098.27 5135326.55 188.45
-9755098.05 5135328.45 191.48
-9755098.83 5135332.21 188.55
-9755097.43 5135320.92 181.48
-9755095.69 5135327.54 185.67
-9755099.51 5135320.25 185.77
-9755095.38 5135328.03 188.77
-9755098.61 5135332.16 188.54
-9755095.45 5135329.39 190.06
-9755098.03 5135329.29 187.00
-9755097.19 5135326.47 186.84
-9755099.51 5135320.67 185.75
-9755098.57 5135328.70 187.72
-9755093.68 5135331.32 187.07
-9755097.10 5135323.31 181.49
-9755093.13 5135332.21 190.67
-9755096.71 5135329.64 191.42
-9755098.02 5135329.34 184.84
-9755093.54 5135331.05 187.33
-9755094.08 5135331.61 181.29
-9755098.25 5135333.10 181.50
-9755095.07 5135327.42 191.77
-9755095.62 5135327.00 189.94
-9755093.91 5135327.29 191.23
-9755094.93 5135328.27 189.84
-9755095.30 5135330.58 187.41
-9755099.06 5135328.92 187.19
-9755095.27 5135324.86 187.66
-9755099.53 5135329.50 189.36
-9755097.77 5135327.84 185.07
-9755097.59 5135329.38 184.76
-9755098.55 5135330.80 187.74
-9755096.98 5135331.39 186.29
-9755097.94 5135324.69 189.21
-9755095.16 5135329.09 192.29
-9755095.36 5135323.32 181.48
-9755094.07 5135329.21 188.45
-9755098.99 5135320.26 185.75
-9755096.96 5135329.01 191.24
-9755095.37 5135328.48 190.96
-9755099.47 5135331.17 184.33
-9755094.68 5135333.05 181.25
-9755093.27 5135326.39 189.92
-9755096.09 5135331.50 188.92
-9755098.53 5135329.13 191.21
-9755094.51 5135331.50 189.68
-9755094.24 5135329.05 192.16
-9755098.80 5135329.45 187.14
-9755093.86 5135332.72 186.39
-9755095.41 5135330.15 188.03
-9755093.41 5135328.37 191.74
-9755095.97 5135330.88 184.71
-9755094.02 5135325.42 186.14
-9755098.70 5135329.05 189.41
-9755098.28 5135323.32 181.51
-9755095.37 5135331.10 187.41
-9755097.81 5135325.98 187.27
-9755098.29 5135329.17 190.83
-9755097.81 5135332.42 189.23
-9755094.70 5135327.68 181.32
-9755094.41 5135325.97 185.13
-9755098.36 5135329.44 189.10
-9755095.98 5135327.47 186.23
-9755096.79 5135324.84 188.06
-9755096.17 5135326.35 189.24
-9755097.17 5135331.30 189.69
-9755098.18 5135325.99 187.99
-9755097.70 5135328.40 188.69
-9755098.26 5135325.68 181.51
-9755095.65 5135329.06 189.46
-9755095.09 5135325.93 189.17
-9755099.41 5135324.87 188.76
-9755099.01 5135320.45 188.02
-9755093.91 5135329.68 189.37
-9755093.26 5135322.45 181.32
-9755097.37 5135331.43 185.32
-9755095.19 5135331.03 190.50
-9755097.78 5135330.94 185.34
-9755097.56 5135328.99 191.31
-9755098.04 5135324.77 187.85
-9755095.17 5135329.25 188.60
-9755094.44 5135327.38 189.32
-9755096.94 5135329.24 186.82
-9755094.37 5135332.14 186.67
-9755098.98 5135320.07 187.38
-9755095.07 5135331.39 185.95
-9755094.57 5135331.82 187.55
-9755093.95 5135332.90 186.75
-9755095.66 5135320.05 181.53
-9755094.61 5135330.98 191.57
-9755095.06 5135326.51 189.08
-9755094.51 5135328.50 189.72
-9755097.42 5135330.24 190.10
-9755095.63 5135329.79 186.44
-9755096.47 5135329.83 187.47
-9755098.05 5135325.61 188.82
-9755097.18 5135326.58 187.75
-9755098.92 5135333.34 185.56
-9755095.66 5135331.93 188.38
-9755096.53 5135330.31 189.21
-9755094.87 5135332.30 190.07
-9755098.59 5135321.82 181.51
-9755096.69 5135330.92 185.67
-9755094.60 5135330.81 191.57
-9755094.50 5135323.32 181.30
-9755095.03 5135331.66 190.09
-9755093.86 5135327.88 191.19
-9755094.86 5135325.33 188.42
-9755097.96 5135329.26 186.33
-9755098.59 5135324.42 187.85
-9755096.41 5135327.54 185.84
-9755097.65 5135326.49 188.49
-9755097.33 5135333.06 189.39
-9755097.32 5135328.29 189.34
-9755093.22 5135329.62 189.84
-9755098.83 5135328.14 186.45
-9755098.58 5135328.04 189.92
-9755096.23 5135322.42 181.53
-9755094.47 5135326.64 187.37
-9755096.01 5135326.28 189.06
-9755095.66 5135328.43 184.49
-9755095.11 5135332.34 190.07
-9755097.05 5135331.91 181.46
-9755095.68 5135321.86 181.52
-9755099.48 5135321.26 181.51
-9755094.59 5135325.05 187.95
-9755093.78 5135326.66 187.82
-9755095.62 5135328.94 187.96
-9755097.69 5135332.48 188.99
-9755093.62 5135326.15 189.54
-9755098.69 5135325.63 185.54
-9755094.78 5135325.87 189.13
-9755096.61 5135328.50 190.99
-9755096.22 5135331.35 184.72
-9755099.41 5135329.13 189.39
-9755095.66 5135323.30 181.50
-9755093.56 5135328.62 191.39
-9755095.03 5135324.49 187.40
-9755093.87 5135331.83 185.44
-9755094.19 5135327.07 189.35
-9755095.16 5135329.13 190.09
-9755094.78 5135328.86 181.30
-9755099.45 5135325.65 188.81
-9755097.40 5135330.90 184.78
-9755098.06 5135332.23 188.53
-9755096.77 5135331.71 186.28
-9755094.71 5135329.82 185.53
-9755095.98 5135328.84 191.54
-9755097.17 5135329.84 187.27
-9755095.38 5135326.24 187.34
-9755095.42 5135327.47 191.75
-9755095.92 5135332.35 189.37
-9755094.83 5135330.68 191.38
-9755098.08 5135327.48 190.91
-9755094.47 5135328.41 185.87
-9755098.68 5135329.24 187.08
-9755098.64 5135328.41 188.03
-9755098.64 5135326.80 185.98
-9755096.26 5135332.60 184.69
-9755098.58 5135328.18 190.88
-9755094.53 5135325.56 189.03
-9755094.54 5135329.34 191.12
-9755096.46 5135330.73 181.48
-9755094.29 5135325.91 186.10
-9755098.53 5135327.48 191.22
-9755098.19 5135331.43 188.55
-9755094.15 5135332.14 190.88
-9755095.38 5135328.46 184.85
-9755095.68 5135329.42 192.36
-9755095.56 5135328.72 185.79
-9755093.13 5135328.09 191.34
-9755096.26 5135329.29 186.06
-9755096.88 5135330.17 191.43
-9755098.67 5135329.23 189.10
-9755099.03 5135328.21 187.17
-9755098.03 5135330.56 189.60
-9755098.65 5135328.64 190.35
-9755097.45 5135331.69 185.44
-9755098.33 5135327.60 191.01
-9755098.28 5135328.55 187.86
-9755097.30 5135325.33 187.64
-9755099.20 5135333.17 189.53
-9755097.23 5135325.28 188.34
-9755093.91 5135326.81 181.30
-9755098.21 5135328.72 190.18
-9755097.09 5135328.60 184.78
-9755093.81 5135327.15 181.31
-9755094.77 5135327.13 188.36
-9755098.51 5135327.60 186.29
-9755094.44 5135325.26 186.14
-9755094.33 5135326.84 190.42
-9755094.79 5135325.39 189.09
-9755093.91 5135328.77 191.59
-9755098.69 5135331.64 190.02
-9755096.78 5135330.99 189.70
-9755097.08 5135329.31 191.41
-9755095.71 5135328.73 191.73
-9755096.91 5135327.50 188.40
-9755098.11 5135331.09 187.78
-9755095.64 5135331.87 189.34
-9755093.10 5135331.82 185.58
-9755097.98 5135331.48 189.15
-9755097.75 5135326.79 188.46
-9755099.16 5135329.22 181.55
-9755093.57 5135327.67 181.33
-9755096.15 5135331.89 181.44
-9755098.37 5135329.98 184.68
-9755098.07 5135331.07 188.20
-9755098.65 5135327.67 191.13
-9755094.77 5135330.05 188.37
-9755093.88 5135333.03 187.52
-9755094.16 5135326.66 190.13
-9755093.90 5135332.80 187.59
-9755097.04 5135329.64 186.58
-9755093.94 5135333.28 190.95
-9755099.32 5135326.20 189.51
-9755097.95 5135325.32 188.82
-9755093.27 5135332.57 191.69
-9755097.16 5135325.70 187.71
-9755095.57 5135325.42 188.15
-9755098.61 5135329.38 186.39
-9755096.79 5135329.17 181.51
-9755096.80 5135326.80 189.51
-9755095.39 5135321.85 181.50
-9755096.26 5135331.80 186.00
-9755094.42 5135328.29 181.30
-9755093.10 5135329.39 189.36
-9755097.18 5135332.69 189.04
-9755093.20 5135327.96 186.44
-9755094.13 5135331.71 190.55
-9755098.33 5135329.80 186.36
-9755094.79 5135328.06 181.31
-9755097.12 5135329.04 186.84
-9755094.39 5135330.15 190.89
-9755093.54 5135329.16 190.91
-9755093.64 5135320.93 181.34
-9755096.22 5135328.71 187.00
-9755094.70 5135326.20 189.11
-9755093.04 5135329.02 189.84
-9755093.63 5135332.53 187.73
-9755098.87 5135332.73 189.55
-9755093.13 5135328.52 190.70
-9755098.04 5135330.98 188.95
-9755096.28 5135330.81 186.19
