-9755346.95 5135602.45 181.87
-9755346.63 5135597.96 182.14
-9755346.08 5135602.97 182.42
-9755345.71 5135603.65 182.04
-9755346.03 5135603.33 182.00
-9755345.16 5135597.98 182.56
-9755346.67 5135595.99 181.41
-9755346.92 5135602.78 182.42
-9755345.75 5135599.20 181.96
-9755345.74 5135596.87 181.38
-9755347.45 5135603.11 182.38
-9755345.40 5135603.32 182.01
-9755346.56 5135601.03 181.79
-9755345.36 5135597.46 182.53
-9755345.97 5135604.06 182.59
-9755346.07 5135598.97 182.46
-9755347.03 5135598.55 182.42
-9755345.22 5135592.13 181.48
-9755345.17 5135596.34 181.39
-9755345.16 5135602.47 181.85
-9755345.20 5135598.56 182.62
-9755345.16 5135597.76 182.53
-9755345.22 5135595.99 181.40
-9755351.45 5135578.55 181.53
-9755351.49 5135577.67 181.54
-9755351.19 5135577.35 181.55
-9755348.22 5135577.62 181.52
-9755350.63 5135577.07 181.54
-9755349.70 5135577.92 181.54
-9755350.31 5135578.50 181.53
-9755348.24 5135578.50 181.54
-9755350.58 5135576.15 181.53
-9755348.55 5135577.65 181.53
-9755347.96 5135577.32 181.54
-9755347.36 5135577.08 181.53
-9755347.07 5135577.06 181.53
-9755346.76 5135578.22 181.55
-9755347.01 5135578.52 181.54
-9755346.83 5135577.36 181.54
-9755345.61 5135575.57 181.53
-9755347.33 5135578.54 181.53
-9755345.89 5135578.52 181.53
-9755349.06 5135591.85 181.48
-9755349.97 5135585.65 181.54
-9755348.50 5135581.44 181.54
-9755350.21 5135591.26 181.49
-9755349.97 5135586.51 181.52
-9755348.19 5135589.18 181.51
-9755349.97 5135584.19 181.55
-9755349.09 5135583.86 181.54
-9755349.37 5135585.63 181.54
-9755348.57 5135580.93 181.53
-9755349.10 5135582.39 181.54
-9755350.56 5135586.83 181.54
-9755348.50 5135589.44 181.51
-9755350.51 5135590.39 181.49
-9755349.34 5135587.09 181.53
-9755348.20 5135591.27 181.50
-9755350.86 5135588.61 181.51
-9755350.57 5135583.90 181.55
-9755348.48 5135584.17 181.55
-9755348.20 5135584.75 181.55
-9755351.17 5135584.72 181.55
-9755348.49 5135590.07 181.50
-9755349.63 5135590.38 181.50
-9755350.57 5135587.16 181.52
-9755349.92 5135591.56 181.49
-9755349.34 5135588.87 181.51
-9755350.27 5135584.77 181.54
-9755348.25 5135580.62 181.52
-9755350.00 5135582.99 181.54
-9755348.50 5135588.00 181.53
-9755349.35 5135583.28 181.54
-9755350.59 5135580.86 181.54
-9755350.64 5135580.02 181.54
-9755350.52 5135591.27 181.48
-9755349.03 5135590.33 181.50
-9755349.06 5135588.62 181.52
-9755350.86 5135580.01 181.54
-9755351.18 5135579.46 181.53
-9755347.90 5135585.33 181.54
-9755350.36 5135580.63 181.53
-9755349.41 5135580.00 181.54
-9755349.09 5135587.43 181.53
-9755348.19 5135586.21 181.53
-9755346.67 5135587.98 181.52
-9755346.70 5135585.94 181.53
-9755346.76 5135579.09 181.53
-9755346.72 5135587.39 181.53
-9755346.66 5135591.23 181.49
-9755345.81 5135588.31 181.52
-9755345.82 5135587.08 181.54
-9755345.81 5135590.98 181.49
-9755347.36 5135580.89 181.53
-9755347.61 5135580.00 181.53
-9755346.70 5135589.75 181.50
-9755347.90 5135582.99 181.52
-9755346.99 5135586.84 181.53
-9755346.48 5135580.56 181.54
-9755347.30 5135586.47 181.54
-9755345.85 5135585.64 181.52
-9755345.50 5135589.48 181.51
-9755345.81 5135590.35 181.51
-9755345.85 5135589.15 181.51
-9755345.80 5135589.78 181.50
-9755346.72 5135582.38 181.53
-9755347.60 5135586.79 181.53
-9755345.58 5135580.31 181.54
-9755346.70 5135588.88 181.51
-9755346.73 5135584.73 181.53
-9755345.86 5135580.57 181.54
-9755345.95 5135579.41 181.53
-9755345.88 5135584.98 181.53
-9755345.86 5135584.15 181.53
-9755345.79 5135588.86 181.51
-9755346.44 5135583.83 181.53
-9755345.27 5135578.24 181.53
-9755345.26 5135585.34 181.52
-9755393.24 5135592.13 181.41
-9755392.89 5135600.21 180.50
-9755397.68 5135600.13 181.93
-9755396.19 5135599.84 181.68
-9755393.27 5135598.57 180.68
-9755388.42 5135598.53 181.59
-9755397.34 5135596.94 182.00
-9755395.30 5135599.83 181.81
-9755389.12 5135601.81 183.08
-9755393.54 5135600.04 182.13
-9755388.22 5135597.69 181.19
-9755387.95 5135601.48 183.08
-9755397.12 5135598.61 181.92
-9755393.26 5135600.01 182.13
-9755397.60 5135598.59 182.03
-9755391.16 5135601.82 183.07
-9755390.26 5135601.80 183.08
-9755394.12 5135593.57 181.40
-9755393.31 5135598.55 181.56
-9755394.71 5135598.56 181.45
-9755388.74 5135600.67 180.40
-9755387.95 5135601.19 183.07
-9755395.60 5135596.92 181.36
-9755393.22 5135597.36 181.17
-9755393.55 5135600.16 180.48
-9755390.86 5135593.57 181.42
-9755393.81 5135600.05 182.12
-9755387.30 5135601.10 180.42
-9755383.46 5135601.05 180.33
-9755386.29 5135600.96 180.10
-9755384.36 5135601.77 183.09
-9755384.59 5135601.78 180.08
-9755381.37 5135601.07 180.37
-9755382.94 5135597.68 181.35
-9755382.58 5135595.89 181.37
-9755387.02 5135596.84 181.33
-9755384.72 5135596.50 181.34
-9755384.96 5135598.61 180.88
-9755386.63 5135600.92 180.43
-9755386.09 5135601.02 180.16
-9755383.80 5135601.53 180.14
-9755387.02 5135596.51 181.34
-9755385.57 5135601.03 180.21
-9755386.39 5135600.99 180.51
-9755385.84 5135601.22 180.16
-9755386.78 5135593.58 181.43
-9755386.13 5135594.38 181.42
-9755393.64 5135576.74 181.54
-9755396.61 5135577.04 181.51
-9755395.77 5135575.55 181.51
-9755390.99 5135577.57 181.56
-9755382.13 5135578.42 181.57
-9755383.35 5135576.10 181.55
-9755383.91 5135577.54 181.56
-9755397.75 5135583.28 181.52
-9755388.01 5135584.10 181.56
-9755389.15 5135587.04 181.51
-9755396.53 5135591.25 181.41
-9755395.66 5135581.44 181.54
-9755390.03 5135590.31 181.51
-9755391.19 5135591.19 181.47
-9755392.99 5135582.91 181.54
-9755393.63 5135580.02 181.54
-9755388.57 5135590.32 181.49
-9755389.78 5135586.18 181.53
-9755397.75 5135586.21 181.50
-9755395.67 5135582.93 181.53
-9755388.58 5135582.05 181.55
-9755387.10 5135587.06 181.53
-9755385.30 5135587.01 181.54
-9755385.92 5135588.56 181.51
-9755386.23 5135584.39 181.55
-9755381.15 5135599.74 180.63
-9755377.66 5135597.62 181.33
-9755377.55 5135600.10 180.42
-9755380.48 5135601.32 180.41
-9755374.35 5135601.77 180.42
-9755377.52 5135599.16 181.64
-9755373.47 5135601.80 180.42
-9755373.86 5135598.26 182.27
-9755372.88 5135598.63 181.53
-9755374.78 5135576.91 181.58
-9755380.71 5135577.57 181.56
-9755376.82 5135578.68 181.57
-9755378.05 5135576.91 181.57
-9755372.39 5135578.36 181.57
-9755375.92 5135582.82 181.55
-9755378.81 5135588.49 181.52
-9755374.73 5135588.70 181.51
-9755379.47 5135581.68 181.56
-9755379.71 5135586.39 181.53
-9755375.91 5135588.72 181.51
-9755380.01 5135589.40 181.51
-9755380.90 5135588.76 181.51
-9755375.92 5135580.44 181.56
-9755379.78 5135579.56 181.56
-9755373.29 5135581.68 181.54
-9755372.66 5135583.70 181.54
-9755373.86 5135585.19 181.54
-9755371.85 5135576.30 181.58
-9755371.14 5135591.96 181.47
-9755371.41 5135592.02 181.48
-9755368.14 5135600.36 180.70
-9755364.74 5135599.94 181.24
-9755370.22 5135598.49 181.35
-9755364.00 5135600.31 181.30
-9755366.11 5135598.48 181.35
-9755371.29 5135599.81 180.61
-9755368.43 5135595.23 181.41
-9755363.43 5135599.39 181.84
-9755371.37 5135600.55 180.64
-9755363.16 5135599.01 181.80
-9755366.11 5135596.10 181.41
-9755365.20 5135596.96 181.40
-9755363.17 5135599.37 180.87
-9755363.29 5135599.97 180.91
-9755364.94 5135599.73 181.06
-9755366.06 5135601.54 180.87
-9755370.52 5135595.25 181.41
-9755362.81 5135600.31 181.22
-9755365.75 5135601.18 180.63
-9755364.32 5135599.34 181.35
-9755361.59 5135599.28 181.74
-9755370.52 5135599.65 181.62
-9755369.92 5135599.10 181.31
-9755366.93 5135601.82 180.40
-9755352.55 5135598.36 181.35
-9755357.84 5135596.92 181.37
-9755357.87 5135601.66 181.57
-9755356.62 5135598.99 181.36
-9755355.79 5135601.66 181.54
-9755356.99 5135592.81 181.47
-9755356.36 5135601.36 181.26
-9755355.44 5135601.70 181.33
-9755351.67 5135599.62 181.39
-9755358.21 5135593.96 181.44
-9755353.11 5135596.04 181.41
-9755351.67 5135596.03 181.40
-9755352.77 5135600.15 181.24
-9755363.27 5135578.61 181.55
-9755362.38 5135577.41 181.54
-9755368.61 5135576.25 181.58
-9755355.64 5135577.10 181.55
-9755354.16 5135576.77 181.52
-9755358.26 5135577.11 181.55
-9755356.23 5135577.13 181.54
-9755352.08 5135576.21 181.53
-9755368.25 5135580.41 181.55
-9755369.39 5135591.07 181.49
-9755363.27 5135586.27 181.52
-9755363.24 5135588.10 181.51
-9755368.84 5135585.76 181.54
-9755364.17 5135580.37 181.54
-9755363.26 5135585.40 181.53
-9755363.19 5135588.69 181.52
-9755361.18 5135580.36 181.55
-9755361.76 5135586.58 181.53
-9755364.77 5135579.23 181.55
-9755354.07 5135591.88 181.47
-9755356.20 5135578.86 181.53
-9755361.48 5135582.47 181.55
-9755352.93 5135585.35 181.53
-9755356.17 5135580.32 181.54
-9755360.30 5135585.42 181.52
-9755352.35 5135585.36 181.54
-9755355.85 5135587.17 181.51
-9755359.11 5135585.70 181.51
-9755350.78 5135599.01 181.36
-9755348.10 5135596.03 181.41
-9755349.63 5135597.45 181.37
-9755350.21 5135596.03 181.40
-9755350.17 5135600.19 180.87
-9755346.03 5135600.12 181.35
-9755346.46 5135598.27 182.53
-9755345.82 5135593.92 181.45
-9755346.72 5135598.08 182.55
-9755346.63 5135600.99 181.36
-9755346.64 5135595.69 181.41
-9755346.31 5135598.90 182.46
-9755346.67 5135598.62 182.48
-9755346.70 5135601.31 181.73
-9755345.47 5135598.01 182.60
-9755345.15 5135598.58 182.61
-9755345.09 5135597.39 182.45
-9755350.03 5135576.13 181.54
-9755345.86 5135577.33 181.53
-9755345.89 5135575.56 181.53
-9755348.20 5135582.08 181.53
-9755347.61 5135590.68 181.50
-9755346.39 5135588.62 181.51
-9755345.51 5135590.34 181.50
-9755393.69 5135618.82 185.15
-9755391.19 5135618.33 185.73
-9755395.77 5135618.63 185.64
-9755387.90 5135618.52 185.12
-9755396.99 5135618.90 185.34
-9755393.44 5135618.83 185.15
-9755386.32 5135618.59 185.45
-9755386.69 5135618.81 185.12
-9755394.58 5135625.62 186.65
-9755396.40 5135624.10 186.33
-9755389.57 5135620.70 185.58
-9755391.95 5135621.53 185.80
-9755396.94 5135624.77 186.46
-9755393.41 5135619.51 185.35
-9755394.93 5135628.10 196.11
-9755394.89 5135621.24 185.77
-9755396.87 5135626.17 186.73
-9755393.71 5135627.74 196.61
-9755392.83 5135620.40 185.49
-9755393.67 5135621.00 185.61
-9755395.39 5135626.56 186.84
-9755388.74 5135627.98 186.98
-9755394.85 5135625.04 186.44
-9755393.73 5135621.51 185.79
-9755397.58 5135627.35 196.52
-9755396.12 5135620.89 185.74
-9755388.74 5135620.01 185.42
-9755396.34 5135627.71 187.07
-9755397.79 5135626.75 196.28
-9755390.78 5135627.28 186.92
-9755393.70 5135621.19 185.66
-9755395.00 5135627.21 196.72
-9755396.36 5135625.34 186.65
-9755396.96 5135623.32 186.21
-9755393.79 5135628.14 196.13
-9755395.20 5135622.02 186.36
-9755393.02 5135627.40 186.89
-9755388.42 5135624.93 186.36
-9755387.28 5135624.95 186.27
-9755395.75 5135626.43 186.70
-9755387.13 5135625.06 186.36
-9755387.50 5135621.77 185.76
-9755392.85 5135621.51 185.81
-9755390.56 5135620.37 185.54
-9755392.80 5135627.79 196.43
-9755392.83 5135625.32 186.43
-9755393.18 5135627.24 196.73
-9755387.85 5135627.38 186.87
-9755395.70 5135625.36 186.66
-9755394.85 5135621.54 185.79
-9755395.53 5135620.40 185.55
-9755387.56 5135623.98 186.65
-9755392.83 5135620.26 185.96
-9755387.52 5135625.87 186.43
-9755390.51 5135627.00 196.67
-9755393.22 5135622.27 185.89
-9755394.56 5135623.31 186.21
-9755391.42 5135627.80 196.14
-9755393.69 5135627.99 187.10
-9755394.85 5135627.35 186.90
-9755389.97 5135627.48 196.72
-9755388.95 5135627.32 186.89
-9755393.11 5135625.62 186.66
-9755397.80 5135620.67 185.73
-9755393.11 5135627.75 186.96
-9755394.09 5135627.22 196.70
-9755392.19 5135626.72 186.71
-9755392.89 5135621.12 185.60
-9755388.32 5135624.88 186.25
-9755387.82 5135620.34 185.39
-9755394.52 5135627.77 187.04
-9755387.49 5135626.42 186.67
-9755384.55 5135620.01 185.09
-9755383.37 5135622.35 185.77
-9755383.40 5135619.14 185.11
-9755384.57 5135625.27 186.25
-9755384.00 5135619.13 185.11
-9755385.25 5135627.73 187.46
-9755385.75 5135626.54 186.63
-9755380.74 5135625.27 186.21
-9755380.53 5135622.36 186.13
-9755383.69 5135624.47 186.19
-9755386.82 5135622.87 185.86
-9755382.51 5135623.21 185.91
-9755384.52 5135624.42 186.22
-9755383.14 5135619.97 185.86
-9755383.41 5135621.24 185.55
-9755383.43 5135620.01 185.17
-9755385.43 5135622.95 185.86
-9755383.89 5135621.05 185.39
-9755381.34 5135622.62 185.77
-9755384.49 5135626.51 186.58
-9755387.51 5135625.52 186.88
-9755381.02 5135626.72 186.47
-9755385.67 5135622.04 185.77
-9755383.44 5135620.87 185.35
-9755381.38 5135620.28 185.28
-9755386.14 5135628.13 196.10
-9755384.64 5135627.34 186.68
-9755381.02 5135627.36 186.64
-9755386.30 5135627.89 186.90
-9755385.53 5135621.72 186.18
-9755384.59 5135626.13 186.44
-9755383.64 5135621.25 185.54
-9755382.52 5135624.07 186.08
-9755386.15 5135627.79 196.73
-9755385.20 5135627.34 186.68
-9755385.42 5135619.70 185.17
-9755386.58 5135626.49 186.66
-9755382.14 5135627.95 186.85
-9755386.31 5135627.49 186.81
-9755386.96 5135620.31 185.36
-9755383.41 5135624.69 186.21
-9755385.42 5135623.54 186.01
-9755384.05 5135626.50 186.51
-9755392.86 5135605.41 182.79
-9755389.96 5135605.92 182.81
-9755384.30 5135618.36 185.47
-9755395.24 5135618.31 185.11
-9755393.48 5135612.45 184.09
-9755393.18 5135609.21 183.51
-9755390.24 5135610.89 183.74
-9755392.84 5135607.96 183.19
-9755393.79 5135608.96 183.39
-9755391.08 5135614.17 184.34
-9755390.77 5135610.08 183.58
-9755395.29 5135608.05 183.36
-9755392.88 5135606.28 182.97
-9755394.90 5135613.58 184.33
-9755396.13 5135617.42 184.99
-9755392.86 5135613.02 184.15
-9755392.81 5135608.27 183.74
-9755387.91 5135607.10 183.08
-9755393.77 5135612.99 184.14
-9755392.03 5135606.99 183.58
-9755388.43 5135607.35 183.10
-9755392.27 5135613.60 184.20
-9755390.79 5135610.95 183.76
-9755395.84 5135605.96 182.99
-9755389.01 5135617.41 184.93
-9755395.30 5135608.86 183.51
-9755392.29 5135614.24 184.34
-9755389.62 5135614.15 184.35
-9755394.92 5135614.26 184.36
-9755392.69 5135607.15 183.15
-9755394.38 5135613.33 184.15
-9755387.88 5135612.99 184.09
-9755392.74 5135616.69 184.74
-9755390.20 5135606.83 183.00
-9755397.01 5135608.93 183.56
-9755389.94 5135610.01 183.58
-9755396.38 5135615.38 184.66
-9755395.27 5135611.65 184.38
-9755389.94 5135607.39 183.17
-9755390.04 5135607.56 183.75
-9755394.41 5135606.76 183.03
-9755394.59 5135618.29 185.11
-9755390.51 5135613.03 184.15
-9755390.80 5135608.25 183.27
-9755389.07 5135609.16 183.40
-9755395.60 5135614.21 184.41
-9755390.30 5135614.18 184.97
-9755391.11 5135611.28 183.76
-9755394.37 5135607.18 183.15
-9755388.18 5135609.41 183.47
-9755394.33 5135612.45 184.12
-9755390.79 5135611.80 183.93
-9755391.12 5135612.75 184.57
-9755387.84 5135613.30 184.16
-9755390.76 5135612.36 183.95
-9755388.70 5135613.31 184.17
-9755392.02 5135615.87 184.68
-9755394.02 5135606.81 183.04
-9755387.86 5135612.12 183.95
-9755394.87 5135616.32 185.07
-9755389.62 5135613.29 184.14
-9755391.77 5135609.25 183.52
-9755392.40 5135609.88 184.15
-9755389.98 5135612.57 184.53
-9755394.04 5135610.95 183.74
-9755388.81 5135610.68 183.72
-9755396.15 5135618.30 185.12
-9755388.76 5135606.35 182.98
-9755392.27 5135611.45 183.90
-9755394.37 5135618.29 185.13
-9755391.66 5135613.65 184.19
-9755387.83 5135615.30 184.54
-9755385.54 5135618.28 184.95
-9755386.69 5135610.02 183.55
-9755385.25 5135609.10 183.38
-9755383.76 5135606.60 182.83
-9755385.27 5135606.83 182.97
-9755384.61 5135607.72 183.06
-9755384.61 5135609.15 183.38
-9755386.72 5135611.52 183.76
-9755386.38 5135607.63 183.13
-9755382.05 5135611.68 183.51
-9755386.86 5135614.25 184.33
-9755385.49 5135609.75 183.40
-9755383.12 5135607.68 183.00
-9755383.38 5135618.26 184.93
-9755384.61 5135613.26 184.05
-9755383.69 5135616.20 184.53
-9755382.60 5135606.81 182.97
-9755382.80 5135615.86 184.54
-9755387.23 5135617.07 184.75
-9755381.99 5135616.17 184.56
-9755383.33 5135606.80 183.30
-9755382.60 5135610.31 183.50
-9755382.59 5135616.74 184.68
-9755381.98 5135607.07 182.96
-9755382.78 5135615.02 184.34
-9755384.22 5135615.66 184.48
-9755385.19 5135616.50 184.61
-9755382.57 5135615.01 184.34
-9755384.68 5135612.40 183.96
-9755386.95 5135610.86 183.66
-9755385.86 5135611.85 184.24
-9755386.41 5135608.86 183.38
-9755381.05 5135617.95 184.86
-9755386.34 5135612.08 183.90
-9755382.58 5135609.23 183.35
-9755381.38 5135612.67 183.92
-9755384.59 5135616.16 184.55
-9755383.69 5135609.18 183.37
-9755383.76 5135611.20 183.69
-9755384.75 5135608.16 183.70
-9755383.40 5135610.90 184.14
-9755386.99 5135613.02 184.12
-9755386.67 5135609.16 183.38
-9755384.62 5135608.80 183.28
-9755383.51 5135610.93 183.58
-9755379.30 5135619.12 184.96
-9755376.31 5135619.08 184.94
-9755378.02 5135625.30 186.22
-9755378.08 5135627.89 186.68
-9755377.18 5135620.61 185.34
-9755378.05 5135627.27 186.62
-9755376.26 5135625.21 186.22
-9755375.14 5135619.62 185.08
-9755374.54 5135619.93 185.14
-9755373.98 5135625.26 186.19
-9755377.16 5135627.28 186.65
-9755375.41 5135622.00 185.57
-9755375.17 5135621.77 185.53
-9755378.11 5135619.97 185.13
-9755374.85 5135621.17 185.36
-9755379.29 5135626.99 186.58
-9755373.95 5135621.43 185.43
-9755378.69 5135624.09 185.99
-9755377.48 5135623.22 185.78
-9755375.45 5135625.20 186.23
-9755379.28 5135622.93 185.78
-9755375.99 5135623.47 185.82
-9755380.12 5135627.30 186.64
-9755376.02 5135626.67 186.43
-9755376.00 5135624.96 186.06
-9755377.97 5135620.29 185.75
-9755378.64 5135627.26 186.64
-9755380.12 5135621.72 185.97
-9755379.83 5135622.05 185.57
-9755376.01 5135621.77 185.45
-9755375.18 5135619.76 185.12
-9755379.26 5135624.96 186.60
-9755377.21 5135620.01 185.13
-9755376.07 5135622.51 186.20
-9755377.28 5135625.71 186.72
-9755375.47 5135622.50 186.20
-9755376.02 5135620.57 185.84
-9755379.82 5135621.20 185.35
-9755379.35 5135622.33 185.57
-9755380.16 5135619.16 184.95
-9755374.83 5135619.16 185.51
-9755379.34 5135619.62 185.69
-9755378.67 5135620.39 185.23
-9755376.61 5135627.33 186.64
-9755372.93 5135623.70 186.27
-9755373.02 5135627.28 186.51
-9755372.98 5135624.91 186.04
-9755372.45 5135622.00 185.97
-9755371.90 5135619.36 184.96
-9755372.44 5135622.82 185.58
-9755372.18 5135627.03 186.46
-9755372.46 5135619.76 185.02
-9755372.42 5135620.15 185.42
-9755371.95 5135626.40 186.42
-9755372.67 5135625.23 186.66
-9755372.20 5135628.15 186.66
-9755371.89 5135622.59 185.59
-9755372.37 5135625.16 186.11
-9755373.07 5135624.64 186.03
-9755371.56 5135628.16 186.66
-9755375.58 5135605.28 183.01
-9755375.88 5135605.22 182.98
-9755376.35 5135617.96 184.75
-9755374.31 5135605.62 182.62
-9755374.01 5135615.01 184.22
-9755377.26 5135613.52 183.94
-9755376.36 5135610.87 183.98
-9755376.34 5135615.32 184.34
-9755375.50 5135614.17 184.54
-9755378.44 5135612.38 183.76
-9755379.31 5135618.21 184.88
-9755374.62 5135607.26 183.36
-9755374.57 5135609.67 183.74
-9755379.66 5135605.88 182.65
-9755375.58 5135608.30 183.35
-9755377.52 5135612.56 183.77
-9755378.45 5135608.51 183.12
-9755380.49 5135612.93 183.91
-9755379.09 5135615.79 184.92
-9755374.03 5135610.84 183.45
-9755374.01 5135608.49 183.02
-9755376.97 5135607.65 182.98
-9755377.22 5135617.90 184.75
-9755374.34 5135616.17 184.92
-9755379.32 5135607.62 182.97
-9755376.30 5135612.03 183.76
-9755379.12 5135610.07 183.94
-9755374.00 5135617.00 184.58
-9755377.31 5135617.09 185.01
-9755376.86 5135608.38 183.01
-9755375.98 5135616.51 184.99
-9755378.79 5135609.68 183.38
-9755374.36 5135607.48 183.33
-9755374.66 5135614.17 184.46
-9755376.74 5135607.18 183.36
-9755377.22 5135615.28 184.36
-9755379.35 5135605.90 182.64
-9755378.98 5135615.03 184.31
-9755374.28 5135610.86 183.44
-9755379.62 5135611.71 183.73
-9755378.98 5135610.86 183.55
-9755375.81 5135610.56 183.42
-9755378.80 5135617.03 185.08
-9755375.11 5135617.38 184.72
-9755376.88 5135614.09 184.09
-9755379.60 5135615.06 184.32
-9755374.57 5135609.96 183.37
-9755379.60 5135612.97 183.91
-9755380.18 5135610.29 183.41
-9755375.84 5135606.41 182.69
-9755375.08 5135605.91 183.22
-9755379.33 5135609.13 183.19
-9755378.83 5135605.98 183.20
-9755375.78 5135612.99 183.87
-9755380.49 5135615.01 184.32
-9755374.58 5135612.08 183.73
-9755378.40 5135615.90 184.37
-9755379.61 5135608.47 183.13
-9755376.31 5135610.58 183.40
-9755375.88 5135616.68 184.31
-9755373.99 5135613.23 183.92
-9755380.49 5135614.38 184.16
-9755379.25 5135617.61 184.73
-9755378.39 5135614.12 184.12
-9755379.00 5135611.75 183.73
-9755374.04 5135611.71 183.60
-9755379.97 5135612.59 183.79
-9755379.38 5135606.11 182.66
-9755375.22 5135614.95 184.16
-9755379.76 5135618.02 185.34
-9755376.36 5135615.55 184.34
-9755378.41 5135616.76 184.55
-9755379.00 5135605.89 182.63
-9755376.07 5135618.22 184.75
-9755379.26 5135610.32 183.40
-9755375.17 5135615.84 184.34
-9755378.48 5135607.66 182.98
-9755380.15 5135613.25 183.93
-9755377.88 5135607.63 182.99
-9755378.98 5135617.03 184.58
-9755376.28 5135612.95 183.93
-9755379.91 5135610.85 183.54
-9755374.29 5135614.11 184.03
-9755374.34 5135609.88 183.74
-9755372.25 5135606.74 182.75
-9755372.25 5135611.76 183.60
-9755373.13 5135611.72 183.66
-9755371.93 5135616.53 184.47
-9755373.69 5135609.98 183.37
-9755372.19 5135614.43 184.13
-9755373.13 5135616.12 184.43
-9755372.22 5135612.04 183.63
-9755373.08 5135613.24 183.91
-9755373.10 5135611.99 183.70
-9755371.58 5135617.90 184.74
-9755371.46 5135613.48 184.33
-9755397.01 5135603.91 182.62
-9755397.29 5135605.12 182.82
-9755391.75 5135604.83 182.65
-9755388.80 5135603.58 182.41
-9755396.84 5135604.64 183.36
-9755396.17 5135603.90 182.64
-9755395.01 5135601.84 182.28
-9755397.05 5135605.13 182.80
-9755393.68 5135603.83 183.18
-9755394.10 5135605.03 182.79
-9755397.08 5135603.06 182.49
-9755389.71 5135605.12 182.73
-9755396.19 5135603.32 182.59
-9755397.35 5135602.76 182.44
-9755396.15 5135602.44 182.43
-9755393.15 5135601.87 182.45
-9755393.54 5135603.65 183.07
-9755386.27 5135602.79 182.46
-9755385.50 5135604.75 182.63
-9755386.41 5135604.72 182.63
-9755381.32 5135604.57 182.36
-9755385.57 5135603.88 182.44
-9755382.25 5135603.25 183.04
-9755379.66 5135605.03 182.53
-9755380.56 5135603.45 183.07
-9755377.59 5135602.66 183.07
-9755376.33 5135602.22 180.42
-9755375.80 5135604.71 182.42
-9755377.79 5135602.20 180.44
-9755374.66 5135604.68 182.40
-9755376.44 5135602.01 183.06
-9755376.44 5135602.46 180.45
-9755377.58 5135602.04 183.06
-9755378.85 5135603.78 183.06
-9755377.21 5135602.17 180.46
-9755377.59 5135604.06 183.10
-9755374.28 5135604.10 182.44
-9755373.16 5135602.60 183.09
-9755371.45 5135602.19 183.09
-9755361.64 5135618.47 184.72
-9755363.68 5135618.43 184.72
-9755371.39 5135618.77 184.83
-9755363.66 5135619.04 184.73
-9755364.82 5135618.37 184.71
-9755354.81 5135618.48 184.63
-9755356.57 5135618.38 185.00
-9755357.13 5135618.38 184.61
-9755369.01 5135618.79 185.29
-9755364.56 5135626.93 186.33
-9755361.53 5135628.12 186.61
-9755363.05 5135623.98 185.78
-9755370.15 5135620.76 185.14
-9755366.05 5135624.94 185.99
-9755368.07 5135624.06 185.79
-9755371.29 5135619.98 185.13
-9755366.84 5135625.49 186.12
-9755363.12 5135628.07 186.56
-9755370.70 5135626.65 186.45
-9755368.34 5135626.09 186.23
-9755370.97 5135627.32 186.45
-9755361.54 5135626.97 186.36
-9755362.76 5135625.74 186.00
-9755365.69 5135620.22 185.04
-9755367.78 5135620.19 185.10
-9755365.10 5135623.71 185.75
-9755364.19 5135628.11 186.63
-9755362.73 5135622.54 185.41
-9755363.96 5135621.63 185.33
-9755366.30 5135624.05 185.82
-9755371.25 5135624.96 186.02
-9755363.95 5135628.10 186.64
-9755365.06 5135619.06 185.33
-9755370.99 5135622.23 185.57
-9755369.81 5135624.34 185.85
-9755363.36 5135620.80 185.12
-9755362.14 5135621.48 185.30
-9755366.90 5135620.85 185.18
-9755361.44 5135622.46 185.94
-9755368.65 5135619.29 184.94
-9755361.57 5135626.35 186.21
-9755364.49 5135619.89 184.93
-9755367.74 5135624.40 185.90
-9755362.42 5135619.30 184.82
-9755363.63 5135622.51 185.41
-9755368.95 5135626.33 186.25
-9755361.13 5135625.25 186.60
-9755370.96 5135624.37 186.52
-9755360.71 5135620.82 185.13
-9755368.97 5135620.02 185.42
-9755368.97 5135621.39 185.36
-9755364.67 5135623.78 186.28
-9755367.72 5135626.40 186.28
-9755368.97 5135622.90 185.59
-9755368.03 5135628.15 186.66
-9755365.09 5135622.01 185.33
-9755367.75 5135624.62 185.98
-9755364.82 5135621.98 185.33
-9755369.66 5135623.29 185.79
-9755361.52 5135624.30 185.79
-9755363.06 5135627.80 186.44
-9755361.46 5135623.61 185.58
-9755363.96 5135620.78 185.11
-9755369.54 5135621.98 185.37
-9755360.94 5135623.68 185.57
-9755368.34 5135626.99 186.45
-9755369.82 5135624.37 185.88
-9755368.94 5135621.66 185.36
-9755368.93 5135622.53 186.03
-9755363.62 5135623.99 185.77
-9755355.41 5135622.84 185.84
-9755352.17 5135620.97 185.11
-9755354.78 5135625.08 185.93
-9755357.49 5135623.72 185.64
-9755356.61 5135622.74 185.39
-9755360.69 5135621.54 185.15
-9755354.11 5135621.85 185.24
-9755354.54 5135623.34 186.18
-9755355.01 5135624.41 186.36
-9755360.71 5135626.64 186.23
-9755356.29 5135624.26 185.79
-9755357.47 5135621.91 185.35
-9755352.71 5135622.95 185.81
-9755352.49 5135619.54 184.74
-9755355.10 5135625.72 186.00
-9755353.73 5135620.68 184.99
-9755357.43 5135627.81 186.44
-9755353.88 5135621.62 185.14
-9755357.39 5135626.10 186.20
-9755358.01 5135626.96 186.34
-9755356.24 5135622.75 185.38
-9755355.11 5135624.87 185.80
-9755358.67 5135619.63 184.91
-9755355.04 5135627.23 186.34
-9755356.20 5135620.59 185.05
-9755359.19 5135619.88 184.96
-9755352.12 5135619.89 184.92
-9755357.41 5135622.51 185.38
-9755352.42 5135624.80 185.81
-9755359.78 5135623.69 185.60
-9755356.63 5135626.06 186.60
-9755355.65 5135623.67 185.57
-9755352.10 5135625.76 186.04
-9755352.07 5135624.24 185.77
-9755354.54 5135623.95 185.60
-9755358.90 5135624.91 185.96
-9755355.05 5135626.98 186.84
-9755359.71 5135626.08 186.21
-9755357.37 5135626.07 186.12
-9755354.19 5135625.11 185.90
-9755359.20 5135626.98 186.34
-9755356.71 5135624.54 186.18
-9755357.98 5135627.79 186.51
-9755352.11 5135628.00 186.46
-9755358.89 5135627.76 186.52
-9755355.38 5135626.62 186.22
-9755354.20 5135619.64 184.89
-9755357.45 5135623.39 185.59
-9755355.07 5135619.56 184.80
-9755359.80 5135623.20 185.97
-9755355.76 5135619.55 184.77
-9755354.51 5135619.87 184.92
-9755359.21 5135628.14 186.56
-9755355.90 5135621.17 185.64
-9755355.29 5135619.55 184.80
-9755357.07 5135626.58 186.77
-9755353.40 5135619.34 185.23
-9755353.43 5135625.73 186.56
-9755360.39 5135628.16 186.50
-9755354.15 5135626.02 186.02
-9755357.40 5135627.48 186.44
-9755368.15 5135605.24 182.41
-9755366.97 5135605.23 182.43
-9755366.05 5135605.25 182.47
-9755353.32 5135605.48 183.05
-9755366.69 5135605.52 182.47
-9755371.34 5135617.90 184.74
-9755360.76 5135618.12 184.57
-9755366.60 5135611.37 183.46
-9755369.78 5135615.58 184.31
-9755362.41 5135616.96 184.32
-9755361.30 5135614.96 184.09
-9755368.98 5135606.71 182.63
-9755363.44 5135611.70 183.50
-9755366.63 5135614.63 184.04
-9755369.83 5135616.67 184.41
-9755363.66 5135606.72 182.60
-9755368.10 5135612.55 183.73
-9755362.49 5135612.86 183.70
-9755364.81 5135616.68 184.33
-9755362.87 5135610.81 183.34
-9755361.62 5135606.72 182.60
-9755364.82 5135617.54 184.52
-9755369.01 5135611.70 183.55
-9755364.35 5135607.56 182.78
-9755370.17 5135615.51 184.21
-9755367.79 5135610.85 183.36
-9755368.10 5135607.64 182.80
-9755362.80 5135608.47 182.94
-9755364.13 5135607.48 183.15
-9755363.59 5135614.89 184.05
-9755364.24 5135610.83 183.35
-9755364.53 5135614.94 184.08
-9755361.97 5135606.14 182.47
-9755365.15 5135618.15 184.60
-9755361.54 5135612.88 183.68
-9755369.83 5135611.19 183.48
-9755365.10 5135614.42 184.28
-9755370.99 5135606.74 183.16
-9755365.75 5135609.63 183.16
-9755364.20 5135615.82 184.14
-9755362.79 5135616.96 184.36
-9755363.37 5135616.66 184.34
-9755370.20 5135610.80 183.38
-9755370.20 5135606.45 182.64
-9755371.08 5135605.69 182.92
-9755369.01 5135613.45 183.85
-9755370.99 5135611.18 183.54
-9755369.88 5135613.80 183.93
-9755363.65 5135615.83 184.14
-9755370.45 5135616.67 184.42
-9755366.94 5135612.01 183.56
-9755369.86 5135617.53 184.54
-9755366.91 5135612.58 183.71
-9755366.64 5135607.64 182.81
-9755368.98 5135610.58 183.36
-9755364.88 5135610.38 183.20
-9755368.35 5135617.96 184.71
-9755362.86 5135605.80 182.43
-9755363.64 5135613.42 183.74
-9755364.00 5135612.91 183.72
-9755367.21 5135616.73 184.43
-9755367.25 5135606.34 182.61
-9755367.82 5135612.55 183.73
-9755363.40 5135613.71 183.76
-9755368.09 5135609.67 183.69
-9755361.97 5135606.97 182.61
-9755367.18 5135613.45 183.81
-9755368.11 5135608.49 182.97
-9755361.61 5135616.34 184.33
-9755371.38 5135611.25 184.05
-9755368.98 5135611.22 183.45
-9755361.61 5135611.06 183.36
-9755370.09 5135617.54 184.55
-9755361.30 5135615.44 184.14
-9755371.07 5135608.68 183.52
-9755367.83 5135611.70 183.56
-9755366.08 5135606.12 182.58
-9755368.69 5135609.59 183.18
-9755368.98 5135613.19 183.76
-9755365.01 5135611.09 183.90
-9755365.79 5135606.41 182.62
-9755360.79 5135608.35 182.81
-9755371.00 5135612.30 183.73
-9755363.21 5135613.78 184.28
-9755361.00 5135617.94 185.05
-9755365.23 5135605.77 182.51
-9755368.97 5135614.92 184.13
-9755365.04 5135617.87 184.51
-9755365.16 5135611.67 183.52
-9755363.12 5135612.56 183.55
-9755371.31 5135614.27 183.96
-9755368.08 5135613.44 183.79
-9755363.03 5135614.67 184.46
-9755368.23 5135609.10 183.08
-9755368.41 5135607.60 182.81
-9755371.06 5135614.67 184.14
-9755361.36 5135611.41 183.99
-9755369.29 5135615.83 184.32
-9755362.45 5135614.94 184.07
-9755367.23 5135614.61 184.01
-9755364.81 5135617.10 184.43
-9755363.67 5135616.72 184.34
-9755362.57 5135608.83 183.47
-9755361.43 5135610.27 183.76
-9755364.49 5135608.34 183.33
-9755361.30 5135607.59 182.79
-9755370.51 5135606.42 182.63
-9755361.66 5135609.35 183.00
-9755360.74 5135614.75 184.53
-9755359.32 5135605.53 182.42
-9755360.77 5135608.99 182.98
-9755352.45 5135605.46 182.42
-9755360.71 5135613.76 183.77
-9755358.04 5135616.70 184.37
-9755352.39 5135616.27 184.21
-9755356.62 5135608.14 182.80
-9755356.61 5135616.29 184.31
-9755358.62 5135612.56 183.64
-9755359.30 5135610.04 183.74
-9755353.36 5135610.15 183.18
-9755352.50 5135613.13 183.68
-9755360.70 5135616.96 184.36
-9755354.46 5135617.49 184.47
-9755355.16 5135610.04 183.66
-9755355.46 5135614.83 183.95
-9755352.42 5135617.41 185.00
-9755358.65 5135616.02 184.25
-9755360.51 5135611.75 183.52
-9755355.45 5135607.56 183.14
-9755356.63 5135606.04 182.44
-9755356.37 5135615.43 184.14
-9755359.51 5135613.40 183.74
-9755357.79 5135609.90 183.17
-9755351.60 5135609.25 182.99
-9755355.79 5135616.56 184.80
-9755354.39 5135612.96 184.16
-9755355.39 5135618.12 184.54
-9755358.68 5135617.51 184.53
-9755355.42 5135611.59 183.37
-9755352.55 5135609.82 183.10
-9755360.42 5135612.50 183.54
-9755354.57 5135607.19 183.21
-9755351.36 5135608.42 182.86
-9755352.53 5135607.22 182.60
-9755355.73 5135616.36 184.29
-9755352.42 5135617.83 184.82
-9755353.40 5135610.77 183.20
-9755352.51 5135612.18 183.55
-9755353.80 5135607.76 183.19
-9755358.69 5135611.59 183.48
-9755357.49 5135614.53 183.96
-9755354.58 5135607.22 182.63
-9755354.88 5135611.79 183.77
-9755354.58 5135616.36 184.26
-9755354.12 5135610.49 183.69
-9755352.22 5135616.60 184.68
-9755352.13 5135614.19 184.37
-9755357.49 5135607.23 182.72
-9755355.75 5135608.69 182.89
-9755355.43 5135616.28 184.21
-9755355.73 5135606.32 182.46
-9755355.16 5135609.26 182.97
-9755354.63 5135607.75 183.16
-9755354.54 5135608.71 182.91
-9755356.61 5135615.79 184.15
-9755356.62 5135615.23 184.16
-9755356.60 5135613.72 183.76
-9755352.49 5135613.00 183.59
-9755353.38 5135612.78 184.16
-9755360.72 5135612.81 184.13
-9755353.41 5135607.30 183.04
-9755353.39 5135612.52 183.56
-9755358.37 5135613.43 183.79
-9755355.77 5135607.21 182.62
-9755356.65 5135609.87 183.16
-9755353.91 5135616.62 184.32
-9755358.68 5135610.74 183.33
-9755353.30 5135614.37 184.50
-9755355.42 5135607.97 183.36
-9755357.45 5135616.00 184.21
-9755352.48 5135611.05 183.31
-9755357.81 5135608.42 182.93
-9755356.59 5135609.28 183.00
-9755354.00 5135609.26 182.99
-9755353.64 5135616.38 184.25
-9755354.01 5135610.81 183.71
-9755355.95 5135613.71 183.75
-9755352.35 5135613.75 184.15
-9755359.81 5135617.26 184.52
-9755360.42 5135610.84 183.82
-9755351.65 5135606.30 182.51
-9755359.87 5135608.39 182.85
-9755354.81 5135607.20 183.26
-9755354.60 5135606.37 182.45
-9755355.39 5135614.35 183.93
-9755353.36 5135614.64 183.92
-9755353.92 5135613.26 184.18
-9755359.89 5135605.74 182.44
-9755352.47 5135607.31 183.12
-9755354.78 5135609.71 183.54
-9755351.57 5135615.79 184.14
-9755355.44 5135606.66 182.61
-9755357.47 5135611.95 183.52
-9755356.59 5135614.58 183.94
-9755355.66 5135616.29 184.22
-9755352.51 5135611.32 183.36
-9755358.35 5135611.41 183.43
-9755351.30 5135614.27 183.87
-9755360.18 5135610.78 183.33
-9755346.90 5135618.36 184.54
-9755350.16 5135619.57 184.77
-9755350.38 5135624.86 185.80
-9755347.77 5135621.68 185.64
-9755347.98 5135625.35 185.99
-9755347.69 5135621.59 185.14
-9755347.95 5135625.02 186.27
-9755347.97 5135619.75 185.37
-9755349.16 5135625.98 186.00
-9755350.05 5135625.44 186.56
-9755348.39 5135623.94 186.18
-9755349.18 5135623.01 185.44
-9755348.86 5135623.30 185.93
-9755349.09 5135621.91 185.17
-9755350.35 5135622.52 185.35
-9755348.49 5135623.72 186.14
-9755347.57 5135623.97 186.21
-9755348.41 5135624.26 185.78
-9755349.77 5135623.66 185.56
-9755346.82 5135625.68 186.01
-9755346.54 5135625.01 186.27
-9755347.08 5135625.39 185.99
-9755345.97 5135624.48 185.78
-9755347.46 5135621.59 185.15
-9755346.84 5135623.67 185.57
-9755346.86 5135622.79 185.96
-9755347.15 5135620.92 185.11
-9755345.66 5135622.44 185.36
-9755346.85 5135627.39 186.34
-9755345.93 5135628.01 186.44
-9755345.09 5135627.39 186.32
-9755346.81 5135619.51 184.75
-9755345.93 5135621.26 185.12
-9755346.83 5135621.23 185.12
-9755347.07 5135621.86 185.19
-9755346.27 5135621.59 185.56
-9755346.29 5135627.38 186.31
-9755345.92 5135626.58 186.22
-9755346.05 5135621.39 185.43
-9755347.14 5135627.13 186.24
-9755345.93 5135625.39 186.00
-9755346.46 5135622.84 185.74
-9755347.13 5135625.95 186.02
-9755345.87 5135621.86 185.28
-9755349.93 5135605.13 182.40
-9755349.86 5135605.17 182.23
-9755347.78 5135605.14 182.23
-9755345.96 5135605.42 182.76
-9755350.99 5135614.19 183.85
-9755349.90 5135608.11 182.77
-9755349.29 5135609.83 182.98
-9755349.63 5135609.91 183.10
-9755351.01 5135612.54 183.57
-9755348.33 5135612.45 183.54
-9755348.35 5135610.11 183.16
-9755349.28 5135607.17 182.60
-9755349.86 5135607.22 182.60
-9755349.62 5135606.59 182.47
-9755348.33 5135618.36 184.54
-9755349.24 5135611.06 183.33
-9755348.48 5135610.49 183.70
-9755350.19 5135605.13 182.32
-9755350.06 5135617.81 184.51
-9755348.96 5135607.19 182.60
-9755348.34 5135606.86 182.61
-9755349.83 5135609.28 182.95
-9755348.41 5135615.69 184.12
-9755349.19 5135610.69 183.69
-9755349.60 5135612.56 184.17
-9755349.23 5135615.97 184.12
-9755348.36 5135607.56 183.17
-9755349.57 5135606.61 183.06
-9755351.01 5135607.24 182.66
-9755347.79 5135616.23 184.72
-9755349.64 5135611.53 183.94
-9755350.38 5135613.45 183.72
-9755349.20 5135617.16 184.32
-9755349.87 5135613.37 183.72
-9755348.07 5135611.05 183.29
-9755349.09 5135617.36 184.93
-9755347.73 5135614.23 183.79
-9755350.08 5135614.23 183.85
-9755349.23 5135616.82 184.32
-9755349.56 5135606.88 182.57
-9755348.28 5135614.54 184.52
-9755350.41 5135610.71 183.21
-9755348.82 5135616.72 184.81
-9755348.77 5135616.04 184.64
-9755349.26 5135610.45 183.15
-9755347.17 5135609.27 182.97
-9755346.00 5135607.99 183.22
-9755345.19 5135609.99 183.52
-9755345.36 5135614.20 183.79
-9755347.44 5135612.49 183.56
-9755345.94 5135613.38 183.73
-9755345.15 5135609.84 183.56
-9755346.26 5135610.91 183.22
-9755345.46 5135608.32 182.81
-9755346.57 5135611.29 183.36
-9755347.18 5135615.18 183.96
-9755347.53 5135610.07 183.64
-9755346.30 5135605.97 182.42
-9755346.12 5135608.82 183.45
-9755347.10 5135617.48 184.87
-9755346.29 5135607.18 182.62
-9755345.42 5135609.84 183.02
-9755346.87 5135606.03 182.43
-9755345.43 5135609.19 182.98
-9755345.96 5135614.31 183.87
-9755346.53 5135614.22 184.30
-9755345.14 5135611.89 183.40
-9755345.41 5135611.93 183.40
-9755345.93 5135612.19 183.56
-9755346.73 5135612.50 184.12
-9755345.11 5135610.11 183.18
-9755345.12 5135606.54 183.00
-9755371.39 5135605.53 182.47
-9755362.20 5135603.11 183.06
-9755367.86 5135602.59 183.08
-9755364.84 5135603.18 183.09
-9755369.96 5135602.23 183.10
-9755369.04 5135603.68 183.07
-9755371.41 5135604.28 183.04
-9755363.16 5135603.10 183.07
-9755368.41 5135602.68 180.42
-9755364.84 5135601.94 181.38
-9755370.26 5135602.69 180.41
-9755361.45 5135603.10 183.04
-9755371.38 5135602.62 180.42
-9755369.13 5135604.38 183.05
-9755363.22 5135603.93 183.09
-9755369.28 5135603.46 183.07
-9755365.48 5135604.29 183.07
-9755355.72 5135605.10 183.06
-9755356.63 5135603.99 183.10
-9755356.65 5135602.28 181.69
-9755358.68 5135604.29 183.10
-9755353.69 5135604.25 183.10
-9755356.29 5135605.10 182.41
-9755355.75 5135601.99 181.58
-9755352.57 5135602.23 181.62
-9755352.47 5135603.20 180.32
-9755357.84 5135603.67 183.09
-9755355.45 5135605.08 183.05
-9755359.05 5135603.40 183.10
-9755351.66 5135603.06 183.09
-9755352.51 5135603.62 183.08
-9755353.78 5135601.98 181.52
-9755357.77 5135601.97 181.65
-9755352.78 5135603.09 183.08
-9755353.83 5135603.38 183.09
-9755357.83 5135602.23 181.70
-9755355.76 5135602.22 181.63
-9755351.63 5135603.95 183.09
-9755350.39 5135604.53 183.06
-9755349.28 5135602.20 181.89
-9755349.72 5135602.75 181.89
-9755351.31 5135603.48 180.30
-9755349.56 5135602.49 181.89
-9755347.77 5135604.29 182.04
-9755350.52 5135603.40 183.08
-9755350.80 5135603.49 180.28
-9755349.33 5135603.09 181.89
-9755348.98 5135603.44 182.05
-9755345.98 5135605.10 182.24
-9755346.40 5135604.25 182.07
-9755347.14 5135603.65 182.06
-9755346.55 5135604.43 182.61
-9755347.53 5135603.35 181.92
-9755346.97 5135604.38 182.17
-9755346.62 5135604.26 182.08
-9755347.48 5135603.05 181.87
-9755346.02 5135602.17 181.77
-9755345.18 5135602.26 181.83
-9755391.98 5135618.85 185.15
-9755392.79 5135618.85 185.69
-9755390.52 5135618.56 185.13
-9755393.79 5135618.91 185.32
-9755390.11 5135618.33 185.12
-9755387.27 5135618.84 185.13
-9755396.95 5135618.66 185.30
-9755387.56 5135618.53 185.12
-9755393.69 5135618.57 185.14
-9755393.98 5135618.33 185.73
-9755390.46 5135619.42 185.32
-9755390.14 5135619.10 185.16
-9755395.21 5135618.63 185.12
-9755387.22 5135618.53 185.61
-9755384.92 5135618.83 185.12
-9755386.96 5135618.82 185.12
-9755384.00 5135619.08 185.56
-9755382.75 5135619.09 185.11
-9755382.83 5135618.55 184.94
-9755384.31 5135618.82 184.95
-9755383.14 5135618.56 184.93
-9755386.94 5135618.44 185.60
-9755386.07 5135618.27 184.94
-9755384.90 5135618.72 185.61
-9755380.73 5135618.84 184.93
-9755387.71 5135619.18 185.46
-9755391.93 5135619.77 185.36
-9755391.18 5135622.51 186.52
-9755391.31 5135622.74 186.01
-9755387.69 5135623.88 186.65
-9755391.38 5135621.79 185.80
-9755392.50 5135624.15 186.23
-9755388.34 5135625.04 186.42
-9755394.64 5135622.14 185.86
-9755397.42 5135627.23 196.50
-9755390.41 5135625.86 186.63
-9755394.85 5135624.08 186.53
-9755393.18 5135619.22 185.35
-9755388.95 5135624.75 186.37
-9755392.80 5135625.91 186.67
-9755394.33 5135620.07 185.55
-9755395.22 5135622.72 186.01
-9755388.43 5135623.79 186.63
-9755392.80 5135627.02 196.23
-9755387.84 5135621.47 185.61
-9755387.84 5135622.33 185.81
-9755394.06 5135620.11 185.53
-9755396.62 5135621.51 186.44
-9755394.68 5135620.05 185.56
-9755395.18 5135625.91 186.67
-9755392.86 5135620.32 185.58
-9755397.26 5135620.94 185.79
-9755395.82 5135625.64 186.67
-9755395.40 5135622.76 186.61
-9755395.09 5135622.18 186.01
-9755393.45 5135620.93 185.60
-9755388.14 5135619.74 185.36
-9755389.31 5135622.67 185.96
-9755390.71 5135621.79 185.80
-9755390.24 5135628.13 196.15
-9755393.71 5135627.52 196.69
-9755391.07 5135619.77 185.35
-9755391.07 5135620.43 185.57
-9755388.74 5135624.43 186.28
-9755394.01 5135621.32 185.79
-9755390.55 5135627.55 196.14
-9755391.46 5135620.29 186.00
-9755394.03 5135623.37 186.22
-9755395.59 5135626.70 196.68
-9755394.74 5135620.70 185.98
-9755394.31 5135625.01 186.44
-9755388.39 5135624.11 186.21
-9755394.89 5135621.53 186.36
-9755388.09 5135624.12 186.22
-9755387.83 5135619.72 185.36
-9755391.94 5135625.85 186.66
-9755393.75 5135627.55 196.11
-9755396.06 5135623.27 186.21
-9755390.13 5135622.66 186.02
-9755393.46 5135621.30 185.78
-9755396.39 5135622.45 185.99
-9755388.15 5135621.69 186.14
-9755393.07 5135625.02 186.44
-9755396.95 5135619.51 185.48
-9755394.29 5135622.67 186.01
-9755392.52 5135621.47 185.80
-9755394.69 5135622.98 186.61
-9755392.21 5135624.45 186.84
-9755396.40 5135625.64 186.66
-9755391.86 5135621.01 186.11
-9755392.96 5135628.10 196.10
-9755392.20 5135620.31 185.56
-9755394.02 5135623.00 186.65
-9755387.61 5135622.27 186.38
-9755392.58 5135620.08 185.39
-9755395.24 5135619.46 185.33
-9755388.74 5135621.53 185.71
-9755394.45 5135627.23 196.72
-9755388.00 5135624.97 186.28
-9755396.99 5135621.51 185.86
-9755396.11 5135620.35 185.55
-9755391.44 5135623.47 186.56
-9755391.35 5135625.06 186.45
-9755392.33 5135627.14 196.74
-9755392.50 5135621.81 185.80
-9755396.94 5135625.07 186.46
-9755397.39 5135628.15 196.61
-9755387.45 5135624.88 186.25
-9755395.61 5135622.94 186.56
-9755390.47 5135626.51 186.71
-9755389.86 5135624.72 186.38
-9755394.32 5135621.49 185.79
-9755393.78 5135626.62 196.71
-9755389.39 5135627.80 196.13
-9755389.88 5135622.69 186.00
-9755397.27 5135622.44 186.10
-9755392.31 5135622.08 186.13
-9755396.25 5135621.86 186.36
-9755397.69 5135626.87 196.69
-9755396.45 5135619.69 185.47
-9755393.11 5135619.90 185.93
-9755396.35 5135620.07 185.55
-9755389.29 5135625.58 186.53
-9755392.99 5135628.03 196.72
-9755390.21 5135620.94 185.59
-9755392.82 5135626.25 186.68
-9755390.14 5135621.50 185.64
-9755394.06 5135622.36 186.00
-9755391.48 5135627.53 196.14
-9755394.80 5135628.16 196.62
-9755389.53 5135626.20 186.67
-9755396.73 5135627.29 196.12
-9755393.12 5135623.21 186.59
-9755388.50 5135625.84 187.09
-9755395.87 5135625.32 187.12
-9755387.85 5135622.69 185.93
-9755388.72 5135622.10 185.85
-9755392.86 5135622.70 186.02
-9755395.02 5135619.86 185.54
-9755390.47 5135623.89 186.22
-9755396.34 5135623.87 186.22
-9755391.04 5135625.87 186.63
-9755397.27 5135625.69 186.70
-9755387.39 5135619.78 185.83
-9755387.76 5135626.18 186.68
-9755391.13 5135621.51 186.16
-9755393.52 5135628.16 196.55
-9755396.38 5135622.18 186.00
-9755393.72 5135625.88 186.67
-9755392.20 5135619.79 185.35
-9755397.21 5135625.35 186.65
-9755391.05 5135622.97 186.01
-9755394.27 5135625.94 186.67
-9755394.09 5135627.22 196.11
-9755392.85 5135623.57 186.22
-9755394.60 5135620.67 185.55
-9755391.02 5135620.29 185.54
-9755389.59 5135627.48 196.72
-9755391.38 5135623.86 186.24
-9755397.25 5135623.34 186.24
-9755391.68 5135625.58 186.47
-9755395.77 5135619.77 185.37
-9755393.22 5135619.95 185.38
-9755392.27 5135621.17 185.60
-9755392.18 5135626.92 196.50
-9755389.58 5135621.78 185.78
-9755397.51 5135625.66 186.72
-9755388.07 5135624.76 186.25
-9755390.73 5135621.19 185.86
-9755393.12 5135621.82 185.81
-9755388.79 5135627.72 196.72
-9755394.65 5135627.51 196.12
-9755391.94 5135620.61 185.57
-9755397.25 5135624.21 186.41
-9755390.76 5135624.69 186.42
-9755395.16 5135625.64 186.68
-9755390.23 5135627.49 196.70
-9755394.75 5135626.95 196.13
-9755387.21 5135626.79 186.68
-9755388.67 5135623.80 186.16
-9755389.01 5135625.89 186.58
-9755386.35 5135619.43 185.15
-9755386.05 5135623.85 186.02
-9755383.67 5135622.05 185.60
-9755381.95 5135619.99 185.23
-9755386.11 5135620.77 185.46
-9755385.81 5135622.40 186.41
-9755386.12 5135619.74 185.30
-9755382.20 5135620.03 185.25
-9755387.23 5135623.79 186.04
-9755383.73 5135619.43 185.12
-9755380.73 5135624.94 186.21
-9755381.03 5135624.11 185.99
-9755382.81 5135622.08 185.68
-9755384.89 5135620.02 185.35
-9755383.20 5135623.21 186.42
-9755386.98 5135623.17 186.04
-9755384.84 5135620.86 185.36
-9755381.63 5135622.64 185.78
-9755381.64 5135620.63 185.37
-9755381.31 5135625.55 186.25
-9755384.51 5135626.47 187.00
-9755383.66 5135623.49 186.01
-9755385.07 5135619.75 185.75
-9755381.41 5135624.88 186.65
-9755385.13 5135625.00 186.80
-9755382.86 5135620.29 185.33
-9755386.38 5135627.70 196.73
-9755386.93 5135622.35 185.79
-9755385.76 5135620.85 185.52
-9755384.50 5135624.14 186.04
-9755383.03 5135623.26 185.93
-9755386.93 5135620.01 185.36
-9755385.79 5135622.73 186.42
-9755380.37 5135624.32 186.63
-9755381.55 5135624.37 186.64
-9755386.05 5135622.63 185.80
-9755381.60 5135619.16 185.08
-9755386.46 5135623.64 186.46
-9755383.68 5135625.88 186.43
-9755380.78 5135621.74 185.55
-9755383.07 5135626.44 186.55
-9755382.80 5135626.74 186.63
-9755386.54 5135621.72 186.01
-9755386.05 5135626.39 187.13
-9755382.55 5135620.61 185.36
-9755384.89 5135628.06 196.69
-9755386.32 5135626.23 187.21
-9755385.62 5135628.11 196.72
-9755380.98 5135624.66 186.60
-9755386.11 5135628.04 196.09
-9755384.90 5135625.87 186.44
-9755384.90 5135624.70 186.22
-9755380.54 5135620.21 185.29
-9755384.87 5135623.47 186.47
-9755381.26 5135627.07 186.62
-9755383.11 5135625.01 186.25
-9755383.70 5135620.62 185.35
-9755383.16 5135624.40 186.16
-9755385.74 5135624.95 186.23
-9755383.14 5135620.63 185.35
-9755386.03 5135622.97 186.45
-9755383.10 5135622.15 186.21
-9755385.78 5135623.13 186.41
-9755386.35 5135620.87 185.56
-9755380.71 5135623.85 185.98
-9755383.99 5135620.31 185.35
-9755382.19 5135622.64 185.79
-9755383.84 5135619.53 185.52
-9755387.01 5135627.83 196.71
-9755386.04 5135622.37 185.79
-9755385.17 5135622.51 186.26
-9755383.70 5135622.04 186.18
-9755383.64 5135621.17 185.94
-9755383.95 5135625.58 186.43
-9755384.32 5135623.24 186.45
-9755381.90 5135622.61 185.79
-9755384.54 5135626.78 186.66
-9755386.94 5135624.69 186.25
-9755381.93 5135625.58 186.35
-9755385.09 5135626.71 186.68
-9755381.39 5135623.52 185.94
-9755383.96 5135619.74 185.14
-9755381.31 5135624.65 186.18
-9755380.73 5135619.69 185.11
-9755386.06 5135621.45 185.57
-9755382.26 5135619.67 185.20
-9755384.93 5135621.77 186.16
-9755386.24 5135621.84 186.23
-9755384.84 5135622.97 185.80
-9755382.50 5135623.54 185.98
-9755380.79 5135624.07 185.98
-9755385.47 5135623.23 185.99
-9755384.80 5135625.52 186.84
-9755386.97 5135623.55 186.03
-9755382.15 5135626.73 186.59
-9755384.00 5135623.86 186.01
-9755382.81 5135619.71 185.15
-9755382.83 5135623.56 186.00
-9755381.62 5135624.67 186.19
-9755385.18 5135626.40 187.01
-9755393.76 5135605.66 183.33
-9755392.04 5135605.34 182.79
-9755394.69 5135605.69 182.93
-9755387.92 5135605.66 182.82
-9755384.02 5135605.61 183.23
-9755382.69 5135605.34 183.21
-9755381.69 5135605.86 183.27
-9755381.98 5135605.28 182.62
-9755386.04 5135605.40 183.26
-9755384.06 5135605.63 182.69
-9755390.56 5135606.00 182.90
-9755390.53 5135611.26 183.76
-9755394.32 5135613.57 184.33
-9755395.53 5135608.61 183.45
-9755391.11 5135610.16 184.16
-9755393.51 5135605.96 182.96
-9755395.19 5135614.21 184.80
-9755389.64 5135608.31 183.68
-9755392.64 5135612.39 183.97
-9755391.36 5135615.05 184.99
-9755391.15 5135616.86 184.77
-9755394.63 5135609.75 184.18
-9755387.61 5135613.30 184.15
-9755391.36 5135617.69 184.94
-9755388.77 5135606.37 183.29
-9755389.60 5135615.07 184.54
-9755396.74 5135607.43 183.29
-9755393.77 5135611.51 183.94
-9755396.48 5135614.75 184.56
-9755389.89 5135618.27 185.11
-9755391.07 5135617.37 184.93
-9755391.10 5135613.27 184.14
-9755389.62 5135610.96 183.75
-9755389.63 5135612.54 184.36
-9755388.16 5135607.38 183.12
-9755395.26 5135610.35 183.73
-9755388.45 5135615.89 184.65
-9755389.71 5135608.27 183.23
-9755392.58 5135608.27 183.77
-9755394.27 5135614.11 184.96
-9755392.25 5135613.64 184.33
-9755389.64 5135607.72 183.18
-9755396.97 5135614.83 184.61
-9755391.09 5135613.86 184.33
-9755389.23 5135609.37 183.40
-9755390.23 5135614.70 184.37
-9755392.84 5135615.06 184.54
-9755388.15 5135616.20 184.68
-9755396.70 5135613.32 184.31
-9755392.11 5135608.33 183.74
-9755390.22 5135617.68 184.94
-9755396.43 5135609.24 183.60
-9755388.73 5135616.79 184.79
-9755388.50 5135607.72 183.19
-9755389.60 5135612.72 184.00
-9755390.33 5135617.77 185.31
-9755393.11 5135613.92 184.33
-9755394.66 5135615.14 185.11
-9755391.80 5135612.40 183.97
-9755391.06 5135616.73 185.38
-9755391.91 5135617.77 185.44
-9755390.40 5135610.36 184.18
-9755387.84 5135609.45 183.47
-9755392.28 5135614.49 184.35
-9755391.37 5135615.89 185.14
-9755394.36 5135615.90 184.72
-9755397.24 5135617.12 185.01
-9755397.58 5135614.20 184.52
-9755396.40 5135607.70 183.32
