-9755596.92 5135628.58 189.15
-9755595.51 5135630.46 185.07
-9755598.80 5135631.32 190.24
-9755595.33 5135629.96 181.08
-9755598.49 5135629.77 188.70
-9755598.54 5135629.09 187.59
-9755598.03 5135628.48 188.87
-9755595.86 5135629.81 185.03
-9755599.06 5135628.33 185.79
-9755598.74 5135633.11 184.59
-9755598.23 5135631.67 189.24
-9755597.75 5135629.42 187.60
-9755595.46 5135631.27 181.08
-9755596.49 5135631.22 185.51
-9755597.05 5135628.66 189.21
-9755597.78 5135629.50 189.81
-9755598.92 5135629.62 189.40
-9755597.07 5135629.60 189.62
-9755597.72 5135631.53 188.98
-9755591.42 5135629.68 181.07
-9755597.76 5135628.78 187.96
-9755599.05 5135628.21 186.00
-9755598.30 5135629.51 188.87
-9755598.29 5135629.03 188.14
-9755598.63 5135629.88 187.71
-9755598.54 5135629.06 188.01
-9755598.20 5135629.66 188.55
-9755597.73 5135628.38 189.45
-9755597.91 5135629.71 181.20
-9755594.38 5135628.23 181.09
-9755598.53 5135630.65 181.28
-9755597.19 5135629.64 188.28
-9755593.27 5135628.23 181.09
-9755588.76 5135633.21 181.00
-9755598.55 5135629.30 188.87
-9755597.22 5135629.35 187.99
-9755596.48 5135628.33 189.80
-9755588.87 5135631.54 181.01
-9755598.25 5135630.58 189.38
-9755598.27 5135630.81 190.46
-9755598.90 5135631.05 190.09
-9755596.82 5135630.51 188.42
-9755595.41 5135629.07 188.81
-9755588.82 5135629.99 181.00
-9755597.15 5135629.79 186.02
-9755598.21 5135629.26 189.81
-9755597.43 5135632.09 189.06
-9755597.05 5135630.46 181.10
-9755598.60 5135631.22 188.11
-9755592.92 5135631.22 181.06
-9755591.97 5135630.39 181.06
-9755589.10 5135631.46 181.01
-9755598.61 5135630.43 189.82
-9755599.27 5135631.12 190.71
-9755598.90 5135630.35 184.84
-9755598.76 5135630.89 181.29
-9755596.52 5135629.15 188.03
-9755590.30 5135632.45 181.01
-9755596.16 5135630.58 188.53
-9755597.18 5135629.13 188.99
-9755597.72 5135632.54 184.36
-9755597.38 5135631.76 189.23
-9755594.71 5135631.56 181.09
-9755598.65 5135630.36 189.27
-9755595.66 5135628.32 185.32
-9755589.70 5135629.64 181.02
-9755596.54 5135630.85 188.35
-9755596.93 5135628.73 188.83
-9755590.51 5135632.06 181.01
-9755597.15 5135628.49 188.85
-9755598.88 5135629.62 188.35
-9755588.51 5135632.41 181.01
-9755592.39 5135629.70 181.06
-9755598.71 5135632.80 189.29
-9755589.62 5135633.22 180.99
-9755598.94 5135628.94 190.03
-9755597.16 5135628.74 188.25
-9755598.22 5135631.29 190.55
-9755596.94 5135629.95 188.20
-9755598.63 5135628.72 189.45
-9755597.44 5135629.76 181.09
-9755597.34 5135631.18 181.09
-9755598.12 5135628.86 188.58
-9755598.26 5135632.96 181.29
-9755597.43 5135629.69 190.60
-9755592.87 5135631.81 181.06
-9755597.14 5135629.54 190.38
-9755598.15 5135628.39 188.70
-9755598.65 5135630.09 188.46
-9755598.48 5135633.05 184.64
-9755599.06 5135628.49 187.96
-9755599.14 5135632.75 189.20
-9755598.24 5135632.77 187.71
-9755596.20 5135631.73 186.28
-9755596.43 5135628.67 188.87
-9755599.26 5135628.35 189.62
-9755595.98 5135629.03 187.55
-9755599.25 5135629.00 189.27
-9755596.57 5135628.66 189.25
-9755595.37 5135628.23 188.42
-9755596.93 5135629.52 190.03
-9755596.20 5135632.07 181.06
-9755596.17 5135631.03 189.91
-9755599.18 5135630.61 188.81
-9755590.29 5135629.09 181.03
-9755598.87 5135632.21 184.54
-9755595.99 5135628.36 188.69
-9755596.14 5135628.99 185.51
-9755588.21 5135629.45 181.02
-9755594.96 5135629.98 187.74
-9755592.44 5135631.48 181.05
-9755595.63 5135628.79 187.50
-9755589.12 5135632.36 181.00
-9755592.64 5135630.58 181.04
-9755599.04 5135629.81 190.43
-9755590.30 5135628.19 181.03
-9755597.98 5135629.02 190.39
-9755597.54 5135629.02 188.43
-9755588.20 5135629.95 181.02
-9755588.24 5135630.80 181.00
-9755600.25 5135637.17 181.20
-9755601.13 5135637.14 181.10
-9755600.24 5135634.77 181.27
-9755602.64 5135636.52 181.02
-9755605.85 5135635.47 181.02
-9755601.22 5135636.16 187.67
-9755600.59 5135636.41 187.68
-9755607.04 5135634.23 181.02
-9755601.74 5135635.40 181.04
-9755600.56 5135635.96 181.21
-9755605.29 5135635.42 181.02
-9755601.12 5135636.24 181.17
-9755599.27 5135635.42 184.22
-9755608.19 5135636.30 181.01
-9755606.10 5135636.60 181.03
-9755599.40 5135634.84 184.77
-9755602.92 5135634.29 181.06
-9755605.30 5135636.24 181.00
-9755606.64 5135636.39 180.99
-9755603.11 5135636.23 181.02
-9755602.28 5135635.67 181.03
-9755602.38 5135634.70 181.03
-9755600.18 5135635.40 187.65
-9755600.45 5135635.31 183.99
-9755600.55 5135635.32 181.25
-9755601.43 5135635.97 181.11
-9755607.95 5135634.86 181.01
-9755607.53 5135636.34 181.00
-9755601.98 5135636.67 180.99
-9755606.15 5135634.48 181.05
-9755599.32 5135635.65 181.24
-9755608.50 5135635.11 181.02
-9755598.22 5135636.20 185.79
-9755589.00 5135634.16 181.01
-9755599.32 5135636.29 184.29
-9755599.10 5135636.32 185.22
-9755598.55 5135636.02 185.84
-9755599.02 5135635.54 185.98
-9755590.83 5135636.83 181.06
-9755597.67 5135634.89 185.06
-9755598.34 5135636.50 187.21
-9755597.39 5135634.96 184.82
-9755598.64 5135635.36 187.61
-9755596.14 5135636.40 185.39
-9755592.33 5135634.72 181.07
-9755589.68 5135634.99 181.00
-9755598.56 5135635.79 185.88
-9755588.23 5135634.67 181.02
-9755597.78 5135635.96 185.33
-9755598.13 5135635.28 185.49
-9755591.45 5135635.00 181.06
-9755594.00 5135636.90 181.09
-9755590.24 5135634.99 181.02
-9755595.28 5135636.36 185.07
-9755597.38 5135635.72 185.07
-9755598.83 5135636.27 181.26
-9755597.86 5135635.34 185.31
-9755597.30 5135636.78 184.31
-9755589.95 5135635.65 181.05
-9755596.75 5135636.34 185.18
-9755598.41 5135635.41 184.89
-9755596.30 5135636.49 185.35
-9755596.33 5135636.38 185.72
-9755598.86 5135635.19 184.36
-9755589.87 5135636.18 181.05
-9755596.99 5135635.95 181.22
-9755594.41 5135636.61 185.61
-9755594.90 5135636.25 181.09
-9755597.40 5135635.98 187.42
-9755598.20 5135634.72 181.27
-9755596.79 5135636.57 187.17
-9755597.34 5135635.63 181.24
-9755598.53 5135635.40 185.20
-9755593.42 5135636.41 181.08
-9755595.61 5135635.39 181.07
-9755598.92 5135635.65 186.40
-9755594.63 5135634.71 181.08
-9755597.07 5135636.09 185.53
-9755591.13 5135634.71 181.05
-9755594.42 5135636.61 185.18
-9755587.83 5135633.76 181.00
-9755586.74 5135629.75 181.02
-9755587.92 5135629.75 181.01
-9755587.95 5135632.90 181.03
-9755587.73 5135629.09 181.02
-9755587.02 5135631.51 181.00
-9755586.73 5135632.29 181.02
-9755586.36 5135631.99 181.01
-9755586.16 5135632.56 181.03
-9755584.68 5135628.44 181.04
-9755585.57 5135632.87 181.01
-9755584.95 5135632.10 181.01
-9755585.56 5135632.11 181.02
-9755584.59 5135632.33 181.00
-9755585.17 5135631.49 181.01
-9755587.21 5135635.04 181.01
-9755587.50 5135634.69 181.02
-9755586.32 5135635.18 181.01
-9755585.50 5135635.27 181.00
-9755585.56 5135634.60 181.01
-9755582.06 5135629.63 181.02
-9755580.85 5135628.46 181.03
-9755583.50 5135633.17 181.01
-9755579.98 5135633.16 180.98
-9755581.12 5135631.48 181.02
-9755575.84 5135630.52 181.02
-9755576.40 5135629.97 181.03
-9755573.73 5135632.18 181.00
-9755577.54 5135633.53 180.97
-9755574.03 5135631.64 181.01
-9755575.58 5135629.30 181.02
-9755575.84 5135632.28 180.99
-9755579.58 5135632.25 180.99
-9755578.51 5135628.45 181.03
-9755574.64 5135630.77 181.02
-9755575.16 5135633.18 180.99
-9755579.43 5135628.77 181.04
-9755575.80 5135629.06 181.04
-9755582.91 5135633.46 180.97
-9755582.28 5135633.21 181.00
-9755584.07 5135632.01 181.00
-9755580.31 5135633.14 180.97
-9755583.26 5135630.84 181.02
-9755579.04 5135633.23 180.98
-9755574.96 5135631.13 181.01
-9755584.08 5135628.78 181.04
-9755577.85 5135632.98 180.98
-9755583.13 5135628.23 181.02
-9755580.18 5135631.40 181.02
-9755581.72 5135631.37 181.02
-9755574.37 5135631.37 181.01
-9755573.45 5135629.56 181.01
-9755584.61 5135632.88 180.99
-9755579.66 5135628.76 181.03
-9755582.97 5135629.96 181.05
-9755578.81 5135630.77 181.01
-9755574.06 5135630.51 181.02
-9755569.04 5135628.66 181.03
-9755565.82 5135629.87 181.05
-9755565.23 5135629.83 181.05
-9755563.44 5135631.61 181.04
-9755562.84 5135631.53 181.05
-9755562.85 5135633.10 181.06
-9755559.82 5135629.83 181.06
-9755567.88 5135631.35 181.05
-9755561.69 5135631.62 181.07
-9755570.28 5135629.88 181.01
-9755560.28 5135629.24 181.07
-9755569.05 5135633.13 181.03
-9755561.05 5135633.94 181.08
-9755565.79 5135631.00 181.05
-9755572.28 5135632.86 181.00
-9755560.74 5135628.30 181.10
-9755570.60 5135629.02 181.01
-9755562.30 5135629.80 181.06
-9755563.38 5135632.48 181.05
-9755569.06 5135632.24 181.03
-9755569.10 5135630.48 181.01
-9755564.63 5135631.32 181.04
-9755567.50 5135633.44 181.05
-9755567.29 5135629.02 181.04
-9755569.72 5135631.35 181.01
-9755566.63 5135629.50 181.05
-9755567.04 5135628.37 181.05
-9755561.41 5135629.84 181.06
-9755567.60 5135632.00 181.06
-9755561.13 5135628.86 181.06
-9755572.53 5135631.04 181.02
-9755562.62 5135632.17 181.05
-9755560.14 5135633.32 181.09
-9755569.00 5135632.59 181.01
-9755563.43 5135630.39 181.06
-9755563.13 5135628.97 181.06
-9755566.67 5135633.71 181.06
-9755562.60 5135628.63 181.06
-9755570.46 5135629.61 180.99
-9755562.23 5135628.35 181.06
-9755561.97 5135629.78 181.06
-9755563.69 5135633.12 181.05
-9755559.83 5135630.72 181.08
-9755572.27 5135632.19 181.00
-9755563.41 5135628.60 181.06
-9755559.87 5135631.59 181.09
-9755559.28 5135632.15 181.08
-9755559.33 5135632.52 181.09
-9755575.79 5135634.07 180.99
-9755578.45 5135634.65 180.97
-9755574.33 5135634.07 180.99
-9755582.60 5135635.59 180.99
-9755577.01 5135635.53 180.96
-9755579.34 5135635.65 180.96
-9755574.34 5135636.02 181.02
-9755577.83 5135635.51 180.95
-9755575.71 5135636.40 180.99
-9755580.20 5135634.72 180.98
-9755578.47 5135635.32 180.96
-9755581.37 5135636.19 180.99
-9755574.24 5135635.72 181.00
-9755577.09 5135634.90 180.97
-9755573.67 5135634.95 180.98
-9755582.29 5135636.43 180.99
-9755573.43 5135635.86 180.98
-9755575.20 5135635.53 180.99
-9755562.23 5135633.97 181.06
-9755562.77 5135633.99 181.06
-9755560.81 5135635.44 181.06
-9755565.81 5135634.87 181.04
-9755572.54 5135634.58 181.01
-9755562.53 5135635.46 181.06
-9755561.91 5135634.92 181.07
-9755569.88 5135636.08 181.02
-9755564.86 5135634.26 181.05
-9755571.40 5135636.12 181.00
-9755569.02 5135635.45 181.03
-9755569.91 5135635.22 181.00
-9755567.25 5135635.51 181.02
-9755566.86 5135634.83 181.02
-9755567.79 5135635.79 181.04
-9755572.26 5135634.95 181.00
-9755565.20 5135634.57 181.05
-9755570.26 5135636.40 181.02
-9755567.27 5135636.67 181.01
-9755571.63 5135636.10 180.99
-9755569.32 5135634.89 181.02
-9755563.46 5135636.01 181.04
-9755566.41 5135636.30 181.05
-9755570.80 5135635.18 181.01
-9755572.22 5135634.06 180.99
-9755566.84 5135636.06 181.05
-9755570.77 5135634.06 180.98
-9755559.25 5135635.80 181.10
-9755558.17 5135632.21 181.08
-9755557.83 5135628.94 181.09
-9755558.36 5135636.07 181.08
-9755557.82 5135633.94 181.09
-9755557.81 5135634.90 181.09
-9755556.68 5135631.65 181.07
-9755557.24 5135633.05 181.08
-9755556.98 5135630.33 181.08
-9755556.33 5135635.08 181.07
-9755556.32 5135636.29 181.10
-9755593.44 5135647.00 185.80
-9755597.48 5135647.14 187.70
-9755597.21 5135647.52 181.05
-9755593.12 5135647.32 185.80
-9755598.37 5135647.09 187.80
-9755599.53 5135649.94 186.21
-9755600.54 5135651.37 187.97
-9755600.51 5135651.61 188.06
-9755600.48 5135648.35 184.30
-9755599.58 5135648.89 185.20
-9755601.64 5135647.78 184.64
-9755599.67 5135649.75 187.65
-9755599.23 5135649.09 185.20
-9755601.63 5135647.87 180.79
-9755599.66 5135654.29 186.23
-9755599.88 5135652.47 185.04
-9755600.60 5135650.00 184.05
-9755600.52 5135652.15 184.82
-9755600.44 5135650.50 187.09
-9755599.64 5135650.99 187.99
-9755607.51 5135652.92 180.53
-9755600.25 5135651.65 188.04
-9755600.10 5135652.36 184.85
-9755594.17 5135647.56 187.74
-9755593.01 5135650.62 185.90
-9755597.40 5135647.51 187.87
-9755595.17 5135650.90 189.69
-9755598.08 5135649.17 185.29
-9755597.97 5135649.01 185.27
-9755599.14 5135649.58 184.15
-9755592.23 5135652.77 184.60
-9755598.15 5135652.45 185.07
-9755595.30 5135648.80 186.79
-9755598.17 5135652.97 187.94
-9755594.62 5135650.06 189.74
-9755594.68 5135650.92 189.84
-9755596.73 5135651.35 186.97
-9755591.39 5135652.39 183.97
-9755593.15 5135649.56 188.27
-9755597.07 5135650.80 187.42
-9755598.74 5135653.73 186.98
-9755593.77 5135649.60 187.68
-9755597.88 5135650.36 188.21
-9755591.39 5135652.60 185.66
-9755597.40 5135654.54 187.56
-9755596.75 5135648.90 187.78
-9755594.23 5135653.61 187.71
-9755597.95 5135652.51 188.06
-9755593.17 5135652.44 186.65
-9755598.69 5135647.58 185.34
-9755595.48 5135650.32 189.75
-9755597.18 5135654.22 187.60
-9755596.32 5135654.09 186.73
-9755594.64 5135648.89 181.25
-9755597.27 5135654.01 187.92
-9755595.35 5135650.87 189.84
-9755592.20 5135653.73 186.67
-9755596.70 5135648.67 188.39
-9755598.88 5135654.20 184.80
-9755594.50 5135648.75 187.51
-9755598.36 5135649.82 187.84
-9755596.35 5135651.34 188.43
-9755592.74 5135649.86 187.51
-9755598.76 5135653.48 188.17
-9755594.90 5135652.82 186.27
-9755595.49 5135649.80 188.43
-9755597.57 5135653.43 187.68
-9755594.35 5135650.64 188.25
-9755591.00 5135654.48 181.14
-9755598.40 5135653.43 187.32
-9755595.62 5135649.90 187.50
-9755596.58 5135651.35 189.06
-9755593.58 5135650.27 187.38
-9755593.95 5135648.69 184.96
-9755598.76 5135654.31 186.77
-9755596.40 5135649.27 188.49
-9755592.25 5135649.09 184.28
-9755598.07 5135649.89 187.51
-9755593.44 5135650.73 188.16
-9755597.59 5135650.65 187.24
-9755595.30 5135652.21 188.03
-9755597.69 5135653.45 186.70
-9755595.52 5135653.37 188.92
-9755597.05 5135650.53 186.83
-9755598.46 5135649.53 187.84
-9755598.93 5135649.90 186.98
-9755588.69 5135649.93 180.99
-9755598.88 5135647.69 187.97
-9755596.70 5135649.64 188.55
-9755594.01 5135648.39 186.99
-9755594.25 5135650.85 185.85
-9755591.68 5135651.09 185.73
-9755592.52 5135650.75 187.56
-9755598.40 5135648.40 186.78
-9755593.10 5135652.81 188.72
-9755597.54 5135650.45 187.02
-9755595.36 5135654.13 185.02
-9755597.49 5135652.11 188.00
-9755592.10 5135654.12 187.08
-9755594.60 5135647.77 187.40
-9755598.49 5135650.12 187.37
-9755597.89 5135651.72 180.91
-9755594.07 5135647.96 188.75
-9755597.76 5135652.87 185.26
-9755593.63 5135650.39 187.38
-9755596.57 5135650.43 181.15
-9755597.94 5135650.92 186.85
-9755600.31 5135638.43 185.92
-9755601.09 5135640.99 187.88
-9755601.26 5135641.96 187.07
-9755601.18 5135640.98 187.18
-9755602.04 5135639.48 184.64
-9755602.84 5135644.36 180.84
-9755601.22 5135637.45 187.50
-9755600.25 5135638.59 185.86
-9755600.82 5135639.71 187.37
-9755600.12 5135637.08 187.13
-9755601.56 5135638.59 185.06
-9755607.30 5135644.53 180.82
-9755599.62 5135639.31 186.90
-9755601.26 5135641.94 187.54
-9755600.37 5135638.54 185.75
-9755600.89 5135640.76 186.61
-9755599.65 5135637.28 186.59
-9755601.73 5135642.78 186.61
-9755600.41 5135638.08 185.37
-9755600.53 5135641.81 187.25
-9755600.68 5135642.63 185.75
-9755605.23 5135636.84 181.00
-9755603.55 5135637.27 180.98
-9755601.48 5135638.87 180.89
-9755603.24 5135638.89 180.94
-9755605.37 5135638.94 180.95
-9755601.62 5135641.80 186.76
-9755599.71 5135643.08 185.79
-9755601.34 5135644.28 180.84
-9755599.46 5135637.26 186.64
-9755600.54 5135645.68 180.79
-9755607.92 5135638.05 181.00
-9755600.83 5135640.38 180.92
-9755600.63 5135641.03 187.85
-9755599.24 5135639.79 187.71
-9755595.52 5135645.90 187.65
-9755593.22 5135646.69 185.80
-9755599.20 5135641.06 187.41
-9755595.63 5135646.28 187.58
-9755596.90 5135637.86 187.53
-9755597.96 5135638.27 187.67
-9755598.16 5135638.79 186.39
-9755597.54 5135645.69 185.85
-9755597.09 5135637.72 181.25
-9755598.15 5135642.61 188.34
-9755596.50 5135640.95 187.31
-9755593.40 5135643.03 181.07
-9755595.93 5135640.41 185.41
-9755597.97 5135638.94 188.56
-9755595.48 5135645.42 186.32
-9755595.02 5135637.12 186.15
-9755596.44 5135643.03 185.98
-9755598.78 5135638.88 187.98
-9755588.11 5135645.05 181.00
-9755598.29 5135639.04 186.62
-9755598.76 5135639.73 188.92
-9755596.47 5135640.94 186.24
-9755594.62 5135638.63 185.84
-9755593.46 5135644.04 185.81
-9755593.68 5135646.65 185.81
-9755593.84 5135644.05 184.63
-9755596.97 5135640.96 187.81
-9755596.37 5135636.91 185.10
-9755597.04 5135641.24 187.86
-9755598.83 5135638.60 188.31
-9755598.85 5135642.96 187.99
-9755596.75 5135643.88 187.03
-9755598.03 5135643.15 185.50
-9755595.15 5135643.99 185.94
-9755597.28 5135640.98 186.76
-9755594.95 5135646.05 186.58
-9755598.74 5135638.56 185.31
-9755596.76 5135638.24 187.71
-9755597.94 5135642.68 183.83
-9755598.52 5135639.10 185.95
-9755595.90 5135642.20 185.76
-9755596.46 5135645.98 188.24
-9755598.85 5135639.15 184.54
-9755597.92 5135641.80 183.83
-9755594.13 5135639.16 185.45
-9755593.96 5135636.83 186.07
-9755598.87 5135638.85 186.83
-9755595.96 5135640.04 187.91
-9755595.51 5135640.11 185.34
-9755597.04 5135638.12 187.60
-9755598.61 5135640.14 188.73
-9755594.10 5135642.82 185.42
-9755596.77 5135639.77 187.25
-9755593.78 5135644.18 181.09
-9755598.99 5135644.23 181.04
-9755598.68 5135637.25 186.70
-9755597.45 5135639.23 184.92
-9755597.48 5135643.93 185.84
-9755598.07 5135637.76 188.64
-9755593.46 5135644.87 185.66
-9755597.23 5135644.05 187.12
-9755591.95 5135643.85 181.09
-9755599.15 5135638.37 186.18
-9755595.87 5135638.79 186.07
-9755598.70 5135638.62 186.08
-9755597.99 5135641.88 187.46
-9755596.45 5135644.96 185.42
-9755598.15 5135645.49 185.75
-9755598.72 5135639.57 185.86
-9755595.75 5135641.28 187.97
-9755596.38 5135642.25 187.06
-9755594.41 5135639.77 185.76
-9755589.61 5135644.26 181.05
-9755598.82 5135640.39 186.09
-9755597.88 5135639.68 184.82
-9755597.28 5135644.61 186.56
-9755597.29 5135639.93 188.33
-9755596.35 5135645.86 186.46
-9755599.16 5135639.73 187.39
-9755596.92 5135643.87 187.00
-9755594.96 5135637.20 185.45
-9755595.74 5135642.38 188.31
-9755595.91 5135641.37 187.55
-9755595.55 5135643.79 187.66
-9755597.95 5135641.74 188.12
-9755595.94 5135643.40 187.43
-9755595.49 5135639.12 186.08
-9755598.80 5135640.37 187.66
-9755594.68 5135644.00 185.97
-9755596.53 5135637.70 188.08
-9755596.05 5135643.93 187.33
-9755598.76 5135641.05 187.76
-9755597.98 5135639.76 185.81
-9755597.53 5135643.77 185.48
-9755597.03 5135645.41 187.05
-9755597.71 5135638.07 187.63
-9755597.30 5135645.46 187.07
-9755596.33 5135642.90 183.97
-9755598.01 5135638.05 188.38
-9755596.69 5135637.72 186.82
-9755597.63 5135641.38 187.76
-9755593.65 5135646.57 186.68
-9755598.48 5135646.36 180.97
-9755586.87 5135651.27 181.03
-9755587.21 5135651.32 181.05
-9755586.91 5135652.15 181.05
-9755585.16 5135653.06 181.06
-9755584.83 5135650.06 181.03
-9755583.10 5135648.24 180.98
-9755584.06 5135653.35 181.07
-9755582.54 5135651.30 180.98
-9755586.03 5135637.90 180.98
-9755584.03 5135640.97 180.98
-9755600.00 5135629.12 189.39
-9755602.98 5135628.53 181.16
-9755600.55 5135632.09 188.21
-9755600.91 5135632.37 188.37
-9755604.45 5135628.71 187.80
-9755603.03 5135631.45 188.01
-9755600.85 5135631.76 188.47
-9755600.47 5135629.42 188.80
-9755601.03 5135633.08 185.11
-9755600.02 5135632.53 184.58
-9755604.14 5135630.72 187.95
-9755600.98 5135632.43 185.32
-9755603.66 5135628.21 188.28
-9755601.32 5135628.98 189.58
-9755600.37 5135629.24 189.94
-9755603.55 5135629.44 185.87
-9755601.30 5135632.44 188.41
-9755603.44 5135628.46 188.28
-9755599.71 5135633.53 188.55
-9755603.31 5135631.31 187.39
-9755599.97 5135629.60 189.30
-9755602.05 5135628.97 188.64
-9755600.90 5135630.51 190.16
-9755601.22 5135628.20 181.37
-9755604.00 5135628.19 185.12
-9755600.85 5135631.34 188.06
-9755602.89 5135630.12 188.88
-9755602.11 5135629.08 188.96
-9755601.19 5135633.39 185.72
-9755600.08 5135629.23 188.95
-9755604.57 5135629.61 189.12
-9755600.00 5135629.69 187.67
-9755600.31 5135628.88 185.75
-9755602.96 5135631.70 187.78
-9755601.22 5135632.63 188.44
-9755600.39 5135632.74 188.82
-9755600.41 5135629.62 188.84
-9755603.29 5135630.73 187.14
-9755603.60 5135628.60 188.66
-9755602.63 5135628.97 188.39
-9755601.93 5135628.89 189.14
-9755600.18 5135628.73 185.73
-9755604.15 5135630.07 187.68
-9755599.73 5135629.91 189.03
-9755601.25 5135631.78 187.10
-9755606.19 5135628.24 181.12
-9755600.68 5135632.20 188.35
-9755604.08 5135631.52 181.13
-9755599.28 5135629.93 189.92
-9755598.28 5135631.46 189.28
-9755599.49 5135630.16 189.88
-9755599.56 5135629.37 189.38
-9755599.43 5135631.46 181.29
-9755598.88 5135632.01 190.82
-9755599.18 5135633.19 189.67
-9755598.00 5135633.62 184.69
-9755597.65 5135633.13 184.53
-9755598.91 5135632.31 189.21
-9755597.14 5135628.57 189.15
-9755597.13 5135630.82 189.50
-9755599.22 5135630.84 189.79
-9755599.18 5135632.07 189.21
-9755597.09 5135633.43 184.31
-9755598.02 5135631.06 190.64
-9755597.12 5135631.65 185.64
-9755598.34 5135631.63 189.46
-9755598.05 5135629.38 188.64
-9755596.31 5135628.26 189.12
-9755596.05 5135631.51 181.04
-9755597.39 5135630.82 189.45
-9755598.34 5135631.79 189.13
-9755597.73 5135629.53 189.20
-9755599.17 5135628.60 189.86
-9755598.22 5135628.53 189.06
-9755590.50 5135632.71 181.01
-9755596.59 5135628.25 188.68
-9755598.26 5135629.39 188.57
-9755597.10 5135629.02 189.45
-9755596.99 5135629.38 189.94
-9755599.23 5135631.45 184.92
-9755597.36 5135631.03 189.45
-9755598.76 5135629.72 188.04
-9755597.98 5135629.65 189.51
-9755598.25 5135629.89 189.43
-9755598.55 5135633.45 189.30
-9755599.00 5135628.21 189.59
-9755598.62 5135631.44 188.11
-9755596.44 5135631.89 189.95
-9755598.71 5135630.26 188.52
-9755598.01 5135628.45 188.78
-9755598.84 5135629.47 189.08
-9755600.53 5135636.91 187.39
-9755608.52 5135636.02 181.01
-9755601.64 5135634.13 188.71
-9755599.64 5135636.28 187.50
-9755600.24 5135636.34 185.73
-9755597.60 5135636.45 187.27
-9755598.48 5135635.91 187.83
-9755598.33 5135636.06 185.75
-9755597.97 5135634.86 184.78
-9755597.01 5135635.98 185.08
-9755599.21 5135635.58 185.27
-9755598.82 5135634.35 185.21
-9755595.87 5135635.91 185.30
-9755598.19 5135635.99 186.09
-9755590.49 5135635.05 181.02
-9755597.94 5135636.71 187.35
-9755598.75 5135635.99 187.74
-9755598.85 5135635.23 185.27
-9755597.94 5135634.85 185.28
-9755587.33 5135632.31 181.02
-9755586.38 5135630.87 181.01
-9755586.43 5135632.64 181.04
-9755583.12 5135634.14 181.01
-9755577.76 5135647.96 181.01
-9755580.77 5135648.29 181.01
-9755573.64 5135651.23 181.06
-9755580.70 5135652.43 181.04
-9755579.01 5135648.03 181.01
-9755566.64 5135647.30 181.08
-9755567.05 5135654.54 181.87
-9755568.86 5135654.14 181.08
-9755560.96 5135650.76 181.06
-9755561.25 5135648.21 181.07
-9755565.68 5135648.82 181.06
-9755571.25 5135652.92 181.07
-9755567.15 5135652.04 181.07
-9755564.19 5135649.98 181.07
-9755569.82 5135652.02 181.07
-9755559.18 5135648.80 181.06
-9755579.04 5135639.75 180.94
-9755580.53 5135641.75 180.94
-9755575.69 5135640.91 180.98
-9755576.95 5135644.69 180.98
-9755577.02 5135637.00 180.94
-9755579.30 5135641.43 180.96
-9755579.93 5135637.71 180.95
-9755580.20 5135639.65 180.96
-9755576.95 5135646.17 180.96
-9755571.57 5135644.90 181.03
-9755569.85 5135642.67 181.04
-9755571.28 5135641.42 181.00
-9755564.58 5135637.82 181.05
-9755569.55 5135644.05 180.97
-9755570.42 5135643.00 181.02
-9755570.74 5135638.11 181.00
-9755571.04 5135640.53 181.04
-9755562.23 5135640.47 181.06
-9755567.51 5135640.53 182.08
-9755560.12 5135643.16 181.05
-9755568.92 5135645.50 181.05
-9755558.40 5135638.97 181.53
-9755556.33 5135639.85 181.06
-9755555.99 5135638.67 181.07
-9755556.58 5135640.23 181.07
-9755574.06 5135632.30 181.01
-9755575.76 5135633.18 180.98
-9755577.22 5135632.32 180.97
-9755577.34 5135628.99 181.01
-9755580.79 5135629.36 181.01
-9755581.99 5135629.83 181.02
-9755565.48 5135630.70 181.04
-9755562.62 5135629.48 181.05
-9755570.78 5135632.26 181.01
-9755561.05 5135630.64 181.07
-9755562.55 5135631.89 181.05
-9755559.26 5135628.37 181.10
-9755559.29 5135633.09 181.08
-9755569.58 5135636.35 181.05
-9755562.52 5135635.23 181.06
-9755564.61 5135636.11 181.05
-9755557.49 5135633.93 181.08
-9755605.01 5135680.16 180.08
-9755605.31 5135680.47 180.08
-9755602.10 5135675.73 180.09
-9755606.77 5135678.44 180.05
-9755606.18 5135680.77 180.07
-9755602.97 5135675.97 180.09
-9755588.56 5135679.47 180.44
-9755588.17 5135677.99 180.44
-9755593.23 5135678.90 180.32
-9755601.22 5135670.68 180.03
-9755602.98 5135673.04 180.03
-9755605.33 5135673.10 179.99
-9755588.53 5135670.88 180.41
-9755591.81 5135666.75 180.69
-9755598.87 5135666.54 180.16
-9755593.88 5135670.63 180.16
-9755597.10 5135669.13 180.13
-9755596.48 5135670.96 180.10
-9755587.59 5135680.07 180.46
-9755585.56 5135679.46 180.52
-9755586.49 5135672.11 180.29
-9755585.59 5135671.75 180.42
-9755608.64 5135658.20 180.45
-9755606.99 5135657.08 180.41
-9755603.69 5135659.10 180.40
-9755598.97 5135660.34 180.41
-9755594.22 5135658.70 182.20
-9755595.52 5135656.05 187.96
-9755592.47 5135655.02 185.82
-9755593.95 5135655.52 186.27
-9755594.22 5135657.85 181.10
-9755597.51 5135654.60 187.76
-9755598.06 5135654.62 186.56
-9755598.09 5135654.91 186.64
-9755588.90 5135654.91 181.10
-9755591.80 5135656.79 180.98
-9755593.92 5135659.54 182.27
-9755593.94 5135655.72 186.27
-9755593.71 5135656.12 185.11
-9755598.79 5135655.20 186.77
-9755595.88 5135656.83 187.04
-9755593.94 5135654.97 186.21
-9755598.64 5135654.55 187.39
-9755598.06 5135654.95 180.65
-9755595.66 5135659.89 180.77
-9755594.26 5135659.56 182.28
-9755596.42 5135656.23 186.43
-9755597.22 5135655.85 188.10
-9755592.79 5135655.76 185.91
-9755595.20 5135659.26 182.10
-9755594.00 5135657.27 186.63
-9755602.04 5135665.86 180.17
-9755603.65 5135664.36 180.19
-9755602.48 5135663.56 180.23
-9755605.39 5135665.94 180.13
-9755603.40 5135660.32 180.35
-9755590.61 5135666.74 180.50
-9755591.76 5135666.17 180.74
-9755597.13 5135661.69 181.84
-9755594.28 5135665.26 181.65
-9755591.82 5135661.98 181.03
-9755592.71 5135666.11 180.48
-9755590.92 5135664.92 182.09
-9755591.84 5135666.14 180.60
-9755592.39 5135664.89 182.11
-9755587.71 5135661.07 181.21
-9755596.30 5135666.16 181.54
-9755592.39 5135663.14 182.09
-9755593.63 5135664.86 182.09
-9755598.33 5135662.63 180.30
-9755596.29 5135661.02 182.16
-9755590.10 5135664.61 180.93
-9755594.71 5135664.93 181.65
-9755595.09 5135664.32 182.02
-9755597.35 5135663.51 181.66
-9755587.12 5135654.56 181.09
-9755587.11 5135665.23 180.80
-9755585.62 5135662.77 181.06
-9755582.68 5135661.94 181.11
-9755569.06 5135673.73 180.71
-9755579.12 5135678.46 180.66
-9755579.91 5135680.53 180.66
-9755575.53 5135680.56 180.75
-9755572.88 5135680.83 180.81
-9755575.29 5135676.06 180.68
-9755582.28 5135678.50 180.57
-9755582.28 5135677.65 180.56
-9755560.49 5135679.28 180.96
-9755566.68 5135677.22 180.85
-9755562.60 5135676.04 180.87
-9755561.74 5135673.69 180.78
-9755571.71 5135676.41 180.77
-9755565.78 5135680.56 180.92
-9755561.70 5135676.09 180.88
-9755568.69 5135678.45 180.87
-9755562.87 5135674.30 180.80
-9755580.26 5135667.13 183.56
-9755580.65 5135667.70 185.19
-9755579.75 5135666.40 187.50
-9755579.75 5135667.10 186.10
-9755576.51 5135667.18 186.49
-9755578.29 5135666.37 187.12
-9755578.22 5135667.35 185.19
-9755579.88 5135667.38 184.34
-9755579.32 5135667.08 186.14
-9755579.48 5135666.98 187.39
-9755581.47 5135670.51 180.55
-9755580.03 5135666.60 187.84
-9755580.18 5135667.23 185.42
-9755578.26 5135668.10 180.64
-9755578.59 5135666.53 186.83
-9755575.65 5135667.21 186.57
-9755579.88 5135666.95 185.32
-9755577.72 5135667.87 185.00
-9755580.68 5135668.10 185.54
-9755579.98 5135671.43 180.58
-9755580.06 5135666.96 184.25
-9755580.15 5135667.27 184.42
-9755563.43 5135667.75 184.27
-9755569.94 5135671.06 180.77
-9755559.64 5135671.89 180.86
-9755565.87 5135668.94 180.81
-9755565.83 5135671.03 180.81
-9755565.22 5135668.14 184.72
-9755565.02 5135667.61 184.52
-9755564.10 5135668.94 180.83
-9755565.39 5135667.14 185.05
-9755562.59 5135670.13 180.84
-9755571.17 5135667.82 180.78
-9755561.74 5135672.22 180.75
-9755564.12 5135667.69 186.64
-9755571.76 5135671.05 180.77
-9755560.61 5135667.74 180.87
-9755565.85 5135671.91 180.79
-9755567.66 5135666.88 185.89
-9755566.64 5135667.25 186.98
-9755562.74 5135666.42 187.07
-9755565.84 5135666.16 189.02
-9755557.58 5135676.28 180.88
-9755556.34 5135680.72 180.99
-9755562.40 5135666.49 189.42
-9755557.62 5135666.48 181.05
-9755556.77 5135673.03 180.72
-9755581.54 5135666.32 180.79
-9755578.91 5135658.66 181.07
-9755570.42 5135657.11 181.08
-9755567.09 5135657.75 181.09
-9755566.18 5135660.19 182.79
-9755568.27 5135659.45 181.13
-9755565.38 5135656.97 182.80
-9755571.28 5135656.18 181.09
-9755565.04 5135659.13 182.82
-9755571.48 5135659.48 181.15
-9755564.76 5135658.68 182.84
-9755569.13 5135655.10 181.06
-9755561.83 5135658.29 181.05
-9755566.24 5135658.46 182.84
-9755565.97 5135654.97 182.28
-9755566.21 5135658.77 182.83
-9755575.94 5135660.67 181.24
-9755576.30 5135663.63 188.47
-9755576.59 5135661.93 186.59
-9755578.73 5135662.77 188.91
-9755578.89 5135664.48 188.98
-9755577.72 5135661.82 186.72
-9755580.68 5135664.81 180.93
-9755579.13 5135662.54 187.48
-9755578.12 5135664.56 189.27
-9755576.70 5135666.11 186.07
-9755579.22 5135665.38 188.31
-9755577.42 5135661.35 186.89
-9755580.62 5135665.30 189.96
-9755579.82 5135662.41 187.49
-9755580.68 5135663.62 188.16
-9755579.20 5135662.76 181.12
-9755578.68 5135664.45 189.06
-9755578.88 5135663.93 188.99
-9755577.54 5135665.64 188.17
-9755580.67 5135663.36 184.96
-9755576.59 5135663.22 186.39
-9755578.66 5135665.38 191.34
-9755578.33 5135665.70 189.22
-9755577.15 5135666.05 186.08
-9755579.54 5135663.65 188.00
-9755577.16 5135663.27 186.01
-9755577.18 5135665.61 190.73
-9755577.30 5135665.56 190.60
-9755580.74 5135665.08 187.21
-9755580.55 5135663.95 187.95
-9755579.82 5135665.04 189.53
-9755577.41 5135661.54 181.19
-9755579.81 5135663.65 188.72
-9755579.94 5135663.96 187.79
-9755578.29 5135662.80 188.96
-9755579.31 5135665.18 190.54
-9755580.36 5135662.34 185.67
-9755580.06 5135665.70 188.15
-9755578.20 5135664.30 190.18
-9755576.38 5135665.68 184.22
-9755578.64 5135665.35 188.11
-9755577.69 5135663.68 186.80
-9755581.51 5135666.23 184.79
-9755581.47 5135666.32 184.11
-9755581.41 5135663.42 187.46
-9755578.10 5135663.52 190.44
-9755580.97 5135665.68 184.32
-9755578.63 5135664.73 190.03
-9755578.38 5135662.17 186.21
-9755577.79 5135664.92 187.52
-9755579.16 5135664.65 188.75
-9755575.69 5135663.99 185.47
-9755577.50 5135664.46 190.17
-9755577.25 5135663.90 186.84
-9755579.30 5135665.10 189.59
-9755578.03 5135663.99 189.51
-9755578.65 5135663.92 185.61
-9755579.75 5135663.56 189.52
-9755580.39 5135664.47 189.26
-9755581.50 5135664.04 185.95
-9755579.21 5135662.02 186.87
-9755579.78 5135666.26 185.29
-9755579.81 5135663.73 186.68
-9755578.97 5135665.25 190.01
-9755579.93 5135665.97 188.15
-9755578.66 5135663.79 189.44
-9755578.08 5135662.16 189.55
-9755581.10 5135663.63 188.55
-9755578.14 5135661.73 185.79
-9755578.30 5135663.13 189.86
-9755577.72 5135665.28 190.81
-9755580.80 5135664.30 186.75
-9755576.52 5135664.33 189.33
-9755579.47 5135661.91 184.80
-9755576.45 5135663.39 185.37
-9755578.00 5135664.81 190.81
-9755580.34 5135663.70 186.18
-9755578.59 5135664.10 189.99
-9755565.25 5135664.09 189.10
-9755565.87 5135664.95 188.35
-9755563.32 5135664.08 190.25
-9755566.53 5135665.39 189.15
-9755564.69 5135661.93 185.12
-9755564.27 5135661.08 184.61
-9755566.25 5135664.06 185.90
-9755567.57 5135666.07 186.46
-9755566.12 5135663.49 186.74
-9755565.00 5135660.96 181.25
-9755563.31 5135661.95 184.72
-9755562.62 5135662.53 186.36
-9755561.23 5135663.81 187.63
-9755565.92 5135663.57 186.88
-9755563.73 5135665.65 186.81
-9755565.49 5135664.52 187.76
-9755564.91 5135663.53 189.67
-9755566.26 5135664.46 185.98
-9755564.40 5135664.57 187.85
-9755566.91 5135663.12 187.89
-9755564.19 5135663.17 188.52
-9755564.81 5135665.95 188.89
-9755562.96 5135661.84 184.92
-9755564.57 5135663.46 189.17
-9755564.20 5135660.76 184.85
-9755563.11 5135664.94 188.34
-9755563.03 5135662.11 187.51
-9755566.45 5135665.71 181.03
-9755563.37 5135664.51 191.32
-9755566.54 5135664.16 186.23
-9755562.61 5135665.67 181.11
-9755564.43 5135663.70 187.53
-9755564.89 5135664.41 189.29
-9755564.38 5135661.44 185.36
-9755562.36 5135662.63 188.35
-9755562.96 5135662.81 186.62
-9755565.91 5135663.52 186.35
-9755566.56 5135663.14 184.93
-9755568.30 5135664.57 186.03
-9755564.19 5135662.69 187.69
-9755563.94 5135664.41 188.69
-9755565.04 5135664.09 189.24
-9755564.49 5135661.90 186.62
-9755567.43 5135663.91 187.53
-9755565.39 5135664.86 190.95
-9755567.38 5135665.31 186.21
-9755563.32 5135665.00 188.90
-9755565.32 5135661.95 185.92
-9755563.28 5135661.19 181.28
-9755565.88 5135662.04 185.05
-9755566.77 5135661.88 186.08
-9755563.98 5135662.83 186.29
-9755564.14 5135662.47 186.22
-9755566.27 5135665.95 187.15
-9755566.49 5135661.68 185.02
-9755565.00 5135661.99 186.59
-9755563.26 5135665.67 187.02
-9755565.07 5135665.63 188.19
-9755567.14 5135663.93 186.76
-9755564.24 5135661.39 184.87
-9755563.34 5135665.32 189.81
-9755564.21 5135664.21 187.03
-9755567.11 5135665.25 188.42
-9755564.25 5135661.87 187.52
-9755565.02 5135661.89 185.18
-9755562.13 5135662.14 186.53
-9755561.25 5135662.70 184.58
-9755562.80 5135664.69 190.40
-9755562.18 5135662.26 184.01
-9755567.09 5135663.64 181.16
-9755563.14 5135661.14 186.25
-9755566.64 5135662.24 185.86
-9755564.52 5135662.74 186.23
-9755562.74 5135666.10 189.09
-9755562.98 5135663.56 188.12
-9755564.74 5135662.73 186.23
-9755563.96 5135662.06 185.83
-9755568.24 5135664.50 181.07
-9755564.21 5135661.24 184.61
-9755565.92 5135661.56 181.24
-9755562.36 5135663.70 186.88
-9755562.16 5135662.73 183.77
-9755565.36 5135664.37 190.37
-9755563.33 5135664.56 189.82
-9755561.80 5135663.19 184.58
-9755564.17 5135661.67 185.40
-9755557.98 5135655.25 181.07
-9755603.89 5135674.23 180.03
-9755595.23 5135674.18 180.20
-9755602.89 5135677.44 180.11
-9755602.34 5135676.85 180.10
-9755605.29 5135679.24 180.10
-9755601.19 5135675.70 180.12
-9755603.57 5135676.89 180.10
-9755601.49 5135678.61 180.14
-9755603.81 5135678.99 180.12
-9755608.45 5135676.44 180.93
-9755608.27 5135676.03 180.02
-9755602.05 5135678.37 180.15
-9755608.59 5135675.45 180.02
-9755608.06 5135676.08 180.65
-9755605.61 5135675.11 180.02
-9755606.20 5135677.18 180.06
-9755601.20 5135679.82 180.17
-9755607.45 5135677.52 180.01
-9755607.11 5135677.85 180.05
-9755599.41 5135674.23 180.11
-9755603.05 5135676.33 180.09
-9755604.13 5135675.07 180.07
-9755608.18 5135677.84 180.03
-9755606.48 5135675.17 180.02
-9755603.85 5135679.86 180.11
-9755607.96 5135679.32 180.03
-9755605.21 5135675.41 180.04
-9755606.78 5135678.68 180.05
-9755599.71 5135677.78 180.16
-9755608.49 5135675.96 180.77
-9755608.16 5135676.59 180.94
-9755607.77 5135675.87 180.58
-9755601.20 5135677.71 180.16
-9755600.85 5135677.74 180.16
-9755608.22 5135680.18 180.03
-9755605.96 5135675.10 180.03
-9755595.62 5135674.43 180.20
-9755598.57 5135676.00 180.13
-9755598.19 5135675.04 180.15
-9755592.93 5135679.45 180.33
-9755597.63 5135677.38 180.19
-9755589.39 5135677.65 180.40
-9755591.21 5135675.65 180.31
-9755594.96 5135678.59 180.28
-9755590.60 5135678.87 180.38
-9755591.10 5135679.17 180.37
-9755598.81 5135676.29 180.16
-9755596.19 5135674.79 180.20
-9755594.99 5135675.12 180.23
-9755591.70 5135676.19 180.32
-9755595.25 5135679.50 180.27
-9755595.58 5135679.23 180.29
-9755589.93 5135675.92 180.35
-9755588.81 5135678.61 180.44
-9755590.30 5135677.98 180.38
-9755592.31 5135679.48 180.36
-9755587.92 5135674.40 180.35
-9755588.24 5135677.67 180.42
-9755587.30 5135679.78 180.47
-9755591.71 5135674.41 180.26
-9755593.75 5135677.73 180.29
-9755593.80 5135676.80 180.30
-9755593.25 5135678.62 180.32
-9755589.65 5135680.67 180.42
-9755598.81 5135678.03 180.20
-9755587.91 5135677.73 180.43
-9755593.21 5135679.78 180.33
-9755597.03 5135675.15 180.17
-9755590.85 5135677.42 180.36
-9755597.43 5135675.42 180.17
-9755598.26 5135678.33 180.20
-9755594.94 5135678.37 180.28
-9755593.86 5135675.38 180.24
-9755589.43 5135675.27 180.34
-9755593.26 5135675.36 180.26
-9755590.82 5135676.78 180.35
-9755597.67 5135680.68 180.24
-9755589.72 5135679.48 180.41
-9755589.96 5135679.20 180.40
-9755601.79 5135673.63 180.05
-9755607.14 5135670.39 179.97
-9755600.65 5135671.00 180.02
-9755603.88 5135670.40 180.00
-9755604.43 5135670.70 179.97
-9755608.59 5135666.59 180.09
-9755607.67 5135672.76 179.98
-9755606.27 5135668.95 180.04
-9755599.74 5135668.01 180.13
-9755607.96 5135672.16 179.96
-9755603.59 5135667.44 180.12
-9755605.97 5135668.31 180.06
-9755601.77 5135672.73 180.03
-9755600.04 5135668.25 180.12
-9755602.11 5135667.39 180.13
-9755606.77 5135669.86 179.99
-9755599.44 5135672.13 180.06
-9755602.99 5135670.67 180.00
-9755599.83 5135666.80 180.17
-9755608.57 5135673.12 179.97
-9755599.70 5135672.43 180.03
-9755608.55 5135671.61 179.94
-9755602.08 5135670.09 180.04
-9755605.93 5135673.37 179.99
-9755608.57 5135670.72 179.94
-9755601.51 5135671.26 180.00
-9755600.62 5135669.19 180.08
-9755593.86 5135668.23 180.21
-9755592.95 5135672.35 180.18
-9755592.09 5135673.27 180.23
-9755591.25 5135666.14 180.62
-9755594.71 5135667.31 180.28
-9755595.02 5135666.76 180.35
-9755593.00 5135666.42 180.46
-9755588.02 5135667.89 180.46
-9755592.10 5135671.80 180.18
-9755596.47 5135668.87 180.13
-9755594.17 5135667.65 180.24
-9755591.20 5135667.96 180.37
-9755589.12 5135669.69 180.42
-9755596.55 5135667.05 180.16
-9755591.52 5135671.49 180.19
-9755593.79 5135667.33 180.34
-9755592.66 5135671.79 180.16
-9755595.02 5135669.46 180.16
-9755597.43 5135672.95 180.11
-9755595.32 5135668.90 180.16
-9755598.56 5135668.00 180.14
-9755592.39 5135669.45 180.23
-9755590.29 5135668.20 180.41
-9755597.44 5135667.64 180.15
-9755594.16 5135672.06 180.16
-9755594.14 5135671.21 180.14
-9755597.96 5135667.47 180.16
-9755590.63 5135667.88 180.39
-9755596.80 5135669.15 180.12
-9755594.20 5135669.16 180.16
-9755597.44 5135670.36 180.08
-9755590.34 5135672.97 180.26
-9755590.91 5135668.56 180.37
-9755595.60 5135666.44 180.60
-9755598.57 5135671.79 180.04
-9755587.02 5135676.81 180.44
-9755586.19 5135676.20 180.44
-9755585.80 5135677.11 180.48
-9755587.11 5135676.21 180.44
-9755584.37 5135674.39 180.45
-9755585.20 5135678.49 180.52
-9755584.06 5135678.51 180.53
-9755584.75 5135677.10 180.49
-9755575.25 5135673.43 180.59
-9755583.29 5135673.82 180.44
-9755574.97 5135673.81 180.62
-9755559.07 5135673.61 180.75
-9755577.60 5135677.30 181.61
-9755577.63 5135677.90 181.59
-9755575.81 5135673.75 180.59
-9755577.56 5135676.99 181.61
-9755582.93 5135674.14 180.44
-9755583.19 5135677.60 180.55
-9755576.53 5135677.37 181.58
-9755578.30 5135677.26 181.61
-9755578.80 5135676.01 181.57
-9755576.40 5135676.44 181.57
-9755578.78 5135677.91 181.69
-9755579.99 5135676.70 181.97
-9755577.23 5135677.56 181.61
-9755579.30 5135680.86 180.67
-9755576.09 5135676.96 181.45
-9755581.65 5135675.85 181.48
-9755582.27 5135675.71 181.56
-9755580.85 5135677.00 182.04
-9755582.33 5135674.69 180.49
-9755578.39 5135678.40 181.61
-9755578.76 5135677.47 181.63
-9755577.83 5135677.07 181.60
-9755576.52 5135677.80 181.53
-9755575.84 5135676.69 180.70
-9755578.15 5135674.69 180.59
-9755578.95 5135677.01 181.65
-9755577.55 5135676.64 181.61
-9755576.73 5135673.73 180.57
-9755575.84 5135677.94 180.74
-9755576.66 5135676.01 181.58
-9755578.44 5135676.05 181.50
-9755573.18 5135675.77 180.73
-9755577.33 5135676.65 181.59
-9755579.97 5135677.32 182.07
-9755577.92 5135677.80 181.59
-9755581.44 5135676.88 182.03
-9755578.52 5135674.08 180.55
-9755582.24 5135680.32 180.58
-9755576.44 5135676.90 181.59
-9755580.60 5135676.64 182.05
-9755578.00 5135676.39 181.59
-9755578.16 5135678.20 181.56
-9755583.01 5135677.63 181.64
-9755576.84 5135676.79 181.44
-9755572.59 5135676.99 180.77
-9755576.75 5135677.82 181.61
-9755576.79 5135676.91 181.14
-9755577.53 5135675.73 181.69
-9755579.74 5135677.49 182.06
-9755579.13 5135675.57 180.59
-9755580.85 5135674.70 180.52
-9755577.54 5135677.62 181.24
-9755581.78 5135677.65 181.66
-9755582.27 5135676.10 181.63
-9755575.67 5135676.81 181.10
-9755578.47 5135676.92 181.61
-9755582.59 5135677.48 181.69
-9755583.19 5135677.37 181.63
-9755577.96 5135675.70 181.70
-9755581.20 5135676.71 182.05
-9755581.14 5135677.51 182.02
-9755583.17 5135680.86 180.56
-9755580.58 5135676.33 182.05
-9755578.24 5135676.72 181.58
-9755572.86 5135679.39 180.80
-9755573.12 5135677.31 180.78
-9755572.57 5135679.09 180.81
-9755581.77 5135676.94 182.03
-9755581.79 5135676.14 181.66
-9755579.02 5135676.06 181.93
-9755583.82 5135674.97 180.46
-9755579.67 5135676.00 181.99
-9755579.68 5135676.65 182.05
-9755581.75 5135676.71 182.01
-9755580.85 5135678.04 182.05
-9755572.60 5135679.37 180.80
-9755582.94 5135675.31 180.50
-9755574.35 5135679.34 180.77
-9755583.23 5135676.75 181.65
-9755578.15 5135680.24 180.70
-9755583.82 5135680.05 180.54
-9755576.66 5135677.24 181.11
-9755576.51 5135677.11 181.08
-9755582.98 5135676.31 181.65
-9755579.95 5135674.95 180.55
-9755582.90 5135676.70 181.65
-9755577.99 5135676.17 181.59
-9755575.89 5135677.01 181.16
-9755580.74 5135675.45 181.31
-9755582.16 5135677.58 181.66
-9755582.42 5135677.82 181.69
-9755582.57 5135676.90 181.65
-9755582.97 5135675.88 181.59
-9755577.07 5135676.34 181.57
-9755582.24 5135676.81 182.01
-9755576.45 5135676.03 181.55
-9755579.13 5135676.99 181.85
-9755579.16 5135676.36 181.97
-9755577.89 5135677.30 181.63
-9755577.24 5135678.17 181.47
-9755582.00 5135676.29 181.80
-9755580.80 5135676.10 181.99
-9755584.06 5135679.43 180.54
-9755580.64 5135677.23 182.02
-9755576.68 5135676.45 181.61
-9755576.74 5135676.66 181.28
-9755576.97 5135676.91 181.56
-9755576.07 5135676.74 181.43
-9755580.54 5135676.97 182.04
-9755576.15 5135675.96 181.26
-9755573.78 5135679.95 180.79
-9755574.40 5135679.08 180.77
-9755580.83 5135677.81 182.02
-9755582.32 5135676.67 181.66
-9755576.69 5135677.33 181.61
-9755581.74 5135677.78 182.05
-9755579.17 5135676.58 181.98
-9755582.51 5135676.36 181.68
-9755583.16 5135679.68 180.56
-9755580.82 5135676.41 182.05
-9755568.43 5135678.77 180.89
-9755571.74 5135677.27 180.81
-9755565.78 5135676.89 180.86
-9755567.28 5135676.06 180.81
-9755568.74 5135674.35 180.74
-9755568.12 5135680.81 180.89
-9755566.67 5135677.55 180.87
-9755569.32 5135680.82 180.87
-9755561.69 5135675.44 180.85
-9755561.39 5135676.05 180.87
-9755567.87 5135678.41 180.89
-9755568.50 5135673.99 180.73
-9755564.35 5135679.32 180.92
-9755564.32 5135678.68 180.91
-9755561.07 5135678.15 180.96
-9755566.40 5135676.09 180.86
-9755571.44 5135674.67 180.70
-9755570.84 5135678.18 180.83
-9755564.15 5135673.68 180.75
-9755571.72 5135675.53 180.75
-9755564.60 5135680.20 180.93
-9755571.68 5135677.04 180.80
-9755571.98 5135674.92 180.70
-9755571.15 5135678.45 180.83
-9755566.96 5135678.44 180.91
-9755563.78 5135678.41 180.95
-9755561.69 5135677.24 180.92
-9755567.90 5135680.82 180.89
-9755566.98 5135680.81 180.91
-9755571.68 5135678.97 180.82
-9755570.84 5135677.53 180.83
-9755570.53 5135679.35 180.85
-9755567.58 5135674.01 180.75
-9755564.35 5135674.23 180.78
-9755566.45 5135677.56 180.87
-9755559.02 5135680.75 180.99
-9755557.86 5135678.33 180.96
-9755587.41 5135667.97 180.49
-9755586.49 5135671.12 180.45
-9755587.07 5135672.04 180.28
-9755587.37 5135673.26 180.33
-9755586.48 5135669.66 180.47
-9755587.99 5135666.41 180.62
-9755585.27 5135671.15 180.47
-9755584.42 5135670.87 180.48
-9755584.07 5135671.99 180.38
-9755585.32 5135671.78 180.37
-9755585.59 5135669.09 180.49
-9755584.72 5135667.30 180.55
-9755584.75 5135669.36 180.50
-9755585.55 5135670.58 180.48
-9755577.33 5135673.45 180.55
-9755582.07 5135669.37 180.55
-9755575.52 5135672.53 180.55
-9755577.05 5135666.26 183.59
-9755573.82 5135668.09 180.73
-9755573.50 5135670.51 180.72
-9755579.76 5135666.81 186.82
-9755580.50 5135666.75 185.38
-9755573.51 5135672.89 180.59
-9755577.39 5135666.70 180.80
-9755578.11 5135666.71 184.95
-9755575.64 5135666.64 186.53
-9755582.30 5135672.94 180.43
-9755575.58 5135668.43 180.70
-9755577.59 5135666.42 184.34
-9755575.61 5135669.26 180.69
-9755576.18 5135666.34 186.68
-9755577.30 5135670.48 180.65
-9755580.10 5135666.67 187.56
-9755579.74 5135669.35 180.61
-9755579.47 5135667.08 185.10
-9755578.62 5135666.89 187.81
-9755575.27 5135671.94 180.56
-9755576.08 5135666.70 188.07
-9755575.94 5135666.43 184.15
-9755575.91 5135666.31 186.42
-9755581.47 5135672.84 180.43
-9755580.62 5135673.48 180.49
-9755577.04 5135666.28 186.63
-9755574.41 5135668.76 180.72
-9755580.03 5135667.46 187.48
-9755573.24 5135667.19 180.82
-9755575.82 5135671.12 180.67
-9755575.69 5135666.76 184.08
-9755579.76 5135666.35 187.06
-9755576.45 5135671.41 180.66
-9755575.56 5135669.63 180.68
-9755574.13 5135671.04 180.70
-9755580.08 5135667.33 187.62
-9755577.47 5135667.52 185.40
-9755572.66 5135669.56 180.75
-9755580.89 5135671.99 180.45
-9755573.84 5135667.53 180.73
-9755579.71 5135667.55 186.87
-9755577.37 5135668.44 180.66
-9755582.34 5135670.55 180.54
-9755573.83 5135667.25 180.80
-9755579.29 5135666.71 186.00
-9755576.87 5135667.04 184.40
-9755577.69 5135669.63 180.66
-9755572.64 5135668.13 180.77
-9755576.75 5135666.33 180.84
-9755578.34 5135667.27 180.69
-9755575.88 5135669.33 180.69
-9755578.01 5135666.93 187.81
-9755583.85 5135668.16 180.54
-9755574.71 5135671.39 180.68
-9755575.60 5135667.82 180.72
-9755577.75 5135666.27 186.82
-9755575.03 5135670.77 180.69
-9755577.99 5135666.33 180.85
-9755577.35 5135666.88 184.79
-9755579.98 5135671.08 180.59
-9755577.64 5135673.49 180.53
-9755579.61 5135666.18 185.33
-9755576.75 5135666.22 183.74
-9755577.72 5135666.77 184.76
-9755575.62 5135667.20 180.78
-9755574.74 5135667.22 180.79
-9755578.57 5135666.90 180.75
-9755575.33 5135668.73 180.70
-9755576.53 5135667.20 180.75
-9755564.83 5135667.66 185.14
-9755569.38 5135673.17 180.68
-9755572.05 5135669.28 180.75
-9755560.21 5135670.97 180.87
-9755565.86 5135672.76 180.70
-9755563.18 5135671.01 180.84
-9755565.90 5135666.32 181.02
-9755565.92 5135666.57 185.50
-9755567.30 5135673.13 180.70
-9755562.63 5135669.54 180.83
-9755564.35 5135666.64 189.19
-9755560.20 5135672.48 180.71
-9755571.47 5135668.08 180.78
-9755564.66 5135669.53 180.82
-9755564.10 5135668.02 180.83
-9755561.10 5135672.44 180.73
-9755559.37 5135667.68 180.88
-9755562.72 5135666.20 187.97
-9755563.59 5135666.60 180.97
-9755564.40 5135666.56 186.62
-9755562.31 5135666.98 186.14
-9755563.32 5135667.23 185.56
-9755571.75 5135671.34 180.75
-9755568.83 5135670.14 180.78
-9755565.65 5135668.10 186.66
-9755566.42 5135666.60 185.00
-9755564.76 5135666.86 186.29
-9755562.39 5135666.61 185.55
-9755561.43 5135669.20 180.86
-9755565.82 5135671.32 180.81
-9755562.89 5135670.12 180.84
-9755560.88 5135666.54 186.02
-9755562.13 5135666.56 185.08
-9755566.77 5135666.54 186.54
-9755567.40 5135666.27 186.41
-9755563.79 5135672.76 180.72
-9755563.81 5135666.76 188.80
-9755570.54 5135670.47 180.77
-9755562.63 5135666.40 185.37
-9755564.51 5135666.58 180.91
-9755570.26 5135672.81 180.64
-9755567.02 5135670.42 180.80
-9755569.34 5135672.84 180.66
-9755561.72 5135666.20 181.04
-9755572.35 5135668.66 180.77
-9755561.71 5135669.86 180.86
-9755565.86 5135670.40 180.82
-9755564.38 5135666.93 186.05
-9755567.62 5135671.02 180.79
-9755562.95 5135667.23 184.26
-9755561.68 5135668.05 180.85
-9755565.81 5135669.56 180.82
-9755562.60 5135667.35 188.12
-9755562.86 5135671.63 180.84
-9755566.42 5135668.07 180.80
-9755563.78 5135671.60 180.83
-9755563.22 5135667.68 184.29
-9755562.34 5135667.15 180.93
-9755563.27 5135667.78 180.84
-9755562.15 5135666.12 184.14
-9755560.17 5135672.19 180.75
-9755562.89 5135667.87 184.95
-9755562.37 5135666.12 185.10
-9755561.70 5135666.59 181.00
-9755564.35 5135671.28 180.83
-9755564.94 5135672.22 180.72
-9755560.81 5135670.12 180.86
-9755557.88 5135668.05 180.89
-9755558.48 5135669.23 180.87
-9755559.06 5135669.50 180.87
-9755558.24 5135667.72 180.88
-9755557.53 5135673.62 180.74
-9755556.69 5135677.50 180.94
-9755556.08 5135678.35 180.96
-9755558.19 5135666.82 180.98
-9755557.02 5135672.75 180.70
-9755557.32 5135667.09 180.93
-9755557.04 5135668.28 180.89
-9755605.48 5135647.27 180.76
-9755606.99 5135647.33 180.76
-9755597.06 5135647.47 187.46
-9755594.04 5135647.08 186.63
-9755596.09 5135647.47 181.17
-9755597.33 5135647.40 188.09
-9755592.41 5135647.50 185.73
-9755594.90 5135647.76 181.23
-9755597.23 5135647.17 186.68
-9755595.43 5135646.87 187.64
-9755594.61 5135646.88 185.87
-9755598.54 5135646.86 187.19
-9755598.52 5135647.01 185.35
-9755595.54 5135647.20 187.77
