-9755237.04 5135301.31 183.50
-9755239.10 5135301.14 183.63
-9755236.59 5135302.65 184.68
-9755237.79 5135306.35 183.93
-9755237.01 5135306.88 183.66
-9755238.16 5135303.82 185.46
-9755238.49 5135303.64 183.66
-9755234.87 5135305.69 182.62
-9755237.11 5135302.51 184.06
-9755235.19 5135305.11 183.28
-9755238.96 5135301.54 184.78
-9755239.11 5135303.17 187.27
-9755237.87 5135304.26 184.27
-9755236.93 5135305.05 183.87
-9755233.81 5135302.33 184.72
-9755236.18 5135303.63 183.21
-9755234.57 5135304.90 181.95
-9755237.69 5135303.38 183.58
-9755236.07 5135303.69 181.32
-9755239.61 5135302.97 183.50
-9755238.78 5135300.48 183.97
-9755235.43 5135301.82 183.33
-9755236.35 5135304.05 191.52
-9755234.87 5135304.84 181.37
-9755237.39 5135303.89 183.81
-9755237.38 5135302.13 185.00
-9755238.09 5135306.33 183.93
-9755236.18 5135303.36 191.62
-9755236.51 5135302.10 183.90
-9755234.02 5135303.10 181.23
-9755239.32 5135306.23 185.57
-9755239.31 5135301.47 184.89
-9755237.81 5135300.27 183.76
-9755239.30 5135306.80 184.93
-9755238.21 5135302.08 186.55
-9755238.68 5135303.52 183.28
-9755235.84 5135301.25 181.34
-9755234.62 5135306.29 182.16
-9755239.65 5135303.83 183.57
-9755237.82 5135303.57 183.08
-9755234.93 5135306.27 183.22
-9755237.04 5135304.85 183.43
-9755236.39 5135303.60 183.24
-9755236.69 5135302.17 184.96
-9755236.06 5135303.39 184.38
-9755238.98 5135301.04 186.47
-9755237.62 5135302.30 186.63
-9755238.16 5135303.13 183.50
-9755237.84 5135304.16 184.01
-9755234.90 5135306.80 183.30
-9755239.59 5135301.05 184.91
-9755235.58 5135303.85 182.53
-9755239.13 5135306.77 185.54
-9755236.94 5135301.82 184.27
-9755237.34 5135304.85 183.53
-9755238.21 5135301.44 186.07
-9755234.96 5135302.00 185.22
-9755239.55 5135306.99 186.75
-9755234.87 5135305.43 182.12
-9755235.79 5135302.12 184.00
-9755239.60 5135301.33 181.50
-9755234.38 5135302.12 184.52
-9755236.93 5135300.81 183.59
-9755237.26 5135304.17 183.56
-9755239.06 5135306.22 185.56
-9755239.01 5135305.32 184.90
-9755238.22 5135302.07 185.47
-9755239.35 5135302.61 181.32
-9755234.82 5135306.21 182.20
-9755235.29 5135304.09 191.59
-9755237.17 5135301.13 181.93
-9755234.91 5135300.10 181.28
-9755239.40 5135302.15 186.01
-9755236.10 5135301.75 183.49
-9755234.04 5135304.26 181.25
-9755235.51 5135303.69 181.32
-9755237.40 5135301.85 185.24
-9755238.58 5135302.13 185.16
-9755239.12 5135304.70 184.47
-9755238.62 5135307.16 185.61
-9755236.16 5135301.88 181.38
-9755237.60 5135301.85 183.79
-9755234.84 5135306.87 182.21
-9755239.09 5135306.81 184.90
-9755236.38 5135300.38 181.29
-9755237.84 5135303.46 184.98
-9755238.46 5135304.44 184.39
-9755235.77 5135303.57 182.38
-9755239.64 5135301.81 183.74
-9755239.46 5135302.33 187.53
-9755238.69 5135303.07 181.65
-9755238.94 5135304.68 184.13
-9755234.93 5135303.80 183.02
-9755239.58 5135299.84 181.36
-9755236.15 5135303.33 183.46
-9755235.37 5135299.27 185.41
-9755239.62 5135301.18 185.25
-9755239.57 5135303.55 185.29
-9755238.18 5135301.99 186.30
-9755236.18 5135302.94 184.70
-9755236.09 5135303.44 184.08
-9755235.19 5135304.75 183.31
-9755234.82 5135305.19 182.18
-9755235.40 5135304.12 183.65
-9755236.09 5135303.90 182.69
-9755235.72 5135301.36 186.19
-9755239.36 5135306.96 188.00
-9755239.39 5135306.99 184.28
-9755234.38 5135303.01 184.50
-9755238.17 5135300.50 183.99
-9755236.51 5135301.32 182.61
-9755235.26 5135304.58 181.44
-9755239.37 5135305.30 184.44
-9755236.41 5135303.93 181.33
-9755239.02 5135300.93 187.74
-9755239.58 5135300.89 186.34
-9755239.45 5135300.85 185.25
-9755236.40 5135307.13 183.58
-9755239.13 5135303.08 184.15
-9755236.43 5135301.50 184.87
-9755236.53 5135302.02 181.80
-9755235.29 5135301.47 184.22
-9755234.03 5135301.91 185.11
-9755234.94 5135304.57 183.09
-9755237.93 5135300.91 184.02
-9755236.14 5135303.34 182.85
-9755239.01 5135301.91 186.59
-9755236.65 5135301.26 183.54
-9755238.00 5135301.11 185.63
-9755236.39 5135299.84 181.28
-9755239.34 5135301.94 186.38
-9755236.07 5135302.71 181.95
-9755235.32 5135301.79 182.29
-9755237.04 5135301.43 183.90
-9755236.94 5135300.48 181.30
-9755237.88 5135301.25 183.47
-9755239.02 5135300.84 184.15
-9755234.92 5135301.39 181.80
-9755235.28 5135301.21 182.94
-9755239.62 5135304.80 184.65
-9755236.61 5135303.57 185.35
-9755238.41 5135302.76 181.30
-9755236.11 5135305.62 191.55
-9755235.00 5135301.71 181.33
-9755237.62 5135301.02 183.47
-9755236.10 5135303.01 183.97
-9755235.54 5135300.44 184.69
-9755238.32 5135305.86 184.14
-9755235.56 5135301.51 184.62
-9755236.54 5135302.59 183.74
-9755238.37 5135301.02 181.70
-9755239.02 5135303.38 183.23
-9755236.27 5135302.50 183.12
-9755238.14 5135302.56 185.21
-9755238.35 5135302.01 185.37
-9755237.38 5135306.57 183.87
-9755236.50 5135305.15 183.34
-9755239.04 5135307.16 184.93
-9755234.56 5135302.21 181.28
-9755238.17 5135301.08 185.99
-9755237.10 5135302.66 186.08
-9755234.53 5135306.81 182.11
-9755239.40 5135304.09 184.15
-9755236.62 5135304.51 183.36
-9755237.01 5135302.19 184.78
-9755236.93 5135305.98 183.71
-9755235.29 5135304.20 182.53
-9755239.07 5135301.37 185.66
-9755237.32 5135301.47 184.01
-9755234.00 5135306.38 181.32
-9755235.78 5135307.15 183.71
-9755237.16 5135301.01 185.62
-9755239.08 5135302.87 185.57
-9755234.05 5135301.86 181.26
-9755235.31 5135302.93 191.62
-9755238.33 5135303.56 181.34
-9755235.21 5135306.87 181.44
-9755237.38 5135301.10 186.00
-9755234.42 5135301.98 185.44
-9755234.60 5135306.90 181.40
-9755236.93 5135302.17 183.68
-9755238.44 5135305.88 185.08
-9755234.94 5135301.06 181.30
-9755237.01 5135305.91 184.02
-9755236.36 5135303.07 181.29
-9755235.45 5135301.56 182.17
-9755236.69 5135302.43 181.77
-9755238.50 5135300.89 184.03
-9755239.16 5135301.94 181.42
-9755237.34 5135303.18 185.25
-9755237.27 5135303.43 181.32
-9755238.16 5135301.26 183.54
-9755236.36 5135303.12 183.49
-9755237.06 5135299.61 185.22
-9755236.30 5135303.86 184.47
-9755239.07 5135299.54 181.37
-9755237.95 5135302.14 183.65
-9755234.89 5135302.90 184.93
-9755235.84 5135298.82 184.46
-9755237.24 5135302.11 185.64
-9755236.14 5135302.88 183.49
-9755237.31 5135305.93 183.90
-9755239.65 5135299.52 181.36
-9755235.51 5135303.69 188.24
-9755238.46 5135301.49 185.82
-9755237.55 5135302.70 184.09
-9755238.79 5135301.71 186.53
-9755235.77 5135306.87 183.31
-9755235.49 5135303.79 185.10
-9755239.35 5135307.04 186.02
-9755237.39 5135301.75 185.86
-9755238.26 5135299.92 184.41
-9755239.25 5135303.48 183.29
-9755237.44 5135303.50 184.82
-9755238.71 5135302.46 181.35
-9755237.59 5135304.45 183.26
-9755238.28 5135302.94 184.04
-9755239.05 5135305.87 184.43
-9755234.27 5135306.00 181.35
-9755234.88 5135301.25 181.30
-9755236.91 5135302.06 184.28
-9755239.53 5135303.52 186.10
-9755237.82 5135302.62 184.70
-9755235.78 5135302.77 181.37
-9755235.21 5135305.36 182.43
-9755237.30 5135307.00 181.51
-9755238.21 5135301.39 181.78
-9755239.63 5135298.98 181.38
-9755237.32 5135300.75 181.32
-9755234.60 5135307.14 183.36
-9755236.10 5135304.35 181.39
-9755239.11 5135304.15 183.49
-9755237.67 5135303.17 182.78
-9755234.92 5135299.29 181.28
-9755236.59 5135301.67 181.84
-9755234.03 5135302.48 181.26
-9755235.59 5135304.97 191.56
-9755239.03 5135299.80 184.96
-9755238.75 5135300.18 181.33
-9755236.50 5135303.60 185.73
-9755239.04 5135301.46 185.22
-9755237.71 5135302.50 184.16
-9755237.89 5135306.69 183.92
-9755234.29 5135301.30 181.28
-9755239.44 5135303.10 184.04
-9755236.43 5135302.55 182.53
-9755235.63 5135304.16 182.53
-9755235.52 5135299.99 184.61
-9755238.17 5135299.30 181.34
-9755239.33 5135302.76 183.51
-9755239.12 5135305.91 185.56
-9755234.95 5135306.09 182.26
-9755238.14 5135305.37 183.70
-9755236.40 5135299.60 185.56
-9755239.05 5135305.30 184.36
-9755238.99 5135305.65 185.75
-9755237.79 5135303.28 182.77
-9755239.00 5135300.20 188.08
-9755238.15 5135307.34 186.81
-9755234.88 5135310.21 182.40
-9755236.47 5135309.66 185.29
-9755235.85 5135310.11 183.72
-9755234.83 5135310.17 183.29
-9755237.91 5135307.95 186.48
-9755238.98 5135309.73 186.78
-9755235.11 5135309.49 182.09
-9755234.95 5135307.69 183.26
-9755237.00 5135310.06 185.25
-9755237.92 5135308.63 185.42
-9755236.40 5135309.38 184.40
-9755238.55 5135308.48 186.50
-9755238.67 5135309.98 187.42
-9755234.65 5135307.49 183.24
-9755234.52 5135307.74 181.81
-9755234.87 5135309.57 182.32
-9755238.70 5135307.70 186.92
-9755235.37 5135308.34 183.26
-9755235.45 5135307.21 183.28
-9755236.87 5135309.59 185.35
-9755234.89 5135309.28 182.71
-9755238.22 5135307.23 188.02
-9755236.06 5135309.52 184.33
-9755237.33 5135308.51 185.26
-9755236.40 5135309.15 185.23
-9755239.41 5135308.44 187.64
-9755234.63 5135309.70 183.06
-9755239.51 5135309.29 187.33
-9755234.68 5135308.85 184.50
-9755236.08 5135310.01 184.40
-9755239.35 5135309.51 186.86
-9755238.63 5135309.94 186.93
-9755237.81 5135308.03 184.68
-9755238.96 5135307.60 185.47
-9755237.49 5135310.43 185.13
-9755237.20 5135309.40 184.75
-9755237.96 5135309.65 185.51
-9755234.92 5135308.94 183.33
-9755235.73 5135308.82 185.26
-9755235.48 5135309.48 183.40
-9755234.81 5135308.31 182.48
-9755236.64 5135309.96 185.39
-9755234.89 5135307.96 183.23
-9755237.92 5135308.13 186.13
-9755237.53 5135308.46 184.84
-9755238.11 5135309.66 186.84
-9755238.15 5135309.45 185.50
-9755234.56 5135310.07 182.06
-9755235.52 5135309.13 184.70
-9755238.50 5135307.74 184.79
-9755235.17 5135308.95 183.32
-9755239.51 5135308.46 186.12
-9755236.68 5135307.92 183.61
-9755239.26 5135309.21 189.36
-9755235.23 5135308.55 183.96
-9755239.08 5135309.73 187.51
-9755239.09 5135309.59 187.46
-9755238.82 5135309.05 187.60
-9755238.15 5135309.86 188.43
-9755238.55 5135308.50 187.19
-9755238.96 5135307.01 184.15
-9755234.81 5135308.96 182.62
-9755237.01 5135308.34 185.08
-9755236.88 5135310.10 184.70
-9755238.09 5135307.94 185.63
-9755237.84 5135308.94 184.42
-9755237.47 5135307.88 184.77
-9755238.49 5135309.84 188.47
-9755234.91 5135309.79 184.40
-9755239.40 5135309.53 189.11
-9755238.55 5135308.05 186.45
-9755236.38 5135307.71 184.38
-9755235.50 5135308.30 184.81
-9755237.09 5135307.75 184.55
-9755234.98 5135308.65 182.23
-9755239.08 5135309.71 188.16
-9755239.01 5135308.68 186.60
-9755238.16 5135308.75 186.04
-9755239.46 5135308.46 186.37
-9755238.17 5135308.44 186.97
-9755235.15 5135309.13 184.24
-9755238.08 5135307.72 185.61
-9755234.71 5135308.80 182.08
-9755236.96 5135309.21 185.30
-9755238.23 5135308.21 185.29
-9755237.81 5135307.85 187.12
-9755236.97 5135308.87 185.25
-9755235.39 5135309.81 183.82
-9755234.66 5135307.35 182.67
-9755234.77 5135307.61 182.43
-9755235.14 5135309.52 184.33
-9755236.30 5135309.58 183.66
-9755235.55 5135308.23 185.46
-9755234.60 5135307.55 181.39
-9755239.04 5135308.68 187.60
-9755233.99 5135308.41 181.36
-9755235.54 5135308.00 185.39
-9755238.81 5135309.77 185.49
-9755237.89 5135308.27 184.97
-9755239.38 5135310.13 189.22
-9755239.38 5135307.51 187.96
-9755234.92 5135308.44 181.40
-9755234.64 5135308.64 183.29
-9755238.47 5135308.87 186.71
-9755238.75 5135309.33 186.46
-9755234.78 5135309.04 184.56
-9755238.13 5135307.98 186.99
-9755237.89 5135307.46 183.89
-9755238.44 5135307.81 185.62
-9755235.48 5135308.02 183.26
-9755238.42 5135307.90 187.02
-9755239.03 5135309.56 189.09
-9755236.61 5135308.22 183.68
-9755238.13 5135307.43 184.94
-9755235.44 5135308.04 184.60
-9755235.08 5135309.32 181.98
-9755235.12 5135307.66 181.38
-9755237.52 5135308.74 187.13
-9755234.90 5135308.38 181.94
-9755237.36 5135307.19 184.47
-9755237.59 5135308.07 184.26
-9755238.22 5135309.96 185.89
-9755235.52 5135308.79 184.75
-9755237.84 5135309.06 187.04
-9755238.08 5135310.00 185.26
-9755234.81 5135309.35 181.38
-9755237.68 5135308.46 186.66
-9755238.64 5135307.40 185.58
-9755237.51 5135309.43 185.77
-9755239.08 5135308.46 188.42
-9755239.05 5135307.77 185.69
-9755238.22 5135307.87 187.98
-9755238.22 5135308.46 186.49
-9755236.03 5135310.04 185.02
-9755238.00 5135308.35 185.70
-9755239.41 5135307.91 186.74
-9755237.44 5135307.58 184.54
-9755237.85 5135309.25 185.47
-9755237.30 5135309.12 185.32
-9755239.58 5135307.43 185.54
-9755236.78 5135307.97 183.78
-9755239.46 5135308.90 188.88
-9755237.01 5135307.75 183.79
-9755237.81 5135309.40 184.47
-9755239.06 5135307.56 187.91
-9755235.22 5135307.77 183.46
-9755238.70 5135307.61 187.70
-9755236.85 5135309.08 184.82
-9755237.92 5135307.60 187.89
-9755233.75 5135300.46 181.28
-9755233.18 5135301.30 181.26
-9755230.46 5135306.90 181.21
-9755233.76 5135305.16 181.27
-9755233.14 5135305.84 181.28
-9755233.16 5135303.41 181.19
-9755229.87 5135302.23 181.18
-9755229.57 5135310.21 181.17
-9755229.61 5135306.01 181.17
-9755229.29 5135306.03 181.13
-9755229.60 5135303.66 181.17
-9755229.00 5135306.63 181.12
-9755232.21 5135306.92 181.25
-9755233.14 5135302.79 181.20
-9755231.35 5135304.83 181.21
-9755231.05 5135301.26 181.23
-9755230.52 5135300.14 181.22
-9755231.69 5135306.04 181.22
-9755232.25 5135301.88 181.26
-9755230.77 5135301.66 181.23
-9755231.68 5135304.32 181.21
-9755232.02 5135298.96 181.26
-9755231.65 5135302.79 181.19
-9755229.63 5135300.12 181.19
-9755230.81 5135302.44 181.19
-9755229.57 5135304.26 181.17
-9755229.62 5135300.42 181.19
-9755230.71 5135305.76 181.20
-9755233.13 5135301.92 181.24
-9755231.32 5135307.19 181.22
-9755229.91 5135301.05 181.20
-9755229.01 5135302.21 181.12
-9755231.59 5135306.35 181.22
-9755230.81 5135298.97 181.22
-9755232.89 5135299.83 181.27
-9755229.31 5135302.79 181.14
-9755229.91 5135301.30 181.19
-9755229.62 5135307.16 181.18
-9755231.08 5135309.55 181.25
-9755232.85 5135310.21 181.31
-9755232.84 5135308.09 181.30
-9755230.15 5135308.45 181.19
-9755233.12 5135309.01 181.31
-9755229.58 5135309.63 181.17
-9755230.78 5135309.86 181.23
-9755236.46 5135292.74 181.35
-9755238.23 5135292.14 181.41
-9755236.41 5135291.56 181.35
-9755236.45 5135290.94 181.36
-9755234.47 5135290.56 184.18
-9755238.80 5135291.53 181.43
-9755239.15 5135292.15 181.43
-9755238.25 5135290.62 181.40
-9755235.87 5135293.60 181.34
-9755236.42 5135292.45 181.34
-9755236.13 5135293.62 181.35
-9755235.30 5135290.97 181.32
-9755238.22 5135295.99 181.39
-9755236.48 5135298.12 184.72
-9755238.77 5135298.69 181.36
-9755237.33 5135295.39 181.37
-9755234.03 5135296.90 181.28
-9755239.39 5135294.78 181.42
-9755234.05 5135294.20 181.29
-9755236.48 5135298.45 184.75
-9755236.41 5135296.29 181.32
-9755234.66 5135297.78 181.28
-9755236.46 5135293.89 181.35
-9755234.70 5135298.70 184.57
-9755234.37 5135294.80 181.30
-9755238.81 5135297.21 181.38
-9755235.25 5135297.18 181.30
-9755236.42 5135294.51 181.35
-9755234.38 5135296.29 181.30
-9755239.05 5135297.75 181.38
-9755238.23 5135294.50 181.40
-9755235.00 5135295.69 181.30
-9755236.14 5135293.93 181.35
-9755234.99 5135298.77 184.50
-9755235.22 5135297.99 184.67
-9755234.04 5135296.61 181.29
-9755237.31 5135295.71 181.37
-9755234.06 5135294.86 181.29
-9755237.00 5135295.38 181.36
-9755237.57 5135298.07 181.33
-9755235.03 5135289.01 185.50
-9755238.81 5135290.10 181.41
-9755234.17 5135289.22 185.93
-9755237.68 5135288.55 181.36
-9755235.00 5135289.31 185.96
-9755234.61 5135288.62 186.11
-9755234.02 5135289.10 184.69
-9755238.84 5135285.97 181.37
-9755237.35 5135289.49 181.35
-9755236.21 5135284.51 181.32
-9755234.16 5135287.68 181.23
-9755238.24 5135285.35 181.37
-9755237.97 5135285.64 181.38
-9755234.49 5135285.66 181.19
-9755234.47 5135285.43 186.48
-9755236.47 5135288.89 181.33
-9755234.43 5135286.80 184.99
-9755237.94 5135286.23 181.39
-9755234.34 5135287.36 181.22
-9755235.07 5135287.11 181.24
-9755238.02 5135284.20 181.37
-9755236.80 5135284.75 181.36
-9755236.19 5135286.20 181.32
-9755234.42 5135288.07 185.68
-9755235.26 5135283.90 181.25
-9755238.55 5135287.18 181.39
-9755233.94 5135289.92 184.17
-9755235.48 5135287.34 184.55
-9755237.98 5135286.82 181.39
-9755231.18 5135291.83 181.23
-9755229.38 5135292.14 181.18
-9755232.33 5135290.61 181.27
-9755231.48 5135290.03 181.26
-9755230.26 5135292.75 181.21
-9755229.68 5135291.20 181.20
-9755233.34 5135290.11 185.64
-9755232.32 5135290.91 181.26
-9755231.17 5135292.97 181.25
-9755229.08 5135291.83 181.09
-9755232.96 5135293.55 181.28
-9755231.41 5135292.76 181.25
-9755230.61 5135290.05 185.46
-9755231.76 5135290.65 181.25
-9755230.35 5135290.25 186.90
-9755232.66 5135290.39 181.27
-9755232.30 5135292.43 181.26
-9755232.54 5135291.38 183.35
-9755229.89 5135289.91 184.95
-9755233.22 5135295.37 181.28
-9755229.92 5135293.55 181.22
-9755230.81 5135295.70 181.24
-9755233.21 5135294.53 181.28
-9755232.01 5135297.45 181.23
-9755231.73 5135296.28 181.24
-9755229.65 5135295.95 181.19
-9755233.17 5135295.99 181.28
-9755229.68 5135298.68 181.17
-9755233.18 5135298.60 181.27
-9755232.95 5135295.69 181.28
-9755230.01 5135289.81 186.20
-9755233.84 5135284.48 186.91
-9755229.37 5135290.64 181.17
-9755232.06 5135288.69 189.63
-9755232.15 5135285.89 188.40
-9755233.85 5135285.44 185.21
-9755232.13 5135286.03 190.37
-9755229.67 5135286.58 189.14
-9755231.50 5135288.58 189.74
-9755233.25 5135288.81 181.25
-9755231.48 5135287.38 189.33
-9755229.93 5135288.21 188.69
-9755230.01 5135286.05 186.43
-9755231.87 5135285.23 189.84
-9755232.69 5135285.41 189.81
-9755233.75 5135288.69 184.71
-9755229.07 5135287.45 186.59
-9755233.83 5135288.31 181.24
-9755229.44 5135288.35 186.69
-9755233.16 5135284.05 186.77
-9755233.86 5135286.61 188.05
-9755232.33 5135283.82 181.16
-9755232.77 5135286.11 189.27
-9755229.56 5135284.57 185.68
-9755232.92 5135287.27 190.72
-9755229.97 5135285.84 189.33
-9755230.52 5135289.43 185.15
-9755231.38 5135288.10 190.85
-9755233.50 5135285.62 181.19
-9755230.94 5135284.85 188.31
-9755231.25 5135286.62 191.23
-9755230.31 5135288.22 187.25
-9755233.83 5135285.32 181.19
-9755231.25 5135287.83 191.16
-9755231.30 5135287.76 186.00
-9755231.58 5135288.16 189.74
-9755229.83 5135285.85 187.96
-9755232.77 5135284.00 187.33
-9755233.16 5135288.90 185.85
-9755230.50 5135288.36 186.13
-9755229.98 5135286.10 190.33
-9755230.45 5135288.61 186.13
-9755232.91 5135286.02 190.14
-9755231.34 5135288.67 189.74
-9755229.51 5135288.11 186.57
-9755232.17 5135285.45 186.88
-9755229.20 5135287.31 185.91
-9755231.37 5135287.30 189.67
-9755232.05 5135284.04 188.92
-9755230.38 5135285.47 189.10
-9755233.01 5135285.97 186.23
-9755232.39 5135285.01 188.32
-9755231.73 5135285.30 188.19
-9755229.37 5135285.55 187.58
-9755229.23 5135285.99 189.89
-9755233.81 5135287.02 187.96
-9755230.02 5135283.38 185.82
-9755229.43 5135286.80 184.90
-9755232.12 5135284.52 188.11
-9755233.30 5135285.60 188.58
-9755231.70 5135286.56 186.90
-9755229.87 5135284.17 185.72
-9755231.80 5135286.24 186.83
-9755231.81 5135286.33 189.89
-9755230.05 5135285.58 181.09
-9755233.80 5135287.65 181.23
-9755230.67 5135289.00 187.86
-9755232.99 5135288.17 189.56
-9755230.91 5135288.53 189.74
-9755230.11 5135286.91 189.78
-9755231.23 5135288.13 185.99
-9755231.20 5135289.64 185.07
-9755229.70 5135285.26 188.86
-9755231.12 5135288.78 187.41
-9755231.98 5135289.44 185.11
-9755231.00 5135284.76 187.52
-9755231.74 5135287.78 188.64
-9755231.80 5135283.82 181.15
-9755232.33 5135288.35 181.22
-9755233.24 5135284.71 187.50
-9755232.11 5135283.84 186.85
-9755230.36 5135284.92 188.15
-9755232.41 5135285.77 187.78
-9755230.03 5135287.99 187.21
-9755231.99 5135286.43 186.85
-9755230.64 5135289.43 188.05
-9755231.78 5135287.74 181.26
-9755232.77 5135284.99 188.49
-9755230.05 5135285.48 190.03
-9755229.71 5135285.30 181.06
-9755230.63 5135289.31 186.27
-9755229.70 5135283.80 181.05
-9755230.35 5135289.63 188.07
-9755230.73 5135286.10 190.09
-9755230.36 5135289.10 187.23
-9755229.66 5135286.26 188.32
-9755232.33 5135288.85 181.25
-9755231.88 5135285.96 186.84
-9755232.94 5135288.70 185.85
-9755231.90 5135284.04 187.28
-9755229.73 5135287.47 184.91
-9755232.40 5135285.86 187.18
-9755231.94 5135286.07 190.83
-9755232.38 5135285.67 181.17
-9755229.99 5135286.40 184.80
-9755232.19 5135288.42 190.94
-9755230.01 5135284.15 181.06
-9755232.14 5135289.37 189.56
-9755229.47 5135287.05 181.12
-9755231.71 5135289.81 183.75
-9755230.00 5135286.97 186.56
-9755232.45 5135289.14 186.01
-9755233.07 5135287.39 188.70
-9755231.50 5135284.77 181.12
-9755232.77 5135285.43 190.19
-9755233.74 5135283.78 186.75
-9755229.75 5135288.28 181.18
-9755229.46 5135285.75 190.05
-9755229.18 5135289.43 181.13
-9755232.42 5135285.29 189.26
-9755233.68 5135286.68 185.96
-9755230.28 5135285.57 181.11
-9755229.10 5135284.42 186.57
-9755231.32 5135289.30 189.80
-9755231.55 5135284.36 186.83
-9755230.20 5135287.32 188.48
-9755229.95 5135283.77 184.83
-9755231.72 5135289.49 181.25
-9755230.92 5135284.29 187.43
-9755231.79 5135286.21 189.24
-9755229.34 5135286.88 190.04
-9755233.26 5135286.95 186.07
-9755232.98 5135285.36 187.70
-9755232.28 5135285.17 187.71
-9755232.69 5135287.26 189.83
-9755230.28 5135286.96 189.88
-9755233.33 5135285.79 189.86
-9755230.90 5135283.88 181.10
-9755232.18 5135284.18 187.64
-9755233.24 5135285.38 181.18
-9755229.77 5135283.69 185.64
-9755230.43 5135284.21 185.42
-9755229.98 5135285.99 184.34
-9755231.02 5135286.88 190.77
-9755231.79 5135288.58 188.40
-9755229.23 5135286.63 190.04
-9755230.73 5135286.29 189.76
-9755231.63 5135288.61 189.07
-9755231.29 5135287.22 191.28
-9755230.11 5135288.26 189.93
-9755229.65 5135288.95 186.01
-9755229.80 5135289.20 187.28
-9755233.22 5135286.48 181.19
-9755232.01 5135288.64 181.23
-9755229.73 5135287.37 185.45
-9755231.63 5135288.05 190.66
-9755231.46 5135287.64 187.61
-9755231.69 5135285.40 187.05
-9755230.17 5135286.52 187.42
-9755231.79 5135288.63 181.23
-9755232.43 5135288.14 185.25
-9755232.42 5135283.68 186.80
-9755232.17 5135288.95 189.57
-9755229.24 5135287.06 190.38
-9755229.96 5135288.84 181.19
-9755229.55 5135286.68 184.36
-9755233.32 5135284.16 187.39
-9755231.79 5135287.08 189.40
-9755232.31 5135288.81 184.56
-9755230.00 5135287.73 181.18
-9755230.35 5135284.54 184.86
-9755230.14 5135287.79 185.93
-9755232.76 5135288.95 187.64
-9755231.49 5135287.50 191.38
-9755233.34 5135288.15 189.62
-9755230.40 5135288.11 190.19
-9755229.57 5135283.75 184.86
-9755232.77 5135283.64 186.71
-9755231.79 5135285.85 187.61
-9755229.12 5135285.74 186.05
-9755229.14 5135285.28 181.03
-9755229.08 5135288.90 181.07
-9755230.34 5135286.23 181.10
-9755232.03 5135288.16 189.49
-9755229.12 5135289.84 185.68
-9755229.66 5135283.32 184.86
-9755229.71 5135283.27 181.05
-9755232.42 5135289.13 189.20
-9755232.07 5135285.21 190.08
-9755230.98 5135287.10 191.23
-9755229.54 5135284.69 188.21
-9755232.50 5135283.83 187.31
-9755232.11 5135289.12 187.60
-9755232.05 5135285.23 188.58
-9755230.28 5135289.47 186.32
-9755229.70 5135286.93 185.47
-9755233.31 5135287.19 190.37
-9755232.99 5135284.50 188.59
-9755230.66 5135287.35 189.40
-9755229.49 5135286.63 190.19
-9755229.71 5135285.34 188.06
-9755232.55 5135289.58 185.57
-9755230.09 5135289.62 185.88
-9755229.42 5135287.78 186.41
-9755230.59 5135284.14 186.98
-9755230.10 5135288.90 187.54
-9755229.79 5135284.39 186.60
-9755229.85 5135284.90 186.96
-9755229.34 5135288.62 186.38
-9755233.07 5135286.02 184.41
-9755230.78 5135285.33 189.96
-9755231.57 5135289.83 187.99
-9755232.33 5135285.59 188.41
-9755231.84 5135286.35 190.50
-9755230.26 5135287.74 185.92
-9755230.14 5135284.67 188.21
-9755230.85 5135288.35 187.73
-9755231.30 5135288.15 190.16
-9755230.95 5135288.89 181.22
-9755231.45 5135289.20 181.23
-9755232.02 5135289.24 184.98
-9755232.20 5135284.93 187.90
-9755233.56 5135285.61 186.85
-9755230.41 5135286.38 190.48
-9755230.40 5135286.04 189.11
-9755230.95 5135285.31 181.12
-9755229.71 5135288.51 187.35
-9755231.18 5135287.80 190.51
-9755230.68 5135283.32 186.87
-9755232.75 5135288.54 187.31
-9755230.10 5135285.39 186.61
-9755231.24 5135288.29 181.24
-9755231.50 5135288.02 183.77
-9755231.67 5135288.87 183.65
-9755231.81 5135285.69 189.62
-9755230.66 5135284.51 184.85
-9755231.16 5135287.73 181.26
-9755229.71 5135287.39 181.16
-9755230.65 5135289.07 184.45
-9755229.24 5135285.47 187.68
-9755232.19 5135288.87 185.12
-9755232.47 5135286.39 189.27
-9755231.14 5135286.05 189.30
-9755232.83 5135289.65 184.62
-9755230.73 5135288.59 186.13
-9755230.82 5135289.05 186.20
-9755232.10 5135282.95 187.29
-9755231.60 5135283.91 186.75
-9755229.25 5135285.04 187.65
-9755229.24 5135284.97 188.86
-9755231.30 5135286.12 189.90
-9755232.17 5135289.56 187.84
-9755229.42 5135288.12 185.13
-9755229.72 5135288.94 187.32
-9755228.73 5135298.92 181.09
-9755227.24 5135303.90 181.16
-9755226.69 5135303.06 181.19
-9755223.39 5135305.39 181.25
-9755225.43 5135306.88 181.24
-9755224.57 5135302.76 181.20
-9755223.41 5135300.39 181.22
-9755228.46 5135299.51 181.10
-9755224.53 5135306.94 181.23
-9755226.01 5135305.16 181.21
-9755228.09 5135302.47 181.15
-9755224.57 5135304.55 181.22
-9755223.44 5135302.73 181.21
-9755226.92 5135306.93 181.20
-9755225.48 5135302.19 181.19
-9755226.97 5135304.51 181.18
-9755227.58 5135301.26 181.15
-9755224.62 5135301.29 181.21
-9755224.89 5135299.78 181.21
-9755224.04 5135303.67 181.20
-9755224.57 5135301.60 181.21
-9755223.39 5135305.73 181.25
-9755223.96 5135305.12 181.25
-9755227.82 5135305.44 181.16
-9755223.39 5135303.31 181.22
-9755226.92 5135302.81 181.18
-9755224.63 5135298.90 181.20
-9755227.85 5135306.89 181.16
-9755227.17 5135307.16 181.18
-9755225.17 5135308.36 181.24
-9755228.40 5135308.10 181.11
-9755223.37 5135309.51 181.25
-9755225.75 5135308.41 181.22
-9755224.00 5135307.16 181.25
-9755226.61 5135309.29 181.21
-9755228.30 5135309.90 181.13
-9755228.08 5135307.21 181.14
-9755226.63 5135308.40 181.20
-9755228.08 5135308.70 181.15
-9755222.58 5135303.66 181.22
-9755229.45 5135284.72 181.03
-9755223.13 5135299.16 181.21
-9755223.14 5135301.55 181.22
-9755222.24 5135298.90 181.23
-9755218.12 5135300.62 181.19
-9755223.10 5135304.51 181.24
-9755219.87 5135306.33 181.22
-9755216.58 5135305.39 181.16
-9755221.33 5135301.29 181.24
-9755218.72 5135299.46 181.22
-9755220.78 5135306.28 181.23
-9755216.66 5135300.94 181.16
-9755221.33 5135306.82 181.25
-9755215.19 5135301.22 181.12
-9755216.58 5135302.97 181.17
-9755216.89 5135302.75 181.18
-9755223.11 5135304.24 181.23
-9755223.14 5135300.99 181.21
-9755216.56 5135306.50 181.16
-9755222.51 5135305.40 181.24
-9755219.89 5135305.98 181.21
-9755219.59 5135302.74 181.20
-9755220.17 5135302.73 181.23
-9755216.36 5135302.13 181.16
-9755217.50 5135306.90 181.20
-9755220.72 5135300.08 181.23
-9755220.75 5135303.94 181.23
-9755218.99 5135302.10 181.18
-9755216.70 5135300.01 181.17
-9755220.80 5135300.98 181.23
-9755217.20 5135303.59 181.18
-9755222.48 5135300.43 181.22
-9755221.65 5135299.48 181.23
-9755215.78 5135300.59 181.15
-9755215.15 5135299.31 185.85
-9755217.82 5135304.52 181.18
-9755220.77 5135299.16 181.23
-9755220.44 5135306.00 181.23
-9755215.18 5135304.18 181.12
-9755216.06 5135304.51 181.14
-9755220.15 5135300.09 181.22
-9755215.50 5135298.84 181.13
-9755215.78 5135299.73 181.14
-9755220.19 5135304.51 181.23
-9755221.30 5135305.06 181.22
-9755215.15 5135306.88 181.09
-9755223.15 5135307.84 181.25
-9755215.73 5135309.54 186.98
-9755219.82 5135310.05 181.25
-9755215.42 5135309.24 187.17
-9755219.86 5135308.67 181.24
-9755215.21 5135308.66 186.97
-9755220.14 5135307.75 181.24
-9755219.84 5135309.24 181.24
-9755220.09 5135308.35 181.25
-9755217.52 5135308.59 181.20
-9755219.83 5135307.50 181.23
-9755215.65 5135308.02 181.12
-9755215.11 5135308.03 181.11
-9755219.28 5135308.62 181.22
-9755218.95 5135309.81 181.23
-9755214.88 5135307.12 186.83
-9755214.90 5135309.59 185.45
-9755214.25 5135309.07 189.54
-9755214.26 5135309.08 187.21
-9755214.92 5135309.63 185.23
-9755214.87 5135308.64 181.10
-9755214.59 5135309.43 187.35
-9755214.66 5135309.18 188.97
-9755214.55 5135309.39 189.52
-9755214.88 5135303.02 181.09
-9755213.03 5135306.27 186.71
-9755203.72 5135305.72 185.18
-9755206.98 5135301.80 184.90
-9755205.17 5135300.32 186.04
-9755206.36 5135304.80 185.99
-9755205.76 5135304.17 186.57
-9755207.15 5135301.19 184.96
-9755202.80 5135299.47 186.92
-9755212.75 5135306.64 186.87
-9755207.34 5135300.68 184.60
-9755206.90 5135305.38 185.68
-9755212.39 5135306.64 186.08
-9755207.51 5135305.94 185.57
-9755205.74 5135306.59 184.90
-9755203.07 5135300.93 185.63
-9755212.53 5135298.85 181.29
-9755204.54 5135301.87 184.93
-9755202.71 5135299.76 185.13
-9755214.31 5135301.48 181.08
-9755201.83 5135301.79 181.39
-9755206.58 5135299.21 185.17
-9755207.85 5135304.47 186.18
-9755202.33 5135301.16 187.70
-9755203.98 5135306.04 186.10
-9755214.85 5135304.18 181.09
-9755202.00 5135299.71 186.98
-9755206.56 5135305.63 186.50
-9755204.31 5135300.98 185.11
-9755204.89 5135299.74 186.09
-9755206.89 5135306.33 185.29
-9755202.88 5135305.10 185.63
-9755205.16 5135298.94 184.23
-9755206.45 5135302.66 185.23
-9755208.99 5135302.07 181.33
-9755205.69 5135300.71 185.05
-9755204.55 5135305.63 186.06
-9755213.12 5135306.64 185.67
-9755205.16 5135305.56 186.62
-9755203.76 5135300.22 186.11
-9755214.27 5135305.05 181.09
-9755204.36 5135300.01 185.93
-9755205.47 5135304.15 185.21
-9755206.11 5135298.84 186.00
-9755202.25 5135305.02 187.60
-9755204.23 5135302.43 185.39
-9755206.25 5135300.05 185.61
-9755204.03 5135302.14 185.59
-9755203.73 5135302.09 186.57
-9755205.21 5135299.48 186.06
-9755205.93 5135304.98 185.49
-9755207.74 5135302.89 185.17
-9755207.61 5135299.83 185.53
-9755204.07 5135305.57 186.06
-9755201.98 5135299.89 181.44
-9755201.94 5135303.51 188.02
-9755206.08 5135299.84 185.97
-9755202.64 5135301.34 186.56
-9755213.37 5135303.55 181.23
-9755205.41 5135299.10 185.10
-9755203.70 5135299.65 185.47
-9755206.42 5135306.69 184.74
-9755207.87 5135304.77 186.58
-9755212.31 5135306.53 185.24
-9755206.66 5135305.93 186.47
-9755202.32 5135299.39 186.40
-9755206.58 5135303.95 185.52
-9755203.19 5135303.95 186.02
-9755203.66 5135305.07 186.48
-9755206.64 5135299.38 186.64
-9755205.72 5135305.94 185.27
-9755212.78 5135305.37 181.29
-9755201.97 5135303.13 188.46
-9755203.94 5135303.46 185.07
-9755201.88 5135303.44 188.70
-9755207.18 5135302.19 185.51
-9755202.01 5135302.93 186.92
-9755205.40 5135305.26 185.36
-9755203.66 5135305.61 186.39
-9755203.58 5135306.26 185.13
-9755204.86 5135301.34 185.86
-9755214.29 5135298.86 181.08
-9755203.59 5135305.72 185.75
-9755206.83 5135302.78 185.21
-9755206.70 5135304.58 184.65
-9755203.14 5135301.11 186.55
-9755211.44 5135306.92 185.64
-9755204.54 5135299.53 185.08
-9755205.72 5135302.46 185.95
-9755204.02 5135306.27 186.04
-9755204.08 5135299.28 184.44
-9755205.92 5135306.77 181.41
-9755204.66 5135303.77 185.65
-9755203.08 5135302.30 187.37
-9755202.94 5135300.52 187.52
-9755202.02 5135300.04 184.81
-9755203.11 5135304.38 187.20
-9755210.44 5135301.16 181.31
-9755205.86 5135299.30 185.23
-9755206.40 5135298.82 185.17
-9755205.15 5135298.83 181.67
-9755211.90 5135302.07 181.32
-9755203.60 5135304.55 184.74
-9755203.60 5135302.93 181.47
-9755201.82 5135305.08 185.87
-9755204.79 5135299.37 185.58
-9755203.36 5135305.08 185.72
-9755206.70 5135301.56 184.99
-9755205.65 5135303.62 181.46
-9755210.74 5135303.57 181.31
-9755204.55 5135300.63 186.12
-9755208.39 5135305.78 185.49
-9755204.93 5135301.23 185.37
-9755208.40 5135304.17 185.69
-9755201.95 5135304.40 187.59
-9755202.84 5135299.70 185.56
-9755214.02 5135306.14 186.71
-9755203.51 5135301.08 181.61
-9755202.42 5135298.83 184.69
-9755202.73 5135306.58 185.75
-9755206.05 5135300.07 185.11
-9755206.02 5135302.77 185.15
-9755202.49 5135306.41 185.94
-9755210.45 5135304.44 181.31
-9755206.50 5135302.75 185.51
-9755207.80 5135304.42 181.45
-9755204.28 5135305.32 181.37
-9755205.15 5135298.91 191.09
-9755206.61 5135303.62 184.65
-9755203.65 5135301.33 181.58
-9755206.35 5135301.31 185.96
-9755202.50 5135304.83 185.94
-9755207.30 5135300.33 185.58
-9755205.11 5135305.55 186.04
-9755212.61 5135306.41 186.85
-9755206.41 5135303.34 184.37
-9755202.80 5135298.95 184.28
-9755204.42 5135300.72 185.67
-9755208.13 5135303.33 184.92
-9755207.80 5135303.95 185.78
-9755206.13 5135299.69 186.78
-9755203.14 5135303.76 188.11
-9755203.93 5135300.14 185.22
-9755206.08 5135299.72 185.35
-9755204.60 5135303.89 185.99
-9755206.86 5135303.44 185.15
-9755204.95 5135301.42 186.27
-9755213.12 5135306.23 185.59
-9755205.80 5135300.84 185.95
-9755203.43 5135304.64 181.37
-9755201.91 5135303.73 187.53
-9755203.65 5135300.94 185.93
-9755205.42 5135300.56 185.45
-9755202.73 5135305.65 185.38
-9755205.67 5135302.68 185.19
-9755204.03 5135298.79 186.02
-9755211.33 5135303.80 181.31
-9755204.07 5135303.03 187.22
-9755205.20 5135305.02 186.76
-9755203.31 5135305.91 186.36
-9755206.96 5135303.04 186.05
-9755211.66 5135305.86 184.21
-9755210.49 5135306.81 186.91
-9755211.91 5135304.47 181.31
-9755206.92 5135304.48 181.38
-9755211.91 5135305.35 181.31
-9755205.78 5135305.55 184.80
-9755205.21 5135300.89 184.82
-9755207.49 5135304.47 185.45
-9755204.54 5135301.92 183.98
-9755203.35 5135301.36 186.34
-9755210.11 5135306.81 181.31
-9755204.57 5135303.01 185.64
-9755205.67 5135300.51 186.29
-9755204.07 5135300.64 186.19
-9755201.87 5135304.71 181.34
-9755205.51 5135304.50 185.87
-9755206.65 5135300.90 185.59
-9755205.73 5135301.79 186.13
-9755214.28 5135299.72 181.09
-9755207.76 5135305.96 181.42
-9755204.77 5135299.80 185.08
-9755206.27 5135299.63 181.65
-9755204.59 5135298.74 181.65
-9755212.12 5135299.19 186.43
-9755204.59 5135298.75 184.78
-9755213.86 5135306.12 186.11
-9755202.98 5135301.25 185.57
-9755205.42 5135304.73 185.82
-9755204.56 5135300.55 184.96
-9755213.18 5135300.01 181.23
-9755202.98 5135306.39 184.67
-9755206.95 5135304.54 185.09
-9755203.91 5135298.93 184.79
-9755205.36 5135304.38 181.40
-9755202.76 5135303.30 181.41
-9755202.61 5135301.49 187.05
-9755202.58 5135304.96 186.45
-9755205.25 5135305.80 184.73
-9755211.93 5135304.74 181.32
-9755204.25 5135303.47 181.47
-9755204.32 5135303.29 186.23
-9755210.70 5135304.73 181.31
-9755205.77 5135298.77 185.64
-9755201.99 5135299.28 181.35
-9755204.46 5135305.93 181.43
-9755214.02 5135306.22 184.87
-9755203.67 5135304.47 185.37
-9755211.41 5135306.56 185.11
-9755205.88 5135305.08 184.72
-9755207.01 5135300.27 181.65
-9755205.36 5135305.43 185.66
-9755204.88 5135305.29 185.48
-9755201.90 5135304.38 185.76
-9755202.89 5135301.71 186.59
-9755203.88 5135303.79 185.08
-9755202.50 5135301.75 181.43
-9755207.24 5135306.26 181.40
-9755203.19 5135299.22 187.19
-9755201.90 5135302.01 188.44
-9755206.90 5135305.63 181.40
-9755201.89 5135305.57 185.43
-9755214.22 5135306.48 181.08
-9755201.93 5135302.03 187.10
-9755203.21 5135305.23 181.36
-9755204.59 5135299.88 186.05
-9755205.18 5135301.92 186.10
-9755207.58 5135299.17 185.51
-9755206.65 5135302.16 184.76
-9755206.07 5135306.66 185.00
-9755206.40 5135303.49 186.07
-9755202.23 5135300.03 185.81
-9755208.43 5135300.01 181.44
-9755212.46 5135305.46 185.04
-9755206.38 5135299.69 186.01
-9755202.53 5135305.33 185.66
-9755204.10 5135304.66 185.17
-9755204.26 5135300.62 181.66
-9755202.82 5135300.79 185.41
-9755206.03 5135303.85 185.51
-9755202.79 5135300.24 181.49
-9755203.60 5135300.51 181.58
-9755202.77 5135304.65 181.41
-9755201.99 5135300.56 186.89
-9755202.40 5135306.26 181.41
-9755204.88 5135299.69 181.66
-9755206.09 5135298.94 185.15
-9755202.10 5135306.54 186.00
-9755205.25 5135302.54 185.59
-9755202.49 5135302.06 185.84
-9755203.96 5135302.09 181.57
-9755210.17 5135300.57 181.33
-9755206.33 5135305.35 181.40
-9755205.40 5135306.12 181.42
-9755204.47 5135304.72 185.99
-9755204.51 5135299.16 185.18
-9755206.00 5135302.05 181.63
-9755213.61 5135305.96 181.19
-9755206.13 5135302.17 184.87
-9755203.46 5135304.12 181.37
-9755203.02 5135299.15 186.07
-9755203.10 5135298.71 181.56
-9755206.66 5135302.98 186.04
-9755201.91 5135302.92 187.66
-9755202.02 5135301.62 186.79
-9755207.04 5135299.65 186.24
-9755205.71 5135300.22 181.71
-9755202.75 5135302.13 185.90
-9755210.15 5135300.28 181.32
-9755201.94 5135304.62 187.62
-9755206.22 5135301.13 185.62
-9755211.78 5135306.58 185.31
-9755206.62 5135303.70 184.37
-9755205.49 5135303.02 184.79
-9755205.80 5135304.83 184.83
-9755204.87 5135302.26 181.65
-9755213.19 5135306.12 184.87
-9755212.78 5135306.18 181.29
-9755212.98 5135306.73 186.95
-9755203.39 5135299.71 185.47
-9755206.60 5135301.76 181.64
-9755206.38 5135303.91 185.15
-9755209.58 5135301.19 181.33
-9755206.18 5135300.32 190.82
-9755205.68 5135302.92 185.76
-9755204.27 5135303.70 181.38
-9755214.48 5135298.91 185.79
-9755211.03 5135306.63 185.15
-9755206.03 5135300.32 186.57
-9755204.37 5135303.20 181.47
-9755213.31 5135306.00 184.38
-9755213.55 5135306.57 184.78
-9755205.99 5135306.44 184.44
-9755203.69 5135300.06 184.44
-9755204.84 5135298.73 181.65
-9755207.47 5135299.39 185.46
-9755208.11 5135302.61 181.48
-9755202.48 5135300.50 181.45
-9755207.55 5135302.96 185.00
-9755214.23 5135305.37 181.09
-9755206.89 5135305.09 185.98
-9755202.73 5135299.47 185.60
-9755206.35 5135305.10 186.09
-9755211.63 5135306.23 181.30
-9755206.58 5135304.53 185.62
-9755202.15 5135300.81 185.94
-9755205.65 5135306.78 181.43
-9755206.07 5135300.70 186.20
-9755202.25 5135299.51 184.76
-9755206.28 5135305.90 186.63
-9755208.06 5135300.56 181.52
-9755204.94 5135305.98 185.46
-9755208.02 5135304.44 185.58
-9755213.40 5135304.82 181.22
-9755203.96 5135302.41 186.57
-9755204.91 5135300.12 185.85
-9755207.26 5135302.97 186.19
-9755205.28 5135300.29 185.83
-9755212.81 5135302.11 181.30
-9755204.60 5135304.43 185.34
-9755211.38 5135303.59 181.32
-9755207.44 5135303.44 190.38
-9755206.08 5135298.85 191.03
-9755202.75 5135299.09 185.53
-9755205.15 5135299.61 190.95
-9755213.39 5135305.37 181.21
-9755207.66 5135304.11 184.97
-9755205.77 5135304.74 181.42
-9755202.56 5135300.25 181.47
-9755201.95 5135298.82 185.36
-9755214.63 5135298.81 181.08
-9755205.17 5135302.16 190.53
-9755211.86 5135309.96 188.98
-9755210.27 5135308.88 186.61
-9755214.05 5135309.84 188.13
-9755211.54 5135309.22 186.75
-9755214.27 5135308.83 188.17
-9755213.43 5135307.62 188.94
-9755212.33 5135309.72 186.58
-9755202.39 5135310.10 181.32
-9755212.00 5135309.35 189.95
-9755211.90 5135309.61 186.43
-9755203.33 5135307.35 181.37
-9755210.76 5135309.78 186.98
-9755213.05 5135307.49 187.58
-9755212.14 5135309.25 189.45
-9755212.17 5135309.42 187.22
-9755214.31 5135308.30 187.28
-9755205.61 5135307.03 181.37
-9755210.33 5135308.11 185.98
-9755211.69 5135309.59 188.98
-9755206.26 5135309.47 181.38
-9755213.94 5135307.59 188.30
-9755212.48 5135309.82 181.30
-9755212.25 5135307.69 186.43
-9755205.97 5135308.31 181.39
-9755213.29 5135308.95 186.90
-9755205.16 5135309.14 181.37
-9755214.17 5135307.54 188.32
-9755210.95 5135308.69 185.04
-9755209.88 5135307.70 181.31
-9755211.84 5135308.30 181.33
-9755211.08 5135309.09 186.62
-9755210.99 5135309.14 188.19
-9755211.11 5135309.66 185.83
-9755212.25 5135307.12 187.25
-9755212.76 5135308.32 181.30
-9755210.79 5135308.37 185.70
-9755212.43 5135309.69 189.45
-9755209.91 5135308.33 186.27
-9755210.81 5135310.01 186.17
-9755212.51 5135308.34 189.45
-9755209.22 5135307.09 181.33
-9755208.56 5135308.54 181.42
-9755211.98 5135308.61 186.62
-9755210.88 5135308.77 185.83
-9755214.02 5135309.08 187.18
-9755214.02 5135307.65 187.82
-9755202.78 5135307.07 181.39
-9755213.11 5135309.08 188.95
-9755211.92 5135309.63 186.80
-9755212.39 5135308.67 186.12
-9755212.49 5135309.73 187.66
-9755211.08 5135307.41 185.77
-9755213.31 5135309.48 181.26
-9755211.91 5135307.20 186.82
-9755211.40 5135309.14 186.16
-9755206.89 5135308.26 181.39
-9755211.05 5135308.60 181.28
-9755213.92 5135308.35 188.63
-9755213.00 5135309.77 187.52
-9755214.03 5135309.79 185.72
-9755213.91 5135307.99 187.23
-9755211.63 5135309.73 187.65
-9755210.54 5135309.38 185.03
-9755212.80 5135307.67 181.26
-9755211.65 5135309.20 187.33
-9755206.37 5135307.17 189.76
-9755211.64 5135309.26 181.30
-9755208.65 5135309.45 181.41
-9755206.58 5135309.75 181.39
-9755214.00 5135307.94 188.33
-9755211.01 5135309.50 186.91
-9755213.36 5135308.90 181.24
-9755214.00 5135307.69 187.34
-9755212.47 5135307.45 189.45
-9755209.93 5135307.77 185.20
-9755214.83 5135309.30 181.08
-9755213.48 5135307.95 187.46
-9755210.76 5135307.52 186.10
-9755212.61 5135309.71 189.32
-9755212.43 5135307.71 188.79
-9755211.57 5135308.27 186.38
-9755213.04 5135309.16 186.56
-9755214.22 5135307.24 187.53
-9755210.78 5135309.59 185.02
-9755206.29 5135308.63 181.38
-9755210.18 5135308.03 186.69
-9755211.21 5135309.61 185.87
-9755207.71 5135309.42 189.61
-9755210.98 5135309.58 186.46
-9755209.22 5135309.17 181.31
-9755211.97 5135308.39 186.64
-9755210.38 5135309.46 181.30
-9755210.70 5135307.17 185.60
-9755202.45 5135309.72 181.34
-9755204.52 5135308.80 181.37
-9755211.37 5135309.85 186.03
-9755213.05 5135307.18 181.25
-9755212.57 5135307.55 186.16
-9755204.79 5135307.91 181.38
-9755210.42 5135307.97 181.31
-9755206.55 5135307.87 189.63
-9755213.05 5135308.00 181.25
-9755211.33 5135307.71 181.32
-9755211.19 5135310.23 184.04
-9755213.74 5135307.16 186.92
-9755212.46 5135307.61 188.57
-9755206.23 5135306.98 189.77
-9755211.09 5135309.32 185.11
-9755207.44 5135307.48 185.51
-9755206.22 5135307.94 181.41
-9755213.38 5135309.64 185.26
-9755210.80 5135308.12 185.72
-9755212.18 5135307.73 187.35
-9755212.61 5135309.39 189.62
-9755210.54 5135307.39 184.92
-9755211.87 5135307.69 181.32
-9755210.97 5135309.20 185.54
-9755206.95 5135307.35 184.42
-9755210.40 5135309.83 186.77
-9755204.23 5135307.12 186.24
-9755226.41 5135291.21 181.14
-9755228.81 5135292.42 181.06
-9755226.68 5135292.95 181.13
-9755225.00 5135292.43 181.17
-9755226.15 5135292.77 181.15
-9755223.49 5135290.61 181.17
-9755228.79 5135290.95 181.06
-9755227.06 5135290.91 181.12
-9755227.03 5135292.72 181.12
-9755224.67 5135293.26 181.19
-9755229.32 5135297.79 181.12
-9755227.01 5135293.60 181.14
-9755223.77 5135297.14 181.20
-9755226.36 5135297.42 181.16
-9755223.24 5135294.69 196.25
-9755225.79 5135297.47 181.19
-9755227.87 5135294.49 181.10
-9755224.65 5135297.99 181.18
-9755224.13 5135293.99 196.18
-9755225.51 5135296.82 181.18
-9755215.93 5135292.49 196.86
-9755218.19 5135290.83 181.18
-9755216.77 5135292.27 195.90
-9755218.87 5135290.38 197.11
-9755217.10 5135292.77 196.61
-9755222.41 5135293.46 196.00
-9755219.73 5135291.92 195.21
-9755217.98 5135291.86 197.04
-9755215.16 5135291.25 192.02
-9755220.06 5135292.54 195.31
-9755216.68 5135291.77 181.15
-9755216.14 5135292.16 195.77
-9755221.37 5135291.47 181.22
-9755218.20 5135292.69 181.21
-9755216.46 5135293.17 197.72
-9755218.91 5135292.31 195.02
-9755215.85 5135291.96 194.93
-9755218.43 5135290.51 195.91
-9755222.07 5135292.36 194.49
-9755218.12 5135293.34 197.55
-9755216.83 5135293.04 195.16
-9755220.01 5135290.67 194.62
-9755218.02 5135290.76 196.43
-9755218.86 5135291.59 196.21
-9755216.56 5135290.95 196.37
-9755218.39 5135290.74 196.93
-9755220.07 5135292.79 195.35
-9755216.70 5135292.89 194.57
-9755218.30 5135292.73 197.30
-9755216.43 5135292.76 194.88
-9755217.22 5135293.06 197.58
-9755219.78 5135290.23 188.68
-9755215.39 5135292.25 194.63
-9755217.41 5135291.16 193.66
-9755215.43 5135292.78 194.81
-9755218.33 5135292.62 195.01
-9755222.55 5135290.62 181.20
-9755217.43 5135291.67 196.10
-9755216.64 5135292.81 193.65
-9755215.96 5135291.10 196.72
-9755222.18 5135292.86 194.62
-9755215.95 5135290.78 195.19
-9755220.87 5135292.44 191.45
-9755221.28 5135293.63 193.73
-9755217.21 5135293.41 194.85
-9755218.14 5135290.82 196.71
-9755216.63 5135292.86 194.37
-9755215.30 5135292.31 189.76
-9755216.25 5135291.93 195.18
-9755218.73 5135292.04 181.21
-9755218.02 5135291.21 197.14
-9755221.71 5135292.94 181.21
-9755215.56 5135292.05 181.10
-9755216.76 5135290.91 195.56
-9755215.64 5135293.43 196.59
-9755216.15 5135291.15 181.13
-9755216.73 5135289.99 195.98
-9755218.20 5135290.12 196.71
-9755218.03 5135290.33 195.72
-9755221.72 5135293.21 195.91
-9755221.24 5135292.37 194.55
-9755220.52 5135292.89 194.47
-9755219.83 5135291.97 193.28
-9755222.15 5135293.16 195.71
-9755217.14 5135290.35 192.77
-9755219.24 5135293.05 196.40
-9755217.27 5135291.14 181.19
-9755218.90 5135292.26 191.87
-9755216.95 5135291.90 196.17
-9755216.78 5135292.64 196.13
-9755217.20 5135290.20 193.78
-9755218.61 5135293.05 195.28
-9755217.32 5135293.16 196.46
-9755216.24 5135290.52 195.55
-9755219.44 5135292.79 196.82
-9755222.34 5135290.88 181.19
-9755221.56 5135292.30 188.38
-9755216.77 5135290.33 194.36
-9755220.09 5135289.91 194.08
-9755219.37 5135291.50 181.21
-9755219.68 5135293.42 196.86
-9755218.01 5135292.24 194.93
-9755222.32 5135293.32 181.21
-9755217.58 5135293.21 181.18
-9755218.07 5135290.86 193.83
-9755221.52 5135292.67 193.33
-9755219.25 5135291.92 195.18
-9755216.12 5135292.92 189.76
-9755216.80 5135291.52 197.09
-9755216.82 5135291.05 196.02
-9755220.80 5135293.48 189.69
-9755219.17 5135290.69 196.10
-9755217.13 5135291.35 195.33
-9755222.88 5135291.50 181.20
-9755218.91 5135291.81 191.89
-9755215.28 5135291.30 192.06
-9755215.67 5135290.56 191.80
-9755217.52 5135289.94 195.63
-9755216.43 5135292.96 188.68
-9755218.19 5135289.97 181.17
-9755217.49 5135292.12 193.22
-9755220.81 5135293.29 181.23
-9755217.66 5135291.42 193.80
-9755220.51 5135290.32 181.21
-9755219.12 5135290.24 194.27
-9755221.63 5135292.93 195.15
-9755217.10 5135293.39 196.41
-9755217.11 5135293.25 194.44
-9755216.12 5135290.60 195.96
-9755214.75 5135291.91 195.81
-9755214.69 5135292.18 196.43
-9755214.65 5135290.43 196.36
-9755214.73 5135293.11 191.12
-9755215.07 5135290.90 193.22
-9755215.00 5135291.69 196.35
-9755218.78 5135292.25 189.62
-9755217.93 5135293.63 197.55
-9755221.40 5135293.48 194.58
-9755218.96 5135296.83 196.76
-9755221.52 5135294.71 194.64
-9755220.56 5135295.19 194.51
-9755219.76 5135294.29 197.15
-9755216.89 5135294.58 197.61
-9755219.90 5135294.39 196.55
-9755220.60 5135296.16 196.25
-9755221.42 5135294.89 194.96
-9755220.54 5135296.66 195.83
-9755217.96 5135293.22 181.17
-9755218.86 5135295.09 196.36
-9755217.21 5135295.53 187.40
-9755221.29 5135295.51 196.05
-9755216.56 5135293.85 189.39
-9755216.45 5135297.73 185.84
-9755220.60 5135295.82 195.89
-9755220.53 5135295.54 196.60
-9755216.86 5135295.75 195.04
-9755215.94 5135295.35 196.51
-9755218.87 5135295.88 194.91
-9755217.69 5135293.94 196.79
-9755215.81 5135294.08 186.18
-9755222.13 5135295.95 195.14
-9755215.26 5135295.52 187.45
-9755220.29 5135295.31 195.89
-9755216.60 5135296.45 188.03
-9755215.87 5135293.84 196.62
-9755223.04 5135294.68 193.67
-9755217.18 5135294.70 196.73
-9755216.87 5135293.86 197.63
-9755221.11 5135294.37 189.69
-9755216.34 5135297.91 181.16
-9755220.57 5135296.34 195.09
-9755221.75 5135296.02 195.55
-9755217.18 5135293.53 195.58
-9755219.29 5135295.63 181.20
-9755222.18 5135293.24 194.67
-9755221.31 5135293.65 195.03
-9755222.35 5135294.09 194.85
-9755215.19 5135296.18 181.12
-9755222.76 5135293.57 195.08
-9755216.35 5135295.31 181.17
-9755220.03 5135296.66 194.95
-9755221.83 5135294.78 196.33
-9755216.13 5135295.91 187.60
-9755217.54 5135297.41 188.21
-9755220.05 5135293.73 194.98
-9755220.47 5135294.01 194.26
-9755216.55 5135296.18 187.22
-9755222.64 5135294.71 193.81
-9755215.26 5135294.44 181.12
-9755218.51 5135294.90 196.98
-9755220.97 5135293.82 194.02
-9755216.82 5135295.66 188.49
-9755220.91 5135295.61 194.88
-9755217.42 5135295.13 197.44
-9755222.49 5135294.81 193.57
-9755218.82 5135296.55 194.28
-9755218.22 5135295.36 187.98
-9755220.56 5135294.71 194.41
-9755219.34 5135296.12 194.31
-9755216.48 5135295.10 196.26
-9755216.46 5135296.86 187.52
-9755215.16 5135294.13 181.10
-9755216.71 5135293.98 189.43
-9755221.46 5135296.40 195.42
-9755218.30 5135296.51 188.46
-9755215.94 5135294.42 195.95
-9755222.84 5135295.15 195.78
-9755222.91 5135294.53 196.32
-9755222.15 5135294.33 196.30
-9755218.88 5135294.48 196.80
-9755215.78 5135295.91 186.06
-9755218.40 5135294.29 195.78
-9755216.67 5135297.67 181.17
-9755222.09 5135296.43 192.84
-9755222.04 5135295.68 195.61
-9755217.43 5135295.66 193.25
-9755218.38 5135295.27 187.32
-9755218.26 5135294.94 194.79
-9755218.04 5135296.03 196.60
-9755220.98 5135294.29 196.06
-9755219.70 5135293.87 189.68
-9755217.91 5135296.70 188.36
-9755218.13 5135295.68 181.20
-9755218.93 5135293.81 196.24
-9755221.83 5135294.38 194.73
-9755217.66 5135295.20 194.90
-9755218.53 5135295.51 197.04
-9755215.89 5135294.81 195.65
-9755217.71 5135295.71 196.48
-9755219.80 5135294.24 195.18
-9755215.34 5135293.69 196.58
-9755221.19 5135296.20 195.30
