-9755431.16 5135479.96 197.48
-9755430.90 5135479.93 197.47
-9755430.06 5135476.64 197.74
-9755431.74 5135485.26 197.35
-9755430.19 5135484.88 187.25
-9755429.45 5135482.34 196.58
-9755430.58 5135477.57 197.79
-9755429.09 5135483.94 187.07
-9755432.30 5135479.38 198.44
-9755432.12 5135484.08 197.47
-9755428.50 5135483.14 186.93
-9755432.46 5135480.51 197.92
-9755431.50 5135477.90 197.92
-9755428.77 5135482.22 187.09
-9755428.31 5135484.40 196.68
-9755430.76 5135478.38 197.90
-9755428.89 5135474.65 196.25
-9755429.22 5135473.36 197.88
-9755433.24 5135483.18 197.93
-9755431.54 5135474.96 196.34
-9755432.39 5135478.72 197.93
-9755429.46 5135476.99 197.42
-9755434.37 5135484.99 198.53
-9755432.37 5135478.33 198.57
-9755429.67 5135481.64 187.30
-9755429.31 5135482.47 187.14
-9755431.51 5135478.75 197.92
-9755431.59 5135476.84 198.50
-9755433.25 5135481.20 198.55
-9755432.43 5135481.68 197.92
-9755432.48 5135481.38 197.93
-9755432.10 5135479.93 197.92
-9755429.57 5135473.36 197.90
-9755432.35 5135478.44 198.55
-9755434.14 5135484.11 198.59
-9755430.00 5135480.25 197.03
-9755428.89 5135477.00 197.81
-9755428.29 5135479.38 196.58
-9755432.40 5135483.04 197.95
-9755428.18 5135481.54 187.10
-9755427.01 5135485.51 186.58
-9755428.26 5135483.23 196.13
-9755427.97 5135479.90 196.53
-9755428.23 5135481.12 196.10
-9755428.21 5135483.68 186.86
-9755428.28 5135479.06 196.58
-9755428.14 5135478.64 187.27
-9755426.68 5135479.54 186.87
-9755426.98 5135480.71 186.88
-9755427.44 5135474.30 197.02
-9755426.02 5135483.99 186.43
-9755426.25 5135473.35 187.29
-9755427.28 5135479.52 187.05
-9755426.68 5135476.56 187.14
-9755426.96 5135474.17 187.31
-9755427.12 5135482.18 187.34
-9755427.11 5135475.85 196.18
-9755426.73 5135478.22 196.26
-9755427.69 5135477.86 196.62
-9755428.00 5135474.94 196.23
-9755427.89 5135477.43 187.32
-9755427.85 5135478.97 187.08
-9755428.22 5135480.42 187.09
-9755426.49 5135474.12 187.24
-9755428.25 5135476.76 196.20
-9755426.10 5135477.43 186.99
-9755427.13 5135481.46 196.70
-9755427.53 5135479.85 187.46
-9755428.26 5135477.25 196.93
-9755426.99 5135476.31 187.24
-9755427.46 5135473.10 197.07
-9755427.81 5135478.25 187.13
-9755427.29 5135480.69 186.89
-9755427.07 5135482.17 196.60
-9755427.02 5135477.43 187.14
-9755427.71 5135473.34 197.26
-9755427.27 5135478.37 187.09
-9755427.41 5135475.80 196.20
-9755427.19 5135478.68 196.33
-9755426.97 5135483.38 186.64
-9755427.60 5135477.75 187.21
-9755425.89 5135471.64 196.59
-9755425.00 5135472.74 187.09
-9755425.79 5135472.68 187.19
-9755424.79 5135470.44 196.58
-9755425.85 5135472.14 187.31
-9755424.18 5135471.41 186.99
-9755424.99 5135470.26 187.25
-9755425.84 5135471.82 187.31
-9755425.38 5135470.47 196.58
-9755425.73 5135472.45 187.14
-9755425.00 5135472.18 187.09
-9755425.34 5135472.55 196.13
-9755424.34 5135484.89 186.41
-9755425.01 5135482.77 186.27
-9755425.89 5135475.38 187.09
-9755424.65 5135473.29 186.89
-9755424.98 5135473.61 187.42
-9755424.67 5135474.19 186.87
-9755424.28 5135484.02 186.14
-9755425.21 5135482.78 186.42
-9755425.83 5135477.47 186.93
-9755426.21 5135474.12 187.11
-9755425.66 5135476.67 196.71
-9755424.96 5135476.89 186.77
-9755426.09 5135479.13 187.39
-9755425.93 5135475.82 196.15
-9755424.96 5135478.95 186.64
-9755424.95 5135483.40 186.22
-9755425.02 5135476.63 196.15
-9755424.18 5135473.63 196.69
-9755424.59 5135475.70 186.68
-9755425.29 5135477.73 186.79
-9755425.86 5135479.51 186.68
-9755425.26 5135475.26 187.46
-9755425.79 5135482.49 186.45
-9755424.92 5135481.96 186.39
-9755425.80 5135483.13 186.43
-9755425.18 5135484.85 186.21
-9755426.13 5135480.71 186.66
-9755425.00 5135475.40 186.87
-9755424.70 5135477.41 186.69
-9755424.34 5135484.34 186.21
-9755425.66 5135474.90 196.28
-9755424.91 5135481.60 186.43
-9755425.15 5135479.85 187.11
-9755415.13 5135492.62 183.92
-9755422.50 5135489.00 185.54
-9755415.08 5135495.32 183.76
-9755421.04 5135488.15 185.31
-9755417.59 5135486.77 185.28
-9755418.06 5135493.86 184.74
-9755421.00 5135490.26 185.13
-9755423.91 5135495.54 185.36
-9755423.97 5135490.23 185.74
-9755417.79 5135490.25 184.54
-9755421.02 5135488.72 185.22
-9755420.44 5135489.36 185.13
-9755416.01 5135486.96 184.46
-9755422.47 5135495.58 185.15
-9755423.38 5135489.95 185.57
-9755422.09 5135492.55 185.71
-9755421.30 5135491.48 185.14
-9755415.13 5135491.73 183.96
-9755415.13 5135495.60 183.73
-9755420.03 5135492.59 185.41
-9755420.45 5135487.26 185.22
-9755419.26 5135493.56 184.70
-9755415.40 5135489.38 184.22
-9755417.74 5135489.36 184.64
-9755421.31 5135490.83 185.14
-9755423.39 5135494.36 185.38
-9755417.25 5135492.23 184.92
-9755414.85 5135494.12 183.79
-9755416.25 5135495.57 183.94
-9755420.73 5135492.34 184.95
-9755420.36 5135490.79 184.95
-9755422.51 5135493.53 185.18
-9755418.06 5135491.45 184.53
-9755417.21 5135493.84 184.31
-9755416.87 5135486.94 184.52
-9755423.44 5135492.28 185.43
-9755417.70 5135495.55 184.29
-9755416.32 5135486.66 184.51
-9755423.73 5135487.57 185.81
-9755422.55 5135487.88 185.59
-9755423.27 5135489.01 186.14
-9755416.57 5135492.66 184.16
-9755419.59 5135486.57 185.51
-9755417.15 5135492.93 184.31
-9755418.78 5135492.15 185.13
-9755423.04 5135492.31 185.37
-9755422.42 5135492.87 185.29
-9755415.08 5135488.17 184.14
-9755423.95 5135488.13 185.78
-9755420.09 5135495.57 184.72
-9755421.63 5135492.32 185.15
-9755420.92 5135492.17 185.47
-9755419.87 5135491.40 184.92
-9755415.12 5135495.87 183.74
-9755416.02 5135490.60 184.21
-9755422.21 5135496.27 185.53
-9755421.91 5135488.48 185.38
-9755420.41 5135495.60 184.77
-9755422.44 5135490.20 185.37
-9755422.45 5135492.28 185.31
-9755418.39 5135493.52 184.53
-9755421.94 5135491.37 185.21
-9755415.06 5135494.99 183.79
-9755421.01 5135492.31 184.96
-9755414.90 5135487.21 184.20
-9755422.57 5135490.22 185.97
-9755421.12 5135491.66 185.75
-9755420.45 5135492.02 184.95
-9755419.24 5135490.60 184.75
-9755415.09 5135486.72 184.85
-9755412.21 5135489.39 183.59
-9755414.22 5135487.92 184.10
-9755414.62 5135494.74 184.27
-9755414.70 5135487.23 184.69
-9755413.97 5135491.49 183.85
-9755413.89 5135494.15 183.71
-9755411.86 5135493.50 183.36
-9755413.10 5135486.67 183.93
-9755413.38 5135491.15 183.76
-9755413.02 5135488.83 183.72
-9755412.68 5135494.75 183.38
-9755414.23 5135495.67 184.16
-9755412.73 5135488.17 183.74
-9755411.86 5135492.00 183.48
-9755412.16 5135495.00 183.36
-9755412.89 5135493.13 184.13
-9755413.59 5135487.84 184.40
-9755413.40 5135486.94 183.94
-9755412.44 5135489.38 183.71
-9755411.90 5135489.98 183.55
-9755411.83 5135494.74 183.34
-9755412.17 5135488.77 183.71
-9755414.29 5135492.28 183.86
-9755413.98 5135487.29 184.10
-9755413.03 5135493.51 183.53
-9755412.13 5135492.70 183.39
-9755414.22 5135492.65 183.75
-9755414.20 5135488.57 183.98
-9755414.22 5135492.62 184.22
-9755405.95 5135488.11 183.25
-9755410.10 5135490.28 183.29
-9755410.94 5135494.98 183.16
-9755409.23 5135493.54 182.94
-9755409.77 5135488.15 183.32
-9755410.96 5135494.76 183.17
-9755404.81 5135493.24 182.25
-9755402.09 5135491.45 182.44
-9755405.98 5135487.90 183.34
-9755406.30 5135489.95 182.62
-9755407.73 5135489.34 182.94
-9755402.75 5135495.50 182.44
-9755405.65 5135495.58 182.22
-9755406.90 5135491.45 182.60
-9755401.64 5135488.12 182.63
-9755408.85 5135495.64 182.77
-9755407.14 5135493.57 182.60
-9755407.97 5135487.35 183.37
-9755406.54 5135491.39 182.59
-9755407.73 5135487.88 182.97
-9755406.91 5135490.83 183.30
-9755409.23 5135487.33 183.33
-9755406.24 5135489.39 182.64
-9755408.66 5135488.20 183.16
-9755409.21 5135489.39 183.14
-9755402.76 5135487.02 182.25
-9755409.48 5135489.37 183.15
-9755404.81 5135492.98 182.25
-9755402.73 5135490.60 182.03
-9755404.46 5135494.41 182.11
-9755407.79 5135491.45 182.81
-9755402.97 5135492.69 181.98
-9755404.79 5135487.86 182.58
-9755401.52 5135489.96 181.88
-9755404.21 5135488.21 182.43
-9755410.35 5135494.73 182.98
-9755408.87 5135494.74 182.78
-9755406.88 5135488.79 182.79
-9755406.83 5135490.59 183.29
-9755403.67 5135488.16 182.40
-9755408.63 5135494.13 183.29
-9755407.19 5135487.31 182.96
-9755404.20 5135490.56 182.25
-9755407.73 5135486.78 183.12
-9755403.94 5135488.25 182.42
-9755401.57 5135487.91 182.04
-9755409.54 5135493.29 182.96
-9755406.82 5135496.21 182.43
-9755403.90 5135492.67 182.64
-9755404.76 5135495.57 182.05
-9755410.70 5135488.17 183.54
-9755405.07 5135490.27 182.43
-9755406.26 5135490.58 182.60
-9755402.05 5135491.51 181.85
-9755408.56 5135496.23 182.62
-9755409.49 5135490.25 183.14
-9755401.86 5135491.09 182.44
-9755408.08 5135494.01 183.28
-9755411.01 5135488.79 183.52
-9755403.57 5135491.80 182.06
-9755401.89 5135489.75 182.05
-9755407.45 5135488.19 182.95
-9755408.59 5135489.11 183.00
-9755404.77 5135492.31 182.22
-9755407.75 5135487.30 182.98
-9755405.05 5135495.64 182.66
-9755402.40 5135491.40 182.50
-9755410.74 5135487.31 183.54
-9755409.74 5135494.73 182.95
-9755406.85 5135487.90 182.81
-9755410.08 5135496.21 182.96
-9755402.10 5135494.74 181.76
-9755408.84 5135489.84 183.65
-9755404.54 5135490.27 182.40
-9755407.78 5135494.77 183.21
-9755410.19 5135495.21 183.52
-9755404.42 5135496.18 182.02
-9755409.77 5135492.38 183.13
-9755404.48 5135488.19 182.44
-9755407.76 5135488.20 182.96
-9755402.73 5135495.88 182.24
-9755401.54 5135489.43 181.90
-9755401.80 5135493.56 181.74
-9755400.93 5135488.17 181.87
-9755400.66 5135488.22 181.87
-9755399.70 5135495.36 181.74
-9755400.66 5135488.47 181.87
-9755399.47 5135490.62 181.51
-9755400.07 5135488.51 181.75
-9755399.49 5135495.04 181.29
-9755400.69 5135492.02 181.66
-9755400.07 5135487.29 181.87
-9755400.96 5135491.48 181.71
-9755400.38 5135496.26 181.65
-9755399.47 5135486.99 181.79
-9755399.80 5135489.04 181.69
-9755399.67 5135492.00 182.05
-9755399.15 5135489.31 182.14
-9755399.42 5135493.57 181.65
-9755398.65 5135489.39 181.53
-9755398.59 5135491.14 181.72
-9755399.38 5135488.88 182.19
-9755422.15 5135485.80 186.12
-9755415.12 5135486.15 184.31
-9755411.31 5135486.45 183.71
-9755412.59 5135486.50 184.52
-9755412.83 5135486.03 184.39
-9755420.81 5135486.39 185.33
-9755415.45 5135486.14 184.33
-9755420.42 5135486.39 185.23
-9755423.72 5135486.41 185.89
-9755422.54 5135486.38 185.68
-9755416.13 5135472.46 185.43
-9755423.37 5135471.90 196.59
-9755423.85 5135471.45 187.47
-9755424.16 5135472.54 187.48
-9755419.67 5135472.65 186.09
-9755420.87 5135470.30 186.43
-9755419.96 5135471.51 186.22
-9755415.31 5135470.04 185.36
-9755420.85 5135472.08 186.31
-9755415.52 5135472.43 185.32
-9755418.48 5135472.13 185.90
-9755420.86 5135471.28 186.39
-9755419.68 5135470.61 186.19
-9755422.03 5135471.48 186.62
-9755416.74 5135470.68 186.16
-9755419.13 5135470.87 186.55
-9755419.33 5135471.22 186.12
-9755416.15 5135472.15 185.92
-9755415.54 5135470.14 185.44
-9755418.80 5135471.50 186.00
-9755422.03 5135470.89 186.66
-9755415.50 5135471.53 185.33
-9755423.59 5135471.62 196.14
-9755422.64 5135470.08 186.80
-9755420.24 5135471.26 186.30
-9755423.48 5135471.25 186.88
-9755419.97 5135470.06 186.25
-9755414.66 5135472.43 185.12
-9755412.75 5135472.11 185.36
-9755412.58 5135470.98 184.93
-9755414.34 5135470.40 185.84
-9755413.66 5135471.67 184.95
-9755413.37 5135470.05 185.75
-9755414.38 5135472.16 185.12
-9755412.00 5135471.26 184.72
-9755414.00 5135472.18 185.09
-9755411.45 5135471.86 184.64
-9755411.42 5135470.96 184.70
-9755421.03 5135484.92 185.43
-9755418.14 5135484.90 184.92
-9755423.67 5135476.63 186.46
-9755418.40 5135478.64 185.37
-9755422.56 5135481.93 186.00
-9755417.26 5135484.90 184.74
-9755419.25 5135473.55 186.36
-9755415.20 5135473.34 185.19
-9755423.72 5135484.89 185.99
-9755420.73 5135484.89 185.35
-9755421.97 5135485.20 185.57
-9755416.35 5135476.59 185.15
-9755420.79 5135482.79 185.57
-9755420.49 5135481.66 185.57
-9755415.51 5135474.19 185.17
-9755416.37 5135477.80 185.14
-9755419.03 5135484.00 185.66
-9755421.16 5135473.84 186.71
-9755423.40 5135481.56 186.19
-9755421.77 5135476.89 186.21
-9755420.22 5135483.97 185.37
-9755418.49 5135478.26 186.08
-9755422.58 5135482.82 186.00
-9755421.58 5135480.77 186.31
-9755421.75 5135475.05 186.23
-9755420.79 5135481.09 185.63
-9755418.41 5135479.88 185.38
-9755415.50 5135476.57 184.97
-9755421.14 5135485.26 185.95
-9755422.54 5135473.36 186.46
-9755416.72 5135476.47 185.76
-9755423.40 5135482.03 186.07
-9755420.47 5135478.13 186.33
-9755419.36 5135478.61 186.23
-9755415.14 5135478.09 184.93
-9755419.60 5135482.27 185.36
-9755422.32 5135475.75 186.28
-9755419.34 5135473.39 186.53
-9755422.97 5135477.12 186.40
-9755418.28 5135483.25 185.73
-9755422.88 5135476.55 186.42
-9755419.94 5135482.85 185.36
-9755419.27 5135484.02 185.15
-9755420.48 5135476.62 185.98
-9755414.78 5135484.00 184.37
-9755420.00 5135473.17 186.55
-9755415.49 5135474.52 185.15
-9755417.59 5135477.49 185.36
-9755419.63 5135475.05 185.84
-9755422.57 5135480.45 186.01
-9755422.22 5135481.64 185.96
-9755422.50 5135479.86 186.03
-9755416.69 5135479.56 185.06
-9755420.85 5135476.61 186.00
-9755415.77 5135476.58 185.72
-9755417.53 5135478.66 185.22
-9755420.46 5135477.29 185.89
-9755416.12 5135474.53 185.32
-9755415.18 5135474.18 185.13
-9755417.48 5135483.16 184.94
-9755424.06 5135481.94 186.21
-9755418.47 5135475.56 186.12
-9755417.86 5135473.35 185.70
-9755416.32 5135484.64 184.60
-9755418.46 5135474.85 185.60
-9755420.50 5135481.32 185.57
-9755422.61 5135478.03 186.29
-9755421.32 5135482.60 185.62
-9755420.82 5135474.19 186.21
-9755415.78 5135478.69 184.94
-9755418.43 5135484.21 185.12
-9755421.70 5135478.35 186.10
-9755423.81 5135476.75 186.60
-9755417.30 5135478.67 185.15
-9755420.53 5135476.85 186.00
-9755421.36 5135477.17 186.63
-9755416.27 5135484.86 184.55
-9755423.74 5135474.78 186.65
-9755422.60 5135475.38 186.46
-9755421.74 5135475.39 186.24
-9755419.65 5135473.32 186.00
-9755419.54 5135481.09 185.95
-9755415.45 5135481.61 184.73
-9755419.92 5135479.53 185.70
-9755423.18 5135484.86 185.79
-9755419.34 5135479.51 185.57
-9755421.04 5135475.33 186.06
-9755421.67 5135483.37 185.78
-9755423.85 5135479.53 186.40
-9755423.22 5135475.31 186.46
-9755421.73 5135481.63 185.80
-9755415.80 5135475.40 185.13
-9755419.67 5135478.33 185.68
-9755417.21 5135477.83 185.22
-9755418.77 5135478.31 186.08
-9755422.51 5135476.58 186.26
-9755415.15 5135481.98 184.65
-9755423.48 5135477.48 186.46
-9755424.09 5135472.95 186.87
-9755415.16 5135482.81 184.55
-9755420.88 5135481.59 185.62
-9755415.43 5135475.75 185.68
-9755418.17 5135477.25 185.50
-9755424.11 5135476.51 186.63
-9755421.47 5135477.48 186.60
-9755414.28 5135482.85 184.79
-9755412.50 5135480.75 184.20
-9755413.46 5135475.10 184.75
-9755412.80 5135478.73 184.35
-9755411.63 5135473.38 184.51
-9755411.82 5135478.30 184.83
-9755413.49 5135476.35 185.07
-9755412.83 5135479.89 184.33
-9755414.65 5135475.11 184.93
-9755413.43 5135476.35 184.71
-9755412.81 5135477.44 184.52
-9755412.21 5135483.12 184.05
-9755413.42 5135477.68 185.05
-9755412.90 5135476.56 184.52
-9755412.21 5135481.61 184.16
-9755412.22 5135477.75 184.91
-9755412.26 5135482.52 184.12
-9755411.95 5135477.47 184.74
-9755411.61 5135478.70 184.67
-9755414.05 5135478.15 185.18
-9755414.03 5135478.74 184.56
-9755414.31 5135476.72 185.35
-9755411.83 5135481.03 184.64
-9755412.00 5135475.38 184.50
-9755412.25 5135477.79 184.33
-9755413.54 5135479.71 185.07
-9755413.47 5135477.13 184.58
-9755412.24 5135478.96 184.32
-9755413.09 5135481.60 184.33
-9755412.00 5135473.69 184.57
-9755413.37 5135483.99 184.72
-9755414.32 5135483.74 184.33
-9755404.86 5135486.40 182.62
-9755411.05 5135485.54 183.72
-9755407.47 5135485.86 183.08
-9755410.10 5135485.81 183.53
-9755404.79 5135485.85 182.66
-9755408.12 5135486.02 183.59
-9755403.89 5135486.10 182.53
-9755408.45 5135485.81 183.69
-9755409.60 5135485.70 184.03
-9755400.66 5135485.54 182.05
-9755399.77 5135485.26 181.87
-9755401.24 5135486.11 182.10
-9755399.53 5135485.53 181.87
-9755408.72 5135486.14 183.31
-9755397.96 5135486.47 181.57
-9755408.44 5135470.06 184.70
-9755405.23 5135472.19 183.54
-9755408.48 5135472.17 184.09
-9755405.80 5135472.44 184.15
-9755407.26 5135472.48 183.91
-9755404.60 5135472.49 183.42
-9755406.72 5135472.45 183.75
-9755409.33 5135471.25 184.31
-9755401.93 5135472.17 182.99
-9755402.82 5135471.30 183.18
-9755404.38 5135471.26 183.54
-9755409.32 5135470.84 184.90
-9755406.97 5135472.18 183.86
-9755406.10 5135470.64 184.33
-9755404.64 5135471.27 183.54
-9755411.14 5135471.26 184.54
-9755410.21 5135470.39 184.52
-9755401.96 5135471.55 183.03
-9755407.83 5135472.47 184.40
-9755404.02 5135470.95 183.47
-9755407.00 5135470.39 183.92
-9755404.01 5135472.45 183.35
-9755403.14 5135472.46 183.17
-9755404.05 5135471.59 183.38
-9755403.50 5135472.47 183.31
-9755408.16 5135470.68 184.12
-9755409.35 5135471.86 184.30
-9755410.20 5135472.14 184.32
-9755405.80 5135470.11 183.75
-9755406.10 5135470.96 183.75
-9755410.52 5135472.44 184.38
-9755404.39 5135471.15 184.12
-9755399.91 5135471.61 182.80
-9755400.13 5135472.47 183.36
-9755401.38 5135472.49 182.96
-9755399.58 5135472.51 182.62
-9755409.31 5135472.72 184.14
-9755409.56 5135479.87 184.10
-9755402.83 5135474.40 183.50
-9755404.34 5135483.50 183.29
-9755402.76 5135481.04 182.60
-9755407.46 5135485.20 183.15
-9755411.05 5135483.51 183.81
-9755402.80 5135479.60 182.66
-9755404.84 5135476.65 183.16
-9755410.21 5135473.05 184.32
-9755411.05 5135478.69 184.12
-9755406.94 5135472.82 183.74
-9755408.97 5135484.36 183.43
-9755403.61 5135481.98 183.27
-9755409.26 5135475.71 184.01
-9755406.07 5135472.74 183.73
-9755409.32 5135475.10 184.04
-9755409.24 5135481.97 184.15
-9755403.39 5135475.11 183.00
-9755410.25 5135480.77 183.90
-9755403.09 5135480.79 182.64
-9755402.51 5135473.33 182.98
-9755408.94 5135482.50 183.55
-9755410.15 5135483.12 183.73
-9755411.04 5135484.06 184.29
-9755410.49 5135476.65 184.11
-9755406.89 5135485.22 182.99
-9755406.52 5135480.18 183.24
-9755410.10 5135482.55 183.75
-9755410.62 5135478.36 184.10
-9755409.30 5135483.14 183.59
-9755403.43 5135476.63 182.95
-9755408.64 5135480.48 183.54
-9755405.17 5135478.37 183.15
-9755408.67 5135484.03 183.43
-9755411.38 5135479.02 184.13
-9755409.31 5135480.72 183.72
-9755407.41 5135481.56 183.87
-9755406.03 5135483.16 182.96
-9755408.37 5135478.70 183.69
-9755406.97 5135478.39 183.45
-9755402.78 5135481.95 182.58
-9755408.21 5135473.74 184.26
-9755402.78 5135473.43 183.64
-9755406.97 5135478.73 183.95
-9755411.30 5135480.74 183.97
-9755407.58 5135473.96 183.79
-9755407.61 5135474.53 184.28
-9755407.54 5135477.52 183.58
-9755401.93 5135479.59 182.59
-9755410.19 5135480.78 183.80
-9755404.58 5135473.38 183.35
-9755402.84 5135473.94 183.00
-9755406.03 5135475.50 183.98
-9755406.06 5135479.89 183.15
-9755410.47 5135478.33 184.56
-9755402.72 5135476.35 183.33
-9755406.89 5135481.98 183.16
-9755403.39 5135483.18 182.61
-9755403.40 5135478.15 182.91
-9755409.56 5135485.24 183.50
-9755403.85 5135482.04 183.35
-9755406.08 5135472.95 184.19
-9755410.51 5135473.37 184.32
-9755408.98 5135480.74 183.94
-9755404.89 5135475.38 183.33
-9755409.88 5135474.17 184.12
-9755407.24 5135474.23 183.71
-9755407.49 5135479.87 183.38
-9755401.89 5135484.92 182.23
-9755402.48 5135479.91 182.61
-9755408.18 5135473.04 183.93
-9755403.96 5135484.65 182.62
-9755404.85 5135483.16 182.80
-9755401.92 5135478.13 182.66
-9755409.36 5135474.52 184.09
-9755410.32 5135474.17 184.67
-9755404.52 5135481.98 182.80
-9755402.85 5135483.70 183.06
-9755406.61 5135482.87 183.16
-9755405.09 5135478.77 183.71
-9755403.13 5135475.71 182.96
-9755407.93 5135474.17 184.47
-9755409.78 5135473.89 184.62
-9755406.89 5135480.19 183.34
-9755410.20 5135481.97 184.30
-9755406.92 5135483.42 183.17
-9755410.75 5135480.77 183.93
-9755407.31 5135480.68 183.87
-9755408.41 5135476.62 183.82
-9755407.72 5135474.56 183.73
-9755402.48 5135482.84 182.97
-9755407.22 5135479.92 183.36
-9755403.76 5135478.67 182.94
-9755401.74 5135476.92 183.36
-9755405.49 5135473.39 183.54
-9755401.95 5135481.03 183.02
-9755400.47 5135481.96 182.77
-9755400.25 5135475.03 183.04
-9755401.56 5135474.53 183.36
-9755400.86 5135475.70 183.20
-9755399.94 5135475.08 182.56
-9755401.25 5135485.23 182.11
-9755400.39 5135482.82 182.64
-9755399.91 5135475.11 183.10
-9755399.81 5135484.66 181.92
-9755401.07 5135475.79 182.61
-9755400.72 5135477.23 182.55
-9755401.60 5135477.80 182.60
-9755400.73 5135484.68 182.05
-9755400.16 5135475.50 183.15
-9755400.18 5135479.92 182.27
-9755400.75 5135474.53 182.63
-9755400.42 5135483.11 182.60
-9755399.49 5135477.53 182.24
-9755400.11 5135481.09 182.23
-9755399.55 5135481.96 182.05
-9755399.52 5135478.72 182.25
-9755400.75 5135475.16 182.62
-9755399.53 5135484.05 181.91
-9755400.24 5135481.95 182.20
-9755401.05 5135478.71 182.50
-9755400.46 5135476.60 183.03
-9755398.69 5135472.21 182.57
-9755397.83 5135471.27 182.50
-9755398.57 5135484.03 181.83
-9755398.68 5135481.97 181.88
-9755397.83 5135474.35 182.80
-9755397.89 5135483.63 182.26
-9755399.01 5135483.16 182.45
-9755398.63 5135477.84 182.17
-9755398.40 5135474.52 182.27
-9755398.98 5135477.25 182.22
-9755398.07 5135481.10 181.87
-9755398.91 5135481.88 181.91
-9755398.31 5135483.19 181.84
-9755398.89 5135483.92 181.74
-9755397.81 5135482.56 182.09
-9755398.06 5135479.87 181.98
-9755443.93 5135519.46 196.30
-9755445.44 5135520.33 196.33
-9755443.93 5135520.66 196.29
-9755443.27 5135522.28 198.15
-9755443.69 5135518.19 197.93
-9755445.13 5135522.66 197.95
-9755443.99 5135521.52 198.57
-9755442.76 5135519.49 196.27
-9755443.98 5135517.81 198.56
-9755443.41 5135518.73 197.90
-9755444.87 5135521.12 196.32
-9755444.83 5135519.43 196.34
-9755441.95 5135517.00 197.47
-9755443.31 5135521.50 196.26
-9755442.15 5135518.49 197.39
-9755442.49 5135519.35 197.47
-9755444.01 5135517.83 198.58
-9755444.82 5135519.72 196.32
-9755441.46 5135520.63 187.31
-9755441.02 5135519.47 197.46
-9755443.06 5135518.83 197.74
-9755443.87 5135516.57 197.94
-9755442.47 5135517.02 198.12
-9755445.43 5135522.28 197.99
-9755442.92 5135518.08 197.78
-9755441.61 5135522.38 196.86
-9755441.02 5135520.31 196.19
-9755441.14 5135518.76 197.03
-9755440.64 5135519.78 187.18
-9755440.76 5135518.58 196.86
-9755441.02 5135522.68 196.50
-9755440.66 5135521.05 187.18
-9755440.96 5135522.74 197.14
-9755440.65 5135518.68 187.29
-9755437.08 5135521.08 186.97
-9755428.28 5135518.16 184.95
-9755430.29 5135519.50 185.70
-9755432.86 5135521.11 185.59
-9755440.59 5135520.71 187.14
-9755429.98 5135518.99 185.15
-9755427.92 5135517.83 184.89
-9755430.06 5135516.62 185.33
-9755439.59 5135521.04 186.93
-9755431.41 5135518.25 185.99
-9755431.16 5135522.26 185.76
-9755434.40 5135522.00 185.97
-9755437.62 5135521.13 186.52
-9755431.17 5135518.43 185.44
-9755432.92 5135517.82 185.79
-9755428.24 5135517.88 184.94
-9755434.31 5135522.06 185.87
-9755435.08 5135517.82 186.23
-9755431.15 5135519.29 185.34
-9755431.72 5135520.42 185.43
-9755430.35 5135519.30 185.24
-9755433.28 5135516.33 186.00
-9755430.86 5135519.89 185.33
-9755430.00 5135519.90 185.13
-9755431.83 5135517.81 185.57
-9755437.72 5135521.61 186.60
-9755439.19 5135519.89 186.89
-9755433.83 5135519.05 186.52
-9755435.30 5135521.95 186.03
-9755440.55 5135517.82 187.30
-9755434.47 5135518.67 186.02
-9755436.51 5135517.54 186.46
-9755433.20 5135522.59 185.64
-9755436.51 5135520.26 186.43
-9755435.18 5135520.40 186.61
-9755437.42 5135521.99 186.54
-9755437.97 5135517.85 187.27
-9755438.20 5135518.99 187.06
-9755438.92 5135516.97 196.12
-9755438.84 5135517.74 186.91
-9755434.43 5135517.77 186.66
-9755439.80 5135521.53 196.18
-9755440.34 5135519.94 196.49
-9755438.64 5135519.43 196.72
-9755434.90 5135519.57 186.10
-9755434.10 5135521.37 185.85
-9755439.24 5135521.19 196.17
-9755432.37 5135518.42 185.68
-9755437.45 5135519.78 186.63
-9755428.25 5135516.59 184.95
-9755438.55 5135517.80 186.87
-9755438.27 5135521.09 186.67
-9755431.18 5135518.38 185.83
-9755433.54 5135518.68 186.49
-9755429.98 5135521.33 185.11
-9755440.37 5135518.64 187.24
-9755433.76 5135519.47 186.42
-9755440.52 5135516.91 187.32
-9755436.47 5135516.65 186.51
-9755436.55 5135518.12 186.43
-9755435.63 5135522.25 186.17
-9755437.70 5135520.72 186.63
-9755439.26 5135522.09 196.19
-9755430.88 5135517.76 185.50
-9755437.07 5135518.64 186.54
-9755434.51 5135518.71 186.57
-9755434.12 5135519.92 186.49
-9755439.01 5135521.77 196.65
-9755439.14 5135518.10 186.97
-9755431.68 5135520.87 185.94
-9755437.34 5135522.54 186.47
-9755439.79 5135520.43 187.07
-9755435.03 5135519.88 186.20
-9755436.14 5135516.95 186.44
-9755439.83 5135516.42 196.58
-9755439.71 5135518.64 187.10
-9755429.42 5135519.06 185.64
-9755436.85 5135521.96 186.43
-9755436.15 5135519.68 186.61
-9755429.09 5135520.18 184.95
-9755433.56 5135518.71 186.00
-9755439.87 5135518.23 196.59
-9755436.13 5135519.91 186.60
-9755433.78 5135517.81 186.00
-9755431.18 5135519.59 185.33
-9755432.69 5135517.80 185.78
-9755439.16 5135521.96 186.86
-9755431.70 5135522.29 185.35
-9755437.74 5135520.49 186.65
-9755436.51 5135520.78 186.41
-9755428.30 5135521.16 185.29
-9755436.71 5135517.75 187.01
-9755428.26 5135516.33 184.93
-9755427.42 5135520.55 185.25
-9755426.28 5135522.46 184.93
-9755427.87 5135520.16 184.73
-9755425.85 5135521.99 184.33
-9755428.25 5135517.25 184.98
-9755425.86 5135522.30 184.33
-9755425.85 5135519.96 184.36
-9755427.35 5135519.04 184.73
-9755425.86 5135516.93 184.52
-9755427.49 5135521.15 185.13
-9755427.05 5135517.84 184.73
-9755427.55 5135521.07 184.72
-9755426.76 5135517.84 184.68
-9755424.96 5135521.13 184.14
-9755425.27 5135521.66 184.21
-9755424.98 5135518.98 184.33
-9755425.08 5135520.46 184.28
-9755441.73 5135512.53 197.48
-9755442.29 5135512.83 197.93
-9755442.79 5135512.86 197.93
-9755441.01 5135512.29 197.46
-9755441.90 5135512.92 197.93
-9755441.92 5135514.47 198.01
-9755442.37 5135515.86 197.87
-9755443.11 5135515.82 197.92
-9755443.09 5135515.16 197.94
-9755441.08 5135513.67 197.46
-9755441.64 5135515.79 197.48
-9755442.21 5135515.80 197.50
-9755441.27 5135513.65 197.78
-9755441.32 5135514.62 197.47
-9755440.86 5135512.94 197.47
-9755442.19 5135511.65 197.92
-9755442.22 5135510.46 198.49
-9755441.49 5135507.38 199.78
-9755441.38 5135511.57 198.06
-9755442.28 5135508.68 197.99
-9755441.94 5135509.81 198.47
-9755441.68 5135511.98 197.89
-9755441.61 5135511.18 198.16
-9755441.40 5135509.63 197.91
-9755440.71 5135511.70 197.47
-9755441.09 5135504.60 196.34
-9755440.82 5135509.36 197.86
-9755440.83 5135509.99 198.03
-9755440.77 5135505.46 196.33
-9755439.00 5135512.60 196.58
-9755439.85 5135512.86 197.02
-9755437.89 5135512.80 196.69
-9755437.16 5135512.39 186.86
-9755435.67 5135512.15 186.63
-9755435.66 5135512.40 186.63
-9755440.52 5135512.14 197.43
-9755430.64 5135512.48 185.59
-9755430.76 5135512.69 185.80
-9755434.97 5135512.49 186.43
-9755432.37 5135512.15 185.99
-9755426.50 5135512.47 184.93
-9755425.92 5135512.38 185.27
-9755438.59 5135513.05 187.49
-9755428.59 5135513.04 185.80
-9755436.27 5135516.26 186.57
-9755429.74 5135513.07 185.42
-9755435.60 5135513.67 186.44
-9755439.85 5135514.90 196.59
-9755428.28 5135515.14 185.08
-9755438.62 5135513.65 187.08
-9755430.72 5135513.31 186.19
-9755434.48 5135514.48 186.67
-9755435.95 5135513.68 186.61
-9755431.76 5135513.69 186.39
-9755439.24 5135514.06 196.58
-9755429.16 5135513.69 185.34
-9755431.12 5135514.51 186.16
-9755429.09 5135515.74 185.11
-9755437.70 5135513.65 186.88
-9755427.96 5135514.57 185.08
-9755436.65 5135512.89 196.68
-9755435.64 5135515.39 186.50
-9755437.45 5135515.76 186.84
-9755429.16 5135515.80 185.70
-9755439.76 5135515.06 187.31
-9755437.72 5135514.52 186.92
-9755435.08 5135513.68 186.41
-9755438.98 5135516.50 196.12
-9755439.01 5135514.94 196.57
-9755439.08 5135513.68 187.20
-9755429.09 5135514.86 185.74
-9755438.93 5135516.17 196.11
-9755433.27 5135514.82 185.99
-9755439.80 5135514.85 187.31
-9755428.28 5135515.78 185.06
-9755438.59 5135514.51 187.12
-9755437.72 5135513.00 186.91
-9755436.00 5135514.48 186.62
-9755432.40 5135513.67 185.98
-9755440.14 5135516.21 197.19
-9755440.16 5135515.79 196.60
-9755430.03 5135515.75 185.31
-9755431.64 5135515.67 186.34
-9755433.24 5135514.52 186.00
-9755439.26 5135513.35 187.30
-9755428.23 5135513.98 185.12
-9755431.53 5135513.05 185.78
-9755428.35 5135513.33 185.61
-9755438.03 5135513.29 187.07
-9755429.14 5135515.21 185.15
-9755431.20 5135515.42 185.55
-9755432.70 5135515.72 185.89
-9755438.28 5135513.37 187.07
-9755436.46 5135516.34 186.59
-9755432.10 5135515.75 185.78
-9755427.39 5135514.89 184.91
-9755427.65 5135513.64 185.47
-9755426.75 5135515.79 184.74
-9755427.65 5135515.54 185.45
-9755427.65 5135513.67 185.07
-9755425.88 5135514.86 184.69
-9755424.97 5135514.92 184.53
-9755425.41 5135514.20 184.91
-9755424.98 5135514.29 184.52
-9755424.97 5135514.55 184.53
-9755425.63 5135514.61 184.58
-9755425.51 5135514.18 185.00
-9755425.30 5135516.11 184.51
-9755425.20 5135512.93 184.59
-9755425.02 5135513.36 184.53
-9755424.18 5135514.02 184.34
-9755424.66 5135513.70 184.50
-9755437.39 5135498.69 198.12
-9755430.73 5135497.06 186.46
-9755437.92 5135496.82 197.94
-9755436.52 5135498.36 197.48
-9755437.02 5135498.04 197.48
-9755437.34 5135498.90 197.48
-9755430.75 5135497.32 187.02
-9755438.79 5135496.84 199.77
-9755431.11 5135497.55 186.61
-9755428.64 5135497.68 186.02
-9755434.85 5135496.75 187.30
-9755438.20 5135497.70 197.93
-9755430.75 5135498.79 186.42
-9755432.76 5135496.45 186.87
-9755434.85 5135499.67 187.21
-9755435.21 5135499.27 196.59
-9755433.95 5135499.12 187.07
-9755429.23 5135496.71 186.21
-9755432.27 5135496.45 186.86
-9755431.56 5135499.18 186.53
-9755433.80 5135496.92 196.56
-9755437.66 5135498.52 198.09
-9755434.08 5135496.46 187.19
-9755432.51 5135496.42 186.86
-9755431.22 5135497.98 186.57
-9755435.26 5135498.63 196.58
-9755434.99 5135497.91 197.02
-9755435.87 5135496.81 197.55
-9755434.01 5135498.81 187.08
-9755436.11 5135498.65 197.02
-9755430.82 5135496.78 186.62
-9755431.52 5135499.11 187.18
-9755438.26 5135498.03 197.93
-9755429.55 5135498.81 186.19
-9755436.14 5135498.11 197.03
-9755432.08 5135497.62 186.67
-9755437.11 5135497.17 198.13
-9755433.44 5135497.66 187.01
-9755430.74 5135496.65 186.50
-9755434.93 5135496.81 197.01
-9755436.16 5135498.07 197.65
-9755433.14 5135499.20 196.68
-9755428.18 5135496.45 186.58
-9755427.50 5135498.81 185.79
-9755427.50 5135499.23 186.33
-9755427.13 5135496.50 185.86
-9755426.61 5135496.76 185.78
-9755427.42 5135499.15 185.78
-9755427.36 5135497.30 185.84
-9755427.55 5135498.25 186.51
-9755426.58 5135498.19 185.62
-9755426.63 5135498.19 185.72
-9755427.40 5135496.82 186.48
-9755434.11 5135503.31 196.60
-9755440.18 5135507.81 197.47
-9755430.69 5135505.04 186.02
-9755435.29 5135511.92 186.61
-9755433.29 5135501.52 186.71
-9755438.08 5135500.96 198.10
-9755429.20 5135502.12 185.98
-9755438.44 5135503.36 197.58
-9755433.72 5135501.35 196.13
-9755438.13 5135508.47 196.58
-9755436.51 5135509.89 186.88
-9755433.65 5135505.68 186.65
-9755437.73 5135509.78 187.10
-9755428.25 5135511.90 185.21
-9755438.85 5135511.62 187.31
-9755434.86 5135506.28 186.83
-9755436.06 5135502.99 187.25
-9755437.29 5135505.47 196.18
-9755433.94 5135504.24 187.32
-9755437.73 5135507.08 187.33
-9755432.42 5135501.79 186.61
-9755435.32 5135505.61 186.87
-9755433.62 5135507.16 186.57
-9755439.03 5135512.02 197.07
-9755431.66 5135503.51 186.28
-9755430.34 5135506.22 185.99
-9755431.94 5135511.53 186.52
-9755439.86 5135510.12 197.45
-9755434.28 5135503.47 196.09
-9755432.36 5135511.60 186.00
-9755433.01 5135509.54 186.22
-9755438.17 5135503.34 197.48
-9755431.56 5135507.40 186.16
-9755436.62 5135504.46 196.74
-9755433.67 5135501.49 186.86
-9755437.15 5135505.05 187.31
-9755434.83 5135511.84 186.45
-9755434.00 5135502.97 186.85
-9755429.50 5135507.10 185.79
-9755433.80 5135501.76 187.39
-9755432.47 5135500.29 186.70
-9755434.65 5135501.78 196.71
-9755434.22 5135499.72 187.07
-9755432.49 5135503.03 186.43
-9755432.77 5135503.20 186.58
-9755436.83 5135510.96 187.42
-9755430.03 5135510.95 185.58
-9755435.01 5135508.20 187.26
-9755436.95 5135499.81 197.45
-9755435.71 5135508.73 196.09
-9755435.73 5135501.47 187.28
-9755438.14 5135509.61 196.58
-9755431.60 5135502.06 186.43
-9755433.04 5135504.99 186.46
-9755431.58 5135505.94 186.21
-9755436.62 5135503.41 196.73
-9755439.89 5135505.81 196.28
-9755433.99 5135500.92 186.89
-9755430.27 5135503.22 186.57
-9755433.27 5135511.25 186.21
-9755436.09 5135501.93 196.59
-9755436.60 5135511.67 196.66
-9755430.16 5135499.73 186.20
-9755436.89 5135509.48 187.05
-9755437.30 5135500.12 197.48
-9755435.06 5135504.23 186.87
-9755430.34 5135504.48 186.00
-9755437.31 5135503.42 197.10
-9755432.44 5135504.77 186.41
-9755434.87 5135502.37 187.04
-9755430.03 5135505.96 185.86
-9755432.68 5135502.35 186.64
-9755430.69 5135501.81 186.25
-9755440.53 5135506.64 197.92
-9755439.36 5135501.29 197.93
-9755434.85 5135504.18 186.85
-9755434.50 5135510.98 187.04
-9755437.38 5135508.95 187.10
-9755435.71 5135500.90 187.30
-9755437.92 5135508.27 196.62
-9755439.84 5135507.26 197.70
-9755429.93 5135503.22 186.58
-9755436.51 5135511.25 186.85
-9755429.56 5135506.31 186.36
-9755430.33 5135509.48 185.79
-9755433.41 5135500.77 196.65
-9755430.34 5135510.58 186.23
-9755434.46 5135502.35 186.85
-9755435.68 5135500.04 187.32
-9755429.77 5135503.01 185.99
-9755430.34 5135502.39 186.60
-9755438.02 5135508.31 187.32
-9755435.68 5135507.08 186.97
-9755437.48 5135507.81 196.68
-9755439.06 5135503.02 197.82
-9755440.25 5135508.16 197.48
-9755428.72 5135505.40 185.75
-9755440.55 5135503.61 199.80
-9755439.02 5135511.11 197.02
-9755438.13 5135511.97 196.59
-9755433.45 5135500.95 196.15
-9755440.48 5135511.61 197.46
-9755434.26 5135503.82 186.86
-9755438.75 5135508.77 197.02
-9755429.47 5135506.51 185.78
-9755433.97 5135502.16 186.88
-9755438.05 5135509.21 187.31
-9755434.02 5135500.40 196.10
-9755438.18 5135511.32 187.09
-9755428.68 5135499.73 186.00
-9755430.70 5135502.65 186.21
-9755431.02 5135505.05 186.18
-9755440.15 5135512.03 197.03
-9755434.47 5135501.17 187.04
-9755433.59 5135502.97 186.66
-9755438.12 5135508.63 196.94
-9755436.91 5135509.60 196.08
-9755439.14 5135499.96 199.84
-9755437.29 5135504.86 196.18
-9755434.45 5135501.22 186.96
-9755435.64 5135508.26 186.87
-9755437.12 5135505.87 187.31
-9755433.65 5135502.08 186.85
-9755432.73 5135511.17 186.63
-9755436.69 5135504.24 197.26
-9755432.81 5135501.48 186.66
-9755435.85 5135504.04 187.58
-9755432.37 5135505.89 186.26
-9755433.40 5135505.03 186.62
-9755435.37 5135507.98 186.87
-9755438.12 5135505.78 196.21
-9755431.55 5135502.92 186.94
-9755435.67 5135507.31 196.68
-9755430.39 5135503.29 186.03
-9755430.30 5135509.82 185.79
-9755434.58 5135505.50 196.64
-9755428.59 5135504.51 185.75
-9755431.60 5135501.46 186.44
-9755431.78 5135503.85 186.31
-9755437.10 5135504.25 187.31
-9755435.69 5135502.65 187.09
-9755439.88 5135501.81 199.80
-9755434.53 5135503.54 186.86
-9755435.89 5135501.32 197.08
-9755436.25 5135504.62 187.10
-9755439.77 5135506.32 198.43
-9755435.64 5135503.00 187.08
-9755428.29 5135509.82 185.38
-9755434.47 5135511.89 186.43
-9755436.13 5135504.87 196.30
-9755437.71 5135508.01 187.31
-9755428.82 5135511.55 185.36
-9755435.17 5135502.99 187.07
-9755438.56 5135510.39 187.30
-9755435.71 5135504.17 187.09
-9755436.28 5135508.29 186.87
-9755428.70 5135500.30 186.00
-9755430.76 5135501.13 186.33
-9755428.35 5135506.23 186.04
-9755430.34 5135505.64 186.01
-9755436.95 5135506.97 196.15
-9755439.00 5135509.63 197.02
-9755436.94 5135502.79 197.02
-9755433.26 5135501.87 187.31
-9755429.49 5135506.23 185.76
-9755434.30 5135500.90 187.02
-9755436.34 5135502.60 187.31
-9755436.57 5135510.71 186.86
-9755429.88 5135500.86 186.19
-9755438.18 5135501.31 198.12
-9755435.72 5135503.55 187.09
-9755439.87 5135502.21 198.51
-9755429.21 5135500.88 186.06
-9755435.69 5135506.81 186.99
-9755432.45 5135505.68 186.44
-9755435.47 5135501.48 187.10
-9755431.57 5135501.20 186.46
-9755437.29 5135507.51 196.64
-9755429.16 5135507.68 185.64
-9755440.54 5135504.64 196.33
-9755428.29 5135505.01 185.57
-9755432.44 5135511.90 185.99
-9755435.78 5135503.48 187.61
-9755438.16 5135509.34 196.58
-9755437.88 5135502.17 197.47
-9755428.07 5135499.78 186.35
-9755426.21 5135508.35 185.09
-9755426.25 5135503.01 185.37
-9755426.55 5135509.56 185.09
-9755427.11 5135510.40 185.15
-9755426.81 5135510.42 185.12
-9755426.57 5135511.07 185.49
-9755426.26 5135499.76 185.54
-9755427.40 5135503.84 186.17
-9755426.60 5135504.19 185.35
-9755427.42 5135511.63 185.14
-9755427.40 5135508.94 185.27
-9755427.45 5135500.05 185.77
-9755427.41 5135503.59 185.56
-9755425.92 5135507.42 185.09
-9755426.21 5135508.68 185.05
-9755426.52 5135506.26 185.16
-9755426.86 5135500.90 185.57
-9755427.44 5135505.39 185.39
-9755425.73 5135499.31 185.50
-9755424.46 5135498.79 185.75
-9755424.19 5135511.56 185.12
-9755425.13 5135500.07 185.35
-9755424.63 5135504.74 185.53
-9755424.25 5135501.60 185.52
-9755425.38 5135506.21 184.96
-9755425.40 5135499.76 185.35
-9755424.22 5135501.50 185.58
-9755425.02 5135500.54 185.27
-9755424.18 5135507.05 185.12
-9755425.38 5135506.39 185.52
-9755425.43 5135503.55 185.15
-9755425.66 5135504.24 185.68
-9755424.93 5135508.33 184.78
-9755424.22 5135500.90 185.11
-9755424.17 5135500.64 185.11
-9755419.08 5135517.00 183.34
-9755421.70 5135517.82 184.31
-9755420.95 5135517.83 184.20
-9755422.58 5135522.32 183.73
-9755419.95 5135519.07 183.43
-9755423.01 5135516.97 184.11
-9755418.96 5135519.05 183.21
-9755417.57 5135521.13 182.96
-9755417.57 5135518.36 183.59
-9755416.68 5135519.02 183.19
-9755417.17 5135521.96 183.36
-9755416.39 5135522.56 182.61
-9755420.98 5135522.63 183.45
-9755416.34 5135521.09 182.74
-9755418.80 5135516.36 183.35
-9755417.58 5135519.20 183.54
-9755422.64 5135520.25 183.80
-9755422.92 5135517.89 183.91
-9755415.55 5135517.84 182.77
-9755419.60 5135516.98 183.44
-9755424.07 5135522.25 183.94
-9755422.93 5135517.87 184.50
-9755417.95 5135517.25 183.16
-9755415.55 5135520.22 182.63
-9755419.55 5135521.15 183.22
-9755424.11 5135518.99 184.18
-9755419.57 5135517.85 183.36
-9755419.38 5135516.69 183.40
-9755422.63 5135519.06 183.89
-9755414.92 5135522.33 182.45
-9755423.12 5135521.02 184.38
-9755416.14 5135516.67 182.89
-9755420.88 5135518.17 183.55
-9755423.80 5135519.31 184.11
-9755419.73 5135516.48 184.15
-9755420.89 5135521.10 183.53
-9755421.68 5135518.14 183.73
-9755414.73 5135520.19 183.01
-9755420.47 5135522.63 183.93
-9755423.76 5135522.03 183.92
-9755416.09 5135519.05 182.77
-9755419.58 5135522.05 183.18
-9755423.19 5135521.13 183.92
-9755413.38 5135522.31 183.08
-9755412.53 5135519.03 182.21
-9755411.70 5135518.20 182.04
-9755411.11 5135521.11 182.22
-9755414.65 5135516.67 182.60
-9755411.10 5135517.00 182.04
-9755413.66 5135521.18 183.06
-9755414.35 5135519.95 182.41
-9755411.17 5135521.33 181.75
-9755413.82 5135516.33 182.58
-9755412.57 5135519.36 182.70
-9755413.57 5135521.42 183.08
-9755411.92 5135519.94 182.04
-9755412.58 5135521.98 183.10
-9755411.33 5135520.44 182.30
-9755411.38 5135518.53 182.03
-9755412.56 5135522.38 180.36
-9755412.28 5135520.27 182.04
-9755413.45 5135518.80 182.38
-9755411.63 5135521.57 180.53
-9755412.53 5135516.17 182.35
-9755414.30 5135517.89 182.56
-9755411.70 5135522.35 180.54
-9755412.59 5135517.02 182.26
-9755412.67 5135518.15 182.78
-9755413.84 5135519.49 182.15
-9755411.79 5135518.94 182.58
-9755411.39 5135521.19 181.89
-9755411.72 5135521.55 180.50
-9755410.90 5135518.74 181.98
-9755409.32 5135521.83 180.93
-9755403.15 5135518.74 181.38
-9755409.33 5135521.17 181.27
-9755410.54 5135516.97 182.01
-9755405.20 5135521.39 181.38
-9755410.51 5135521.40 182.09
-9755409.34 5135516.98 181.80
-9755407.84 5135522.38 181.47
-9755410.23 5135517.54 181.86
-9755402.53 5135521.97 181.40
-9755406.09 5135516.99 181.32
-9755410.48 5135521.16 181.93
-9755409.59 5135522.37 180.85
-9755409.29 5135521.50 181.08
-9755410.22 5135518.18 181.87
-9755410.22 5135519.88 181.82
-9755410.62 5135519.40 182.47
-9755422.08 5135512.18 184.14
-9755418.81 5135512.84 183.55
-9755423.24 5135512.86 184.34
-9755417.93 5135512.86 183.40
-9755421.71 5135512.56 183.99
-9755423.57 5135512.47 184.33
-9755420.02 5135512.77 183.74
-9755411.39 5135512.08 182.78
-9755411.12 5135512.84 182.25
-9755413.53 5135512.46 182.68
-9755412.63 5135512.22 183.13
-9755416.45 5135515.16 182.99
-9755420.84 5135514.08 183.76
-9755417.97 5135515.29 183.34
-9755418.87 5135514.31 184.14
-9755421.76 5135513.07 183.97
-9755418.82 5135513.56 184.08
-9755420.02 5135515.76 183.56
-9755424.15 5135514.88 184.33
-9755416.73 5135515.78 182.97
-9755419.70 5135515.20 183.53
-9755415.88 5135513.70 182.99
-9755415.85 5135516.15 182.89
-9755415.45 5135516.06 183.32
-9755419.38 5135513.64 183.58
-9755419.41 5135514.57 183.54
-9755417.94 5135516.12 183.76
-9755420.60 5135513.71 183.74
-9755415.22 5135515.24 183.36
-9755415.52 5135513.68 182.97
-9755420.92 5135513.61 184.36
-9755420.00 5135514.94 184.17
-9755419.98 5135515.66 183.89
-9755421.40 5135515.70 183.85
-9755421.69 5135515.90 184.43
-9755418.77 5135513.90 184.02
-9755422.92 5135515.49 184.12
-9755414.96 5135515.65 183.37
-9755421.26 5135514.49 184.43
-9755412.58 5135515.76 182.41
-9755414.40 5135514.89 182.62
-9755413.57 5135516.13 182.95
-9755411.70 5135514.90 182.25
-9755411.75 5135515.76 182.22
-9755414.36 5135515.77 182.62
-9755412.57 5135514.88 182.41
-9755415.98 5135496.79 183.91
-9755419.22 5135497.98 184.34
-9755415.02 5135498.22 184.12
-9755417.87 5135499.07 184.12
-9755420.09 5135497.98 184.52
-9755415.06 5135497.40 183.73
-9755420.64 5135498.88 184.53
-9755420.11 5135498.85 184.52
-9755414.76 5135498.88 183.54
-9755421.67 5135497.32 185.28
-9755419.16 5135499.17 184.32
-9755420.95 5135498.87 184.55
-9755418.02 5135499.46 184.11
-9755423.92 5135498.78 185.14
-9755421.29 5135497.03 185.30
-9755422.16 5135497.04 184.96
-9755420.74 5135496.74 184.74
-9755420.13 5135496.47 184.62
-9755417.26 5135499.62 184.47
-9755415.33 5135497.67 183.75
-9755420.02 5135497.56 185.11
-9755420.76 5135497.56 185.24
-9755418.37 5135496.76 184.34
-9755420.90 5135498.53 185.11
-9755411.22 5135497.07 183.04
-9755413.89 5135496.48 183.55
-9755412.94 5135499.47 183.73
-9755412.73 5135498.87 183.22
-9755411.20 5135496.45 183.65
-9755411.81 5135499.49 182.99
-9755412.43 5135498.49 183.22
-9755423.40 5135511.62 184.91
-9755420.93 5135505.91 184.20
-9755414.74 5135499.72 183.54
-9755418.88 5135510.38 184.22
-9755422.94 5135509.56 184.39
-9755415.22 5135502.92 183.97
-9755417.74 5135503.38 184.31
-9755415.88 5135499.75 183.71
-9755420.02 5135499.71 184.93
-9755419.18 5135502.15 184.12
-9755420.63 5135502.13 184.33
-9755415.03 5135503.61 183.35
-9755423.29 5135501.74 185.44
-9755417.62 5135510.99 183.40
-9755420.56 5135509.53 183.95
-9755422.12 5135499.74 184.75
-9755417.12 5135503.00 183.72
-9755414.70 5135510.42 182.97
-9755417.73 5135500.06 183.94
-9755417.07 5135502.14 183.73
-9755421.25 5135499.77 184.55
-9755416.24 5135509.48 183.31
-9755424.16 5135508.04 184.74
-9755418.20 5135508.36 183.62
-9755417.98 5135506.30 183.71
-9755419.53 5135508.83 183.90
-9755416.87 5135507.54 184.12
-9755424.15 5135503.33 184.96
-9755421.21 5135505.07 184.32
-9755417.61 5135506.22 183.59
-9755422.42 5135511.59 184.24
-9755416.75 5135509.57 183.36
-9755422.51 5135500.04 184.86
-9755415.12 5135499.74 184.11
-9755420.86 5135505.71 184.73
-9755423.25 5135508.32 184.53
-9755422.66 5135505.00 185.11
-9755424.14 5135504.93 185.39
-9755414.71 5135511.06 182.97
-9755420.80 5135505.38 184.74
-9755420.86 5135501.30 184.89
-9755422.10 5135505.40 184.53
-9755415.92 5135501.26 183.54
-9755422.06 5135507.74 184.32
-9755417.02 5135507.92 183.93
-9755419.20 5135504.22 184.03
-9755418.58 5135507.18 183.73
-9755420.03 5135501.25 184.33
-9755421.23 5135505.97 184.29
-9755414.78 5135503.04 183.36
-9755423.30 5135508.04 184.53
-9755419.17 5135501.25 184.12
-9755417.64 5135509.54 183.55
-9755419.19 5135500.60 184.73
-9755416.28 5135510.62 183.74
-9755420.05 5135503.32 184.23
-9755415.07 5135502.73 183.37
-9755417.99 5135507.21 183.72
-9755417.19 5135502.94 184.25
-9755420.43 5135501.38 184.87
-9755420.97 5135500.93 184.52
-9755416.45 5135509.54 183.35
-9755420.05 5135510.75 183.90
-9755417.43 5135500.75 184.44
-9755419.75 5135500.49 184.90
-9755421.21 5135507.14 184.18
-9755423.88 5135503.02 184.94
-9755417.68 5135508.31 183.56
-9755417.54 5135507.36 184.15
-9755418.57 5135506.26 184.29
-9755421.54 5135509.25 184.15
-9755422.97 5135508.25 184.52
-9755417.95 5135505.40 183.76
-9755423.26 5135503.00 184.83
-9755418.76 5135508.65 183.73
-9755415.79 5135511.62 183.13
-9755418.28 5135508.79 183.69
-9755420.02 5135503.01 184.19
-9755421.17 5135502.55 184.99
-9755416.82 5135506.25 183.53
-9755418.60 5135508.38 183.73
-9755421.58 5135500.52 185.23
-9755422.12 5135506.92 184.37
-9755419.17 5135501.79 184.13
-9755415.62 5135502.10 184.08
-9755421.07 5135502.57 184.91
-9755418.58 5135509.13 184.34
-9755420.89 5135508.94 184.14
-9755423.30 5135509.00 185.07
-9755420.87 5135510.72 184.01
-9755418.53 5135502.95 184.49
-9755411.10 5135511.91 182.23
-9755413.17 5135511.71 182.61
-9755411.68 5135505.12 183.27
-9755411.64 5135505.42 183.20
-9755415.09 5135501.62 184.09
-9755414.44 5135505.08 183.18
-9755411.81 5135500.92 183.43
-9755414.16 5135503.02 183.70
-9755412.63 5135509.56 182.61
-9755414.08 5135506.89 183.02
-9755411.79 5135504.23 182.78
-9755411.79 5135507.75 182.60
-9755411.49 5135509.28 183.03
-9755412.33 5135505.75 183.27
-9755414.18 5135504.22 183.16
-9755413.27 5135501.07 183.77
-9755412.01 5135508.40 182.60
-9755413.59 5135499.71 183.35
-9755414.66 5135499.70 184.02
-9755414.68 5135503.64 183.87
-9755414.39 5135511.64 182.81
-9755413.88 5135508.67 182.97
-9755413.21 5135503.32 183.01
-9755411.12 5135510.41 182.41
-9755413.84 5135510.42 182.77
-9755410.99 5135508.58 182.85
-9755414.16 5135505.39 183.13
-9755413.05 5135499.74 183.19
-9755413.23 5135510.39 182.75
-9755411.34 5135502.69 183.32
-9755411.47 5135507.17 182.60
-9755411.84 5135499.83 183.54
-9755411.20 5135505.45 182.59
-9755412.38 5135500.91 182.99
-9755413.82 5135509.54 182.81
-9755412.59 5135510.74 182.61
-9755412.64 5135510.46 182.61
-9755413.49 5135511.67 182.75
-9755414.41 5135500.04 183.40
-9755411.75 5135509.61 182.50
-9755412.63 5135503.94 182.95
-9755411.30 5135502.15 183.29
-9755412.66 5135508.36 182.76
-9755414.31 5135511.70 183.31
-9755411.74 5135508.12 182.58
-9755412.65 5135502.01 183.49
-9755412.43 5135500.89 183.46
-9755413.01 5135501.49 183.16
-9755411.52 5135505.98 182.65
-9755411.35 5135503.84 183.34
-9755412.96 5135500.66 183.15
-9755412.59 5135509.87 182.60
-9755411.17 5135509.56 182.42
-9755412.66 5135504.22 182.95
-9755411.80 5135501.25 182.96
-9755411.15 5135504.20 182.62
-9755408.43 5135512.84 181.86
-9755408.45 5135511.97 181.86
-9755406.99 5135514.89 181.32
-9755407.37 5135515.77 181.74
-9755410.53 5135516.13 182.02
-9755408.45 5135513.74 181.84
-9755407.37 5135514.86 181.67
-9755408.47 5135514.89 181.80
-9755408.48 5135514.58 181.80
-9755399.06 5135512.78 181.41
-9755409.77 5135496.79 183.33
-9755407.75 5135496.81 182.55
-9755409.83 5135497.49 183.37
-9755404.33 5135499.49 181.88
-9755403.55 5135497.69 181.85
-9755409.71 5135499.46 182.74
-9755408.58 5135499.19 182.56
-9755406.19 5135498.93 182.21
-9755406.79 5135496.75 182.43
-9755404.80 5135497.36 182.03
-9755406.53 5135498.29 182.23
-9755403.08 5135496.40 182.41
-9755404.72 5135498.92 181.89
-9755406.79 5135498.90 182.27
-9755403.56 5135497.97 181.84
-9755408.57 5135496.58 182.61
-9755405.60 5135497.95 182.66
-9755406.88 5135498.01 182.33
-9755403.54 5135497.07 181.86
-9755406.54 5135498.03 182.23
-9755410.98 5135497.66 183.01
-9755408.60 5135496.77 182.61
-9755407.34 5135498.12 182.75
-9755405.93 5135498.90 182.08
-9755401.49 5135497.46 181.51
-9755400.92 5135498.93 182.26
-9755400.27 5135498.27 181.91
-9755408.82 5135511.64 181.88
-9755407.65 5135504.28 182.07
-9755410.60 5135505.11 182.58
-9755407.08 5135507.50 181.90
-9755410.94 5135502.99 183.31
-9755403.24 5135504.59 181.55
-9755403.26 5135500.06 181.69
-9755410.62 5135502.74 182.62
-9755406.15 5135503.35 181.88
-9755403.56 5135500.98 181.71
-9755407.31 5135507.79 181.92
-9755403.64 5135503.96 182.06
-9755401.85 5135503.09 181.86
-9755405.21 5135503.51 182.25
-9755402.78 5135499.74 182.17
-9755405.71 5135505.02 181.86
-9755410.90 5135503.34 182.62
