-9755425.46 5135597.14 184.03
-9755425.75 5135593.98 183.91
-9755425.11 5135598.94 184.27
-9755426.25 5135601.00 184.56
-9755425.67 5135594.06 183.78
-9755426.07 5135600.51 183.60
-9755426.61 5135594.55 183.52
-9755425.73 5135594.83 183.89
-9755425.30 5135600.00 181.73
-9755426.59 5135600.31 182.97
-9755427.18 5135592.80 183.50
-9755426.59 5135598.51 181.34
-9755426.24 5135600.31 181.65
-9755426.31 5135593.61 183.98
-9755426.66 5135595.17 184.13
-9755425.09 5135598.12 183.69
-9755425.84 5135594.48 181.33
-9755425.67 5135601.32 182.03
-9755426.35 5135594.76 184.10
-9755426.85 5135594.04 183.53
-9755425.34 5135600.84 182.03
-9755424.83 5135592.76 183.73
-9755424.17 5135598.08 183.52
-9755424.19 5135593.98 183.64
-9755424.51 5135592.82 183.14
-9755424.90 5135596.88 183.52
-9755424.19 5135601.45 182.61
-9755424.17 5135597.50 184.08
-9755424.45 5135597.79 183.77
-9755424.50 5135594.25 183.68
-9755424.25 5135598.90 184.31
-9755424.17 5135601.70 182.76
-9755424.30 5135593.38 183.72
-9755424.22 5135593.11 183.14
-9755424.71 5135600.09 183.76
-9755429.96 5135578.90 183.72
-9755429.92 5135577.14 183.16
-9755437.01 5135578.88 184.65
-9755434.04 5135579.51 184.10
-9755434.74 5135576.00 184.66
-9755429.04 5135579.21 183.74
-9755432.82 5135578.64 183.81
-9755434.49 5135577.00 184.71
-9755438.77 5135576.26 184.93
-9755427.90 5135579.49 183.56
-9755430.82 5135576.45 183.48
-9755429.11 5135577.99 183.58
-9755435.29 5135576.18 184.77
-9755428.70 5135578.65 182.99
-9755428.47 5135577.14 182.97
-9755434.05 5135578.02 184.08
-9755428.69 5135578.89 183.48
-9755429.16 5135577.66 183.71
-9755431.10 5135575.99 183.51
-9755437.61 5135578.00 184.74
-9755430.50 5135579.20 183.31
-9755434.85 5135576.49 184.64
-9755428.99 5135579.19 183.14
-9755432.31 5135577.13 183.71
-9755434.44 5135576.30 184.61
-9755429.90 5135578.59 183.14
-9755430.19 5135577.19 183.85
-9755439.30 5135576.82 185.56
-9755436.10 5135577.72 184.43
-9755436.12 5135577.99 184.47
-9755427.77 5135578.05 183.36
-9755431.51 5135579.20 183.62
-9755438.17 5135576.54 184.76
-9755429.30 5135575.89 183.19
-9755434.05 5135577.11 184.03
-9755425.50 5135578.36 182.58
-9755427.08 5135577.17 183.36
-9755425.79 5135578.68 182.58
-9755425.84 5135577.44 182.57
-9755425.25 5135577.09 182.54
-9755425.83 5135577.75 182.57
-9755426.10 5135577.20 182.59
-9755427.11 5135577.99 183.36
-9755427.25 5135579.21 182.79
-9755426.38 5135578.02 182.63
-9755427.01 5135578.61 183.30
-9755426.39 5135575.92 182.62
-9755425.21 5135577.11 182.98
-9755426.05 5135578.35 183.12
-9755425.91 5135578.95 183.11
-9755426.35 5135579.24 182.76
-9755426.31 5135576.30 183.33
-9755425.57 5135576.32 183.13
-9755438.75 5135579.20 184.98
-9755431.39 5135579.18 184.15
-9755439.14 5135584.50 185.75
-9755437.32 5135587.48 184.96
-9755430.76 5135584.85 183.51
-9755432.74 5135582.12 184.29
-9755438.75 5135591.54 185.53
-9755438.16 5135583.57 184.92
-9755432.12 5135591.66 184.21
-9755433.82 5135588.70 184.55
-9755437.00 5135585.13 184.78
-9755438.16 5135582.74 184.93
-9755429.92 5135582.11 183.90
-9755428.12 5135581.25 183.56
-9755439.67 5135580.06 185.15
-9755431.95 5135591.94 183.53
-9755436.39 5135585.71 184.74
-9755435.73 5135581.25 184.34
-9755439.05 5135589.84 185.34
-9755436.10 5135583.63 184.55
-9755430.73 5135589.27 183.71
-9755434.52 5135584.61 184.21
-9755432.16 5135581.30 184.06
-9755427.75 5135591.93 183.51
-9755434.91 5135587.46 184.74
-9755432.26 5135585.37 183.71
-9755432.73 5135590.13 184.65
-9755431.06 5135589.42 184.48
-9755432.25 5135586.63 184.44
-9755435.75 5135581.01 184.86
-9755435.36 5135586.23 183.80
-9755430.14 5135582.42 183.91
-9755428.68 5135579.80 183.57
-9755439.68 5135582.44 185.15
-9755431.65 5135580.39 183.55
-9755430.80 5135582.74 183.52
-9755428.68 5135585.90 183.74
-9755435.20 5135590.42 185.31
-9755432.81 5135591.07 184.55
-9755435.49 5135587.74 184.77
-9755439.24 5135589.86 185.35
-9755439.01 5135588.04 185.36
-9755432.25 5135581.30 183.54
-9755432.24 5135590.75 183.54
-9755436.94 5135591.02 185.13
-9755440.21 5135586.21 185.42
-9755433.21 5135582.73 184.54
-9755428.68 5135582.19 183.14
-9755429.88 5135584.20 183.33
-9755428.67 5135590.43 183.50
-9755437.05 5135585.64 184.90
-9755438.12 5135582.42 184.94
-9755429.51 5135587.97 184.09
-9755429.80 5135582.47 183.90
-9755434.85 5135583.77 184.65
-9755435.89 5135590.72 185.27
-9755433.12 5135586.64 183.54
-9755431.05 5135586.55 184.05
-9755436.99 5135580.97 185.04
-9755433.72 5135587.02 184.38
-9755439.05 5135585.38 185.15
-9755437.81 5135586.27 185.04
-9755433.37 5135591.63 184.56
-9755428.67 5135581.29 183.14
-9755439.04 5135587.46 185.36
-9755428.97 5135591.91 183.70
-9755427.98 5135590.18 183.40
-9755428.63 5135591.93 184.15
-9755434.01 5135584.58 183.56
-9755432.86 5135581.27 183.90
-9755427.52 5135579.85 183.34
-9755434.06 5135582.68 184.13
-9755439.57 5135584.51 185.24
-9755427.85 5135583.65 183.01
-9755428.69 5135590.17 183.51
-9755435.04 5135580.40 184.31
-9755438.11 5135591.26 185.34
-9755431.99 5135591.38 184.93
-9755439.05 5135584.19 185.14
-9755430.71 5135588.09 183.69
-9755431.61 5135581.59 183.51
-9755436.57 5135580.69 185.07
-9755431.73 5135591.93 184.50
-9755436.25 5135591.89 185.55
-9755429.84 5135587.47 183.50
-9755435.48 5135591.90 184.93
-9755436.09 5135591.30 184.94
-9755436.71 5135583.34 184.72
-9755430.75 5135583.95 183.51
-9755431.63 5135589.84 183.55
-9755431.63 5135586.72 184.29
-9755427.55 5135586.60 183.15
-9755434.89 5135589.88 184.71
-9755438.73 5135580.41 184.93
-9755435.71 5135582.40 184.75
-9755427.50 5135584.52 182.99
-9755434.84 5135590.72 184.73
-9755427.51 5135591.05 183.38
-9755437.31 5135582.74 184.71
-9755434.93 5135585.38 184.54
-9755436.97 5135587.18 184.68
-9755429.26 5135591.93 183.69
-9755429.51 5135581.25 183.70
-9755438.17 5135584.55 185.34
-9755427.47 5135585.44 183.12
-9755427.48 5135584.66 183.75
-9755433.59 5135588.37 184.32
-9755429.24 5135583.29 183.71
-9755428.45 5135581.77 183.70
-9755438.45 5135584.53 185.04
-9755433.12 5135582.35 184.60
-9755428.73 5135582.90 183.69
-9755433.41 5135580.35 183.91
-9755437.60 5135589.50 185.13
-9755429.85 5135588.64 183.52
-9755429.91 5135585.43 183.34
-9755428.10 5135580.45 183.51
-9755430.72 5135588.36 183.70
-9755427.83 5135582.73 182.99
-9755433.68 5135588.13 184.22
-9755431.94 5135581.30 184.06
-9755429.92 5135588.68 183.90
-9755431.61 5135583.40 183.54
-9755436.08 5135585.36 184.70
-9755439.37 5135584.50 185.77
-9755427.78 5135588.67 183.30
-9755430.51 5135587.80 183.56
-9755431.96 5135586.90 183.72
-9755433.96 5135583.98 183.55
-9755433.93 5135590.67 185.18
-9755437.81 5135581.25 184.74
-9755428.13 5135580.34 183.48
-9755431.96 5135585.37 183.71
-9755431.80 5135591.91 184.21
-9755435.52 5135585.72 184.57
-9755430.75 5135588.69 184.26
-9755435.40 5135582.74 184.31
-9755428.36 5135591.89 183.51
-9755429.23 5135583.06 183.26
-9755439.82 5135583.50 185.18
-9755439.73 5135592.01 185.76
-9755430.83 5135580.37 183.31
-9755432.03 5135579.78 183.70
-9755429.58 5135589.27 183.51
-9755431.45 5135584.95 183.62
-9755430.20 5135583.71 183.32
-9755434.85 5135586.01 183.58
-9755431.98 5135581.09 184.16
-9755429.55 5135587.14 183.97
-9755438.69 5135587.78 185.29
-9755431.62 5135590.15 183.55
-9755433.15 5135582.48 184.37
-9755427.83 5135590.09 183.90
-9755436.36 5135582.89 185.12
-9755434.97 5135582.46 184.33
-9755439.59 5135585.44 185.87
-9755429.59 5135582.16 183.20
-9755432.84 5135584.16 184.22
-9755437.62 5135590.36 185.75
-9755436.99 5135586.04 184.99
-9755431.90 5135580.40 183.53
-9755432.84 5135587.80 183.56
-9755435.40 5135587.39 184.82
-9755427.45 5135590.77 183.33
-9755426.13 5135579.20 182.59
-9755426.90 5135591.09 183.32
-9755426.32 5135584.95 183.32
-9755427.45 5135590.15 183.31
-9755425.46 5135588.67 183.56
-9755425.54 5135582.84 182.69
-9755426.36 5135580.04 183.33
-9755426.61 5135586.03 182.97
-9755426.57 5135580.09 183.33
-9755427.00 5135580.43 183.34
-9755425.41 5135589.79 183.62
-9755425.84 5135581.01 182.97
-9755426.46 5135579.87 183.33
-9755426.66 5135582.17 183.35
-9755425.43 5135589.85 183.14
-9755426.39 5135582.45 183.34
-9755426.88 5135586.61 183.15
-9755425.14 5135585.74 182.75
-9755425.74 5135581.61 182.71
-9755425.16 5135586.58 182.78
-9755425.98 5135581.52 183.36
-9755425.73 5135584.55 182.76
-9755425.77 5135590.70 183.70
-9755425.73 5135587.77 182.98
-9755426.31 5135587.22 183.00
-9755425.38 5135588.69 182.97
-9755426.63 5135586.93 182.98
-9755427.44 5135590.95 183.90
-9755426.02 5135587.79 182.98
-9755425.72 5135585.40 183.27
-9755425.13 5135588.69 182.97
-9755427.29 5135585.71 183.59
-9755425.42 5135585.17 182.77
-9755425.46 5135585.74 183.26
-9755425.46 5135581.32 182.60
-9755425.46 5135590.42 183.78
-9755424.59 5135577.15 182.39
-9755425.18 5135577.69 182.94
-9755424.95 5135579.26 182.95
-9755424.35 5135586.57 183.34
-9755424.85 5135581.01 182.95
-9755424.30 5135586.26 183.22
-9755424.54 5135591.05 183.56
-9755425.13 5135584.56 182.74
-9755424.25 5135589.85 182.98
-9755424.87 5135591.24 183.70
-9755424.63 5135585.67 183.33
-9755424.27 5135590.75 182.98
-9755424.68 5135585.46 183.34
-9755445.98 5135576.25 186.69
-9755447.64 5135575.64 186.64
-9755443.51 5135575.58 185.79
-9755448.79 5135575.91 186.88
-9755441.45 5135575.87 185.98
-9755441.77 5135575.60 185.41
-9755447.53 5135575.51 187.13
-9755448.62 5135575.48 186.85
-9755442.44 5135575.88 186.20
-9755441.11 5135575.55 185.95
-9755445.57 5135575.61 186.22
-9755442.64 5135575.52 186.17
-9755441.46 5135575.58 185.35
-9755431.88 5135575.56 184.11
-9755438.21 5135575.62 184.75
-9755425.09 5135575.86 182.96
-9755426.45 5135575.88 182.73
-9755426.57 5135575.52 183.20
-9755422.19 5135592.43 183.23
-9755420.98 5135592.00 181.34
-9755410.99 5135592.01 181.97
-9755419.19 5135594.94 182.77
-9755416.51 5135599.82 182.98
-9755421.26 5135593.95 183.30
-9755423.58 5135599.03 184.19
-9755418.03 5135592.81 182.42
-9755418.04 5135594.87 182.62
-9755416.21 5135600.15 183.48
-9755424.15 5135598.05 184.03
-9755422.42 5135598.11 183.34
-9755422.47 5135597.51 183.31
-9755418.84 5135596.08 183.34
-9755420.38 5135596.90 183.66
-9755416.76 5135599.53 183.52
-9755417.92 5135597.22 183.27
-9755423.02 5135600.18 183.70
-9755418.58 5135594.92 182.62
-9755422.63 5135599.93 183.78
-9755416.30 5135596.13 183.10
-9755421.17 5135596.86 183.75
-9755419.22 5135598.66 183.16
-9755417.11 5135597.79 183.36
-9755423.65 5135596.84 183.55
-9755418.87 5135601.63 183.40
-9755415.39 5135596.94 182.62
-9755416.02 5135593.97 182.44
-9755422.93 5135599.57 183.87
-9755418.27 5135593.61 183.00
-9755418.33 5135597.29 182.96
-9755417.62 5135596.01 182.99
-9755423.62 5135600.11 183.70
-9755422.17 5135599.89 183.51
-9755423.58 5135598.97 184.08
-9755420.44 5135592.77 183.04
-9755416.83 5135596.72 182.76
-9755422.95 5135601.63 183.73
-9755415.91 5135592.53 182.07
-9755423.03 5135598.66 184.07
-9755415.92 5135593.94 182.72
-9755414.43 5135601.02 182.97
-9755415.92 5135594.34 182.42
-9755414.73 5135599.28 183.29
-9755421.53 5135594.04 183.32
-9755414.50 5135598.46 182.65
-9755416.31 5135595.93 183.20
-9755422.18 5135598.99 183.51
-9755413.90 5135596.09 182.88
-9755421.20 5135601.06 183.55
-9755415.68 5135598.98 183.32
-9755423.36 5135598.78 183.52
-9755420.68 5135595.15 182.97
-9755423.28 5135601.03 184.50
-9755417.17 5135601.03 183.77
-9755415.92 5135593.10 182.08
-9755422.14 5135600.76 183.68
-9755414.15 5135598.67 182.65
-9755423.63 5135598.61 183.51
-9755422.22 5135594.87 183.41
-9755422.83 5135596.13 183.32
-9755421.30 5135599.26 183.88
-9755421.58 5135594.86 182.98
-9755418.64 5135594.90 183.19
-9755422.14 5135599.28 183.50
-9755420.64 5135596.91 183.12
-9755417.70 5135594.87 183.17
-9755417.20 5135592.87 182.77
-9755421.28 5135594.26 182.96
-9755422.52 5135596.65 183.81
-9755417.72 5135601.04 183.32
-9755420.38 5135598.32 183.77
-9755422.13 5135601.08 183.69
-9755417.17 5135595.79 182.62
-9755421.22 5135601.63 183.69
-9755417.46 5135601.10 183.47
-9755419.16 5135598.09 183.53
-9755415.41 5135596.94 183.17
-9755421.78 5135594.86 183.53
-9755414.55 5135597.18 183.21
-9755420.94 5135601.41 183.53
-9755416.83 5135594.88 183.01
-9755415.93 5135601.08 183.15
-9755419.29 5135599.20 183.72
-9755416.26 5135597.27 183.35
-9755415.55 5135597.73 183.07
-9755419.17 5135597.68 182.97
-9755415.06 5135594.92 182.81
-9755420.01 5135593.40 183.35
-9755422.50 5135596.33 183.69
-9755415.26 5135601.01 182.99
-9755420.09 5135596.94 183.57
-9755417.15 5135599.50 183.00
-9755418.04 5135595.45 183.21
-9755420.97 5135596.86 183.72
-9755417.25 5135599.04 183.58
-9755418.25 5135595.64 183.30
-9755416.18 5135601.07 183.70
-9755411.86 5135601.08 183.34
-9755411.75 5135600.14 182.66
-9755410.65 5135597.74 182.45
-9755410.93 5135599.02 182.43
-9755412.70 5135593.99 181.39
-9755411.81 5135596.30 182.08
-9755413.85 5135600.44 182.83
-9755413.11 5135601.03 182.93
-9755410.89 5135599.79 183.23
-9755410.93 5135599.57 182.60
-9755412.10 5135601.08 182.80
-9755413.29 5135596.08 182.08
-9755413.03 5135601.73 183.44
-9755412.71 5135598.95 182.62
-9755410.33 5135596.95 182.07
-9755411.22 5135596.93 182.16
-9755412.96 5135601.00 183.15
-9755410.91 5135598.12 182.43
-9755410.58 5135595.10 181.62
-9755411.79 5135599.83 182.64
-9755412.68 5135599.61 182.64
-9755422.83 5135579.14 182.51
-9755423.71 5135576.20 182.48
-9755420.53 5135578.05 181.87
-9755423.72 5135577.08 182.42
-9755423.26 5135576.18 182.23
-9755416.36 5135577.11 181.43
-9755422.79 5135578.68 182.50
-9755419.59 5135578.62 182.02
-9755421.68 5135577.16 181.73
-9755422.23 5135579.57 182.32
-9755421.65 5135579.21 181.71
-9755423.16 5135577.12 182.05
-9755422.44 5135576.27 181.72
-9755423.95 5135576.36 182.69
-9755422.76 5135577.14 182.40
-9755418.46 5135578.65 181.38
-9755416.33 5135578.02 181.44
-9755420.11 5135576.50 182.04
-9755422.78 5135575.91 181.99
-9755421.07 5135577.97 181.83
-9755421.10 5135579.56 181.71
-9755422.57 5135577.46 182.22
-9755421.62 5135578.64 181.72
-9755423.47 5135578.35 182.04
-9755421.35 5135576.24 181.72
-9755413.42 5135578.33 181.47
-9755412.83 5135575.95 181.50
-9755416.90 5135585.42 182.12
-9755420.19 5135583.67 181.72
-9755421.01 5135584.60 182.42
-9755423.39 5135585.96 183.14
-9755420.43 5135585.10 182.28
-9755420.51 5135587.79 182.44
-9755422.49 5135585.16 182.42
-9755421.57 5135590.71 183.14
-9755420.68 5135591.31 182.96
-9755423.05 5135588.35 182.59
-9755416.06 5135586.64 182.13
-9755422.60 5135579.99 182.54
-9755423.94 5135584.56 182.58
-9755422.78 5135588.63 183.15
-9755422.52 5135580.97 182.04
-9755420.88 5135590.85 182.98
-9755424.12 5135590.39 183.58
-9755419.24 5135587.48 182.02
-9755423.26 5135588.62 183.32
-9755423.42 5135589.47 183.36
-9755422.50 5135590.61 183.35
-9755421.66 5135581.89 181.90
-9755415.99 5135589.88 181.36
-9755422.51 5135581.60 182.06
-9755419.53 5135587.53 182.50
-9755421.22 5135591.29 183.08
-9755420.52 5135586.93 182.51
-9755419.32 5135587.48 182.34
-9755419.24 5135587.74 182.05
-9755419.31 5135588.68 182.50
-9755421.69 5135586.17 182.84
-9755420.41 5135584.77 181.73
-9755420.48 5135582.78 181.71
-9755421.01 5135586.94 182.62
-9755423.67 5135580.41 182.39
-9755420.90 5135583.94 182.21
-9755417.78 5135587.53 181.74
-9755421.64 5135581.61 181.90
-9755420.83 5135580.41 181.67
-9755423.75 5135583.59 182.41
-9755418.63 5135587.79 181.73
-9755415.73 5135582.51 181.40
-9755423.98 5135589.50 182.99
-9755417.16 5135586.93 181.38
-9755422.48 5135589.88 182.77
-9755421.89 5135590.73 183.13
-9755423.14 5135586.12 183.09
-9755421.88 5135589.86 182.60
-9755422.21 5135585.45 182.81
-9755421.28 5135588.40 182.41
-9755422.54 5135582.18 182.20
-9755423.33 5135580.16 182.57
-9755421.35 5135585.63 182.52
-9755423.09 5135584.50 182.42
-9755415.02 5135593.11 182.06
-9755415.70 5135588.66 181.35
-9755420.10 5135586.64 182.05
-9755423.01 5135586.66 183.19
-9755419.07 5135583.46 181.84
-9755419.16 5135590.29 182.69
-9755421.92 5135587.46 182.90
-9755423.61 5135586.57 182.58
-9755420.40 5135587.18 182.04
-9755422.41 5135579.64 182.51
-9755417.79 5135588.97 182.16
-9755423.66 5135584.49 182.91
-9755418.24 5135589.05 181.74
-9755421.33 5135584.83 182.51
-9755420.44 5135588.68 182.41
-9755421.70 5135588.50 182.85
-9755422.80 5135589.84 183.34
-9755421.03 5135583.37 181.73
-9755419.81 5135586.64 182.08
-9755420.69 5135590.19 182.55
-9755422.55 5135590.41 183.32
-9755414.21 5135589.52 182.11
-9755414.27 5135590.41 181.93
-9755414.26 5135585.73 181.39
-9755413.90 5135588.67 181.38
-9755413.10 5135590.55 182.03
-9755410.93 5135589.90 181.40
-9755411.92 5135579.16 181.49
-9755411.80 5135591.68 181.41
-9755412.42 5135591.91 181.94
-9755413.02 5135586.92 181.40
-9755411.79 5135591.60 182.00
-9755411.04 5135580.39 181.49
-9755410.35 5135595.75 181.73
-9755404.18 5135601.82 183.01
-9755404.46 5135597.48 182.12
-9755401.21 5135601.53 182.39
-9755410.06 5135596.08 181.75
-9755403.55 5135596.59 182.01
-9755402.39 5135596.86 182.02
-9755404.84 5135598.42 181.74
-9755401.18 5135596.92 181.34
-9755404.76 5135598.65 181.78
-9755402.68 5135597.64 181.85
-9755406.80 5135600.15 182.43
-9755409.74 5135601.02 182.61
-9755405.15 5135598.37 182.13
-9755407.68 5135596.07 181.37
-9755408.93 5135596.97 182.34
-9755403.18 5135601.02 182.26
-9755404.39 5135596.90 181.40
-9755407.68 5135601.04 182.61
-9755401.78 5135598.97 181.80
-9755407.29 5135595.99 181.93
-9755402.97 5135600.13 182.22
-9755408.88 5135596.39 181.72
-9755409.12 5135597.45 182.06
-9755403.62 5135596.95 181.37
-9755409.22 5135596.04 181.73
-9755405.36 5135598.67 182.12
-9755401.14 5135596.54 181.66
-9755401.44 5135596.90 182.00
-9755402.90 5135600.04 182.51
-9755401.46 5135597.07 181.74
-9755408.83 5135595.44 181.81
-9755409.75 5135599.26 182.42
-9755407.70 5135594.53 182.01
-9755402.34 5135601.56 182.43
-9755406.52 5135598.10 181.74
-9755405.62 5135600.99 182.45
-9755404.47 5135596.63 182.05
-9755402.78 5135599.03 181.96
-9755406.17 5135600.98 182.45
-9755403.24 5135599.85 182.44
-9755402.77 5135597.74 181.59
-9755405.60 5135598.14 181.73
-9755406.54 5135598.29 182.32
-9755408.02 5135598.63 182.58
-9755409.82 5135596.66 181.77
-9755400.30 5135596.86 181.34
-9755400.90 5135601.00 182.24
-9755400.57 5135598.99 181.74
-9755399.85 5135598.34 181.64
-9755398.66 5135598.16 181.98
-9755398.74 5135598.55 181.39
-9755398.58 5135598.96 181.64
-9755399.67 5135599.78 181.93
-9755398.23 5135600.15 181.94
-9755398.17 5135598.93 181.66
-9755398.21 5135598.66 181.66
-9755398.22 5135597.16 182.02
-9755409.29 5135575.91 181.51
-9755410.72 5135575.93 181.50
-9755407.14 5135588.66 181.45
-9755404.81 5135584.50 181.49
-9755403.60 5135585.33 181.50
-9755407.75 5135584.49 181.49
-9755410.13 5135583.31 181.48
-9755404.77 5135589.48 181.47
-9755406.87 5135584.18 181.50
-9755405.99 5135586.54 181.49
-9755401.26 5135583.25 181.51
-9755403.63 5135586.54 181.49
-9755400.35 5135587.38 181.50
-9755421.14 5135575.62 182.12
-9755420.49 5135575.67 182.08
-9755422.89 5135575.48 182.61
-9755443.23 5135605.73 187.59
-9755445.43 5135606.32 188.02
-9755445.09 5135606.79 188.02
-9755441.49 5135611.42 199.83
-9755443.08 5135609.78 196.15
-9755443.09 5135609.67 192.60
-9755440.74 5135606.81 187.93
-9755444.15 5135607.71 192.42
-9755444.86 5135607.09 196.19
-9755442.22 5135610.59 196.21
-9755440.83 5135612.89 188.65
-9755441.27 5135611.35 188.03
-9755440.66 5135610.46 187.79
-9755441.17 5135608.45 187.57
-9755442.15 5135612.19 188.22
-9755443.37 5135608.37 188.01
-9755441.57 5135611.29 188.03
-9755441.01 5135611.97 192.53
-9755445.57 5135606.53 188.05
-9755441.84 5135609.82 188.41
-9755442.67 5135608.65 187.83
-9755440.68 5135610.14 187.77
-9755443.73 5135608.48 199.81
-9755441.86 5135611.03 188.03
-9755441.04 5135607.21 187.53
-9755445.12 5135606.67 192.59
-9755443.45 5135609.25 195.15
-9755440.96 5135607.55 187.55
-9755443.96 5135607.50 188.00
-9755442.75 5135608.44 192.40
-9755439.86 5135608.72 187.90
-9755439.88 5135609.66 188.03
-9755440.05 5135610.44 187.77
-9755440.26 5135611.82 187.92
-9755430.06 5135619.52 187.56
-9755428.84 5135618.74 187.35
-9755427.01 5135618.95 187.26
-9755433.66 5135619.33 199.79
-9755429.12 5135619.54 187.54
-9755430.88 5135619.59 187.77
-9755427.62 5135622.38 188.26
-9755431.58 5135620.24 188.00
-9755430.37 5135619.87 187.78
-9755433.24 5135619.57 188.01
-9755427.59 5135623.79 192.62
-9755430.68 5135622.03 192.65
-9755434.07 5135619.85 188.19
-9755427.10 5135622.82 187.83
-9755429.18 5135620.18 187.63
-9755433.49 5135619.88 192.59
-9755433.04 5135619.93 192.55
-9755432.46 5135620.28 192.54
-9755426.17 5135621.30 187.57
-9755425.72 5135619.92 187.30
-9755425.00 5135624.85 188.01
-9755426.50 5135621.93 187.73
-9755426.72 5135621.86 187.79
-9755426.15 5135624.03 192.43
-9755425.02 5135624.54 187.99
-9755427.04 5135624.02 192.56
-9755426.77 5135621.66 187.60
-9755425.06 5135622.84 187.73
-9755425.81 5135622.83 187.80
-9755425.29 5135620.71 187.34
-9755427.04 5135621.35 187.58
-9755425.03 5135623.03 187.76
-9755424.95 5135622.81 187.61
-9755424.24 5135623.25 188.19
-9755424.95 5135623.64 187.80
-9755440.13 5135606.58 187.30
-9755432.05 5135605.94 185.82
-9755439.28 5135606.07 187.49
-9755435.71 5135608.39 187.28
-9755432.39 5135611.90 186.79
-9755431.66 5135606.10 186.25
-9755436.56 5135610.12 187.10
-9755430.68 5135618.69 187.56
-9755427.40 5135610.83 186.54
-9755439.77 5135613.35 187.99
-9755427.92 5135608.42 185.65
-9755430.00 5135611.10 186.28
-9755435.33 5135615.75 187.79
-9755431.19 5135618.40 187.57
-9755434.17 5135608.40 186.44
-9755428.26 5135608.10 185.61
-9755431.44 5135618.41 187.58
-9755437.78 5135612.25 187.52
-9755428.27 5135610.47 186.01
-9755436.58 5135608.10 187.48
-9755438.95 5135609.26 187.35
-9755433.27 5135616.61 187.57
-9755429.12 5135617.23 187.08
-9755429.11 5135618.66 187.35
-9755435.09 5135610.45 186.89
-9755437.38 5135611.61 187.34
-9755429.13 5135610.13 186.04
-9755432.42 5135615.43 187.34
-9755433.90 5135608.73 186.42
-9755429.49 5135613.40 186.66
-9755438.57 5135606.62 187.03
-9755430.05 5135608.42 186.00
-9755438.65 5135606.32 186.90
-9755434.82 5135608.41 186.64
-9755438.58 5135613.44 187.76
-9755438.58 5135608.40 187.25
-9755432.38 5135611.63 186.70
-9755437.79 5135611.53 187.53
-9755438.52 5135612.76 187.77
-9755439.79 5135608.07 187.35
-9755439.74 5135613.12 187.97
-9755431.85 5135607.61 186.45
-9755438.61 5135611.00 187.54
-9755427.10 5135606.31 185.27
-9755430.02 5135610.90 186.62
-9755439.70 5135610.60 187.64
-9755435.35 5135614.29 187.56
-9755439.19 5135611.29 187.61
-9755433.24 5135613.38 187.12
-9755429.50 5135615.93 186.97
-9755432.35 5135617.92 187.72
-9755436.81 5135607.18 186.70
-9755436.52 5135614.61 187.80
-9755428.29 5135618.44 187.34
-9755434.80 5135611.32 187.09
-9755428.30 5135613.38 186.43
-9755438.63 5135614.32 187.98
-9755436.98 5135616.07 199.81
-9755434.18 5135609.27 186.62
-9755429.10 5135616.32 187.06
-9755436.92 5135610.74 187.21
-9755430.39 5135610.12 186.85
-9755436.84 5135608.37 186.88
-9755434.75 5135616.60 187.81
-9755430.39 5135611.69 186.44
-9755427.45 5135617.39 187.48
-9755434.14 5135617.51 187.82
-9755435.03 5135618.12 192.55
-9755433.58 5135616.72 187.79
-9755429.12 5135617.44 187.10
-9755437.40 5135614.58 187.91
-9755430.94 5135612.49 186.65
-9755436.81 5135614.25 187.78
-9755433.61 5135611.65 186.96
-9755438.93 5135608.42 187.33
-9755435.58 5135617.00 192.41
-9755436.54 5135617.41 188.13
-9755429.13 5135609.29 186.01
-9755433.63 5135610.17 186.69
-9755435.61 5135617.56 188.03
-9755427.89 5135618.36 187.12
-9755434.16 5135615.46 187.59
-9755431.51 5135608.39 186.19
-9755432.38 5135614.58 187.13
-9755438.08 5135608.43 187.11
-9755434.78 5135609.07 187.10
-9755431.60 5135607.81 186.53
-9755439.38 5135614.29 199.79
-9755433.26 5135613.94 187.17
-9755428.26 5135614.58 186.66
-9755439.47 5135610.16 187.56
-9755439.76 5135611.61 187.78
-9755431.99 5135611.91 187.10
-9755427.35 5135611.93 186.11
-9755428.27 5135618.67 187.34
-9755437.67 5135610.13 187.32
-9755438.89 5135607.20 187.12
-9755437.45 5135611.73 187.51
-9755433.89 5135606.34 186.21
-9755437.75 5135614.02 187.87
-9755433.59 5135615.74 187.57
-9755434.13 5135616.61 187.80
-9755429.41 5135610.74 186.23
-9755430.05 5135615.37 186.92
-9755427.45 5135606.63 185.36
-9755438.04 5135610.44 187.33
-9755428.30 5135606.91 185.54
-9755438.92 5135613.68 188.30
-9755432.37 5135617.54 187.57
-9755435.23 5135609.34 187.21
-9755434.47 5135615.16 187.57
-9755432.36 5135618.09 187.79
-9755434.45 5135610.74 186.91
-9755433.25 5135608.09 186.28
-9755438.91 5135611.34 187.57
-9755439.80 5135612.83 187.99
-9755436.05 5135610.04 186.84
-9755428.31 5135613.71 186.44
-9755430.62 5135608.42 186.07
-9755436.53 5135616.63 188.03
-9755436.57 5135608.42 186.88
-9755432.41 5135616.89 187.56
-9755430.02 5135614.55 186.89
-9755429.16 5135611.78 186.66
-9755435.65 5135617.28 192.43
-9755427.08 5135612.54 186.20
-9755427.07 5135615.73 186.63
-9755426.56 5135608.42 185.56
-9755426.72 5135614.67 186.42
-9755425.00 5135608.72 185.34
-9755426.16 5135615.75 186.62
-9755426.24 5135606.33 185.12
-9755426.19 5135610.45 185.79
-9755425.29 5135613.40 186.00
-9755425.32 5135608.39 185.35
-9755427.03 5135607.85 185.99
-9755425.03 5135618.10 186.87
-9755425.96 5135615.79 186.58
-9755427.00 5135617.46 186.96
-9755426.73 5135612.84 186.22
-9755427.02 5135618.38 187.15
-9755426.17 5135617.47 186.91
-9755425.35 5135606.92 185.12
-9755425.02 5135611.16 185.76
-9755426.14 5135613.43 186.20
-9755426.22 5135614.21 186.27
-9755425.33 5135609.23 185.37
-9755425.63 5135614.69 186.26
-9755427.04 5135616.69 186.87
-9755424.55 5135612.87 186.00
-9755424.45 5135608.40 185.15
-9755424.44 5135611.73 185.72
-9755424.17 5135612.72 186.36
-9755447.14 5135605.61 188.18
-9755448.92 5135602.19 188.27
-9755442.78 5135605.41 187.57
-9755449.22 5135602.25 188.28
-9755446.38 5135603.10 187.83
-9755441.03 5135602.53 186.87
-9755444.76 5135605.42 187.79
-9755445.15 5135605.10 187.88
-9755443.97 5135604.25 187.56
-9755448.02 5135601.85 188.14
-9755441.84 5135605.16 187.35
-9755443.35 5135603.05 187.32
-9755441.03 5135603.68 187.11
-9755440.64 5135604.63 187.67
-9755442.23 5135603.94 187.34
-9755447.34 5135602.82 192.53
-9755445.11 5135601.84 187.60
-9755445.18 5135603.38 187.72
-9755444.58 5135603.19 188.17
-9755441.37 5135604.27 187.11
-9755447.80 5135601.83 188.04
-9755443.09 5135603.63 187.35
-9755445.96 5135603.35 187.77
-9755447.23 5135602.19 188.02
-9755443.61 5135604.28 187.53
-9755448.09 5135602.18 188.18
-9755450.20 5135602.79 187.50
-9755444.88 5135603.10 187.56
-9755444.85 5135602.20 187.57
-9755446.29 5135605.49 196.24
-9755444.26 5135601.85 187.36
-9755446.93 5135604.22 199.83
-9755446.92 5135602.76 188.00
-9755447.82 5135602.19 192.54
-9755444.61 5135603.93 187.63
-9755446.45 5135603.03 187.92
-9755443.35 5135602.21 187.32
-9755449.01 5135602.74 187.98
-9755444.47 5135604.20 187.64
-9755449.33 5135602.55 187.83
-9755442.83 5135604.29 187.36
-9755439.87 5135603.09 186.86
-9755439.90 5135602.72 186.67
-9755431.56 5135602.49 185.34
-9755427.94 5135602.24 184.97
-9755427.16 5135605.19 185.12
-9755428.02 5135601.92 184.73
-9755431.56 5135605.71 185.79
-9755435.69 5135605.73 186.44
-9755430.33 5135602.54 185.14
-9755438.64 5135604.24 186.67
-9755434.36 5135603.12 185.97
-9755433.95 5135604.29 186.00
-9755436.26 5135601.91 185.99
-9755429.85 5135603.74 185.34
-9755431.10 5135601.97 185.79
-9755430.09 5135604.27 185.34
-9755436.05 5135602.24 186.59
-9755430.67 5135603.43 185.33
-9755428.34 5135603.02 184.93
-9755435.94 5135602.55 186.63
-9755430.63 5135605.14 185.55
-9755436.26 5135604.71 186.96
-9755437.22 5135604.85 186.63
-9755436.51 5135603.69 186.23
-9755435.68 5135602.21 186.00
-9755436.55 5135605.12 186.45
-9755434.20 5135603.07 186.33
-9755429.54 5135604.18 185.33
-9755434.03 5135605.25 186.14
-9755439.58 5135604.26 186.90
-9755434.82 5135603.11 186.00
-9755438.97 5135602.22 186.46
-9755438.95 5135604.30 186.82
-9755429.46 5135605.15 185.36
-9755436.11 5135604.33 186.95
-9755438.50 5135602.73 187.05
-9755439.26 5135603.67 186.67
-9755427.18 5135604.26 184.97
-9755426.25 5135603.39 184.74
-9755426.74 5135602.17 185.11
-9755425.69 5135601.88 185.05
-9755426.25 5135605.41 185.05
-9755425.70 5135602.23 184.54
-9755424.26 5135602.29 184.93
-9755424.45 5135602.58 182.98
-9755424.48 5135602.27 184.93
-9755420.85 5135618.98 186.66
-9755414.64 5135618.95 186.07
-9755422.92 5135618.72 186.69
-9755416.74 5135625.38 187.99
-9755424.15 5135623.64 187.78
-9755422.37 5135619.19 186.69
-9755414.78 5135621.66 186.70
-9755415.49 5135621.57 186.66
-9755417.57 5135626.30 187.82
-9755417.67 5135626.21 187.90
-9755420.83 5135625.77 187.76
-9755419.69 5135620.17 186.64
-9755417.87 5135624.84 187.45
-9755424.10 5135621.64 187.35
-9755422.00 5135624.45 187.57
-9755417.58 5135620.56 186.63
-9755422.48 5135625.43 187.81
-9755415.55 5135624.75 187.13
-9755422.87 5135623.97 187.58
-9755419.27 5135623.45 187.16
-9755415.24 5135622.53 186.73
-9755417.58 5135620.74 187.10
-9755423.85 5135619.54 187.47
-9755421.03 5135622.44 187.15
-9755415.84 5135622.76 186.89
-9755414.69 5135627.85 197.48
-9755423.49 5135621.58 187.34
-9755415.47 5135622.46 186.70
-9755421.18 5135624.92 188.11
-9755420.83 5135621.62 187.09
-9755421.43 5135621.65 187.11
-9755417.92 5135622.43 186.96
-9755422.09 5135622.50 187.32
-9755418.33 5135620.14 186.64
-9755421.73 5135620.74 186.89
-9755423.84 5135620.91 187.15
-9755422.56 5135624.19 187.58
-9755417.97 5135620.69 186.64
-9755423.40 5135622.78 188.08
-9755420.23 5135625.71 187.76
-9755418.73 5135621.52 186.63
-9755420.85 5135620.71 186.89
-9755423.66 5135624.84 187.91
-9755417.35 5135619.55 186.46
-9755414.75 5135628.15 197.91
-9755420.60 5135621.56 187.09
-9755416.71 5135620.42 186.52
-9755419.68 5135620.82 186.80
-9755414.56 5135620.35 186.86
-9755422.90 5135622.22 187.33
-9755411.11 5135623.64 186.67
-9755413.44 5135622.91 187.03
-9755411.08 5135619.16 186.42
-9755412.29 5135621.03 186.23
-9755412.71 5135622.11 187.10
-9755411.43 5135620.13 186.03
-9755412.05 5135628.17 197.47
-9755413.42 5135624.55 187.11
-9755413.44 5135620.16 186.23
-9755411.82 5135626.66 197.34
-9755410.62 5135619.66 185.98
-9755410.57 5135626.41 196.60
-9755413.47 5135623.95 186.91
-9755413.15 5135620.93 186.57
-9755412.23 5135626.68 196.60
-9755412.29 5135619.97 186.47
-9755412.92 5135619.55 186.02
-9755420.00 5135605.76 183.56
-9755419.18 5135605.80 183.57
-9755411.51 5135605.54 183.84
-9755420.09 5135605.81 185.01
-9755418.37 5135617.13 186.41
-9755415.81 5135618.68 186.13
-9755421.19 5135606.86 184.96
-9755422.58 5135618.69 187.29
-9755420.03 5135611.34 185.15
-9755416.74 5135613.70 185.31
-9755422.68 5135614.98 185.85
-9755420.85 5135609.60 184.82
-9755420.89 5135607.29 184.62
-9755424.13 5135615.72 186.39
-9755415.02 5135606.31 183.70
-9755422.88 5135615.50 186.53
-9755416.41 5135617.50 185.99
-9755423.35 5135606.61 184.75
-9755420.27 5135618.71 186.45
-9755422.90 5135609.32 185.62
-9755416.38 5135616.32 186.01
-9755420.86 5135609.53 184.81
-9755424.13 5135613.73 186.03
-9755417.71 5135608.39 184.52
-9755415.93 5135609.27 184.49
-9755421.25 5135617.27 186.67
-9755417.62 5135614.55 185.56
-9755418.56 5135610.47 184.93
-9755414.69 5135608.97 184.32
-9755421.02 5135617.18 186.75
-9755415.58 5135612.54 184.94
-9755414.40 5135609.63 184.91
-9755417.32 5135618.25 186.02
-9755420.90 5135617.56 186.84
-9755414.72 5135612.21 184.79
-9755414.73 5135606.93 184.58
-9755417.32 5135616.94 186.35
-9755417.96 5135615.75 185.79
-9755423.82 5135606.09 184.74
-9755418.90 5135609.82 184.76
-9755419.44 5135607.57 183.71
-9755419.39 5135613.27 185.96
-9755416.78 5135608.04 184.93
-9755422.37 5135614.20 185.93
-9755415.90 5135611.94 184.93
-9755416.74 5135608.25 184.93
-9755422.36 5135615.77 186.21
-9755415.92 5135616.38 186.18
-9755422.59 5135615.13 186.03
-9755421.73 5135615.16 186.01
-9755420.63 5135607.52 184.62
-9755419.73 5135616.65 186.02
-9755422.98 5135615.19 186.19
-9755416.81 5135611.30 184.91
-9755417.85 5135617.51 186.54
-9755420.00 5135607.88 183.98
-9755418.32 5135610.10 185.05
-9755416.29 5135615.83 186.01
-9755420.29 5135609.30 184.62
-9755419.48 5135610.10 184.96
-9755422.10 5135615.54 186.66
-9755421.82 5135615.81 186.64
-9755416.75 5135609.61 184.55
-9755422.05 5135614.87 186.01
-9755419.06 5135617.49 186.20
-9755418.27 5135615.13 186.08
-9755414.98 5135614.61 185.33
-9755415.71 5135609.63 185.01
-9755421.47 5135611.62 185.42
-9755420.03 5135612.53 185.36
-9755416.07 5135616.25 185.61
-9755420.32 5135608.16 184.19
-9755417.96 5135606.66 183.57
-9755415.03 5135613.45 185.15
-9755416.44 5135606.37 183.62
-9755419.70 5135615.15 185.81
-9755420.61 5135608.38 184.67
-9755414.71 5135611.64 184.71
-9755415.86 5135614.54 185.36
-9755423.24 5135617.55 186.65
-9755419.99 5135616.61 186.02
-9755421.79 5135618.15 186.46
-9755422.93 5135610.81 185.33
-9755416.40 5135606.64 184.42
-9755418.47 5135614.85 185.56
-9755424.16 5135606.95 184.94
-9755418.29 5135615.45 185.77
-9755422.08 5135618.33 186.65
-9755422.21 5135609.27 185.13
-9755423.56 5135614.58 186.15
-9755416.18 5135609.25 184.51
-9755420.90 5135610.48 185.15
-9755423.54 5135612.51 185.78
-9755420.73 5135616.52 186.63
-9755415.57 5135613.09 185.13
-9755413.52 5135611.94 184.74
-9755411.15 5135612.18 184.56
-9755410.91 5135608.10 183.89
-9755413.79 5135617.19 185.70
-9755410.97 5135606.05 184.11
-9755412.67 5135609.83 184.32
-9755413.17 5135609.31 184.66
-9755410.59 5135618.31 185.62
-9755410.27 5135607.18 183.71
-9755413.78 5135606.49 184.13
-9755412.61 5135618.33 185.79
-9755411.16 5135615.42 185.15
-9755412.06 5135607.21 183.72
-9755413.22 5135610.11 184.92
-9755412.63 5135611.87 184.66
-9755410.61 5135612.57 184.67
-9755410.60 5135616.62 185.36
-9755411.93 5135608.46 184.01
-9755411.44 5135618.37 185.78
-9755413.26 5135610.23 184.68
-9755413.50 5135606.32 183.51
-9755411.74 5135608.43 183.96
-9755411.73 5135616.63 185.39
-9755413.54 5135606.51 184.18
-9755413.28 5135617.86 186.33
-9755410.60 5135612.13 185.01
-9755411.48 5135609.24 184.12
-9755410.59 5135606.56 184.15
-9755412.17 5135608.27 184.42
-9755412.05 5135612.21 184.69
-9755413.20 5135617.79 185.80
-9755412.59 5135611.26 184.54
-9755410.83 5135617.47 185.58
-9755410.57 5135611.03 184.33
-9755413.86 5135612.50 185.24
-9755410.22 5135620.40 186.01
-9755409.37 5135621.07 186.12
-9755405.20 5135628.18 196.90
-9755404.57 5135623.64 186.46
-9755406.41 5135626.54 187.11
-9755409.00 5135627.41 197.04
-9755403.78 5135624.51 186.67
-9755401.01 5135621.16 185.81
-9755402.86 5135622.40 186.25
-9755406.42 5135621.02 186.05
-9755403.17 5135620.67 185.80
-9755406.46 5135620.10 185.85
-9755401.88 5135624.43 186.50
-9755404.35 5135620.39 185.81
-9755408.50 5135621.58 186.22
-9755405.29 5135619.52 185.70
-9755409.72 5135626.99 196.61
-9755408.90 5135626.21 196.56
-9755401.95 5135626.44 186.90
-9755405.84 5135619.18 185.64
-9755405.17 5135628.01 197.39
-9755404.98 5135627.26 196.54
-9755401.08 5135622.39 186.19
-9755406.72 5135621.57 186.15
-9755401.86 5135623.42 186.44
-9755403.15 5135624.58 186.68
-9755406.74 5135627.77 196.60
-9755401.94 5135622.44 186.22
-9755409.29 5135622.12 186.26
-9755402.57 5135619.93 186.21
-9755401.67 5135625.42 186.68
-9755409.72 5135628.18 197.05
-9755404.32 5135623.66 186.46
-9755405.58 5135625.82 196.64
-9755407.61 5135621.55 186.20
-9755404.36 5135626.96 196.16
-9755409.64 5135621.60 186.21
-9755407.07 5135619.54 185.77
-9755410.02 5135625.28 196.77
-9755408.28 5135622.19 186.61
-9755407.96 5135628.13 197.04
-9755408.05 5135621.25 186.61
-9755401.12 5135624.58 186.57
-9755400.72 5135625.33 186.68
-9755409.35 5135621.91 186.22
-9755409.36 5135622.79 186.43
-9755400.54 5135624.85 186.66
-9755405.50 5135623.96 186.59
-9755409.63 5135622.48 186.44
-9755407.59 5135622.45 186.34
-9755403.69 5135623.24 186.45
-9755399.43 5135627.60 196.65
-9755399.91 5135623.61 186.75
-9755399.49 5135619.55 186.09
-9755399.14 5135626.68 196.13
-9755399.15 5135620.47 185.76
-9755399.54 5135623.82 186.36
-9755399.10 5135628.18 196.59
-9755399.09 5135627.30 196.11
-9755399.32 5135626.94 196.11
-9755399.08 5135626.72 196.66
-9755398.48 5135628.12 196.58
-9755397.89 5135626.92 196.71
-9755397.82 5135624.77 186.55
-9755397.85 5135627.96 196.57
-9755397.88 5135620.97 185.79
-9755397.83 5135623.30 186.25
-9755397.84 5135624.14 186.42
-9755401.47 5135605.72 182.99
-9755406.76 5135606.35 183.34
-9755403.84 5135606.31 183.20
-9755407.04 5135613.39 184.52
-9755407.58 5135616.62 185.64
-9755402.37 5135612.26 184.22
-9755407.86 5135618.32 185.54
-9755408.53 5135608.42 184.11
-9755410.51 5135617.38 185.96
-9755401.95 5135616.27 184.93
-9755408.48 5135611.32 184.29
-9755404.39 5135612.20 184.30
-9755408.47 5135611.61 184.31
-9755406.50 5135615.14 184.94
-9755401.39 5135608.82 184.17
-9755401.13 5135617.48 185.15
-9755405.27 5135608.34 183.52
-9755404.35 5135615.14 185.36
-9755400.53 5135609.18 183.60
-9755402.29 5135617.43 185.15
-9755403.22 5135608.36 183.59
-9755408.41 5135616.87 185.79
-9755409.38 5135611.31 184.31
-9755407.75 5135610.96 184.74
-9755401.75 5135607.11 183.36
-9755401.98 5135616.85 185.10
-9755401.21 5135611.11 184.55
-9755409.73 5135606.04 183.53
-9755407.60 5135612.17 184.33
-9755402.33 5135614.82 184.72
-9755402.74 5135613.10 184.77
-9755400.92 5135611.27 183.95
-9755403.18 5135610.12 183.90
-9755407.01 5135616.63 185.12
-9755403.22 5135614.86 184.74
-9755401.05 5135613.24 184.99
-9755408.15 5135617.45 185.36
-9755405.26 5135609.27 183.72
-9755403.08 5135613.29 184.93
-9755407.74 5135611.02 184.71
-9755409.42 5135610.38 184.13
-9755405.55 5135611.63 184.12
-9755407.67 5135606.31 183.35
-9755403.20 5135617.40 185.15
-9755404.04 5135611.87 184.23
-9755401.36 5135609.68 184.30
-9755407.15 5135616.70 185.62
-9755408.79 5135617.51 185.36
-9755407.60 5135614.59 184.74
-9755409.38 5135615.38 185.09
-9755409.37 5135614.55 184.94
-9755409.38 5135608.44 184.36
-9755408.55 5135606.29 183.46
-9755403.81 5135607.22 183.40
-9755401.18 5135610.05 183.76
-9755407.35 5135607.21 183.52
-9755409.33 5135617.17 185.35
-9755407.30 5135615.68 184.91
-9755405.45 5135613.35 184.53
-9755401.50 5135607.22 183.36
-9755409.36 5135612.15 184.52
-9755409.04 5135617.48 185.35
-9755406.34 5135609.48 183.77
-9755408.60 5135607.57 183.65
-9755408.51 5135607.81 183.71
-9755402.92 5135616.65 185.12
-9755402.42 5135613.29 184.89
-9755409.36 5135613.04 184.63
-9755408.55 5135606.94 183.53
-9755405.62 5135611.92 184.28
-9755407.92 5135610.95 184.12
-9755409.72 5135607.52 183.73
-9755402.39 5135614.22 185.06
-9755403.74 5135614.22 185.15
-9755407.34 5135608.34 183.70
-9755406.43 5135609.27 183.73
-9755408.17 5135616.58 185.12
-9755405.28 5135613.09 184.49
-9755409.76 5135610.24 184.68
-9755401.14 5135610.98 183.93
-9755405.53 5135609.30 183.71
-9755408.83 5135609.24 183.91
-9755400.53 5135611.55 184.11
-9755401.14 5135608.31 183.55
-9755409.33 5135608.33 183.72
-9755404.41 5135607.18 183.35
-9755407.23 5135613.61 184.54
-9755402.32 5135611.56 184.13
-9755404.00 5135617.55 185.41
-9755402.85 5135616.24 184.95
-9755401.11 5135618.62 185.37
-9755404.00 5135616.89 185.13
-9755406.44 5135609.78 183.90
-9755406.94 5135612.83 184.47
-9755399.63 5135617.43 185.13
-9755400.24 5135617.44 185.13
-9755400.22 5135618.31 185.36
-9755399.85 5135616.76 185.46
-9755399.34 5135613.78 184.94
-9755399.15 5135605.97 183.01
-9755398.78 5135617.37 185.67
-9755399.09 5135611.47 184.55
-9755399.61 5135609.25 183.58
-9755398.75 5135612.90 184.72
-9755399.71 5135609.14 184.14
-9755400.30 5135617.23 185.12
-9755399.09 5135607.74 183.37
-9755399.11 5135613.87 184.93
-9755398.18 5135611.86 184.11
-9755398.31 5135606.29 183.15
-9755397.94 5135606.66 183.77
-9755398.18 5135608.63 183.54
-9755398.21 5135607.43 183.35
-9755397.83 5135616.57 184.94
-9755414.70 5135604.32 183.40
-9755422.72 5135603.45 183.54
-9755415.58 5135604.28 183.50
-9755420.83 5135603.11 184.45
-9755421.76 5135605.46 184.56
-9755417.63 5135605.68 183.65
-9755422.09 5135602.52 183.56
-9755417.68 5135603.09 184.03
-9755419.18 5135602.23 183.51
-9755421.20 5135604.30 183.57
-9755417.36 5135603.12 183.50
-9755419.73 5135601.97 183.51
-9755423.07 5135605.47 184.66
-9755417.98 5135604.00 183.72
-9755419.74 5135603.44 183.70
-9755416.79 5135603.67 183.50
-9755419.19 5135605.03 184.28
-9755418.28 5135603.09 183.51
-9755418.39 5135603.65 184.11
-9755416.49 5135604.27 183.51
-9755417.37 5135605.17 183.70
-9755416.82 5135601.98 183.33
-9755417.96 5135603.41 183.50
-9755419.11 5135603.10 184.08
-9755414.72 5135603.65 183.82
-9755414.19 5135603.37 183.34
-9755413.59 5135601.87 183.43
-9755413.25 5135602.45 183.46
-9755410.50 5135605.08 183.69
-9755412.62 5135603.03 183.75
-9755411.77 5135603.04 183.54
-9755411.54 5135604.93 183.34
-9755413.58 5135603.09 183.15
-9755411.76 5135604.77 183.94
-9755412.72 5135602.46 182.99
-9755411.81 5135603.14 183.03
-9755412.70 5135602.84 183.73
-9755410.80 5135605.10 183.68
-9755413.50 5135605.23 183.48
-9755410.47 5135604.18 183.73
-9755413.56 5135603.08 183.70
-9755410.92 5135601.87 183.23
-9755410.32 5135603.07 182.97
-9755407.93 5135602.19 183.35
-9755408.52 5135602.20 182.78
-9755404.37 5135604.85 182.96
-9755409.91 5135604.30 183.56
-9755404.44 5135603.91 182.79
-9755405.59 5135603.67 182.80
-9755404.33 5135603.77 183.26
-9755404.70 5135602.67 183.19
-9755404.44 5135601.85 182.95
-9755408.53 5135604.54 183.05
-9755407.63 5135601.90 182.62
-9755405.09 5135603.88 183.27
-9755408.86 5135601.95 183.29
-9755407.41 5135602.20 183.27
-9755409.24 5135602.53 183.32
-9755405.06 5135604.28 182.96
-9755402.08 5135605.09 183.00
-9755401.73 5135603.03 182.65
-9755408.58 5135603.41 182.95
-9755405.90 5135604.25 182.96
-9755410.32 5135603.97 183.01
-9755409.70 5135604.55 183.16
-9755409.72 5135602.44 182.82
-9755407.65 5135604.63 183.16
-9755403.51 5135602.20 182.58
-9755403.53 5135602.98 182.95
-9755408.53 5135603.69 182.96
-9755410.12 5135602.74 183.04
-9755400.86 5135601.88 182.43
-9755406.75 5135603.03 182.79
-9755406.50 5135601.89 182.61
-9755410.09 5135603.30 183.47
-9755405.60 5135602.18 182.60
-9755404.20 5135602.27 182.59
-9755408.53 5135602.85 182.79
-9755400.29 5135603.32 182.62
-9755400.59 5135603.07 182.61
-9755400.26 5135604.71 183.34
-9755399.19 5135603.56 183.21
-9755398.23 5135602.46 182.43
-9755397.91 5135603.91 182.62
-9755424.97 5135618.66 186.89
-9755421.92 5135619.42 186.68
-9755422.47 5135619.12 187.27
-9755420.86 5135618.89 186.98
-9755423.24 5135618.65 187.03
-9755423.80 5135619.07 187.33
-9755420.31 5135618.60 186.96
-9755418.20 5135618.43 186.22
-9755416.18 5135618.98 186.22
-9755418.83 5135618.95 186.43
-9755422.63 5135619.02 186.78
-9755416.88 5135618.60 186.50
-9755415.80 5135618.99 186.22
-9755422.35 5135618.39 186.67
-9755419.06 5135619.23 186.43
-9755414.04 5135618.98 186.02
-9755412.93 5135618.95 186.00
-9755413.30 5135618.60 186.25
-9755411.94 5135618.95 186.34
-9755412.86 5135618.50 186.36
-9755410.83 5135618.63 185.79
-9755417.77 5135620.59 187.13
-9755415.24 5135624.20 187.11
-9755421.90 5135620.26 187.44
-9755419.39 5135620.99 186.89
-9755413.75 5135623.36 186.89
-9755415.59 5135621.34 186.64
-9755420.00 5135620.77 186.88
-9755416.10 5135623.32 186.89
-9755416.14 5135619.54 186.34
-9755416.13 5135621.37 186.66
-9755420.01 5135621.21 187.38
-9755414.46 5135627.87 198.26
-9755415.25 5135620.14 186.36
-9755418.19 5135621.28 187.15
-9755415.27 5135623.33 186.89
-9755416.41 5135622.44 186.87
-9755414.53 5135627.68 197.48
-9755419.08 5135621.01 186.64
-9755415.25 5135619.25 186.20
-9755414.86 5135623.24 187.36
-9755414.54 5135619.77 186.10
-9755414.38 5135623.32 186.88
-9755414.98 5135622.78 186.89
-9755422.06 5135619.83 186.88
-9755419.38 5135621.31 186.89
-9755416.99 5135623.36 187.10
-9755414.41 5135622.51 187.22
-9755414.02 5135622.72 186.67
-9755413.75 5135625.44 187.30
-9755419.65 5135620.70 186.66
-9755420.30 5135619.59 186.66
-9755413.80 5135619.84 186.24
-9755416.12 5135624.27 187.69
-9755422.58 5135620.64 187.57
-9755413.86 5135628.14 197.94
-9755414.98 5135623.07 186.90
-9755416.13 5135620.14 186.43
-9755416.15 5135622.80 186.89
-9755413.50 5135621.01 186.44
-9755418.15 5135621.55 186.86
-9755413.81 5135623.84 187.22
-9755413.79 5135620.59 186.23
-9755413.22 5135623.11 186.93
-9755412.78 5135619.22 186.33
-9755413.52 5135625.16 187.71
-9755411.12 5135623.33 186.67
-9755413.14 5135621.25 186.45
-9755410.23 5135626.70 196.60
-9755411.21 5135622.86 187.12
-9755410.76 5135619.88 186.59
-9755412.89 5135621.09 186.49
-9755412.00 5135623.10 186.65
-9755411.99 5135624.22 186.87
-9755412.79 5135625.81 187.41
-9755411.66 5135623.89 186.89
-9755411.51 5135620.03 186.54
-9755411.08 5135624.00 186.69
-9755410.83 5135620.99 186.22
-9755410.87 5135627.59 197.05
-9755410.25 5135620.39 186.50
-9755411.22 5135625.01 187.13
-9755411.69 5135619.51 186.01
-9755410.49 5135622.50 186.44
-9755410.91 5135626.45 196.59
-9755410.27 5135618.95 185.80
-9755411.08 5135624.81 186.89
-9755411.14 5135622.52 186.43
-9755412.10 5135619.84 186.54
-9755410.24 5135621.55 186.24
-9755412.90 5135624.88 187.12
-9755411.38 5135625.67 187.09
-9755410.82 5135620.54 186.21
-9755411.06 5135625.94 187.10
-9755411.54 5135626.82 197.04
-9755412.33 5135619.88 186.04
-9755411.69 5135625.14 187.10
-9755412.33 5135627.59 197.04
-9755412.86 5135621.87 186.45
-9755413.54 5135621.70 187.13
-9755412.86 5135623.94 186.90
-9755414.03 5135622.74 187.22
-9755410.19 5135625.91 187.11
-9755411.99 5135625.49 187.11
-9755410.22 5135623.01 187.02
-9755411.71 5135621.07 186.22
-9755410.20 5135625.65 187.10
-9755411.73 5135623.36 186.66
-9755410.84 5135621.93 186.43
-9755412.02 5135621.60 186.44
-9755411.61 5135621.57 186.82
-9755410.19 5135624.42 187.32
-9755411.96 5135623.31 186.65
-9755412.02 5135624.90 187.07
-9755412.08 5135626.42 197.48
-9755410.66 5135620.13 186.54
-9755411.74 5135620.82 186.60
-9755433.91 5135606.00 186.21
-9755434.22 5135606.03 186.21
-9755432.66 5135605.78 186.57
-9755432.70 5135606.06 186.00
-9755431.26 5135605.73 185.79
-9755435.41 5135605.73 186.44
-9755433.12 5135605.94 186.30
-9755434.17 5135606.26 186.82
-9755432.72 5135605.73 186.00
-9755429.81 5135605.73 185.55
-9755426.51 5135606.05 185.13
-9755428.63 5135606.92 185.58
-9755430.04 5135611.00 186.54
-9755427.34 5135614.86 186.47
-9755433.97 5135607.79 186.43
-9755433.93 5135608.15 186.42
-9755428.00 5135610.13 186.01
-9755430.92 5135607.50 185.99
-9755429.43 5135614.87 186.87
-9755436.33 5135606.65 186.64
-9755430.02 5135608.69 186.02
-9755432.75 5135608.41 186.24
-9755431.63 5135608.10 186.61
-9755428.11 5135612.97 186.75
-9755428.02 5135608.69 185.79
-9755430.62 5135608.68 186.11
-9755433.26 5135608.38 186.41
-9755431.30 5135606.95 186.00
-9755430.02 5135611.97 186.43
-9755429.86 5135613.61 187.28
-9755427.71 5135606.05 185.33
-9755435.70 5135606.34 186.45
-9755429.61 5135609.83 186.55
-9755433.84 5135606.88 186.81
-9755429.77 5135613.08 186.66
-9755430.14 5135610.86 186.58
-9755429.26 5135608.70 185.92
-9755428.48 5135609.26 186.28
-9755430.62 5135607.53 186.37
-9755427.42 5135610.46 186.04
-9755427.98 5135609.30 185.79
-9755430.95 5135609.55 186.26
-9755427.69 5135609.04 185.79
-9755426.79 5135611.00 186.43
-9755430.58 5135610.42 186.74
-9755432.55 5135608.44 186.11
-9755432.15 5135606.39 185.96
-9755428.92 5135610.78 186.23
-9755427.47 5135610.77 186.47
-9755429.69 5135610.19 186.60
-9755433.27 5135609.86 186.65
-9755429.75 5135610.15 186.23
-9755429.21 5135607.20 185.70
-9755430.62 5135607.28 185.93
-9755431.49 5135611.63 186.65
-9755429.42 5135606.93 185.68
-9755431.77 5135608.16 186.20
-9755430.90 5135610.15 186.39
-9755429.75 5135610.85 186.60
-9755430.57 5135610.77 186.43
-9755427.40 5135613.69 186.43
-9755428.94 5135611.36 186.63
-9755427.95 5135613.10 186.41
-9755436.17 5135606.72 187.22
-9755428.88 5135609.58 186.01
-9755427.39 5135608.07 185.57
-9755427.69 5135609.92 185.82
-9755428.26 5135609.10 186.32
-9755429.13 5135610.61 186.01
-9755432.41 5135610.75 186.65
-9755427.68 5135614.87 186.62
-9755431.89 5135606.57 185.98
-9755430.12 5135610.41 186.85
-9755433.28 5135606.93 186.21
-9755428.61 5135608.15 185.78
-9755433.61 5135607.60 186.14
-9755429.96 5135612.43 186.78
-9755432.16 5135611.30 186.67
-9755430.66 5135606.30 185.78
-9755430.91 5135612.25 186.64
-9755429.73 5135608.38 185.95
-9755433.92 5135607.49 186.42
-9755435.83 5135606.33 187.02
-9755432.72 5135608.38 186.85
-9755428.31 5135611.11 186.22
