-9755165.82 5135633.90 189.09
-9755168.75 5135633.95 190.87
-9755167.61 5135633.05 190.81
-9755166.13 5135630.69 190.08
-9755171.04 5135630.58 192.24
-9755167.99 5135628.51 191.40
-9755170.40 5135632.75 191.87
-9755167.78 5135630.48 192.85
-9755165.48 5135632.95 190.69
-9755169.67 5135633.59 188.68
-9755166.82 5135633.66 189.99
-9755168.67 5135632.78 191.78
-9755170.50 5135633.98 188.70
-9755166.35 5135631.12 191.47
-9755165.19 5135629.36 189.71
-9755167.27 5135628.33 190.78
-9755165.91 5135629.78 190.85
-9755169.63 5135628.99 193.19
-9755169.66 5135633.73 190.30
-9755168.83 5135629.29 191.84
-9755164.90 5135629.42 189.22
-9755164.88 5135630.67 189.50
-9755165.59 5135631.85 192.01
-9755167.66 5135629.10 192.16
-9755166.98 5135632.39 191.64
-9755167.28 5135633.56 190.84
-9755164.19 5135629.92 187.56
-9755169.69 5135629.37 192.41
-9755167.65 5135628.20 191.64
-9755166.40 5135630.24 192.06
-9755170.76 5135629.33 192.25
-9755164.31 5135632.28 187.75
-9755164.56 5135629.15 189.56
-9755164.70 5135633.05 189.12
-9755167.20 5135634.55 189.12
-9755163.88 5135631.85 187.89
-9755166.46 5135628.69 189.86
-9755170.23 5135629.00 191.73
-9755167.50 5135631.77 189.14
-9755165.57 5135631.87 189.67
-9755167.27 5135630.55 192.35
-9755164.22 5135628.95 187.42
-9755170.22 5135629.82 189.21
-9755166.99 5135628.96 191.30
-9755167.29 5135630.43 192.85
-9755165.82 5135629.42 190.86
-9755164.92 5135632.82 189.15
-9755165.55 5135633.18 188.96
-9755168.44 5135630.22 193.19
-9755163.43 5135629.95 186.98
-9755165.76 5135629.78 189.65
-9755169.32 5135631.07 193.22
-9755163.50 5135629.98 186.62
-9755170.34 5135630.85 191.59
-9755164.70 5135630.34 189.63
-9755169.91 5135631.14 191.78
-9755167.59 5135634.66 191.26
-9755165.55 5135629.75 189.62
-9755167.43 5135630.61 191.19
-9755170.54 5135628.23 192.06
-9755163.92 5135633.38 185.60
-9755167.23 5135631.26 192.46
-9755163.78 5135629.94 186.62
-9755170.78 5135631.07 190.50
-9755164.96 5135630.72 190.97
-9755168.43 5135633.81 189.68
-9755164.68 5135633.12 188.14
-9755165.84 5135631.82 189.99
-9755165.07 5135633.26 186.14
-9755166.30 5135634.62 187.68
-9755170.84 5135632.97 191.13
-9755162.69 5135629.07 187.28
-9755167.30 5135633.05 191.63
-9755166.77 5135629.71 191.94
-9755164.19 5135630.62 186.93
-9755165.49 5135630.21 189.34
-9755164.91 5135628.37 188.32
-9755167.89 5135631.41 193.38
-9755164.40 5135633.20 188.16
-9755163.18 5135630.17 186.01
-9755171.14 5135631.84 191.51
-9755165.48 5135630.05 190.86
-9755165.90 5135629.05 190.99
-9755165.65 5135631.22 191.56
-9755170.80 5135630.60 190.89
-9755165.81 5135631.47 191.49
-9755170.19 5135632.32 191.59
-9755167.58 5135628.49 191.66
-9755169.66 5135629.75 191.48
-9755168.09 5135634.73 189.35
-9755166.73 5135630.55 192.43
-9755164.60 5135633.77 186.25
-9755165.59 5135631.07 189.00
-9755163.51 5135630.76 186.91
-9755164.08 5135631.43 185.87
-9755164.37 5135633.85 185.93
-9755167.25 5135631.07 193.35
-9755164.57 5135629.85 188.84
-9755166.33 5135630.96 191.67
-9755167.46 5135632.22 191.32
-9755164.92 5135631.11 190.98
-9755164.25 5135630.70 188.31
-9755165.89 5135631.96 191.56
-9755165.41 5135632.56 188.29
-9755163.90 5135629.58 186.67
-9755165.59 5135628.89 189.47
-9755168.49 5135628.19 191.36
-9755166.29 5135630.21 191.96
-9755167.03 5135632.01 192.43
-9755171.39 5135633.66 189.17
-9755164.99 5135632.78 187.39
-9755163.20 5135631.07 186.89
-9755164.29 5135628.71 187.38
-9755167.50 5135634.51 189.78
-9755167.43 5135631.66 192.80
-9755169.68 5135629.43 192.84
-9755165.07 5135631.02 188.51
-9755167.91 5135633.50 190.32
-9755165.86 5135628.45 188.65
-9755167.11 5135632.30 193.12
-9755167.78 5135632.65 190.80
-9755164.66 5135630.15 189.17
-9755170.81 5135630.33 190.90
-9755164.31 5135632.20 187.68
-9755166.72 5135629.74 190.33
-9755167.53 5135633.31 190.03
-9755166.31 5135631.89 191.71
-9755170.88 5135629.22 191.87
-9755170.17 5135634.35 188.38
-9755168.82 5135634.56 187.99
-9755166.45 5135628.57 190.78
-9755169.60 5135632.22 190.85
-9755164.92 5135631.48 190.42
-9755165.89 5135633.95 190.57
-9755165.22 5135630.67 191.00
-9755163.35 5135629.01 186.72
-9755164.64 5135628.95 189.40
-9755170.88 5135630.05 191.08
-9755165.41 5135628.64 189.52
-9755164.90 5135632.72 189.46
-9755167.51 5135631.22 192.27
-9755166.02 5135628.26 189.17
-9755166.08 5135632.22 192.33
-9755169.56 5135630.44 193.06
-9755167.57 5135628.22 191.31
-9755167.94 5135631.40 193.42
-9755166.20 5135631.92 191.67
-9755168.45 5135633.83 191.63
-9755167.40 5135633.32 189.97
-9755165.85 5135633.91 190.20
-9755164.43 5135631.05 187.53
-9755166.66 5135628.62 190.79
-9755168.98 5135629.40 192.44
-9755168.10 5135633.06 191.15
-9755165.97 5135630.83 190.70
-9755165.45 5135633.15 187.50
-9755164.38 5135630.63 187.99
-9755166.69 5135629.91 190.37
-9755163.76 5135628.54 187.97
-9755167.86 5135631.92 192.94
-9755166.99 5135628.70 191.07
-9755166.75 5135632.36 191.71
-9755164.47 5135629.83 188.79
-9755167.23 5135634.43 190.99
-9755164.61 5135629.89 187.74
-9755164.58 5135630.23 187.68
-9755163.48 5135630.70 186.32
-9755166.03 5135633.10 188.11
-9755165.60 5135629.18 190.83
-9755166.72 5135634.09 189.95
-9755167.66 5135628.91 192.16
-9755162.82 5135631.08 185.94
-9755165.92 5135628.78 191.05
-9755167.29 5135632.72 190.60
-9755164.63 5135629.83 188.05
-9755166.39 5135632.97 191.19
-9755166.42 5135630.59 191.68
-9755168.81 5135634.37 187.87
-9755163.84 5135630.44 186.69
-9755164.64 5135628.91 188.54
-9755167.55 5135630.19 192.47
-9755171.26 5135632.93 191.13
-9755168.61 5135628.31 189.84
-9755164.92 5135634.49 187.59
-9755167.77 5135629.91 191.90
-9755166.72 5135631.45 191.63
-9755166.77 5135632.99 191.77
-9755164.06 5135630.28 186.81
-9755165.19 5135633.47 185.92
-9755167.62 5135629.69 192.46
-9755170.03 5135630.96 191.82
-9755166.78 5135630.73 192.39
-9755167.25 5135628.22 191.43
-9755170.15 5135631.24 192.64
-9755166.95 5135631.45 192.22
-9755168.87 5135631.36 193.37
-9755164.97 5135629.85 189.43
-9755165.33 5135631.38 189.70
-9755168.61 5135634.68 187.07
-9755168.37 5135629.03 192.53
-9755163.77 5135631.82 185.85
-9755166.31 5135632.32 191.35
-9755165.81 5135632.06 191.21
-9755168.50 5135630.86 193.29
-9755169.88 5135633.08 190.34
-9755165.12 5135632.23 189.01
-9755168.49 5135632.93 192.48
-9755166.95 5135632.40 192.34
-9755165.56 5135630.78 189.00
-9755166.85 5135631.90 190.41
-9755166.48 5135631.81 191.21
-9755164.19 5135628.95 186.71
-9755167.93 5135630.48 193.01
-9755163.42 5135631.38 185.96
-9755166.42 5135634.44 188.06
-9755164.29 5135633.11 186.92
-9755166.06 5135631.46 191.71
-9755167.63 5135631.64 193.31
-9755168.41 5135634.72 188.95
-9755168.83 5135631.95 192.95
-9755168.42 5135632.29 192.23
-9755166.81 5135628.67 188.61
-9755165.10 5135632.36 188.06
-9755170.05 5135630.57 191.60
-9755168.92 5135634.64 188.03
-9755169.62 5135632.74 192.63
-9755162.91 5135630.80 186.67
-9755164.07 5135629.07 187.36
-9755166.39 5135629.11 189.90
-9755163.55 5135630.75 187.55
-9755166.59 5135633.89 190.74
-9755164.23 5135631.02 188.33
-9755166.90 5135633.58 190.67
-9755166.19 5135631.48 191.75
-9755165.55 5135634.25 188.05
-9755163.46 5135631.67 186.15
-9755167.90 5135631.09 193.62
-9755167.59 5135633.95 189.06
-9755164.56 5135631.08 187.66
-9755167.04 5135628.61 191.23
-9755169.65 5135632.66 191.24
-9755163.86 5135629.33 187.69
-9755163.43 5135629.30 186.84
-9755167.99 5135632.97 191.49
-9755165.11 5135631.23 189.42
-9755164.54 5135629.26 186.26
-9755166.37 5135633.25 191.10
-9755170.00 5135632.39 192.02
-9755164.96 5135630.88 190.85
-9755164.72 5135631.11 188.78
-9755166.92 5135632.36 191.95
-9755165.43 5135631.48 191.10
-9755167.87 5135633.33 189.51
-9755165.19 5135633.11 188.15
-9755169.06 5135629.41 192.60
-9755169.03 5135629.68 192.44
-9755169.57 5135629.72 192.74
-9755169.61 5135633.94 188.57
-9755169.56 5135631.04 189.01
-9755170.34 5135628.52 191.97
-9755168.50 5135632.34 192.55
-9755165.07 5135633.72 186.11
-9755167.92 5135633.49 191.92
-9755165.82 5135631.42 191.37
-9755165.64 5135628.50 190.31
-9755171.19 5135631.41 190.94
-9755164.82 5135631.27 189.60
-9755169.57 5135630.30 192.21
-9755167.06 5135631.73 191.63
-9755171.61 5135629.23 189.82
-9755167.91 5135632.40 191.22
-9755170.57 5135631.44 190.75
-9755168.88 5135628.78 193.06
-9755168.14 5135628.83 191.15
-9755170.19 5135630.93 189.13
-9755168.80 5135634.20 189.95
-9755170.50 5135633.61 190.49
-9755167.13 5135629.04 191.57
-9755163.85 5135630.32 188.01
-9755165.54 5135631.64 189.64
-9755165.42 5135633.29 188.49
-9755165.48 5135633.40 189.40
-9755165.55 5135628.80 190.89
-9755167.90 5135633.59 191.01
-9755163.14 5135628.77 186.68
-9755165.53 5135634.02 187.30
-9755169.27 5135631.20 192.53
-9755166.40 5135629.44 191.35
-9755170.92 5135629.83 191.73
-9755170.16 5135632.06 190.84
-9755166.40 5135628.44 188.53
-9755166.30 5135636.34 187.36
-9755169.58 5135634.89 188.35
-9755165.12 5135636.36 181.36
-9755166.99 5135635.13 188.73
-9755169.23 5135634.78 187.00
-9755169.59 5135635.50 188.50
-9755167.58 5135634.79 189.72
-9755167.27 5135634.83 189.56
-9755167.21 5135635.62 187.34
-9755166.98 5135634.82 189.00
-9755168.03 5135635.05 186.74
-9755165.95 5135635.00 186.67
-9755166.34 5135635.57 187.06
-9755166.80 5135635.77 186.21
-9755168.42 5135635.88 187.51
-9755169.62 5135636.17 187.10
-9755167.17 5135636.40 186.81
-9755167.33 5135636.28 187.18
-9755169.62 5135636.00 188.52
-9755169.00 5135635.19 187.92
-9755169.26 5135635.55 188.35
-9755166.30 5135635.20 187.14
-9755163.03 5135636.37 181.35
-9755169.37 5135635.18 188.23
-9755170.77 5135634.83 189.02
-9755168.97 5135635.54 187.11
-9755166.35 5135636.40 186.47
-9755170.48 5135635.22 188.65
-9755168.23 5135635.68 187.85
-9755167.53 5135635.56 186.85
-9755165.79 5135635.20 187.35
-9755166.36 5135635.11 188.35
-9755165.41 5135635.22 187.07
-9755166.66 5135635.97 188.35
-9755168.16 5135636.42 187.92
-9755168.46 5135635.19 187.35
-9755165.46 5135634.86 187.85
-9755166.30 5135635.51 186.61
-9755168.42 5135635.53 187.36
-9755169.08 5135635.48 188.35
-9755169.25 5135635.55 187.78
-9755166.51 5135635.95 187.01
-9755165.37 5135634.90 187.09
-9755166.69 5135634.93 188.41
-9755167.84 5135635.14 189.74
-9755168.45 5135636.42 186.95
-9755169.93 5135635.15 188.64
-9755168.96 5135635.20 187.18
-9755169.88 5135634.93 188.33
-9755167.23 5135636.05 186.78
-9755167.44 5135634.83 189.04
-9755166.68 5135635.65 188.35
-9755160.57 5135653.25 181.40
-9755154.44 5135652.89 187.99
-9755155.67 5135653.89 185.72
-9755156.44 5135654.15 185.91
-9755156.45 5135654.42 186.06
-9755155.22 5135650.52 188.15
-9755156.13 5135652.92 187.51
-9755155.60 5135652.84 187.47
-9755154.43 5135654.13 187.76
-9755155.10 5135649.70 186.73
-9755154.43 5135649.91 187.44
-9755155.09 5135652.89 189.81
-9755154.82 5135652.61 187.91
-9755154.44 5135654.23 186.68
-9755154.75 5135652.19 189.61
-9755155.57 5135652.25 188.55
-9755155.54 5135652.40 189.82
-9755155.05 5135651.95 190.40
-9755155.29 5135651.09 189.46
-9755155.54 5135653.47 187.67
-9755155.89 5135653.28 186.69
-9755154.44 5135653.80 189.83
-9755155.33 5135649.61 186.78
-9755154.32 5135652.63 189.55
-9755154.43 5135649.73 188.51
-9755154.48 5135650.46 188.42
-9755155.27 5135653.57 186.59
-9755156.80 5135653.66 186.83
-9755154.43 5135653.79 188.06
-9755155.85 5135653.88 186.99
-9755155.09 5135652.90 188.34
-9755155.04 5135650.06 185.80
-9755154.70 5135653.82 187.88
-9755155.36 5135650.94 189.53
-9755156.20 5135653.23 187.78
-9755155.62 5135654.12 187.78
-9755152.32 5135645.53 181.37
-9755152.35 5135648.05 186.75
-9755152.38 5135651.28 189.03
-9755150.02 5135653.00 186.18
-9755153.14 5135654.22 188.44
-9755153.08 5135649.90 187.35
-9755151.44 5135653.08 188.30
-9755151.34 5135652.88 187.62
-9755150.59 5135652.86 187.01
-9755153.55 5135649.93 188.23
-9755152.82 5135651.32 190.50
-9755152.11 5135649.24 185.75
-9755151.20 5135651.08 187.38
-9755154.20 5135653.28 186.67
-9755150.65 5135653.36 186.31
-9755150.86 5135651.67 187.55
-9755152.94 5135651.66 190.13
-9755154.08 5135653.11 189.45
-9755150.69 5135650.82 187.16
-9755153.05 5135652.40 191.68
-9755151.43 5135650.03 186.86
-9755152.40 5135650.30 187.09
-9755150.23 5135651.25 185.04
-9755152.05 5135651.62 189.86
-9755152.38 5135653.35 186.07
-9755153.61 5135653.21 187.61
-9755153.23 5135652.55 185.13
-9755153.89 5135654.32 187.94
-9755152.45 5135651.97 189.71
-9755152.55 5135650.31 189.31
-9755151.17 5135652.86 188.56
-9755152.34 5135653.68 188.24
-9755153.66 5135652.48 190.06
-9755150.99 5135653.48 186.70
-9755152.41 5135653.40 189.15
-9755152.42 5135652.44 188.46
-9755151.22 5135652.58 189.31
-9755152.35 5135649.72 186.76
-9755152.34 5135654.06 187.24
-9755151.11 5135654.11 186.83
-9755152.96 5135652.45 191.87
-9755151.61 5135652.98 186.41
-9755150.92 5135650.87 187.16
-9755153.30 5135649.57 187.10
-9755153.92 5135652.06 190.82
-9755153.59 5135652.50 190.76
-9755150.76 5135651.49 185.29
-9755151.49 5135653.88 186.94
-9755153.30 5135649.51 187.16
-9755153.92 5135652.57 189.38
-9755150.81 5135651.18 187.12
-9755150.50 5135652.56 186.64
-9755151.15 5135651.59 189.05
-9755151.47 5135650.93 187.17
-9755149.89 5135652.14 185.04
-9755152.38 5135653.29 189.60
-9755151.24 5135652.93 187.25
-9755152.13 5135653.70 189.13
-9755151.70 5135651.28 187.92
-9755152.40 5135650.71 188.68
-9755152.36 5135652.15 190.63
-9755154.01 5135653.28 188.35
-9755149.72 5135652.10 186.03
-9755153.61 5135652.79 191.67
-9755150.61 5135651.23 185.29
-9755152.13 5135651.26 190.77
-9755150.90 5135651.13 186.75
-9755150.86 5135654.11 186.78
-9755154.16 5135652.55 189.38
-9755152.76 5135653.70 189.29
-9755149.94 5135652.85 186.42
-9755151.60 5135652.34 186.66
-9755153.29 5135652.45 190.77
-9755151.94 5135651.22 189.16
-9755154.19 5135653.39 189.60
-9755150.26 5135651.06 185.08
-9755151.81 5135652.65 188.65
-9755149.79 5135652.66 185.20
-9755152.36 5135651.18 191.26
-9755153.65 5135653.13 191.73
-9755154.39 5135654.32 188.11
-9755152.42 5135648.80 187.40
-9755153.04 5135653.79 188.11
-9755152.73 5135650.50 189.31
-9755152.17 5135650.47 189.94
-9755152.76 5135649.93 189.81
-9755151.41 5135653.46 185.25
-9755150.82 5135652.55 188.56
-9755154.10 5135651.27 189.18
-9755151.23 5135649.65 186.85
-9755151.92 5135652.58 188.67
-9755150.31 5135650.44 185.27
-9755154.19 5135652.16 189.94
-9755152.33 5135649.14 185.89
-9755152.36 5135653.42 188.80
-9755152.11 5135650.42 187.36
-9755153.49 5135652.45 192.20
-9755151.68 5135653.69 188.24
-9755152.45 5135650.94 190.76
-9755151.79 5135652.50 190.12
-9755153.93 5135651.65 189.55
-9755152.32 5135653.16 187.91
-9755150.85 5135652.91 187.08
-9755151.02 5135653.34 186.61
-9755152.71 5135651.88 190.63
-9755154.15 5135652.22 189.30
-9755153.94 5135654.45 189.66
-9755152.89 5135652.45 188.41
-9755150.65 5135652.06 186.89
-9755149.43 5135652.32 185.98
-9755154.18 5135653.75 188.09
-9755153.63 5135651.06 190.40
-9755152.39 5135652.08 190.78
-9755152.08 5135653.16 189.92
-9755150.99 5135651.89 189.08
-9755152.64 5135652.86 187.92
-9755153.30 5135652.57 190.23
-9755151.49 5135649.61 186.90
-9755153.08 5135654.38 188.50
-9755150.17 5135652.76 185.17
-9755151.49 5135651.38 188.88
-9755151.58 5135653.09 189.23
-9755153.09 5135654.07 188.62
-9755153.37 5135652.46 190.11
-9755152.42 5135651.87 189.80
-9755152.40 5135653.34 190.19
-9755150.24 5135652.87 186.64
-9755152.03 5135654.52 186.09
-9755153.13 5135652.69 191.72
-9755150.82 5135651.66 185.40
-9755151.69 5135651.61 189.41
-9755153.00 5135652.92 186.69
-9755151.90 5135653.81 188.42
-9755150.61 5135651.13 187.06
-9755153.51 5135650.46 189.62
-9755150.87 5135652.09 186.93
-9755150.70 5135652.33 187.37
-9755152.75 5135649.39 187.36
-9755152.48 5135651.32 190.29
-9755159.81 5135642.62 181.37
-9755156.83 5135639.90 181.37
-9755158.89 5135638.43 181.34
-9755158.06 5135637.83 181.35
-9755156.82 5135638.72 181.36
-9755152.38 5135644.35 181.37
-9755148.27 5135644.33 181.36
-9755154.17 5135643.44 181.36
-9755146.19 5135639.87 181.33
-9755148.29 5135641.31 181.36
-9755146.48 5135641.36 181.37
-9755146.61 5135638.43 186.13
-9755149.16 5135637.77 185.65
-9755149.01 5135636.62 187.39
-9755148.86 5135636.41 186.40
-9755149.30 5135637.65 184.89
-9755145.32 5135636.67 186.63
-9755148.26 5135636.90 187.01
-9755145.03 5135637.75 186.32
-9755148.65 5135637.15 187.13
-9755146.61 5135638.40 186.52
-9755147.13 5135637.22 186.78
-9755145.99 5135638.13 186.09
-9755148.54 5135637.26 186.62
-9755148.63 5135636.61 187.00
-9755148.95 5135636.90 187.28
-9755150.71 5135637.63 184.80
-9755149.83 5135638.03 184.36
-9755146.37 5135637.24 186.87
-9755146.20 5135638.55 185.86
-9755144.95 5135637.25 186.50
-9755147.14 5135638.14 185.93
-9755150.16 5135636.98 185.94
-9755146.25 5135638.67 185.90
-9755146.69 5135636.76 186.40
-9755150.65 5135637.09 184.62
-9755146.29 5135636.45 186.19
-9755149.50 5135637.01 186.62
-9755147.74 5135637.53 186.78
-9755145.07 5135638.51 185.91
-9755145.32 5135638.20 185.96
-9755150.41 5135637.92 184.93
-9755150.76 5135637.28 184.78
-9755146.62 5135637.64 186.55
-9755149.52 5135637.87 185.74
-9755149.49 5135636.52 187.20
-9755150.33 5135638.19 184.97
-9755147.48 5135637.88 185.61
-9755144.97 5135644.29 181.36
-9755135.86 5135647.45 181.36
-9755140.78 5135648.03 185.99
-9755141.72 5135644.54 182.72
-9755142.03 5135645.50 183.38
-9755141.78 5135646.00 182.17
-9755141.91 5135647.18 182.84
-9755139.10 5135650.73 188.42
-9755141.56 5135651.23 185.91
-9755137.65 5135653.71 186.27
-9755137.89 5135651.67 186.63
-9755137.92 5135648.07 181.47
-9755140.05 5135653.50 186.56
-9755140.03 5135649.32 187.55
-9755139.15 5135651.33 188.82
-9755139.23 5135653.44 188.40
-9755139.11 5135648.69 187.18
-9755138.19 5135651.69 186.86
-9755137.18 5135653.24 186.75
-9755139.72 5135651.96 187.84
-9755139.17 5135651.27 189.73
-9755139.73 5135652.90 186.32
-9755138.73 5135650.17 186.76
-9755139.74 5135651.34 189.81
-9755140.70 5135650.42 189.21
-9755136.41 5135651.92 186.52
-9755141.74 5135651.30 188.20
-9755137.64 5135652.90 186.57
-9755138.53 5135652.81 188.36
-9755139.51 5135651.34 190.38
-9755138.30 5135650.86 187.33
-9755140.34 5135650.71 189.23
-9755139.29 5135650.78 189.11
-9755138.43 5135652.05 186.90
-9755136.83 5135651.12 186.48
-9755138.30 5135649.05 186.61
-9755139.36 5135650.37 189.23
-9755139.69 5135652.48 187.62
-9755138.77 5135650.71 186.67
-9755142.53 5135650.55 186.36
-9755138.84 5135651.26 189.61
-9755142.09 5135649.69 187.08
-9755139.38 5135650.85 189.91
-9755140.05 5135653.00 187.39
-9755138.42 5135650.46 188.35
-9755139.97 5135649.91 188.19
-9755138.91 5135649.00 187.46
-9755139.99 5135652.36 185.78
-9755138.21 5135652.19 187.31
-9755139.18 5135650.11 189.39
-9755140.78 5135652.20 190.07
-9755136.72 5135653.41 181.56
-9755139.81 5135653.25 186.33
-9755139.11 5135649.69 184.23
-9755139.14 5135651.34 187.42
-9755138.07 5135649.58 186.75
-9755138.30 5135649.93 184.68
-9755140.82 5135648.75 186.52
-9755139.20 5135649.31 187.89
-9755137.64 5135651.65 186.61
-9755139.33 5135650.06 188.14
-9755139.04 5135652.50 187.02
-9755140.24 5135650.45 188.23
-9755139.40 5135651.95 186.69
-9755139.12 5135648.99 186.68
-9755138.75 5135651.62 187.45
-9755140.13 5135648.70 186.98
-9755140.83 5135649.52 187.89
-9755138.78 5135653.83 185.12
-9755142.44 5135649.29 187.13
-9755137.90 5135650.45 187.42
-9755139.45 5135652.14 189.86
-9755140.91 5135653.71 187.24
-9755140.43 5135648.76 186.46
-9755137.47 5135651.56 184.68
-9755138.77 5135654.17 185.09
-9755137.68 5135650.47 187.39
-9755137.30 5135651.66 186.32
-9755136.51 5135650.87 186.59
-9755139.52 5135653.30 188.32
-9755139.98 5135648.37 187.90
-9755139.80 5135649.78 188.28
-9755138.00 5135651.19 189.08
-9755139.16 5135650.36 189.22
-9755137.56 5135653.21 186.26
-9755139.72 5135651.81 189.82
-9755137.86 5135651.93 186.27
-9755137.60 5135653.73 187.04
-9755138.30 5135652.25 187.82
-9755139.08 5135650.87 185.14
-9755139.96 5135649.33 188.07
-9755138.82 5135649.78 187.17
-9755140.00 5135654.04 186.50
-9755141.61 5135654.07 186.45
-9755137.90 5135653.48 186.78
-9755140.23 5135651.98 189.67
-9755137.37 5135651.39 186.60
-9755139.99 5135653.15 188.52
-9755140.08 5135652.54 188.57
-9755139.97 5135651.57 190.25
-9755141.78 5135651.63 188.29
-9755138.27 5135649.40 186.93
-9755141.53 5135650.40 187.16
-9755138.37 5135651.86 189.99
-9755138.42 5135652.51 185.91
-9755138.54 5135649.80 186.73
-9755138.01 5135651.19 186.58
-9755139.02 5135650.49 188.41
-9755138.80 5135654.05 186.54
-9755140.00 5135648.62 186.75
-9755138.83 5135653.01 187.64
-9755138.65 5135649.84 184.33
-9755137.96 5135651.46 186.30
-9755137.03 5135651.35 186.42
-9755142.39 5135651.38 187.17
-9755142.82 5135651.26 187.31
-9755138.04 5135652.46 188.32
-9755138.69 5135650.34 188.88
-9755141.23 5135649.68 187.23
-9755135.87 5135651.30 181.58
-9755141.76 5135650.78 188.02
-9755142.72 5135650.80 187.34
-9755140.92 5135649.87 187.88
-9755139.98 5135652.77 188.91
-9755141.74 5135651.00 187.95
-9755136.47 5135651.70 186.47
-9755139.83 5135650.03 187.09
-9755141.10 5135651.25 189.61
-9755137.99 5135652.61 186.58
-9755141.19 5135650.89 189.74
-9755137.94 5135652.82 186.62
-9755139.39 5135651.16 190.52
-9755140.80 5135653.48 187.24
-9755139.37 5135649.56 187.01
-9755136.73 5135652.01 186.47
-9755142.44 5135651.03 185.99
-9755135.53 5135650.40 181.58
-9755134.63 5135651.34 181.58
-9755142.09 5135642.89 183.23
-9755139.13 5135641.03 181.35
-9755141.76 5135641.71 182.77
-9755141.77 5135640.94 182.75
-9755140.64 5135641.02 181.34
-9755144.82 5135638.50 185.41
-9755144.53 5135638.65 185.61
-9755144.55 5135637.97 185.61
-9755144.53 5135637.45 185.32
-9755144.77 5135637.15 187.03
-9755144.79 5135637.12 187.24
-9755144.48 5135636.60 188.10
-9755144.33 5135636.47 188.10
-9755143.91 5135638.14 185.74
-9755144.21 5135638.91 185.09
-9755144.04 5135638.25 185.54
-9755141.18 5135636.33 185.97
-9755143.12 5135637.66 184.40
-9755144.12 5135636.86 187.53
-9755140.59 5135638.88 181.34
-9755142.55 5135637.00 185.44
-9755142.95 5135637.31 184.29
-9755143.09 5135636.31 186.64
-9755142.84 5135637.03 184.73
-9755144.23 5135638.14 185.58
-9755141.79 5135637.67 182.79
-9755144.00 5135636.92 186.63
-9755144.23 5135637.18 187.55
-9755138.82 5135638.91 181.33
-9755143.33 5135636.84 187.08
-9755143.05 5135637.22 185.64
-9755143.61 5135637.53 186.75
-9755142.41 5135636.98 184.96
-9755143.91 5135637.81 185.34
-9755142.49 5135636.66 184.92
-9755142.11 5135636.53 186.63
-9755138.32 5135637.70 181.33
-9755143.27 5135637.98 182.70
-9755141.78 5135636.46 184.14
-9755144.19 5135638.09 186.89
-9755142.37 5135636.77 182.72
-9755141.84 5135636.40 184.99
-9755140.94 5135636.32 186.34
-9755154.87 5135632.27 186.27
-9755154.85 5135628.40 186.60
-9755155.19 5135633.20 186.62
-9755154.94 5135631.73 186.29
-9755155.21 5135632.32 186.61
-9755155.68 5135630.46 186.84
-9755154.56 5135634.26 186.53
-9755155.17 5135632.53 186.62
-9755154.81 5135633.14 186.61
-9755157.14 5135628.38 185.41
-9755155.52 5135631.05 186.62
-9755156.02 5135629.83 186.91
-9755157.19 5135628.19 185.41
-9755155.97 5135630.69 187.03
-9755156.97 5135628.19 185.34
-9755156.85 5135629.17 186.88
-9755155.08 5135631.61 186.27
-9755154.88 5135630.39 186.21
-9755154.57 5135629.27 186.71
-9755155.81 5135630.49 186.95
-9755155.21 5135630.47 186.39
-9755154.66 5135630.39 186.18
-9755154.52 5135634.28 186.61
-9755155.17 5135631.68 186.49
-9755155.73 5135629.85 186.88
-9755154.86 5135633.97 186.68
-9755155.02 5135634.75 186.75
-9755145.74 5135632.45 187.35
-9755153.98 5135629.79 187.36
-9755148.59 5135629.82 186.46
-9755148.39 5135633.06 186.71
-9755153.44 5135632.84 187.06
-9755150.76 5135629.80 188.06
-9755145.48 5135633.07 187.45
-9755150.76 5135628.63 188.10
-9755148.73 5135629.14 186.64
-9755154.07 5135630.14 186.68
-9755151.37 5135633.51 184.33
-9755153.06 5135631.91 186.53
-9755150.64 5135634.35 186.61
-9755153.22 5135631.87 185.94
-9755146.55 5135631.22 187.83
-9755149.25 5135628.66 186.71
-9755147.84 5135628.95 186.72
-9755146.28 5135633.09 187.83
-9755147.83 5135629.59 186.06
-9755148.36 5135628.62 186.78
-9755151.89 5135628.50 188.17
-9755147.96 5135629.30 185.93
-9755148.61 5135631.93 186.81
-9755148.66 5135633.09 185.62
-9755150.14 5135630.16 187.25
-9755149.51 5135634.32 186.66
-9755150.79 5135630.74 186.80
-9755149.74 5135629.34 186.64
-9755152.87 5135628.67 187.45
-9755146.60 5135632.70 188.03
-9755150.54 5135632.33 186.07
-9755150.15 5135633.17 184.24
-9755149.00 5135629.86 186.64
-9755149.53 5135631.65 186.32
-9755148.69 5135633.31 187.37
-9755149.83 5135634.58 185.85
-9755149.93 5135628.60 188.39
-9755145.68 5135631.55 186.33
-9755149.88 5135629.88 186.41
-9755146.64 5135632.24 186.32
-9755148.03 5135632.26 186.25
-9755145.79 5135628.90 185.84
-9755153.09 5135629.43 188.17
-9755152.37 5135633.38 186.78
-9755146.69 5135628.57 187.15
-9755153.97 5135632.81 186.61
-9755151.35 5135630.68 187.95
-9755151.04 5135628.54 188.14
-9755151.59 5135630.04 187.85
-9755151.98 5135630.08 187.95
-9755148.70 5135631.39 186.32
-9755150.73 5135630.66 187.81
-9755146.53 5135629.53 185.87
-9755152.79 5135632.45 187.44
-9755146.27 5135633.67 187.53
-9755153.09 5135633.89 188.01
-9755152.10 5135629.72 187.05
-9755147.50 5135634.27 187.57
-9755146.48 5135629.56 184.93
-9755148.07 5135633.91 187.23
-9755151.59 5135628.61 187.49
-9755146.02 5135628.61 186.88
-9755148.69 5135630.47 186.10
-9755148.64 5135633.06 186.84
-9755148.21 5135631.91 186.88
-9755153.99 5135630.24 186.54
-9755145.12 5135629.27 185.47
-9755151.01 5135633.13 187.34
-9755151.02 5135630.12 188.05
-9755152.81 5135631.89 187.49
-9755153.03 5135630.98 186.77
-9755145.13 5135632.72 187.48
-9755146.92 5135633.00 188.05
-9755151.66 5135630.68 187.95
-9755149.86 5135634.00 186.36
-9755150.07 5135630.63 187.97
-9755153.16 5135633.64 188.02
-9755149.09 5135631.26 187.65
-9755150.40 5135630.62 187.53
-9755152.49 5135631.59 187.46
-9755145.13 5135629.85 185.73
-9755148.65 5135628.85 188.15
-9755149.34 5135628.60 188.35
-9755150.48 5135629.76 188.06
-9755148.03 5135629.85 185.92
-9755145.75 5135628.23 183.76
-9755147.49 5135630.16 185.79
-9755152.20 5135628.59 187.91
-9755149.33 5135629.19 187.93
-9755147.77 5135629.59 186.05
-9755145.01 5135630.48 185.53
-9755151.94 5135633.65 187.59
-9755145.68 5135629.27 185.13
-9755153.08 5135629.45 187.03
-9755147.88 5135631.36 185.79
-9755145.76 5135633.83 187.43
-9755145.13 5135629.49 186.08
-9755153.06 5135632.78 187.60
-9755151.03 5135630.78 186.77
-9755148.36 5135632.20 186.74
-9755149.86 5135628.43 187.19
-9755153.51 5135631.56 187.73
-9755153.95 5135632.25 186.01
-9755149.88 5135629.17 188.06
-9755154.35 5135634.11 186.43
-9755152.83 5135629.05 187.49
-9755148.41 5135629.01 186.21
-9755149.88 5135628.48 187.81
-9755153.91 5135631.54 187.02
-9755149.52 5135629.84 187.02
-9755152.49 5135628.65 187.47
-9755152.78 5135629.27 186.72
-9755151.17 5135633.67 184.23
-9755146.03 5135632.73 187.40
-9755154.18 5135630.16 186.72
-9755147.50 5135629.00 185.98
-9755149.82 5135630.99 187.71
-9755151.92 5135633.78 184.84
-9755150.84 5135630.60 187.03
-9755145.69 5135629.21 186.02
-9755149.68 5135629.82 186.37
-9755145.77 5135633.61 187.59
-9755152.47 5135634.00 186.79
-9755153.11 5135628.67 187.47
-9755149.46 5135633.93 185.22
-9755146.87 5135630.15 185.79
-9755145.44 5135633.31 187.42
-9755153.08 5135629.76 188.21
-9755152.44 5135633.62 187.61
-9755152.04 5135633.23 185.93
-9755145.71 5135631.02 186.57
-9755145.80 5135630.76 186.63
-9755150.38 5135633.09 186.10
-9755150.24 5135629.87 187.32
-9755153.67 5135629.71 187.38
-9755145.35 5135631.53 186.89
-9755153.10 5135633.34 187.68
-9755148.33 5135631.89 187.02
-9755146.35 5135631.24 187.53
-9755149.28 5135633.14 185.78
-9755145.07 5135634.49 187.78
-9755148.29 5135634.30 185.95
-9755149.86 5135630.39 186.37
-9755149.27 5135631.90 186.38
-9755146.89 5135632.13 186.30
-9755150.40 5135632.50 185.89
-9755145.74 5135632.10 187.51
-9755145.73 5135631.58 187.25
-9755145.13 5135628.61 187.09
-9755148.05 5135629.92 185.86
-9755151.56 5135634.13 184.85
-9755147.14 5135636.02 186.91
-9755148.14 5135634.85 187.82
-9755148.50 5135634.78 186.70
-9755147.47 5135636.02 186.84
-9755147.76 5135635.46 186.91
-9755150.28 5135634.93 184.71
-9755148.35 5135634.85 187.82
-9755145.46 5135635.95 188.28
-9755146.65 5135635.91 187.48
-9755148.60 5135635.70 186.15
-9755149.55 5135636.01 186.61
-9755148.08 5135635.14 186.92
-9755149.98 5135635.96 185.85
-9755148.30 5135636.03 186.96
-9755147.20 5135635.24 186.85
-9755151.52 5135634.98 185.24
-9755148.11 5135636.06 186.75
-9755148.95 5135636.03 187.12
-9755146.37 5135634.85 186.59
-9755148.60 5135636.32 186.36
-9755147.98 5135635.19 186.47
-9755147.26 5135635.44 186.93
-9755144.87 5135632.75 186.72
-9755145.07 5135632.16 187.45
-9755144.52 5135633.95 186.76
-9755144.52 5135633.62 187.32
-9755144.54 5135630.69 186.48
-9755144.85 5135632.40 187.03
-9755144.53 5135634.24 187.46
-9755144.56 5135628.22 186.54
-9755144.66 5135631.85 187.35
-9755144.48 5135633.28 186.86
-9755143.94 5135634.25 187.06
-9755144.20 5135632.16 187.10
-9755143.93 5135632.78 186.64
-9755143.32 5135632.09 187.05
-9755143.99 5135633.92 186.28
-9755143.67 5135629.84 186.00
-9755143.93 5135629.81 186.09
-9755143.32 5135633.96 187.00
-9755141.82 5135630.46 185.45
-9755143.65 5135633.37 187.12
-9755141.87 5135633.94 184.96
-9755144.19 5135634.56 186.70
-9755143.62 5135633.36 186.56
-9755142.68 5135633.14 186.90
-9755141.64 5135630.04 185.06
-9755142.44 5135631.87 186.44
-9755143.67 5135631.23 186.76
-9755142.76 5135633.94 186.68
-9755141.65 5135631.48 182.63
-9755143.00 5135632.47 187.06
-9755141.86 5135631.46 182.65
-9755143.99 5135628.64 186.13
-9755142.49 5135632.41 187.29
-9755141.36 5135632.74 186.17
-9755140.54 5135632.27 186.20
-9755142.51 5135629.30 184.99
-9755143.68 5135629.95 185.00
-9755138.01 5135631.51 181.46
-9755143.46 5135631.55 187.25
-9755142.47 5135631.86 186.94
-9755141.56 5135630.45 185.64
-9755141.89 5135633.61 186.70
-9755142.82 5135633.43 186.67
-9755142.45 5135632.72 187.40
-9755143.94 5135630.67 187.13
-9755143.33 5135633.67 186.61
-9755144.21 5135634.25 187.03
-9755141.87 5135633.96 186.53
-9755135.95 5135631.49 181.41
-9755135.89 5135628.56 181.28
-9755141.30 5135632.20 185.83
-9755143.63 5135631.54 186.49
-9755143.36 5135631.03 186.07
-9755142.49 5135633.32 187.40
-9755142.52 5135631.01 186.86
-9755141.67 5135630.11 185.49
-9755141.07 5135633.09 186.21
-9755141.69 5135633.68 186.52
-9755142.38 5135632.19 187.00
-9755141.26 5135634.58 185.51
-9755142.12 5135631.84 186.85
-9755142.49 5135633.36 187.38
-9755141.60 5135632.51 186.24
-9755142.44 5135633.87 187.17
-9755141.85 5135633.93 184.74
-9755142.41 5135634.47 186.60
-9755142.79 5135631.25 186.65
-9755141.58 5135633.68 186.38
-9755143.60 5135631.83 186.45
-9755140.62 5135631.73 181.70
-9755142.44 5135634.26 186.84
-9755141.59 5135631.95 185.86
-9755143.94 5135631.81 186.73
-9755142.21 5135632.27 185.01
-9755143.96 5135629.28 186.38
-9755141.00 5135632.81 185.86
-9755144.33 5135628.66 186.24
-9755144.19 5135630.13 186.31
-9755143.75 5135628.45 186.27
-9755140.37 5135633.17 185.15
-9755143.97 5135634.53 186.72
-9755141.62 5135631.91 185.05
-9755141.48 5135634.33 184.94
-9755143.38 5135629.24 185.96
-9755142.15 5135634.44 186.90
-9755142.87 5135631.80 187.28
-9755141.62 5135633.98 185.55
-9755139.49 5135633.85 181.69
-9755142.45 5135629.12 181.45
-9755140.92 5135630.65 181.68
-9755142.44 5135631.24 185.86
-9755141.03 5135632.54 185.89
-9755141.99 5135630.99 185.36
-9755142.09 5135633.03 186.64
-9755141.82 5135631.64 185.39
-9755140.82 5135632.08 185.53
-9755143.03 5135628.56 181.45
-9755144.80 5135635.50 187.73
-9755144.53 5135634.79 186.93
-9755142.50 5135634.74 186.95
-9755143.15 5135635.99 187.43
-9755143.62 5135634.87 186.70
-9755141.91 5135635.70 186.69
-9755143.60 5135636.00 187.54
-9755142.48 5135635.72 186.94
-9755141.53 5135636.00 184.98
-9755140.37 5135635.21 184.92
-9755142.89 5135635.16 186.69
-9755141.29 5135635.84 185.01
-9755135.90 5135635.63 181.34
-9755141.55 5135635.76 186.24
-9755143.98 5135635.62 187.55
-9755141.28 5135635.40 185.01
-9755141.45 5135634.83 185.46
-9755141.85 5135635.98 186.55
-9755141.28 5135635.15 185.00
-9755140.41 5135634.94 185.79
-9755186.12 5135669.39 181.37
-9755174.96 5135670.25 181.22
-9755183.66 5135675.32 181.18
-9755177.84 5135671.48 181.19
-9755177.82 5135675.89 181.15
-9755184.05 5135669.39 181.37
-9755176.97 5135670.24 181.21
-9755184.93 5135675.90 181.16
-9755186.10 5135678.00 181.19
-9755184.89 5135680.07 181.25
-9755181.33 5135680.88 181.27
-9755184.94 5135679.16 181.22
-9755184.02 5135676.20 181.16
-9755185.21 5135664.38 185.48
-9755176.07 5135669.37 181.23
-9755183.01 5135664.84 188.26
-9755179.33 5135669.09 187.43
-9755179.70 5135669.34 187.52
-9755178.27 5135667.31 188.31
-9755178.83 5135666.90 189.20
-9755180.34 5135665.75 189.10
-9755177.61 5135667.76 187.82
-9755181.97 5135667.00 188.21
-9755178.28 5135668.73 187.72
-9755177.70 5135664.76 191.14
-9755182.95 5135665.78 188.65
-9755179.16 5135666.51 189.16
-9755177.40 5135667.77 187.48
-9755180.91 5135667.90 186.66
-9755179.99 5135666.91 187.94
-9755183.61 5135666.10 188.27
-9755181.48 5135666.52 188.42
-9755176.18 5135663.78 186.70
-9755177.68 5135665.05 191.19
-9755179.79 5135668.53 187.92
-9755181.20 5135667.61 187.89
-9755177.87 5135667.40 188.13
-9755176.15 5135664.52 189.10
-9755174.98 5135665.60 186.69
-9755178.43 5135664.43 190.99
-9755182.03 5135665.36 189.90
-9755177.39 5135664.36 191.39
-9755180.92 5135664.49 191.09
-9755178.88 5135665.61 190.76
-9755177.70 5135665.59 191.18
-9755177.06 5135667.00 187.45
-9755177.34 5135668.12 188.25
-9755178.85 5135664.46 192.18
-9755180.81 5135667.55 187.50
-9755176.29 5135665.81 187.50
-9755176.17 5135664.95 187.84
-9755180.03 5135666.90 188.93
-9755180.89 5135665.79 188.72
-9755179.81 5135667.56 188.47
-9755176.21 5135665.14 188.64
-9755179.97 5135667.29 188.29
-9755175.65 5135664.39 190.51
-9755181.47 5135665.37 189.95
-9755181.62 5135667.19 188.02
-9755183.73 5135663.68 189.77
-9755176.23 5135663.83 191.07
-9755175.00 5135664.62 187.39
-9755179.41 5135667.39 187.29
-9755175.24 5135667.31 186.75
-9755182.42 5135667.52 187.00
-9755183.89 5135665.74 187.98
-9755177.87 5135663.85 191.24
-9755176.82 5135665.31 190.94
-9755177.42 5135664.41 190.87
-9755175.85 5135665.14 187.56
-9755179.79 5135665.05 190.55
-9755178.76 5135668.03 188.29
-9755176.39 5135665.72 189.11
-9755182.08 5135666.87 188.36
-9755183.58 5135663.73 189.57
-9755175.32 5135665.15 187.46
-9755180.61 5135664.42 191.78
-9755179.98 5135668.19 188.30
-9755176.16 5135666.71 187.41
-9755183.02 5135667.67 187.05
-9755184.07 5135664.26 189.45
-9755183.59 5135663.96 189.45
-9755180.98 5135664.14 190.83
-9755177.53 5135664.38 191.49
-9755179.71 5135666.31 189.18
-9755181.94 5135667.38 186.95
-9755177.71 5135664.38 191.55
-9755180.96 5135665.71 189.97
-9755175.26 5135664.34 187.19
-9755181.77 5135667.31 187.51
-9755178.25 5135666.68 189.91
-9755179.50 5135667.28 188.53
-9755176.23 5135665.00 190.46
-9755177.15 5135664.12 191.08
-9755176.24 5135665.05 188.40
-9755177.65 5135666.12 186.68
-9755179.16 5135665.67 190.76
-9755177.12 5135665.63 191.21
-9755178.27 5135664.44 192.10
-9755178.17 5135666.83 189.89
-9755183.01 5135667.30 187.57
-9755179.47 5135664.36 192.75
-9755176.21 5135664.96 190.91
-9755174.69 5135664.69 186.29
-9755177.86 5135667.59 187.39
-9755180.84 5135665.76 189.14
-9755180.68 5135667.28 187.78
-9755177.84 5135668.13 188.29
-9755176.52 5135663.86 190.87
-9755176.79 5135664.07 188.29
-9755179.08 5135666.93 188.64
-9755181.58 5135665.07 190.17
-9755176.76 5135666.41 187.30
-9755178.29 5135665.56 191.55
-9755179.68 5135666.01 190.77
-9755180.95 5135664.88 190.09
-9755174.97 5135666.18 186.76
-9755183.60 5135665.57 188.01
-9755181.52 5135665.66 189.96
-9755179.34 5135667.56 188.40
-9755176.72 5135666.44 188.35
-9755179.47 5135666.33 189.54
-9755177.65 5135668.51 187.50
-9755176.08 5135664.87 190.18
-9755182.70 5135665.75 188.64
-9755180.39 5135666.58 189.46
-9755177.78 5135665.63 190.31
-9755178.85 5135664.65 192.49
-9755177.32 5135666.78 190.11
-9755177.64 5135666.06 190.07
-9755176.12 5135663.69 190.52
-9755181.24 5135663.91 190.80
-9755178.22 5135668.55 186.91
-9755178.88 5135664.00 192.75
-9755177.64 5135664.52 190.87
-9755181.54 5135666.76 188.21
-9755176.53 5135665.47 188.33
-9755182.18 5135664.40 190.93
-9755176.31 5135664.82 188.38
-9755177.67 5135666.96 188.35
-9755176.25 5135664.41 190.99
-9755179.72 5135666.94 188.92
-9755179.13 5135664.68 191.55
-9755180.98 5135667.68 186.66
-9755181.19 5135663.80 191.05
-9755184.42 5135667.58 181.37
-9755180.00 5135665.68 190.08
-9755177.97 5135665.04 191.50
-9755180.70 5135666.44 188.85
-9755176.27 5135666.51 186.75
-9755181.12 5135665.84 188.57
-9755179.51 5135666.00 190.45
-9755179.77 5135664.05 192.36
-9755183.27 5135663.66 189.63
-9755177.13 5135664.40 191.13
-9755174.27 5135663.62 187.56
-9755175.77 5135667.00 187.43
-9755176.52 5135665.07 188.71
-9755178.81 5135664.97 190.59
-9755184.20 5135664.02 189.31
-9755177.92 5135668.15 187.57
-9755182.66 5135664.02 189.38
-9755178.29 5135664.28 191.26
-9755184.42 5135664.30 189.24
-9755182.88 5135666.11 189.07
-9755179.11 5135668.08 188.30
-9755176.23 5135667.51 186.04
-9755177.69 5135667.52 188.18
-9755177.44 5135665.07 190.76
-9755178.00 5135664.08 192.15
-9755177.12 5135664.73 190.67
-9755181.29 5135666.84 188.03
-9755177.49 5135665.94 190.82
-9755183.20 5135667.67 187.12
-9755176.72 5135663.93 190.82
-9755177.13 5135666.21 190.53
-9755181.42 5135666.82 188.04
-9755174.94 5135664.58 186.32
-9755175.34 5135664.55 187.35
-9755176.23 5135664.48 189.48
-9755175.07 5135664.85 186.07
-9755177.65 5135668.12 186.92
-9755177.67 5135666.57 190.39
-9755179.47 5135668.14 188.10
-9755182.39 5135666.70 188.08
-9755179.46 5135666.22 190.34
-9755176.67 5135666.12 187.96
-9755176.69 5135667.67 186.36
-9755177.44 5135664.66 191.27
-9755176.69 5135665.60 189.11
-9755178.12 5135665.63 190.47
-9755174.68 5135664.40 186.37
-9755182.64 5135664.55 190.34
-9755179.18 5135664.38 192.72
-9755177.97 5135665.31 191.45
-9755174.66 5135664.43 186.33
-9755182.10 5135667.64 187.74
-9755175.90 5135666.67 187.44
-9755176.91 5135665.58 191.18
-9755179.50 5135664.97 191.80
-9755178.20 5135665.08 191.50
-9755180.28 5135666.98 187.86
-9755176.75 5135664.42 191.13
-9755183.23 5135664.37 187.99
-9755179.04 5135666.62 188.63
-9755176.50 5135664.96 190.81
-9755178.29 5135667.88 187.73
-9755173.79 5135665.45 181.26
-9755177.01 5135668.17 181.24
-9755180.99 5135666.02 189.89
-9755181.57 5135666.68 188.34
-9755176.50 5135665.15 187.76
-9755175.63 5135664.05 187.32
-9755177.01 5135665.83 181.23
-9755176.82 5135663.87 191.04
-9755177.36 5135666.58 190.10
-9755179.20 5135666.25 189.05
-9755178.78 5135668.72 187.19
-9755176.17 5135667.26 187.39
-9755183.53 5135664.31 188.00
-9755177.87 5135666.95 188.34
-9755174.47 5135665.22 186.69
-9755174.25 5135663.82 187.50
-9755175.70 5135664.23 189.53
-9755176.80 5135665.96 191.12
-9755180.91 5135665.92 189.40
-9755176.00 5135664.50 189.10
-9755180.61 5135667.57 187.52
-9755177.14 5135665.04 191.16
-9755174.64 5135664.00 187.28
-9755182.39 5135665.73 189.07
-9755179.45 5135665.96 188.76
-9755179.71 5135668.11 187.84
-9755182.04 5135667.53 186.95
-9755175.29 5135663.94 187.47
-9755175.93 5135666.06 187.50
-9755175.56 5135665.25 187.55
-9755177.58 5135666.86 190.10
-9755174.91 5135665.18 186.59
-9755178.26 5135664.17 191.59
-9755180.39 5135665.09 190.47
-9755179.06 5135668.50 187.12
-9755175.90 5135666.10 187.46
-9755182.13 5135666.98 188.40
-9755175.33 5135665.87 187.13
-9755176.17 5135665.07 188.69
-9755173.78 5135666.96 181.25
-9755179.22 5135665.67 190.00
-9755177.13 5135664.73 191.13
-9755176.32 5135666.07 189.00
-9755184.06 5135668.50 181.35
-9755181.64 5135663.83 190.92
-9755173.71 5135674.67 181.19
-9755172.85 5135671.39 181.21
-9755172.55 5135672.62 181.19
-9755173.09 5135677.58 181.16
-9755172.52 5135680.85 181.28
-9755173.17 5135668.98 181.23
-9755169.59 5135671.41 181.19
-9755167.83 5135671.10 181.20
-9755165.43 5135676.39 181.14
-9755162.24 5135675.47 181.14
-9755168.98 5135678.45 181.21
-9755169.57 5135677.61 181.16
-9755162.13 5135673.46 182.00
-9755161.39 5135669.25 181.47
-9755170.24 5135668.96 181.22
-9755166.36 5135664.49 181.30
-9755170.78 5135665.20 181.27
-9755161.35 5135668.97 181.49
-9755160.58 5135665.43 186.49
-9755185.26 5135661.19 186.46
-9755185.65 5135660.32 186.41
-9755186.12 5135659.97 185.72
-9755186.34 5135660.20 185.48
-9755185.64 5135659.42 185.66
-9755185.58 5135661.14 186.42
-9755185.33 5135658.26 185.60
-9755185.29 5135659.76 185.57
-9755185.03 5135658.77 185.64
-9755185.14 5135661.93 188.81
-9755180.62 5135659.51 191.88
-9755178.81 5135660.41 189.98
-9755177.38 5135658.68 187.17
-9755177.43 5135657.87 186.63
-9755177.76 5135660.86 190.81
-9755180.74 5135660.31 192.27
-9755176.24 5135662.04 190.16
-9755177.47 5135661.51 191.55
-9755183.58 5135661.92 190.44
-9755176.34 5135659.98 189.28
-9755179.23 5135658.69 189.85
-9755182.67 5135657.09 186.69
-9755185.10 5135659.90 186.97
-9755177.43 5135658.14 186.62
-9755175.66 5135661.53 189.96
-9755178.59 5135662.25 192.43
-9755177.95 5135659.17 189.67
-9755182.09 5135658.39 188.27
-9755178.62 5135660.34 189.81
-9755180.71 5135659.21 190.01
-9755182.66 5135657.41 187.28
-9755178.31 5135660.06 189.88
-9755177.45 5135661.22 190.81
-9755178.91 5135657.17 185.99
-9755180.07 5135659.71 191.10
-9755183.79 5135659.15 185.88
-9755181.73 5135656.71 186.80
-9755178.57 5135659.12 189.90
-9755176.18 5135661.60 189.15
-9755178.18 5135659.55 189.13
-9755181.50 5135659.54 191.23
-9755178.31 5135659.82 189.78
-9755179.40 5135660.82 192.30
-9755180.40 5135659.99 192.31
-9755180.71 5135661.94 193.19
-9755178.64 5135661.52 192.03
-9755176.29 5135661.29 188.74
-9755182.81 5135659.86 189.45
-9755179.13 5135657.09 186.03
-9755178.64 5135658.58 189.31
-9755181.62 5135656.95 186.96
-9755183.23 5135655.42 181.46
-9755181.25 5135658.17 189.56
-9755179.13 5135661.12 190.43
-9755184.79 5135657.88 186.30
-9755177.11 5135660.23 189.20
-9755180.98 5135661.96 192.79
-9755177.07 5135657.95 186.57
-9755182.70 5135659.22 187.99
-9755176.24 5135661.05 188.99
-9755180.69 5135658.38 189.81
-9755177.17 5135661.23 190.28
-9755175.91 5135661.25 188.68
-9755178.34 5135660.76 190.01
-9755181.47 5135659.09 189.89
-9755176.23 5135660.09 188.27
-9755180.39 5135659.20 190.32
-9755183.61 5135660.35 189.48
-9755180.39 5135658.04 188.59
-9755176.21 5135659.51 186.87
-9755176.53 5135661.19 189.11
-9755178.07 5135659.51 188.96
-9755179.54 5135658.30 189.43
-9755177.89 5135660.89 190.83
-9755183.64 5135660.15 189.16
-9755178.38 5135659.98 189.95
-9755184.45 5135658.52 186.50
-9755177.37 5135661.98 191.17
-9755180.33 5135660.21 191.74
-9755180.37 5135661.08 192.43
-9755175.63 5135661.86 189.06
-9755179.50 5135661.95 193.12
-9755180.11 5135660.88 192.42
-9755180.60 5135658.61 189.65
-9755178.94 5135659.76 189.95
-9755184.00 5135661.89 189.50
-9755177.98 5135660.01 189.61
-9755177.37 5135658.22 187.51
-9755178.40 5135659.72 189.93
-9755183.04 5135660.64 189.53
-9755178.91 5135660.55 190.05
-9755179.53 5135658.10 188.07
-9755184.22 5135658.10 186.31
-9755177.01 5135661.67 191.04
-9755180.19 5135660.01 191.10
-9755178.38 5135659.47 189.89
-9755176.25 5135659.29 186.87
-9755181.49 5135659.70 191.68
-9755178.29 5135658.58 188.83
-9755181.56 5135660.49 192.40
-9755179.99 5135661.12 192.65
-9755178.79 5135657.48 187.30
-9755182.99 5135662.09 190.78
-9755183.67 5135660.70 187.95
-9755184.47 5135658.27 186.31
-9755177.63 5135660.65 189.67
-9755181.76 5135659.14 189.29
-9755179.77 5135660.29 190.72
-9755183.57 5135657.23 187.82
-9755176.55 5135661.79 190.35
-9755174.99 5135661.04 181.26
-9755179.54 5135658.44 188.00
-9755177.21 5135654.59 185.42
-9755183.61 5135659.81 189.12
-9755177.10 5135658.71 186.41
-9755177.08 5135655.72 181.39
-9755183.93 5135661.59 189.32
-9755183.33 5135662.09 190.78
-9755182.38 5135658.47 187.69
-9755176.80 5135661.50 189.31
-9755178.83 5135661.17 192.03
-9755178.03 5135659.46 189.01
-9755183.17 5135661.31 189.70
-9755176.77 5135660.33 189.49
-9755176.24 5135659.87 186.43
-9755180.46 5135659.70 190.35
-9755182.98 5135661.44 190.77
-9755181.55 5135661.42 193.09
-9755173.83 5135658.65 181.28
-9755183.91 5135657.97 186.31
-9755181.21 5135657.53 187.81
-9755181.51 5135657.93 189.91
-9755178.21 5135654.57 181.42
-9755178.45 5135661.10 190.87
-9755179.46 5135660.01 190.72
-9755176.84 5135661.99 191.13
-9755184.45 5135659.26 186.63
-9755176.81 5135658.18 186.31
-9755177.18 5135660.95 190.00
-9755178.05 5135660.32 189.85
-9755177.14 5135662.08 190.99
-9755181.87 5135660.21 192.43
-9755182.13 5135656.59 186.73
-9755183.26 5135658.20 188.29
-9755184.49 5135660.65 188.20
-9755182.14 5135658.34 188.24
-9755177.72 5135659.18 188.77
-9755176.88 5135659.52 189.20
-9755181.86 5135658.37 188.24
-9755181.58 5135661.99 192.65
-9755177.92 5135657.47 181.40
-9755175.71 5135661.07 187.92
-9755177.03 5135657.81 181.26
-9755182.74 5135657.90 188.15
-9755178.28 5135660.34 190.49
-9755175.84 5135661.94 181.24
-9755181.56 5135660.82 191.55
-9755176.20 5135661.20 189.34
-9755182.38 5135660.17 189.11
-9755178.02 5135659.47 189.64
-9755181.87 5135658.04 188.72
-9755179.30 5135661.44 192.77
-9755176.16 5135660.69 188.06
-9755180.94 5135657.50 188.72
-9755180.65 5135661.63 193.09
-9755177.86 5135661.79 192.27
-9755175.94 5135660.25 186.40
-9755180.73 5135658.88 190.13
-9755177.94 5135659.56 188.89
-9755178.37 5135659.20 189.67
-9755182.13 5135656.98 186.35
-9755182.43 5135657.26 188.11
-9755177.37 5135658.41 187.33
-9755180.88 5135661.47 192.75
-9755182.84 5135658.11 188.62
-9755178.30 5135661.23 190.56
-9755182.48 5135662.06 190.88
-9755178.95 5135658.27 189.32
-9755177.76 5135658.59 188.16
-9755177.46 5135659.80 189.13
-9755179.76 5135657.88 188.67
-9755177.62 5135660.42 189.72
-9755181.93 5135657.42 188.07
-9755177.51 5135661.99 192.03
-9755177.26 5135658.91 187.99
-9755176.26 5135659.03 186.39
-9755177.42 5135658.66 188.11
-9755177.62 5135661.97 192.09
-9755182.88 5135656.54 186.74
-9755178.16 5135659.60 188.35
-9755179.55 5135657.71 187.73
-9755180.97 5135661.07 192.45
-9755184.41 5135655.77 181.47
-9755180.04 5135658.58 189.45
-9755175.35 5135661.86 189.88
-9755177.66 5135658.68 187.61
-9755178.36 5135658.86 189.15
-9755180.85 5135659.75 189.69
-9755177.99 5135660.01 189.92
-9755182.19 5135657.79 188.20
-9755178.22 5135661.79 191.75
-9755177.13 5135659.81 189.49
-9755177.41 5135660.87 190.07
-9755179.26 5135661.97 192.85
-9755182.42 5135657.26 186.68
-9755182.72 5135658.70 188.32
-9755183.63 5135657.81 188.00
-9755181.28 5135661.91 193.06
-9755185.32 5135662.73 189.03
-9755185.71 5135662.58 188.81
-9755185.39 5135662.52 188.78
-9755178.69 5135662.25 191.69
-9755177.44 5135662.29 191.54
-9755181.82 5135662.35 192.52
-9755184.42 5135663.08 189.61
-9755178.00 5135663.56 191.76
-9755181.77 5135663.33 190.81
-9755176.29 5135663.09 187.46
-9755178.81 5135662.28 192.39
-9755177.77 5135663.25 190.80
-9755184.52 5135663.04 189.69
-9755175.59 5135663.57 190.20
-9755183.03 5135662.40 190.59
-9755179.27 5135662.82 193.22
-9755178.62 5135661.97 192.80
-9755177.11 5135663.25 191.03
-9755178.04 5135663.16 191.97
-9755177.13 5135662.91 191.59
-9755176.86 5135662.05 191.18
-9755183.60 5135663.07 189.67
-9755176.53 5135662.38 190.70
-9755178.43 5135663.28 192.12
-9755179.22 5135663.23 192.83
-9755177.71 5135663.57 191.22
-9755182.36 5135662.39 190.60
-9755181.50 5135663.58 191.29
-9755177.11 5135662.92 191.10
-9755181.55 5135662.33 192.59
-9755177.34 5135663.54 191.10
-9755183.63 5135662.68 189.95
-9755177.60 5135662.37 191.13
-9755178.26 5135662.62 192.02
-9755175.63 5135662.41 190.05
-9755182.41 5135663.00 190.55
-9755183.22 5135662.39 190.71
-9755182.43 5135663.39 190.60
-9755178.07 5135663.46 192.00
-9755183.00 5135663.21 190.30
-9755176.28 5135662.66 190.80
-9755175.69 5135662.95 190.33
-9755178.28 5135662.28 192.34
-9755181.79 5135662.60 191.64
-9755177.45 5135662.67 191.15
-9755181.43 5135663.21 191.45
-9755178.90 5135661.98 192.78
-9755178.35 5135662.00 192.26
-9755176.27 5135663.23 190.91
-9755184.54 5135662.46 189.53
-9755175.34 5135662.13 189.90
-9755177.47 5135663.18 191.46
-9755181.54 5135663.54 191.30
-9755175.66 5135662.18 189.56
-9755175.75 5135662.85 187.40
-9755184.16 5135662.32 185.17
-9755183.84 5135662.72 189.54
