-9755078.82 5135666.72 182.22
-9755078.80 5135666.36 180.95
-9755077.85 5135667.48 182.77
-9755077.88 5135666.64 184.47
-9755080.03 5135663.02 184.07
-9755080.63 5135665.12 184.26
-9755079.98 5135667.47 183.29
-9755079.69 5135667.57 181.15
-9755077.48 5135663.29 183.15
-9755077.69 5135666.84 184.54
-9755078.81 5135666.73 180.98
-9755080.66 5135663.80 183.01
-9755080.98 5135664.36 182.78
-9755080.60 5135667.27 181.91
-9755077.72 5135667.97 184.54
-9755079.48 5135662.79 182.93
-9755079.51 5135667.79 182.18
-9755077.62 5135674.08 181.55
-9755077.66 5135668.32 184.24
-9755076.74 5135674.43 181.55
-9755077.29 5135674.67 181.53
-9755076.46 5135671.69 181.59
-9755076.49 5135670.39 182.29
-9755076.38 5135670.83 181.58
-9755076.50 5135668.64 183.62
-9755076.46 5135670.05 183.25
-9755076.24 5135668.85 183.89
-9755076.44 5135670.00 183.58
-9755076.74 5135670.77 181.59
-9755077.33 5135672.55 181.58
-9755077.48 5135669.31 180.77
-9755076.79 5135669.89 182.80
-9755075.90 5135669.31 184.13
-9755075.93 5135669.51 183.81
-9755075.91 5135669.23 183.76
-9755077.61 5135675.23 181.52
-9755075.88 5135668.69 182.78
-9755077.02 5135670.75 182.68
-9755077.29 5135674.98 181.52
-9755076.11 5135672.00 181.59
-9755076.68 5135673.79 181.57
-9755075.86 5135674.40 181.56
-9755076.51 5135668.24 184.32
-9755074.98 5135671.37 181.60
-9755075.03 5135673.39 181.58
-9755075.27 5135673.69 181.57
-9755075.24 5135670.72 182.36
-9755075.89 5135671.71 181.60
-9755075.25 5135670.84 182.73
-9755075.51 5135671.10 181.61
-9755075.55 5135672.89 181.57
-9755075.59 5135673.16 181.57
-9755075.51 5135670.47 180.08
-9755075.01 5135668.49 180.10
-9755075.77 5135670.88 180.21
-9755075.84 5135674.03 181.56
-9755075.61 5135669.02 182.13
-9755075.19 5135670.34 184.39
-9755075.58 5135671.72 181.60
-9755074.72 5135672.56 184.90
-9755074.95 5135670.46 182.37
-9755074.60 5135670.81 182.34
-9755075.29 5135670.93 180.52
-9755076.72 5135674.98 181.54
-9755076.70 5135680.62 181.34
-9755077.30 5135679.11 181.34
-9755076.70 5135678.23 181.34
-9755077.31 5135675.88 181.51
-9755077.28 5135678.22 181.32
-9755076.74 5135676.40 181.29
-9755076.41 5135677.29 181.32
-9755077.04 5135676.16 181.30
-9755077.30 5135676.44 181.29
-9755076.72 5135675.28 181.53
-9755076.06 5135679.09 181.35
-9755076.39 5135678.27 181.34
-9755076.06 5135679.38 181.34
-9755076.38 5135676.14 181.30
-9755076.09 5135679.98 181.36
-9755076.11 5135677.04 181.32
-9755075.77 5135677.92 181.33
-9755077.01 5135677.66 181.31
-9755075.52 5135677.35 181.31
-9755075.50 5135676.18 181.30
-9755074.63 5135674.66 181.58
-9755075.52 5135679.74 181.35
-9755075.56 5135675.82 181.54
-9755075.30 5135675.32 181.55
-9755075.50 5135678.54 181.33
-9755075.55 5135677.66 181.31
-9755075.56 5135677.87 181.32
-9755075.25 5135680.88 181.37
-9755074.55 5135680.28 181.37
-9755074.65 5135677.32 181.33
-9755074.65 5135677.03 181.34
-9755075.56 5135676.10 181.50
-9755074.58 5135680.87 181.38
-9755075.52 5135677.05 181.30
-9755074.62 5135676.15 181.32
-9755074.67 5135673.15 181.60
-9755074.15 5135669.68 179.87
-9755074.67 5135671.72 181.59
-9755074.65 5135675.27 181.58
-9755069.36 5135674.07 181.64
-9755073.78 5135673.73 181.59
-9755070.89 5135669.71 184.20
-9755065.85 5135669.98 183.33
-9755066.10 5135669.42 184.20
-9755064.05 5135671.00 182.48
-9755069.60 5135670.98 178.61
-9755069.06 5135674.02 181.65
-9755074.35 5135672.90 181.61
-9755073.47 5135673.17 181.62
-9755066.14 5135673.42 181.69
-9755067.57 5135674.02 181.66
-9755069.92 5135670.30 178.71
-9755072.32 5135671.69 181.63
-9755070.23 5135671.66 181.64
-9755068.52 5135671.06 181.71
-9755068.18 5135673.67 181.66
-9755070.97 5135671.17 181.64
-9755072.58 5135671.64 181.62
-9755066.98 5135671.59 181.69
-9755066.33 5135671.25 184.52
-9755065.02 5135670.30 184.41
-9755067.61 5135669.12 178.14
-9755071.69 5135671.68 181.64
-9755064.67 5135671.15 184.54
-9755066.72 5135672.28 184.75
-9755071.44 5135672.01 181.65
-9755073.19 5135670.19 182.43
-9755072.31 5135674.60 181.61
-9755069.69 5135672.86 181.65
-9755073.49 5135670.72 182.37
-9755067.59 5135672.54 181.69
-9755064.87 5135669.47 177.31
-9755066.81 5135673.04 184.94
-9755064.07 5135670.46 182.50
-9755069.93 5135674.34 181.63
-9755065.56 5135671.92 181.72
-9755072.34 5135669.51 184.17
-9755064.91 5135673.41 181.72
-9755068.18 5135670.37 184.36
-9755070.26 5135671.02 182.39
-9755063.49 5135674.01 181.74
-9755072.36 5135671.50 184.52
-9755068.10 5135671.78 184.29
-9755068.84 5135670.34 184.33
-9755065.37 5135672.25 184.87
-9755068.71 5135669.91 182.57
-9755064.45 5135671.15 184.54
-9755069.67 5135672.56 181.66
-9755064.93 5135674.61 181.69
-9755071.72 5135669.97 179.20
-9755065.30 5135671.08 184.55
-9755065.26 5135670.03 184.31
-9755065.27 5135670.87 184.47
-9755070.84 5135674.66 181.61
-9755068.44 5135670.93 184.49
-9755071.49 5135671.81 184.64
-9755065.25 5135673.69 181.70
-9755066.77 5135670.94 184.50
-9755070.23 5135671.95 181.64
-9755071.15 5135672.61 184.91
-9755073.17 5135673.43 181.61
-9755071.24 5135671.18 184.49
-9755067.28 5135674.62 181.67
-9755071.43 5135672.12 184.68
-9755069.99 5135668.84 178.76
-9755072.60 5135672.54 181.62
-9755064.07 5135670.06 177.11
-9755073.82 5135670.77 182.36
-9755070.56 5135672.52 181.65
-9755067.57 5135670.92 178.13
-9755073.20 5135671.70 181.62
-9755066.78 5135671.21 184.59
-9755064.34 5135669.73 184.26
-9755074.34 5135672.32 181.61
-9755066.26 5135671.80 184.72
-9755067.28 5135674.87 181.66
-9755071.42 5135674.64 181.62
-9755070.25 5135672.55 181.64
-9755064.04 5135672.07 184.74
-9755068.43 5135671.57 184.57
-9755071.43 5135668.82 179.23
-9755067.35 5135671.82 184.67
-9755071.19 5135670.33 184.35
-9755067.40 5135669.46 184.20
-9755068.46 5135673.74 181.66
-9755064.93 5135672.83 181.72
-9755066.77 5135670.00 184.29
-9755072.32 5135670.54 179.34
-9755067.02 5135672.84 181.69
-9755066.70 5135671.02 182.44
-9755064.08 5135669.71 184.26
-9755073.19 5135674.62 181.60
-9755066.03 5135670.92 177.70
-9755069.65 5135671.68 181.66
-9755071.47 5135671.70 181.65
-9755072.64 5135668.52 179.54
-9755066.74 5135670.35 184.40
-9755074.44 5135670.89 180.04
-9755073.95 5135671.60 184.60
-9755066.06 5135670.33 184.34
-9755074.69 5135669.20 184.16
-9755070.47 5135672.43 184.75
-9755068.30 5135673.24 185.01
-9755069.98 5135669.50 184.13
-9755063.47 5135672.81 181.75
-9755073.24 5135671.24 184.48
-9755065.55 5135669.42 184.22
-9755070.26 5135674.92 181.61
-9755074.12 5135672.03 184.75
-9755065.24 5135669.16 177.48
-9755068.16 5135674.59 181.65
-9755063.48 5135673.70 181.73
-9755071.74 5135671.81 184.68
-9755065.33 5135669.43 184.23
-9755068.49 5135670.43 182.51
-9755071.13 5135671.97 181.65
-9755069.04 5135671.22 184.51
-9755071.51 5135669.94 183.03
-9755063.43 5135669.19 176.93
-9755063.51 5135671.27 182.47
-9755063.42 5135669.75 184.29
-9755070.90 5135671.23 184.48
-9755070.53 5135669.98 178.87
-9755071.75 5135673.23 184.95
-9755067.27 5135671.53 182.40
-9755064.95 5135671.14 177.42
-9755072.61 5135671.47 184.50
-9755074.32 5135674.93 181.58
-9755064.60 5135670.07 184.33
-9755065.20 5135669.48 177.46
-9755070.87 5135669.27 184.16
-9755064.07 5135673.70 181.74
-9755064.90 5135673.71 181.70
-9755064.05 5135669.74 177.11
-9755072.38 5135668.50 179.50
-9755069.08 5135674.91 181.64
-9755069.32 5135670.64 178.57
-9755071.50 5135670.76 182.40
-9755070.30 5135668.53 179.02
-9755074.69 5135673.82 181.58
-9755063.75 5135668.90 177.01
-9755072.35 5135672.88 181.63
-9755068.88 5135670.91 184.45
-9755064.05 5135673.11 181.73
-9755069.03 5135673.71 181.65
-9755074.38 5135674.09 181.60
-9755073.16 5135669.55 183.47
-9755073.48 5135672.88 181.62
-9755067.35 5135670.47 182.41
-9755066.09 5135670.06 177.69
-9755065.16 5135670.91 177.48
-9755063.50 5135670.97 182.47
-9755066.40 5135674.89 181.67
-9755068.20 5135669.43 184.17
-9755066.68 5135669.44 177.85
-9755073.50 5135673.77 181.60
-9755069.36 5135670.16 182.47
-9755063.50 5135670.05 182.60
-9755070.54 5135671.63 181.64
-9755069.98 5135669.12 184.14
-9755068.19 5135671.89 181.67
-9755072.60 5135673.15 181.62
-9755072.93 5135671.05 182.35
-9755074.41 5135671.68 181.60
-9755064.86 5135669.18 184.23
-9755064.96 5135674.89 181.69
-9755072.91 5135670.43 182.38
-9755073.79 5135671.98 181.62
-9755063.42 5135674.92 181.72
-9755068.43 5135680.57 181.44
-9755071.08 5135676.07 181.55
-9755070.46 5135679.12 181.40
-9755066.40 5135676.65 181.41
-9755071.11 5135680.87 181.41
-9755073.73 5135679.40 181.37
-9755073.46 5135677.85 181.34
-9755065.19 5135678.15 181.44
-9755073.19 5135679.97 181.38
-9755066.94 5135680.18 181.46
-9755066.09 5135677.00 181.43
-9755069.89 5135677.90 181.38
-9755065.76 5135680.54 181.47
-9755064.88 5135676.09 181.67
-9755069.39 5135675.19 181.63
-9755068.08 5135680.26 181.43
-9755069.62 5135676.14 181.42
-9755071.41 5135676.71 181.35
-9755071.35 5135680.24 181.40
-9755073.74 5135679.08 181.37
-9755069.60 5135679.07 181.41
-9755064.90 5135679.04 181.48
-9755070.25 5135679.11 181.40
-9755071.71 5135679.39 181.39
-9755072.58 5135677.89 181.36
-9755064.07 5135675.77 181.70
-9755066.34 5135680.85 181.47
-9755064.04 5135679.35 181.48
-9755071.68 5135678.51 181.37
-9755066.37 5135678.46 181.44
-9755065.53 5135679.30 181.47
-9755064.31 5135677.88 181.46
-9755070.52 5135680.60 181.41
-9755071.08 5135677.00 181.35
-9755073.73 5135677.01 181.34
-9755068.13 5135678.16 181.40
-9755066.39 5135679.35 181.44
-9755069.31 5135680.86 181.44
-9755074.34 5135677.58 181.34
-9755068.43 5135675.82 181.63
-9755066.38 5135676.97 181.41
-9755073.41 5135679.96 181.37
-9755064.00 5135680.81 181.51
-9755065.23 5135677.85 181.44
-9755070.15 5135680.01 181.41
-9755066.13 5135676.27 181.63
-9755066.02 5135680.82 181.47
-9755065.21 5135680.23 181.48
-9755064.94 5135677.28 181.43
-9755064.27 5135679.35 181.48
-9755066.12 5135675.75 181.66
-9755074.32 5135680.59 181.39
-9755071.72 5135676.44 181.35
-9755070.81 5135678.22 181.38
-9755064.30 5135680.25 181.49
-9755073.74 5135676.70 181.33
-9755073.76 5135680.28 181.38
-9755063.45 5135675.44 181.71
-9755069.65 5135675.19 181.62
-9755064.32 5135680.82 181.51
-9755065.83 5135675.45 181.67
-9755072.22 5135680.83 181.40
-9755067.31 5135675.21 181.65
-9755065.20 5135680.55 181.48
-9755071.73 5135680.58 181.41
-9755073.77 5135679.98 181.36
-9755072.30 5135675.83 181.59
-9755073.78 5135678.25 181.35
-9755063.76 5135675.76 181.70
-9755067.58 5135679.04 181.43
-9755073.46 5135677.33 181.34
-9755070.56 5135675.82 181.60
-9755069.06 5135679.43 181.42
-9755068.44 5135677.88 181.40
-9755064.90 5135678.73 181.47
-9755069.31 5135675.85 181.62
-9755065.79 5135678.77 181.45
-9755069.00 5135678.21 181.40
-9755073.13 5135678.20 181.34
-9755074.33 5135677.92 181.35
-9755070.20 5135680.28 181.41
-9755066.66 5135678.19 181.44
-9755072.60 5135676.42 181.33
-9755069.01 5135677.87 181.40
-9755067.27 5135676.70 181.41
-9755072.22 5135680.27 181.40
-9755069.03 5135679.09 181.41
-9755067.21 5135677.86 181.41
-9755066.06 5135680.22 181.47
-9755074.30 5135677.03 181.34
-9755070.53 5135676.98 181.37
-9755069.60 5135677.01 181.37
-9755065.76 5135680.29 181.47
-9755068.19 5135675.77 181.63
-9755064.33 5135675.47 181.70
-9755076.56 5135667.79 182.03
-9755076.84 5135667.22 181.98
-9755076.83 5135667.87 182.79
-9755077.09 5135667.17 182.23
-9755077.10 5135662.84 182.08
-9755076.44 5135667.61 180.44
-9755077.15 5135663.37 183.01
-9755077.42 5135663.13 180.57
-9755077.00 5135666.99 183.93
-9755075.93 5135667.47 182.68
-9755076.48 5135664.07 180.34
-9755076.16 5135666.93 182.19
-9755075.99 5135663.59 181.96
-9755077.11 5135663.43 180.50
-9755076.21 5135662.85 182.00
-9755077.08 5135666.71 180.59
-9755077.41 5135663.08 183.40
-9755076.49 5135663.63 182.95
-9755075.60 5135667.21 182.39
-9755075.91 5135666.65 182.21
-9755075.44 5135663.01 182.32
-9755075.00 5135665.55 180.12
-9755075.86 5135664.92 180.25
-9755075.00 5135667.00 180.12
-9755075.84 5135664.52 182.05
-9755075.00 5135663.07 182.52
-9755075.91 5135663.95 182.15
-9755070.23 5135667.68 178.88
-9755071.80 5135663.77 179.33
-9755066.12 5135667.66 177.73
-9755073.22 5135664.07 179.66
-9755068.46 5135662.89 178.53
-9755066.99 5135667.64 177.98
-9755068.52 5135666.76 178.47
-9755071.43 5135666.17 179.21
-9755071.78 5135663.48 179.34
-9755071.44 5135667.04 179.23
-9755066.15 5135663.84 177.78
-9755072.36 5135664.96 179.48
-9755074.09 5135667.60 179.89
-9755068.84 5135665.84 178.67
-9755070.82 5135664.66 179.06
-9755072.09 5135663.49 179.38
-9755072.61 5135666.14 179.56
-9755070.87 5135663.78 179.24
-9755068.80 5135665.28 178.74
-9755073.23 5135663.49 179.63
-9755070.51 5135662.90 179.35
-9755067.57 5135665.61 178.23
-9755069.98 5135663.24 179.02
-9755063.41 5135664.45 176.99
-9755072.60 5135667.94 179.54
-9755070.62 5135664.36 179.05
-9755069.07 5135667.66 178.61
-9755064.65 5135663.57 177.37
-9755070.60 5135663.45 179.07
-9755069.05 5135666.76 178.65
-9755071.75 5135666.40 179.35
-9755070.01 5135666.75 178.87
-9755069.03 5135664.36 178.77
-9755067.05 5135663.50 178.06
-9755070.82 5135664.07 179.06
-9755064.34 5135665.61 177.25
-9755063.62 5135672.30 184.80
-9755062.85 5135671.57 181.76
-9755063.23 5135670.97 182.49
-9755062.30 5135671.25 181.76
-9755063.14 5135674.02 181.74
-9755062.87 5135671.95 181.76
-9755062.31 5135671.07 184.58
-9755062.92 5135672.50 181.76
-9755063.18 5135670.08 176.86
-9755063.15 5135670.36 182.55
-9755062.86 5135670.93 176.84
-9755062.36 5135671.46 182.51
-9755062.29 5135673.64 181.75
-9755062.28 5135671.75 184.70
-9755063.17 5135670.03 184.32
-9755062.30 5135674.55 181.74
-9755062.53 5135671.25 176.80
-9755062.31 5135670.28 184.41
-9755063.21 5135671.19 184.52
-9755059.33 5135669.15 176.73
-9755059.89 5135669.20 176.60
-9755060.57 5135672.82 181.79
-9755059.34 5135668.83 176.74
-9755060.13 5135670.99 176.48
-9755064.33 5135663.23 177.26
-9755059.61 5135670.35 176.72
-9755059.36 5135670.64 176.72
-9755060.31 5135670.91 184.57
-9755060.35 5135670.34 184.41
-9755061.66 5135670.38 176.60
-9755059.04 5135672.15 181.83
-9755060.84 5135670.88 184.55
-9755060.25 5135673.66 181.78
-9755059.35 5135670.04 176.73
-9755059.96 5135670.06 176.52
-9755061.74 5135671.11 184.58
-9755059.04 5135673.63 181.79
-9755058.69 5135669.43 175.92
-9755061.91 5135670.11 182.65
-9755060.84 5135670.96 182.55
-9755059.36 5135670.62 182.61
-9755061.40 5135668.61 176.62
-9755061.12 5135671.25 176.53
-9755059.91 5135671.65 181.80
-9755060.53 5135671.23 182.54
-9755060.80 5135669.46 176.56
-9755061.40 5135673.39 181.77
-9755061.69 5135670.36 182.60
-9755059.95 5135674.57 181.78
-9755061.47 5135669.95 184.29
-9755059.86 5135671.96 184.76
-9755060.26 5135671.81 184.63
-9755060.21 5135669.46 176.53
-9755060.17 5135668.60 176.56
-9755058.75 5135671.19 184.65
-9755059.07 5135671.75 184.70
-9755058.45 5135670.87 184.61
-9755060.18 5135669.20 176.53
-9755062.35 5135669.37 184.34
-9755060.25 5135671.37 184.60
-9755060.22 5135673.08 181.78
-9755061.69 5135669.54 176.61
-9755060.85 5135674.57 181.76
-9755058.73 5135673.69 181.81
-9755061.42 5135671.12 184.58
-9755061.71 5135670.07 176.60
-9755060.56 5135669.41 184.32
-9755058.80 5135668.52 176.69
-9755062.26 5135669.45 176.67
-9755059.34 5135669.44 176.73
-9755060.20 5135671.13 184.62
-9755061.70 5135669.17 176.62
-9755061.13 5135673.70 181.77
-9755061.10 5135672.80 181.76
-9755059.26 5135669.84 175.98
-9755059.04 5135674.25 181.78
-9755058.46 5135668.61 175.93
-9755058.48 5135671.78 184.78
-9755058.49 5135673.26 185.14
-9755061.94 5135674.54 181.74
-9755058.81 5135671.50 182.54
-9755060.21 5135672.48 181.79
-9755059.78 5135669.58 176.72
-9755059.41 5135669.68 184.32
-9755060.45 5135670.11 176.53
-9755062.26 5135668.91 176.68
-9755060.89 5135671.52 184.66
-9755061.13 5135670.17 182.57
-9755058.48 5135670.07 182.69
-9755061.97 5135670.71 176.67
-9755060.18 5135668.27 176.55
-9755059.97 5135671.28 176.42
-9755059.03 5135669.45 176.72
-9755058.80 5135670.98 182.58
-9755060.19 5135674.83 181.77
-9755063.13 5135679.05 181.49
-9755062.84 5135680.85 181.52
-9755062.84 5135679.32 181.49
-9755062.82 5135678.42 181.49
-9755062.87 5135680.20 181.51
-9755063.10 5135679.89 181.51
-9755062.31 5135676.67 181.48
-9755058.99 5135674.87 181.79
-9755059.94 5135674.88 181.77
-9755061.96 5135677.26 181.48
-9755061.67 5135678.70 181.52
-9755059.30 5135675.41 181.77
-9755061.99 5135675.72 181.73
-9755060.19 5135680.77 181.58
-9755061.91 5135676.17 181.51
-9755061.10 5135677.51 181.51
-9755060.17 5135676.67 181.50
-9755061.37 5135679.36 181.53
-9755061.66 5135675.41 181.73
-9755059.33 5135678.13 181.56
-9755061.65 5135676.05 181.74
-9755059.64 5135680.17 181.58
-9755060.78 5135677.50 181.52
-9755060.75 5135678.15 181.52
-9755059.33 5135678.67 181.56
-9755060.21 5135677.79 181.53
-9755060.83 5135674.83 181.76
-9755058.72 5135676.93 181.54
-9755061.93 5135679.00 181.51
-9755059.01 5135677.82 181.56
-9755059.05 5135678.10 181.56
-9755059.88 5135678.11 181.54
-9755060.17 5135679.01 181.55
-9755059.53 5135679.93 181.57
-9755060.52 5135676.63 181.48
-9755059.91 5135675.40 181.77
-9755061.95 5135676.95 181.48
-9755060.71 5135679.01 181.54
-9755059.86 5135680.16 181.58
-9755058.98 5135677.49 181.55
-9755060.20 5135679.59 181.56
-9755058.09 5135680.78 181.61
-9755059.04 5135678.96 181.58
-9755058.75 5135675.76 181.79
-9755059.38 5135676.36 181.55
-9755059.02 5135675.45 181.78
-9755059.89 5135677.55 181.53
-9755061.66 5135676.93 181.48
-9755058.72 5135676.62 181.54
-9755063.22 5135667.10 176.90
-9755062.88 5135667.66 176.83
-9755059.32 5135667.44 176.72
-9755060.22 5135664.44 176.60
-9755060.23 5135664.20 176.59
-9755062.01 5135664.44 176.73
-9755058.45 5135664.14 175.93
-9755059.31 5135667.08 176.72
-9755059.32 5135664.14 176.74
-9755061.11 5135663.54 176.64
-9755059.13 5135665.27 176.73
-9755060.82 5135665.90 176.61
-9755061.09 5135664.74 176.61
-9755062.58 5135662.69 176.81
-9755060.25 5135667.41 176.56
-9755060.24 5135665.33 176.60
-9755059.97 5135664.13 176.67
-9755059.97 5135664.73 176.67
-9755059.03 5135664.02 176.74
-9755059.34 5135665.03 176.72
-9755059.96 5135662.97 176.70
-9755058.47 5135669.41 184.33
-9755057.31 5135670.91 184.67
-9755057.86 5135674.26 181.82
-9755056.98 5135670.21 184.47
-9755057.66 5135671.82 184.84
-9755051.93 5135672.96 181.97
-9755056.08 5135673.68 181.88
-9755058.13 5135675.72 181.80
-9755054.93 5135672.77 181.91
-9755055.18 5135669.47 175.99
-9755053.17 5135672.71 181.94
-9755058.16 5135668.64 175.94
-9755049.01 5135671.78 182.06
-9755057.55 5135670.85 184.59
-9755051.67 5135673.32 181.96
-9755052.56 5135672.73 181.98
-9755054.92 5135673.65 181.90
-9755050.48 5135673.29 182.00
-9755052.51 5135670.96 176.03
-9755049.08 5135670.22 182.90
-9755054.99 5135670.94 182.66
-9755056.06 5135670.69 175.98
-9755056.96 5135671.23 175.97
-9755055.23 5135672.43 181.91
-9755051.65 5135672.11 181.98
-9755050.77 5135674.48 181.98
-9755057.83 5135669.20 175.95
-9755052.58 5135672.41 181.98
-9755055.02 5135670.33 184.50
-9755055.61 5135669.96 183.56
-9755054.34 5135672.16 181.94
-9755050.16 5135669.72 176.05
-9755055.19 5135670.07 176.00
-9755050.48 5135673.60 182.01
-9755053.54 5135670.81 184.74
-9755051.66 5135672.41 181.99
-9755056.12 5135672.75 181.87
-9755048.74 5135673.55 182.05
-9755049.03 5135673.59 182.04
-9755052.24 5135669.48 176.04
-9755049.74 5135670.18 184.57
-9755050.81 5135669.47 184.53
-9755056.64 5135670.63 175.97
-9755056.15 5135670.47 184.51
-9755054.14 5135670.56 184.67
-9755050.47 5135671.09 184.73
-9755056.28 5135669.50 175.97
-9755050.50 5135674.48 181.99
-9755053.42 5135671.28 176.03
-9755050.21 5135671.59 182.04
-9755053.41 5135670.97 176.03
-9755057.31 5135674.26 181.84
-9755057.87 5135670.80 184.60
-9755051.92 5135668.29 176.02
-9755054.61 5135673.64 181.90
-9755051.36 5135670.91 182.76
-9755053.46 5135672.14 181.95
-9755048.75 5135671.70 182.81
-9755054.26 5135670.04 176.01
-9755049.93 5135669.59 184.53
-9755054.06 5135673.64 181.91
-9755051.97 5135674.53 181.96
-9755051.04 5135669.45 176.04
-9755056.73 5135671.75 184.75
-9755049.93 5135673.31 182.02
-9755055.61 5135669.63 184.39
-9755052.22 5135670.95 176.04
-9755049.98 5135669.95 184.53
-9755050.21 5135671.51 176.07
-9755050.75 5135674.83 181.98
-9755049.40 5135671.33 184.92
-9755056.10 5135672.31 184.97
-9755054.04 5135672.75 181.92
-9755057.29 5135673.35 181.84
-9755048.97 5135671.21 181.97
-9755054.01 5135672.42 181.94
-9755056.95 5135671.01 175.97
-9755050.83 5135672.02 184.95
-9755054.04 5135668.57 176.01
-9755056.66 5135669.94 184.39
-9755056.08 5135674.20 181.85
-9755051.02 5135671.51 184.89
-9755048.74 5135674.49 182.05
-9755049.33 5135672.44 185.22
-9755053.40 5135669.73 176.03
-9755056.48 5135669.50 184.38
-9755053.99 5135673.25 185.10
-9755054.65 5135671.80 181.93
-9755056.66 5135671.28 181.88
-9755050.28 5135670.66 182.81
-9755055.82 5135672.43 181.90
-9755054.68 5135670.77 184.70
-9755048.76 5135670.77 184.77
-9755049.57 5135668.53 176.06
-9755052.84 5135674.49 181.92
-9755052.25 5135671.75 184.88
-9755052.28 5135671.22 182.73
-9755053.39 5135668.90 176.02
-9755053.37 5135670.09 176.02
-9755049.89 5135671.59 184.90
-9755054.38 5135670.42 184.59
-9755050.50 5135674.18 181.99
-9755053.41 5135670.22 183.40
-9755053.79 5135672.85 185.18
-9755053.81 5135671.74 184.88
-9755055.80 5135673.30 181.89
-9755050.86 5135670.26 184.57
-9755053.46 5135669.66 184.49
-9755057.44 5135671.17 184.69
-9755048.87 5135672.55 185.18
-9755049.90 5135672.72 182.04
-9755050.46 5135669.43 176.04
-9755058.20 5135671.78 184.78
-9755048.73 5135671.24 176.07
-9755048.75 5135671.07 184.86
-9755055.29 5135670.17 183.78
-9755051.14 5135670.23 183.35
-9755049.25 5135669.40 184.54
-9755048.65 5135673.32 185.45
-9755056.13 5135672.44 181.88
-9755049.87 5135671.08 184.86
-9755057.86 5135670.93 184.64
-9755052.56 5135672.12 181.98
-9755057.89 5135672.10 184.87
-9755058.24 5135669.93 184.41
-9755057.51 5135670.36 184.49
-9755056.70 5135672.46 181.87
-9755054.92 5135671.37 184.79
-9755053.15 5135672.44 181.95
-9755055.24 5135669.47 184.39
-9755051.35 5135671.13 184.86
-9755055.78 5135670.98 175.99
-9755049.28 5135674.47 182.03
-9755052.50 5135669.48 176.03
-9755056.98 5135674.83 181.83
-9755054.41 5135673.24 185.29
-9755050.28 5135670.55 184.68
-9755056.12 5135669.98 184.44
-9755053.74 5135674.81 181.89
-9755057.84 5135673.36 181.83
-9755052.96 5135671.73 184.88
-9755049.60 5135672.08 182.05
-9755053.39 5135670.38 176.03
-9755056.09 5135671.24 182.63
-9755051.89 5135672.06 185.04
-9755051.37 5135673.61 181.98
-9755049.76 5135672.50 185.14
-9755049.37 5135670.47 184.71
-9755051.99 5135672.02 175.97
-9755053.98 5135671.00 176.01
-9755055.26 5135670.08 182.65
-9755056.71 5135671.21 182.61
-9755056.75 5135672.05 184.82
-9755058.22 5135671.99 184.83
-9755052.65 5135670.86 184.78
-9755058.39 5135673.72 185.12
-9755053.47 5135672.25 185.02
-9755048.74 5135671.91 185.03
-9755049.94 5135672.05 185.18
-9755053.47 5135672.73 185.12
-9755050.45 5135669.68 184.53
-9755055.76 5135671.20 176.00
-9755052.89 5135672.12 181.98
-9755049.29 5135670.66 176.05
-9755049.35 5135670.84 184.80
-9755053.46 5135671.15 184.80
-9755053.64 5135671.41 176.02
-9755050.50 5135672.70 182.01
-9755054.33 5135672.01 184.93
-9755051.11 5135672.42 185.08
-9755057.90 5135670.59 184.54
-9755050.86 5135673.28 185.37
-9755049.03 5135672.82 185.23
-9755057.86 5135671.25 175.95
-9755050.24 5135669.91 184.53
-9755048.79 5135669.63 184.61
-9755046.66 5135671.55 182.13
-9755045.52 5135672.15 185.13
-9755046.43 5135670.82 184.85
-9755047.80 5135669.42 176.04
-9755047.85 5135673.86 182.10
-9755045.76 5135674.16 182.15
-9755046.91 5135670.30 176.04
-9755047.28 5135670.91 182.87
-9755048.40 5135673.59 182.07
-9755047.50 5135673.27 182.11
-9755047.56 5135670.14 184.66
-9755048.46 5135672.12 182.08
-9755046.67 5135670.86 182.91
-9755046.87 5135671.77 176.04
-9755047.69 5135671.23 182.12
-9755045.47 5135674.45 182.16
-9755046.99 5135670.86 184.79
-9755046.30 5135671.81 176.07
-9755048.47 5135669.94 184.62
-9755047.88 5135671.10 184.92
-9755047.84 5135674.17 182.08
-9755047.55 5135671.20 182.87
-9755046.94 5135672.06 182.14
-9755047.65 5135669.41 184.59
-9755045.47 5135674.14 182.16
-9755046.89 5135668.80 176.03
-9755048.08 5135671.72 176.08
-9755047.82 5135670.55 184.75
-9755047.24 5135672.11 182.13
-9755045.50 5135672.92 182.17
-9755047.33 5135670.06 183.54
-9755045.75 5135670.36 183.03
-9755046.15 5135672.45 185.29
-9755048.18 5135671.27 182.03
-9755047.26 5135670.31 182.85
-9755046.99 5135671.08 184.84
-9755048.48 5135670.51 184.73
-9755045.73 5135670.95 176.02
-9755045.73 5135673.28 182.16
-9755048.49 5135671.23 182.83
-9755046.21 5135673.23 185.51
-9755048.37 5135669.45 176.05
-9755048.44 5135675.08 182.04
-9755048.55 5135672.05 185.10
-9755045.73 5135670.43 184.75
-9755046.30 5135668.26 176.03
-9755046.17 5135672.13 185.12
-9755045.49 5135672.41 182.18
-9755055.47 5135679.24 181.64
-9755054.87 5135675.42 181.86
-9755055.21 5135676.91 181.61
-9755051.99 5135676.26 181.92
-9755051.66 5135679.85 181.76
-9755054.56 5135678.71 181.66
-9755049.26 5135678.36 181.79
-9755056.10 5135674.80 181.85
-9755056.06 5135678.73 181.63
-9755051.09 5135675.41 181.96
-9755052.49 5135679.85 181.73
-9755049.58 5135678.94 181.79
-9755053.99 5135676.61 181.76
-9755048.74 5135676.55 181.84
-9755057.82 5135678.72 181.58
-9755051.66 5135680.15 181.76
-9755052.87 5135675.38 181.92
-9755049.24 5135680.72 181.83
-9755052.53 5135675.41 181.93
-9755057.84 5135675.45 181.80
-9755057.52 5135679.60 181.62
-9755057.54 5135675.72 181.80
-9755055.77 5135679.83 181.65
-9755049.59 5135680.36 181.81
-9755052.49 5135677.80 181.70
-9755053.43 5135676.33 181.87
-9755050.44 5135680.75 181.80
-9755054.01 5135678.65 181.67
-9755050.78 5135680.72 181.78
-9755054.58 5135677.52 181.64
-9755056.99 5135676.95 181.58
-9755051.92 5135680.72 181.76
-9755050.46 5135676.26 181.97
-9755053.67 5135676.46 181.86
-9755049.25 5135678.90 181.79
-9755057.55 5135676.64 181.57
-9755054.91 5135677.46 181.64
-9755052.52 5135680.73 181.75
-9755055.24 5135676.26 181.85
-9755057.60 5135678.73 181.59
-9755052.50 5135679.24 181.71
-9755050.47 5135678.38 181.77
-9755054.60 5135678.98 181.67
-9755052.80 5135676.31 181.89
-9755054.30 5135679.57 181.68
-9755055.21 5135676.60 181.61
-9755053.96 5135679.89 181.70
-9755051.98 5135676.88 181.67
-9755054.86 5135678.97 181.66
-9755055.17 5135676.36 181.70
-9755050.47 5135677.77 181.74
-9755054.60 5135679.51 181.68
-9755057.85 5135676.62 181.58
-9755052.79 5135675.72 181.91
-9755051.96 5135675.68 181.93
-9755055.46 5135677.47 181.63
-9755050.43 5135677.50 181.74
-9755055.22 5135675.37 181.85
-9755052.87 5135676.83 181.66
-9755058.13 5135677.79 181.57
-9755054.31 5135676.58 181.65
-9755048.64 5135677.45 181.80
-9755053.41 5135676.90 181.66
-9755056.63 5135680.21 181.63
-9755048.66 5135680.39 181.85
-9755048.74 5135676.86 181.80
-9755049.57 5135676.22 182.01
-9755054.62 5135680.17 181.69
-9755054.87 5135680.76 181.69
-9755051.40 5135676.86 181.70
-9755051.64 5135678.96 181.73
-9755054.87 5135675.72 181.86
-9755053.43 5135679.54 181.71
-9755053.98 5135680.12 181.70
-9755050.14 5135678.93 181.78
-9755056.91 5135678.70 181.62
-9755056.09 5135676.64 181.59
-9755049.57 5135675.39 182.01
-9755053.39 5135676.60 181.66
-9755053.99 5135677.75 181.67
-9755053.08 5135680.70 181.72
-9755049.56 5135677.46 181.77
-9755049.30 5135675.36 182.02
-9755051.97 5135675.36 181.93
-9755055.78 5135677.49 181.61
-9755056.95 5135678.98 181.62
-9755050.78 5135675.38 181.98
-9755055.77 5135675.74 181.84
-9755050.77 5135677.48 181.74
-9755051.94 5135678.66 181.73
-9755055.43 5135679.88 181.66
-9755053.73 5135676.88 181.65
-9755056.97 5135675.40 181.83
-9755058.18 5135675.10 181.80
-9755057.56 5135680.73 181.62
-9755057.00 5135675.72 181.81
-9755054.62 5135676.61 181.64
-9755051.65 5135675.68 181.94
-9755053.73 5135678.68 181.68
-9755051.65 5135675.38 181.95
-9755053.67 5135679.87 181.71
-9755048.42 5135679.51 181.84
-9755045.43 5135680.66 181.94
-9755047.80 5135679.57 181.87
-9755046.05 5135676.24 182.12
-9755046.32 5135677.12 181.86
-9755048.37 5135680.37 181.85
-9755047.20 5135676.54 181.89
-9755047.20 5135680.11 181.90
-9755046.33 5135679.24 181.90
-9755045.46 5135679.50 181.94
-9755047.56 5135675.66 182.06
-9755046.30 5135678.64 181.89
-9755048.07 5135678.33 181.83
-9755048.38 5135678.63 181.81
-9755045.43 5135678.61 181.92
-9755048.41 5135677.75 181.81
-9755047.52 5135676.27 182.07
-9755047.52 5135676.54 181.84
-9755048.41 5135679.82 181.84
-9755045.76 5135676.85 181.88
-9755047.17 5135679.50 181.88
-9755047.50 5135677.45 181.84
-9755046.34 5135675.65 182.10
-9755046.62 5135680.68 181.91
-9755047.55 5135675.37 182.06
-9755046.63 5135679.46 181.90
-9755046.65 5135678.30 181.86
-9755046.35 5135676.25 182.10
-9755047.18 5135678.60 181.86
-9755047.49 5135680.43 181.89
-9755045.49 5135675.33 182.15
-9755045.45 5135679.80 181.94
-9755047.23 5135677.43 181.85
-9755045.71 5135677.39 181.89
-9755046.34 5135679.52 181.90
-9755043.68 5135674.17 182.22
-9755045.51 5135670.85 182.94
-9755041.68 5135673.52 182.28
-9755043.41 5135671.18 183.01
-9755044.63 5135673.81 182.20
-9755043.68 5135670.36 176.02
-9755044.59 5135674.42 182.18
-9755044.64 5135670.15 184.75
-9755043.70 5135671.83 182.23
-9755045.41 5135670.37 182.95
-9755045.50 5135670.89 176.02
-9755042.81 5135671.35 185.10
-9755044.54 5135669.10 175.99
-9755042.51 5135673.24 182.25
-9755041.86 5135671.15 175.99
-9755040.96 5135670.78 176.90
-9755045.16 5135673.66 185.53
-9755040.11 5135670.86 175.96
-9755041.38 5135672.33 182.30
-9755039.55 5135671.19 175.96
-9755043.34 5135670.89 176.01
-9755043.39 5135668.21 176.01
-9755044.33 5135672.21 185.20
-9755041.39 5135672.93 182.29
-9755040.14 5135671.76 175.98
-9755044.03 5135669.43 176.03
-9755044.92 5135672.08 182.21
-9755041.05 5135674.15 182.30
-9755040.77 5135670.89 185.01
-9755044.30 5135671.74 182.95
-9755040.41 5135669.95 175.96
-9755041.95 5135668.81 175.99
-9755041.36 5135671.15 183.05
-9755043.41 5135671.48 182.99
-9755043.44 5135673.28 182.23
-9755043.10 5135674.48 182.22
-9755041.66 5135670.26 175.99
-9755042.54 5135672.37 182.26
-9755041.43 5135670.81 183.09
-9755042.80 5135673.83 185.60
-9755041.04 5135672.35 182.30
-9755042.59 5135672.42 185.33
-9755044.26 5135672.40 182.22
-9755040.57 5135670.52 183.24
-9755041.10 5135670.90 183.09
-9755042.48 5135670.84 183.11
-9755043.40 5135673.57 182.22
-9755041.73 5135670.20 184.83
-9755044.60 5135672.98 182.20
-9755039.32 5135674.07 182.35
-9755042.57 5135671.76 182.25
-9755044.62 5135671.61 185.09
-9755043.80 5135672.51 185.30
-9755041.94 5135668.20 175.97
-9755042.54 5135674.44 182.24
-9755045.45 5135669.35 176.02
-9755044.48 5135670.19 183.76
-9755044.31 5135671.19 182.95
-9755044.66 5135671.18 182.03
-9755045.46 5135670.32 176.02
-9755045.24 5135672.36 182.19
-9755040.50 5135672.97 182.31
-9755045.34 5135671.16 182.26
-9755039.31 5135673.25 182.35
-9755041.30 5135669.75 175.98
-9755040.52 5135670.80 176.91
-9755044.88 5135670.82 184.92
-9755039.57 5135669.35 175.96
-9755043.71 5135672.36 182.22
-9755039.23 5135673.66 185.71
-9755039.28 5135672.05 182.36
-9755041.01 5135670.61 182.93
-9755040.20 5135673.81 182.32
-9755044.60 5135670.88 176.03
-9755042.54 5135669.38 176.01
-9755042.81 5135673.83 182.24
-9755040.94 5135670.58 176.87
-9755044.81 5135670.15 184.14
-9755044.28 5135673.30 182.21
-9755043.47 5135669.60 184.72
-9755042.19 5135669.39 176.00
-9755043.72 5135672.96 182.22
-9755040.20 5135671.61 185.21
-9755044.34 5135671.30 185.02
-9755042.51 5135671.15 183.02
-9755044.82 5135671.19 176.03
-9755042.81 5135670.38 183.29
-9755041.63 5135672.06 182.29
-9755041.32 5135672.71 185.36
-9755044.95 5135670.88 182.97
-9755043.79 5135669.90 184.73
-9755040.24 5135673.12 185.55
-9755041.38 5135672.10 182.30
-9755041.13 5135669.81 184.80
-9755045.33 5135670.76 184.89
-9755041.13 5135671.01 185.04
-9755042.21 5135670.29 175.98
-9755039.90 5135673.33 185.57
-9755042.53 5135671.76 183.00
-9755039.59 5135672.42 185.32
-9755040.48 5135672.08 182.31
-9755041.40 5135670.75 176.88
-9755045.79 5135671.81 182.15
-9755044.60 5135672.07 182.21
-9755041.64 5135677.70 182.01
-9755043.73 5135680.70 182.00
-9755040.46 5135677.12 182.05
-9755044.30 5135676.86 181.93
-9755043.66 5135679.76 181.98
-9755041.62 5135678.30 182.02
-9755044.92 5135677.68 181.92
-9755041.34 5135675.62 182.27
-9755040.44 5135676.49 182.29
-9755044.32 5135679.51 181.96
-9755044.55 5135679.18 181.95
-9755043.10 5135676.84 181.98
-9755041.04 5135676.52 182.26
-9755040.52 5135678.59 182.05
-9755041.89 5135678.58 182.02
-9755041.56 5135676.81 182.19
-9755045.40 5135677.73 181.91
-9755041.35 5135676.50 182.26
-9755042.19 5135675.89 182.23
-9755039.54 5135677.10 182.06
-9755039.60 5135675.61 182.33
-9755043.38 5135678.29 181.98
-9755043.95 5135679.47 181.96
-9755041.07 5135677.10 182.02
-9755043.10 5135675.31 182.21
-9755041.05 5135677.41 182.03
-9755044.26 5135675.66 182.17
-9755042.27 5135675.31 182.24
-9755043.68 5135677.70 181.94
-9755045.14 5135679.78 181.95
-9755042.56 5135675.33 182.23
-9755040.20 5135677.06 182.05
-9755044.57 5135680.37 181.98
-9755043.42 5135678.57 181.98
-9755043.43 5135675.30 182.20
-9755043.09 5135676.55 182.01
-9755042.19 5135680.68 182.06
-9755041.34 5135677.09 182.01
-9755043.42 5135676.61 181.97
-9755040.45 5135677.71 182.05
-9755039.27 5135680.04 182.10
-9755039.30 5135675.87 182.33
-9755043.93 5135678.57 181.97
-9755043.39 5135679.79 181.99
-9755041.31 5135680.72 182.07
-9755039.54 5135678.59 182.09
-9755039.60 5135675.30 182.33
-9755040.41 5135677.43 182.06
-9755042.23 5135678.29 182.01
-9755040.08 5135679.15 182.08
-9755044.24 5135678.63 181.95
-9755043.69 5135680.41 182.00
-9755040.17 5135675.03 182.31
-9755043.36 5135675.65 182.20
-9755041.34 5135675.02 182.26
-9755041.90 5135679.77 182.04
-9755040.18 5135675.61 182.30
-9755040.44 5135676.19 182.30
-9755042.47 5135677.69 181.99
-9755044.26 5135678.03 181.94
-9755044.56 5135677.43 181.93
-9755040.46 5135679.43 182.09
-9755041.02 5135680.33 182.08
-9755039.25 5135680.66 182.14
-9755042.52 5135679.47 182.01
-9755039.24 5135679.45 182.12
-9755043.09 5135677.35 181.98
-9755043.40 5135677.38 181.96
-9755042.52 5135676.51 182.03
-9755058.74 5135663.02 175.92
-9755054.28 5135664.44 175.99
-9755051.33 5135666.77 176.03
-9755056.08 5135665.02 175.97
-9755050.47 5135663.83 176.02
-9755052.82 5135666.17 176.01
-9755055.21 5135663.27 175.98
-9755053.43 5135663.52 176.01
-9755056.94 5135664.76 175.95
-9755049.92 5135665.28 176.04
-9755051.94 5135666.22 176.03
-9755057.90 5135664.17 175.95
-9755056.97 5135667.13 175.96
-9755055.80 5135663.27 175.97
-9755051.94 5135664.74 176.02
-9755051.36 5135663.56 176.03
-9755048.75 5135666.21 176.04
-9755057.24 5135663.55 175.95
-9755051.66 5135667.71 176.02
-9755054.03 5135665.36 176.00
-9755058.14 5135665.06 175.94
-9755048.70 5135664.38 176.04
-9755052.57 5135663.85 176.01
-9755051.08 5135667.38 176.03
-9755057.29 5135665.34 175.96
-9755053.71 5135663.81 176.01
-9755053.70 5135665.90 176.00
-9755051.65 5135667.10 176.02
-9755053.70 5135664.46 176.01
-9755047.55 5135667.06 176.03
-9755047.77 5135667.66 176.05
-9755046.93 5135665.58 176.04
-9755048.43 5135663.21 176.06
-9755046.65 5135667.64 176.03
-9755047.84 5135666.15 176.05
-9755046.94 5135664.69 176.04
-9755047.82 5135665.92 176.04
-9755046.36 5135666.16 176.03
-9755045.78 5135662.86 176.01
-9755040.48 5135667.63 175.96
-9755046.07 5135667.67 176.02
-9755043.40 5135667.35 176.01
-9755045.23 5135666.17 176.01
-9755042.83 5135666.44 175.99
-9755041.35 5135667.07 175.96
-9755041.62 5135663.77 175.98
-9755045.46 5135666.14 176.02
-9755040.48 5135663.44 175.96
-9755044.86 5135666.77 176.00
-9755041.37 5135663.77 175.98
-9755045.18 5135662.93 176.02
-9755044.56 5135664.10 176.01
-9755042.53 5135664.66 175.99
-9755040.21 5135666.47 175.95
-9755045.21 5135663.78 176.01
-9755043.18 5135662.89 175.99
-9755043.09 5135665.25 176.00
-9755043.72 5135667.65 176.01
-9755037.00 5135671.42 183.15
-9755039.31 5135671.16 183.11
-9755037.51 5135672.61 182.40
-9755039.32 5135670.77 183.17
-9755037.14 5135670.85 175.88
-9755036.91 5135674.10 182.42
-9755037.75 5135670.43 184.94
-9755038.43 5135672.91 182.38
-9755039.30 5135669.84 184.83
-9755036.68 5135672.08 185.32
-9755037.54 5135671.98 185.23
-9755036.31 5135671.17 175.88
-9755038.09 5135670.52 175.92
-9755036.35 5135669.38 175.86
-9755039.15 5135669.60 184.83
-9755038.93 5135668.77 175.94
-9755036.34 5135673.21 182.44
-9755038.10 5135671.14 175.93
-9755036.26 5135669.07 175.86
-9755038.45 5135673.80 182.37
-9755038.44 5135674.13 182.38
-9755037.44 5135671.71 175.90
-9755036.94 5135671.45 175.90
-9755038.94 5135669.38 175.94
-9755037.51 5135674.10 182.40
-9755037.23 5135672.34 182.43
-9755037.46 5135668.48 175.89
-9755038.13 5135673.65 185.72
-9755037.29 5135672.44 185.39
-9755038.44 5135670.82 183.16
-9755036.32 5135672.24 185.31
-9755037.27 5135671.28 185.25
-9755036.93 5135675.00 182.41
-9755038.99 5135679.48 182.12
-9755037.54 5135675.00 182.39
-9755038.96 5135680.03 182.13
-9755038.46 5135676.77 182.13
-9755038.08 5135676.19 182.37
-9755038.05 5135675.91 182.37
-9755037.20 5135678.52 182.17
-9755038.35 5135680.03 182.16
-9755036.86 5135677.10 182.15
-9755037.17 5135679.75 182.17
-9755038.98 5135679.18 182.12
-9755038.74 5135676.47 182.34
-9755036.90 5135677.98 182.16
-9755038.37 5135679.42 182.13
-9755038.09 5135679.48 182.13
-9755037.52 5135677.37 182.13
-9755036.05 5135675.27 182.43
-9755037.20 5135676.48 182.39
-9755038.40 5135680.31 182.16
-9755037.25 5135680.62 182.20
-9755036.93 5135675.30 182.40
-9755036.08 5135676.16 182.42
-9755037.54 5135676.19 182.39
-9755037.16 5135677.96 182.15
-9755036.54 5135677.04 182.34
-9755038.05 5135677.37 182.12
-9755039.00 5135678.28 182.09
-9755038.71 5135677.12 182.10
-9755036.33 5135680.60 182.20
-9755038.39 5135677.63 182.12
-9755036.92 5135678.86 182.18
-9755037.17 5135675.88 182.40
-9755036.33 5135677.97 182.16
-9755036.03 5135679.44 182.20
-9755038.96 5135680.33 182.13
-9755037.77 5135678.24 182.13
-9755038.44 5135666.70 175.93
-9755037.53 5135666.09 175.90
-9755039.30 5135665.85 175.94
-9755037.19 5135666.71 175.88
-9755039.26 5135663.75 175.94
-9755036.34 5135664.09 175.85
-9755038.41 5135663.76 175.92
-9755036.09 5135670.81 183.22
-9755036.12 5135671.38 183.19
-9755035.40 5135674.10 185.80
-9755035.48 5135673.18 182.47
-9755036.16 5135672.71 185.54
-9755035.52 5135670.12 185.00
-9755035.45 5135671.06 176.91
-9755035.63 5135669.91 175.95
-9755035.45 5135674.09 182.46
-9755035.37 5135669.64 176.10
-9755035.50 5135671.30 185.23
-9755035.50 5135670.99 185.19
-9755036.33 5135672.02 182.43
-9755036.03 5135674.37 182.44
-9755035.65 5135669.35 176.04
-9755035.54 5135672.75 185.48
-9755035.43 5135670.78 176.89
-9755036.09 5135670.72 185.05
-9755035.83 5135668.13 176.62
-9755035.53 5135670.40 185.04
-9755035.77 5135671.17 183.19
-9755035.43 5135669.63 176.88
-9755036.05 5135671.72 183.18
-9755035.71 5135668.77 175.93
-9755035.17 5135668.73 176.30
-9755035.19 5135672.54 182.46
-9755035.15 5135668.40 176.90
-9755035.30 5135670.29 183.19
-9755034.01 5135673.51 182.49
-9755032.81 5135672.88 182.50
-9755035.22 5135671.55 185.26
-9755032.22 5135673.17 182.51
-9755029.30 5135672.53 182.59
-9755033.69 5135674.10 182.49
-9755035.24 5135670.75 183.28
-9755029.87 5135672.53 182.58
-9755030.84 5135672.00 182.58
-9755029.88 5135670.13 185.09
-9755031.79 5135670.31 185.07
-9755030.38 5135671.67 176.21
-9755030.37 5135671.12 176.21
-9755029.01 5135671.96 182.58
-9755032.80 5135671.41 176.14
-9755031.36 5135669.34 176.15
-9755030.74 5135673.41 182.55
-9755031.02 5135670.96 185.24
-9755029.85 5135671.66 176.21
-9755032.82 5135672.55 185.49
-9755031.30 5135672.57 182.55
-9755029.55 5135669.31 176.18
-9755035.18 5135669.35 176.88
-9755032.20 5135672.88 182.52
-9755034.01 5135674.66 182.48
-9755032.76 5135669.91 176.13
-9755029.52 5135668.11 176.20
-9755032.78 5135672.90 185.67
-9755030.62 5135672.14 185.46
-9755033.84 5135670.99 185.13
-9755033.13 5135674.63 182.50
-9755033.35 5135670.22 176.12
-9755034.52 5135668.75 176.08
-9755029.85 5135670.90 185.16
-9755031.87 5135669.65 176.16
-9755034.56 5135672.39 185.43
-9755033.37 5135671.12 176.11
-9755034.32 5135670.12 185.00
-9755033.16 5135670.74 185.10
-9755031.03 5135673.73 182.55
-9755033.63 5135671.69 176.12
-9755034.71 5135669.85 184.97
-9755032.21 5135671.91 185.41
-9755030.19 5135670.34 185.09
-9755031.96 5135671.99 182.54
-9755031.12 5135671.34 183.30
-9755033.14 5135671.97 183.24
-9755033.68 5135670.83 176.11
-9755033.45 5135670.85 185.13
-9755031.95 5135671.26 185.27
-9755029.26 5135672.84 182.59
-9755032.29 5135671.93 183.26
-9755033.42 5135669.34 176.11
-9755031.62 5135670.08 185.05
-9755031.88 5135669.32 176.16
-9755032.79 5135671.96 183.26
-9755034.29 5135672.60 182.49
-9755032.78 5135673.79 182.51
-9755033.39 5135671.95 183.22
-9755032.81 5135671.33 183.28
-9755035.15 5135670.22 176.90
-9755034.38 5135671.22 185.28
-9755030.13 5135670.24 176.21
-9755031.07 5135672.40 185.50
-9755031.88 5135670.18 176.17
-9755029.99 5135674.17 185.88
-9755033.79 5135670.35 185.00
-9755029.57 5135674.60 182.57
-9755030.51 5135670.07 185.07
-9755032.00 5135672.05 185.41
-9755031.69 5135671.70 183.28
-9755035.21 5135671.39 183.22
-9755031.90 5135674.06 182.53
-9755030.75 5135671.99 176.18
-9755032.64 5135671.74 185.39
-9755033.93 5135671.94 176.12
-9755033.49 5135671.26 185.29
-9755032.56 5135671.67 183.27
-9755030.22 5135670.62 185.13
-9755030.77 5135673.53 185.84
-9755029.55 5135672.13 185.47
-9755031.36 5135671.61 183.30
-9755032.20 5135674.62 182.51
-9755029.54 5135672.69 185.69
-9755029.51 5135670.08 185.09
-9755028.97 5135670.37 185.11
-9755032.74 5135669.86 185.03
-9755030.85 5135671.30 185.31
-9755033.11 5135673.74 182.51
-9755030.12 5135673.48 182.56
-9755028.97 5135668.74 176.20
-9755034.33 5135670.95 185.11
-9755033.68 5135670.83 183.31
-9755031.58 5135670.16 176.18
-9755033.40 5135671.75 185.30
-9755029.61 5135669.88 176.19
-9755031.84 5135671.71 176.17
-9755031.90 5135674.37 182.53
-9755032.22 5135670.65 185.11
-9755033.81 5135672.30 185.49
-9755028.99 5135672.58 182.58
-9755031.08 5135672.88 182.55
-9755031.93 5135673.15 182.52
-9755035.42 5135676.42 182.43
-9755035.43 5135679.98 182.22
-9755035.40 5135680.59 182.24
-9755035.16 5135677.38 182.19
-9755035.40 5135678.58 182.21
-9755035.99 5135677.90 182.17
-9755035.17 5135675.84 182.44
-9755035.48 5135679.13 182.20
-9755035.16 5135676.16 182.44
-9755035.15 5135674.95 182.44
-9755031.32 5135675.85 182.52
-9755035.14 5135676.46 182.43
-9755028.93 5135679.38 182.36
-9755034.23 5135680.87 182.26
-9755035.14 5135678.53 182.21
-9755034.26 5135674.99 182.48
-9755030.69 5135677.56 182.29
-9755032.76 5135679.08 182.28
-9755034.28 5135676.13 182.47
-9755030.40 5135677.31 182.29
-9755033.11 5135679.71 182.29
-9755030.68 5135676.11 182.54
-9755028.97 5135678.17 182.34
-9755032.79 5135677.93 182.26
-9755034.19 5135680.30 182.26
-9755034.80 5135678.49 182.23
-9755033.09 5135680.60 182.28
-9755029.27 5135676.16 182.57
-9755031.85 5135678.54 182.28
-9755032.17 5135676.14 182.51
-9755033.66 5135680.31 182.26
-9755032.85 5135676.16 182.50
-9755032.17 5135677.07 182.28
-9755034.86 5135675.00 182.45
-9755029.25 5135675.80 182.58
-9755034.30 5135678.54 182.23
-9755034.01 5135675.86 182.47
-9755032.75 5135679.97 182.29
-9755032.17 5135675.23 182.51
-9755029.27 5135678.23 182.33
-9755031.59 5135675.23 182.52
-9755033.68 5135677.89 182.23
-9755033.66 5135680.59 182.28
-9755029.82 5135677.01 182.34
-9755029.83 5135678.50 182.33
-9755030.12 5135680.26 182.35
-9755031.04 5135677.38 182.29
-9755033.64 5135679.40 182.26
-9755034.89 5135675.89 182.45
-9755028.94 5135679.08 182.35
-9755033.10 5135678.57 182.26
-9755030.68 5135679.08 182.32
-9755034.24 5135677.37 182.19
-9755033.40 5135676.16 182.47
-9755030.46 5135677.88 182.30
-9755030.14 5135674.92 182.55
-9755031.95 5135676.15 182.52
-9755028.96 5135678.48 182.34
-9755031.05 5135679.36 182.31
-9755029.28 5135677.00 182.33
-9755030.17 5135675.80 182.56
-9755029.80 5135679.35 182.35
-9755030.72 5135678.23 182.31
-9755033.07 5135676.16 182.48
-9755029.51 5135677.90 182.32
-9755029.81 5135677.38 182.31
-9755033.99 5135676.18 182.47
-9755031.33 5135677.91 182.29
-9755028.96 5135680.27 182.37
-9755033.94 5135679.43 182.24
-9755031.86 5135680.55 182.31
-9755035.16 5135680.63 182.24
-9755030.15 5135676.12 182.55
-9755031.06 5135676.74 182.51
-9755029.83 5135680.24 182.35
-9755029.28 5135675.24 182.57
-9755029.85 5135675.83 182.56
-9755033.36 5135679.13 182.26
-9755028.97 5135676.11 182.58
-9755029.79 5135678.23 182.32
-9755031.36 5135674.33 182.55
-9755029.84 5135677.90 182.32
-9755035.90 5135667.81 176.37
-9755035.43 5135664.06 176.01
-9755035.38 5135667.86 176.89
-9755036.04 5135666.11 175.85
-9755035.48 5135666.34 176.88
-9755035.67 5135667.59 176.00
-9755035.42 5135665.88 176.04
-9755035.44 5135662.86 175.90
-9755035.55 5135663.44 175.89
-9755035.79 5135665.24 175.85
-9755035.58 5135665.01 175.87
-9755035.43 5135666.71 176.00
-9755035.53 5135665.27 175.99
-9755035.99 5135667.60 175.82
-9755035.40 5135662.78 175.98
-9755035.52 5135664.57 176.89
-9755035.71 5135667.62 176.54
-9755035.12 5135666.81 176.12
-9755035.44 5135666.66 176.89
-9755035.55 5135666.41 175.99
-9755035.78 5135666.99 175.83
-9755035.30 5135664.54 175.99
-9755034.63 5135663.14 176.11
-9755035.21 5135664.56 176.89
-9755033.96 5135666.97 176.09
-9755031.03 5135662.83 176.14
-9755035.13 5135667.58 176.89
-9755029.55 5135666.04 176.19
-9755029.24 5135664.60 176.19
-9755033.08 5135664.28 176.10
-9755035.20 5135663.73 176.89
-9755031.90 5135663.69 176.14
-9755034.60 5135665.50 176.08
-9755033.98 5135664.58 176.08
-9755029.25 5135666.95 176.20
-9755034.01 5135665.48 176.08
-9755030.43 5135665.49 176.19
-9755029.52 5135664.31 176.19
-9755034.64 5135666.36 176.88
-9755031.07 5135663.40 176.14
-9755031.33 5135667.23 176.16
-9755035.24 5135664.25 176.43
-9755032.22 5135664.91 176.12
-9755034.90 5135663.72 176.89
-9755032.81 5135667.57 176.13
-9755030.16 5135663.71 176.17
-9755029.57 5135666.65 176.18
-9755033.73 5135663.71 176.07
-9755031.90 5135666.35 176.14
-9755034.52 5135664.53 176.86
-9755032.81 5135665.53 176.11
-9755080.79 5135644.17 183.41
-9755080.77 5135646.16 183.64
-9755078.06 5135645.39 180.82
-9755081.32 5135646.76 183.42
-9755079.83 5135647.20 180.87
-9755081.34 5135644.40 184.52
-9755078.38 5135645.76 180.76
-9755078.63 5135646.86 180.77
-9755081.32 5135644.07 183.41
-9755081.27 5135647.07 183.26
-9755078.06 5135645.04 182.54
-9755081.35 5135644.05 184.47
-9755079.85 5135645.98 180.87
-9755078.53 5135661.00 183.21
-9755079.83 5135660.99 183.88
-9755081.31 5135649.68 183.89
-9755080.33 5135659.21 183.25
-9755080.12 5135650.96 183.71
-9755080.76 5135652.28 183.69
-9755078.91 5135660.94 184.35
-9755079.58 5135650.29 183.35
-9755080.43 5135651.81 184.59
-9755081.31 5135652.36 183.15
-9755080.47 5135658.90 182.87
-9755080.77 5135660.02 183.65
-9755080.71 5135649.99 183.96
-9755080.44 5135658.58 183.11
-9755079.02 5135650.22 182.72
-9755080.34 5135658.41 182.60
-9755078.30 5135650.46 180.69
-9755080.14 5135656.76 183.55
-9755078.35 5135658.52 180.72
-9755079.73 5135658.62 182.79
-9755078.88 5135657.84 180.79
-9755079.80 5135658.87 182.96
-9755081.27 5135655.22 181.05
-9755081.26 5135659.23 183.06
-9755080.86 5135660.16 184.02
-9755079.09 5135659.66 180.67
-9755078.31 5135660.68 184.66
-9755078.62 5135660.27 183.78
-9755079.58 5135660.64 183.53
-9755080.42 5135649.73 183.95
-9755078.98 5135659.54 180.84
-9755078.24 5135656.74 181.90
-9755080.99 5135661.01 183.04
-9755081.36 5135651.46 184.83
-9755080.71 5135649.91 183.58
-9755079.17 5135659.81 183.90
-9755077.96 5135659.65 184.80
-9755080.72 5135651.48 184.33
-9755081.16 5135660.62 183.54
-9755080.90 5135650.25 184.18
-9755080.32 5135657.95 183.03
-9755077.99 5135658.87 183.64
-9755077.74 5135658.83 183.61
-9755081.22 5135660.46 182.77
-9755079.23 5135660.98 183.48
-9755079.16 5135659.25 183.17
-9755079.13 5135659.81 182.88
-9755080.73 5135652.11 183.18
-9755078.02 5135651.01 181.26
-9755078.76 5135657.72 183.36
-9755079.58 5135649.93 183.44
-9755078.31 5135659.20 180.69
-9755081.28 5135650.16 184.01
-9755079.23 5135650.60 183.44
-9755079.83 5135648.95 180.85
-9755079.56 5135659.72 182.85
-9755078.86 5135660.04 184.10
-9755079.78 5135658.70 180.97
-9755079.79 5135660.63 183.95
-9755078.31 5135653.14 180.69
