-9760680.88 5151169.17 201.01
-9760248.41 5150969.87 191.36
-9760446.28 5150757.69 195.47
-9759826.02 5150318.16 191.32
-9759399.81 5150337.21 192.97
-9759801.62 5150126.55 192.20
-9759614.76 5150123.98 192.04
-9760056.16 5149902.17 192.60
-9759804.42 5149910.66 192.96
-9759198.58 5149901.77 197.04
-9759626.71 5149726.70 189.92
-9759186.07 5149718.15 191.12
-9759810.30 5149697.88 190.07
-9760039.49 5151398.02 195.35
-9759608.29 5151400.02 197.20
-9759166.19 5152455.85 198.25
-9759623.09 5152025.50 197.87
-9759196.40 5152025.35 196.57
-9759628.20 5150544.47 195.61
-9760020.72 5150542.99 191.30
-9759621.62 5151803.49 195.93
-9760037.00 5151592.74 198.77
-9759840.59 5151605.74 199.57
-9758749.10 5150133.41 195.90
-9758978.93 5149907.74 196.16
-9758769.47 5149917.60 194.67
-9758575.93 5149704.97 204.11
-9758336.64 5149707.16 200.59
-9758982.47 5149504.01 197.75
-9758780.63 5149492.18 199.49
-9758769.09 5152451.76 197.42
-9758349.11 5152446.30 193.19
-9758148.49 5152451.29 196.53
-9758344.30 5152243.59 200.15
-9758135.82 5152250.55 199.68
-9758548.54 5152230.89 201.41
-9758773.80 5152007.21 198.24
-9758142.12 5152037.94 197.39
-9758766.97 5151827.56 202.95
-9758999.44 5151800.75 193.92
-9758982.11 5151593.22 194.85
-9757711.48 5150332.98 195.59
-9757299.07 5150118.01 195.35
-9757943.90 5150136.78 205.52
-9757713.64 5150121.71 195.98
-9757506.15 5149905.37 200.76
-9757703.03 5151395.46 197.54
-9757497.20 5151382.01 200.05
-9757705.76 5149722.35 210.79
-9757283.43 5149721.35 201.61
-9758144.80 5149492.92 196.35
-9757908.92 5152447.66 193.21
-9757732.91 5150545.64 200.15
-9757512.22 5150552.33 197.72
-9757293.08 5151806.31 203.13
-9757918.04 5151807.10 198.72
-9757713.44 5151604.40 196.55
-9757291.80 5151605.32 241.28
-9756869.76 5149915.51 197.62
-9756678.28 5151406.64 199.98
-9757076.41 5151188.24 195.14
-9756250.28 5151178.48 197.30
-9757077.80 5150757.73 205.54
-9756664.94 5150773.07 201.34
-9757082.23 5150547.82 198.61
-9756668.12 5152444.75 195.54
-9756662.54 5152230.28 196.30
-9756245.18 5152234.30 194.05
-9756638.15 5152020.57 199.19
-9757095.76 5152024.79 195.91
-9757091.04 5151826.11 206.05
-9756662.35 5151815.40 198.22
-9757086.76 5151613.74 196.22
-9756674.00 5151595.10 206.96
-9756236.15 5151610.06 197.69
-9755849.42 5150340.14 193.47
-9756062.87 5151179.53 211.22
-9755634.20 5150765.37 201.34
-9762566.11 5149698.21 195.15
-9762806.77 5151363.94 209.02
-9762573.50 5151385.16 190.64
-9762994.35 5150963.29 194.08
-9762774.99 5150976.75 193.34
-9762360.86 5150966.45 201.31
-9762353.35 5152026.40 193.47
-9762780.93 5151823.26 194.46
-9762366.84 5151824.67 194.40
-9762796.32 5150554.17 196.95
-9762987.40 5151583.27 196.93
-9762758.18 5151597.51 195.36
-9762355.25 5150535.27 191.96
-9761499.34 5151408.29 193.80
-9761295.63 5151384.78 190.58
-9761944.36 5151177.93 190.44
-9762143.86 5150970.54 195.01
-9761938.14 5150968.34 192.98
-9761499.58 5150978.59 190.35
-9761928.16 5149910.83 191.87
-9761497.14 5149924.88 195.49
-9761965.86 5152251.12 202.74
-9762137.49 5150760.78 200.76
-9761515.66 5150771.64 194.20
-9761305.61 5150752.75 192.20
-9761717.23 5149701.90 197.13
-9762142.95 5149709.76 190.91
-9761937.72 5152024.69 193.26
-9761724.67 5151994.92 203.25
-9761512.37 5152020.42 190.21
-9761730.80 5150549.49 190.77
-9761289.66 5152020.45 191.06
-9761303.81 5150546.95 190.62
-9761936.60 5150559.53 200.14
-9762153.64 5149498.35 206.49
-9761722.17 5149486.25 196.78
-9760876.16 5150346.92 198.32
-9760460.03 5149882.30 210.02
-9760240.43 5149894.83 190.99
-9761118.54 5149936.20 199.36
-9760681.98 5149698.79 201.00
-9760435.13 5149706.58 193.89
-9761091.28 5149484.74 196.53
-9760877.77 5149504.68 197.50
-9760883.74 5152434.26 195.20
-9760664.68 5152450.94 194.37
-9760457.45 5152442.35 199.31
-9760249.70 5152437.48 199.20
-9760468.67 5152033.16 194.08
-9760262.23 5152023.79 194.40
-9760676.97 5152015.28 199.89
-9761087.63 5150761.42 190.66
-9761103.01 5151805.12 195.05
-9761083.47 5151590.55 197.73
-9759196.75 5150332.29 191.61
-9759400.30 5149910.84 193.55
-9760059.98 5149713.84 197.60
-9759199.91 5149473.74 193.56
-9760046.90 5151182.45 191.84
-9759411.43 5151172.06 189.64
-9760057.35 5152439.47 200.27
-9759814.46 5152432.39 200.32
-9759624.05 5152422.63 201.48
-9760054.74 5150984.44 195.90
-9759408.72 5150952.16 197.00
-9760036.67 5152228.90 203.20
-9759595.52 5152225.32 198.04
-9759396.13 5152236.31 195.46
-9759191.16 5152208.27 198.46
-9759176.96 5150761.44 196.15
-9760029.59 5150760.92 195.67
-9759426.89 5152011.55 201.65
-9759830.68 5150546.55 190.80
-9760047.99 5151795.18 201.63
-9759189.12 5151816.95 204.85
-9759607.54 5151598.18 200.93
-9758554.39 5150321.33 199.50
-9758563.86 5150107.79 205.77
-9758360.65 5149896.78 208.19
-9758770.08 5151174.20 194.10
-9758986.98 5151181.48 192.34
-9758981.05 5152240.53 194.81
-9758781.77 5152239.10 201.68
-9758561.56 5150966.09 194.08
-9758997.75 5152023.12 201.41
-9758357.45 5152030.87 193.32
-9758555.62 5150755.93 197.22
-9758557.70 5151820.45 196.49
-9758345.06 5151820.15 196.19
-9758988.08 5150553.00 189.66
-9758784.17 5151607.45 200.62
-9758557.45 5151587.95 195.19
-9758149.36 5150136.25 198.34
-9757931.20 5150759.40 201.17
-9758149.64 5151591.38 194.83
-9765293.77 5151385.87 194.22
-9765294.80 5150758.19 194.41
-9765301.78 5151622.48 199.63
-9765296.53 5150332.65 200.00
-9764902.76 5150336.11 198.36
-9764895.70 5150125.78 198.00
-9764881.29 5149928.51 203.10
-9764470.57 5152241.46 193.42
-9765106.58 5150542.87 203.78
-9764887.62 5150571.76 199.20
-9764471.30 5150558.08 199.92
-9764878.65 5152029.31 198.43
-9764892.10 5151814.81 196.13
-9764673.39 5151813.43 197.46
-9763827.77 5149507.32 195.74
-9763621.02 5149500.56 204.91
-9763415.98 5149501.73 195.44
-9763614.97 5150129.26 196.20
-9763815.15 5150955.21 202.99
-9764054.04 5152431.19 205.92
-9763399.34 5152459.75 198.34
-9764050.07 5149694.35 190.51
-9763625.88 5149724.19 195.02
-9763811.98 5152241.64 195.66
-9763403.83 5150765.00 199.35
-9764044.33 5152029.22 189.27
-9763416.71 5152005.29 200.24
-9763611.83 5150537.00 191.31
-9763412.55 5150551.85 195.46
-9763821.34 5150548.68 194.82
-9764038.15 5151809.13 192.02
-9764245.98 5151599.41 195.97
-9763819.11 5151603.70 194.35
-9762569.33 5150115.27 200.18
-9762341.29 5150127.67 194.46
-9762348.16 5149905.95 199.08
-9762771.83 5149708.25 193.39
-9763201.83 5149693.04 194.63
-9763184.66 5152436.54 195.74
-9762775.85 5152431.46 194.79
-9762584.50 5152438.64 193.24
-9763004.28 5149480.33 198.60
-9762356.72 5149486.74 192.61
-9763201.38 5152248.60 196.11
-9762990.21 5152235.92 191.49
-9762769.56 5152230.28 191.76
-9762576.02 5152253.35 204.05
-9762572.36 5152036.61 193.63
-9762159.82 5150337.41 198.80
-9761720.62 5150343.72 195.43
-9761529.03 5150122.97 199.37
-9761312.60 5150974.52 194.77
-9761301.88 5149910.86 196.04
-9761730.02 5152433.12 184.39
-9761300.97 5152221.55 191.86
-9761730.10 5152252.93 184.89
-9761518.73 5149713.97 188.46
-9761513.66 5150534.67 197.65
-9762146.54 5150539.87 197.47
-9762152.21 5151810.97 191.48
-9761715.12 5151819.24 189.54
-9761513.49 5151811.89 189.73
-9761308.98 5151822.96 190.87
-9761309.37 5151610.12 192.43
-9762145.54 5151602.59 187.92
-9761920.40 5151585.61 190.64
-9761093.77 5150334.50 189.35
-9760673.38 5150332.41 187.68
-9760251.34 5150343.42 189.20
-9761079.16 5150139.82 197.35
-9760879.62 5149906.07 189.87
-9761116.15 5151178.29 195.99
-9761112.90 5152238.70 198.89
-9760873.81 5152245.96 194.29
-9761085.88 5150970.28 191.06
-9760891.08 5150751.94 189.28
-9760878.13 5150565.82 189.21
-9760663.83 5150538.93 189.01
-9760235.60 5150562.74 191.68
-9760883.02 5151798.99 199.21
-9760451.53 5151801.25 197.82
-9760694.85 5151594.85 195.71
-9767637.78 5150536.45 203.81
-9767420.58 5150545.33 186.94
-9767404.50 5150979.54 197.67
-9766364.64 5149490.42 200.96
-9766578.62 5150349.48 193.97
-9766991.40 5150130.45 194.97
-9766766.37 5150120.98 202.89
-9766348.97 5150100.99 211.56
-9766562.55 5150942.17 201.24
-9766774.81 5150757.56 194.45
-9766351.22 5150761.88 192.93
-9766573.70 5152437.16 201.77
-9766758.73 5152239.08 200.99
-9766366.75 5152021.25 192.50
-9766990.86 5151815.06 199.62
-9766569.19 5151821.00 190.47
-9766372.72 5151826.27 198.28
-9766983.34 5151591.69 199.25
-9766789.08 5151592.17 196.90
-9766139.16 5150135.95 194.52
-9765525.83 5150139.87 199.29
-9765521.47 5149698.36 190.85
-9766150.47 5150984.31 192.80
-9765507.72 5150962.23 201.82
-9765514.84 5150752.59 199.06
-9766153.01 5152445.34 195.15
-9765516.26 5152234.68 193.35
-9765310.91 5152228.47 193.16
-9766163.39 5152002.64 201.91
-9765317.73 5152032.02 198.48
-9765322.78 5151811.52 194.36
-9765725.95 5151601.96 192.16
-9764477.00 5150356.98 199.35
-9764472.39 5150113.03 202.08
-9764466.88 5149912.43 199.98
-9765101.20 5149704.74 195.50
-9764896.30 5149707.39 194.60
-9764656.97 5149711.34 195.60
-9764452.71 5149710.73 192.77
-9764897.40 5152441.57 202.39
-9764695.80 5152435.16 198.28
-9764881.09 5152233.90 202.64
-9765095.88 5152244.27 193.89
-9764677.88 5150541.82 199.99
-9764475.69 5151612.32 195.72
-9764256.90 5149478.19 203.39
-9763395.24 5150339.43 198.93
-9763622.87 5151395.32 193.38
-9763409.81 5151397.77 196.57
-9763845.86 5150130.00 195.54
-9764261.68 5150118.47 204.36
-9764238.83 5151176.89 195.90
-9763831.03 5151182.17 197.59
-9763620.86 5151169.93 195.92
-9763606.84 5149908.40 196.37
-9764251.36 5150964.83 196.91
-9763424.72 5150958.84 199.27
-9764262.00 5152441.79 190.63
-9763849.32 5152458.03 199.60
-9764044.07 5150753.18 198.49
-9764049.28 5152236.41 190.62
-9763832.64 5152023.62 190.07
-9763625.56 5152045.70 199.66
-9764250.70 5150547.46 194.39
-9763621.09 5151848.07 203.38
-9763629.98 5151602.23 191.86
-9763188.93 5150332.41 196.97
-9763181.28 5150127.53 197.92
-9762999.81 5150130.09 195.96
-9762995.95 5151179.75 194.59
-9762989.00 5150749.97 195.45
-9762575.32 5150762.76 197.43
-9763199.77 5151830.76 192.30
-9762566.64 5151620.81 193.62
-9763214.56 5151610.96 201.01
-9762577.92 5150528.37 196.25
-9769712.28 5151398.22 203.72
-9769522.12 5150122.31 205.10
-9769529.41 5149911.19 208.36
-9769752.84 5150962.29 203.43
-9769090.71 5150560.71 200.14
-9768467.21 5150335.01 202.81
-9768446.54 5150544.43 202.85
-9768878.23 5151389.97 207.75
-9769301.21 5149719.99 202.06
-9768698.86 5149714.42 201.98
-9768463.14 5149707.68 202.48
-9768487.43 5152442.92 201.00
-9768887.97 5152228.56 204.53
-9768692.11 5152226.42 205.74
-9769104.36 5152036.40 197.33
-9768886.04 5152033.39 199.75
-9769093.13 5151814.77 195.68
-9768910.94 5151798.92 198.54
-9767832.20 5149508.19 195.40
-9767607.88 5149487.97 200.08
-9768034.39 5150327.03 200.98
-9768051.08 5150548.68 194.32
-9768261.39 5151389.76 205.01
-9768057.03 5150118.79 197.08
-9768263.58 5149920.39 207.01
-9768037.13 5149923.32 202.09
-9768260.28 5149707.24 199.45
-9768049.49 5149708.67 197.90
-9767404.85 5149725.58 203.47
-9767825.48 5152462.49 203.96
-9767614.78 5152435.02 209.26
-9768236.91 5152237.39 204.14
-9767850.42 5152229.54 197.85
-9768261.64 5152019.27 196.11
-9767844.56 5152017.14 198.13
-9767400.90 5152022.36 198.53
-9768045.50 5151824.39 198.05
-9767632.00 5151807.34 207.24
-9768263.49 5151611.43 196.55
-9766989.05 5149492.36 196.62
-9766774.60 5149503.24 196.48
-9766783.14 5150326.44 201.67
-9766366.55 5151390.03 201.57
-9767206.76 5149919.60 197.47
-9766993.81 5149930.88 202.95
-9766572.30 5149898.76 194.72
-9766767.71 5151179.18 195.99
-9767009.69 5149699.77 191.05
-9766589.84 5150759.68 192.18
-9766995.47 5152445.92 185.07
-9766349.52 5152438.03 210.94
-9766561.36 5150544.38 195.64
-9767191.47 5152238.48 195.87
-9766370.83 5152237.06 200.81
-9767198.06 5152025.59 196.79
-9766997.89 5152021.83 203.69
-9766785.97 5151832.61 195.03
-9766580.23 5151620.44 203.24
-9766360.94 5151589.14 197.80
-9766137.80 5150340.64 197.39
-9765737.48 5150354.64 210.57
-9766135.46 5149488.94 193.54
-9765728.18 5151392.24 192.77
-9765518.75 5151186.29 198.09
-9766152.36 5149718.25 199.55
-9765716.08 5149691.76 193.63
-9765922.63 5150779.85 208.98
-9765945.72 5150556.30 195.65
-9765526.12 5150535.53 201.14
-9765939.91 5152237.19 195.44
-9765534.09 5152035.29 193.95
-9766150.19 5151812.68 200.20
-9765528.44 5151812.87 195.31
-9765303.63 5150111.82 202.70
-9765097.92 5150117.01 195.17
-9764889.66 5151408.46 197.40
-9764891.71 5151179.94 200.17
-9765312.24 5149710.24 196.93
-9765094.59 5151804.42 194.72
-9765103.28 5151594.48 196.97
-9771839.46 5150548.06 208.85
-9772058.07 5150341.43 212.02
-9771639.76 5150329.24 199.36
-9772057.92 5151603.38 205.11
-9771628.67 5151366.88 204.82
-9771629.47 5151598.03 196.59
-9771842.79 5149920.22 212.81
-9771211.58 5149505.79 199.45
-9771202.18 5150542.64 200.24
-9770778.26 5150537.43 204.93
-9771217.47 5150331.34 210.04
-9770793.66 5150330.62 200.03
-9771209.48 5151393.18 201.83
-9770578.11 5151392.36 205.60
-9771005.43 5150122.29 206.10
-9770573.03 5150125.01 199.85
-9770787.93 5151160.18 202.19
-9770573.57 5151178.48 210.01
-9771008.67 5149905.54 209.10
-9770814.42 5149910.04 200.91
-9770598.71 5149916.45 203.07
-9770566.53 5152456.82 201.09
-9771006.84 5150962.95 197.75
-9771010.37 5152243.75 198.16
-9770764.02 5152232.88 208.84
-9771217.92 5152249.49 204.29
-9771215.18 5149707.47 200.98
-9770789.68 5149696.00 198.38
-9771193.61 5152021.08 203.33
-9770586.28 5152013.91 197.71
-9770575.64 5151582.19 202.45
-9769517.19 5149501.56 205.97
-9770152.52 5150351.05 200.78
-9769948.49 5150352.27 198.43
-9770364.42 5151393.92 202.55
-9770366.89 5151165.86 203.01
-9769741.96 5149894.31 209.46
-9770359.63 5149926.90 203.33
-9770362.64 5150977.59 200.86
-9769723.46 5149705.09 197.74
-9769518.01 5149714.30 203.33
-9770366.83 5152427.21 205.31
-9770155.73 5152235.19 200.26
-9769732.30 5152213.79 201.47
-9769547.51 5152233.71 215.86
-9770369.76 5152019.74 196.86
-9770358.79 5151809.82 198.78
-9770152.93 5151819.98 201.83
-9770154.95 5151603.83 196.16
-9768475.07 5149488.68 204.55
-9768898.97 5150335.33 194.80
-9769103.59 5151385.51 201.83
-9768478.75 5151386.59 198.36
-9769316.03 5150110.69 199.78
-9769102.67 5150129.24 195.80
-9768889.64 5150134.50 197.24
-9769106.90 5151181.81 198.28
-9768681.80 5151195.15 196.13
-9768680.98 5150990.54 204.58
-9769106.53 5149690.67 198.95
-9768903.03 5149707.98 199.25
-9768676.73 5150761.36 199.99
-9769311.27 5152449.92 201.35
-9769108.65 5152451.31 196.60
-9768666.65 5152418.48 203.76
-9768681.53 5152014.93 231.87
-9768466.28 5151804.27 197.93
-9768690.19 5151607.91 198.14
-9768028.15 5149511.03 202.84
-9767628.75 5150329.32 199.83
-9767432.21 5151405.00 209.22
-9768275.89 5150121.42 200.26
-9767634.23 5151179.85 202.37
-9767406.65 5151190.75 196.90
-9767406.22 5149931.05 200.02
-9768251.34 5152425.93 199.00
-9768060.69 5152437.64 204.61
-9768038.05 5152237.21 204.87
-9768263.56 5151809.16 196.26
-9767834.36 5151816.87 197.89
-9767432.51 5151844.69 217.93
-9767639.69 5151613.04 200.33
-9767417.97 5151612.21 199.36
-9767208.18 5150107.07 199.07
-9767219.66 5150960.07 195.24
-9774372.02 5150548.39 206.02
-9773948.77 5150549.74 215.66
-9773743.41 5150549.75 205.42
-9774172.26 5150335.26 219.19
-9773956.99 5150325.00 216.30
-9773737.74 5150329.74 215.24
-9774166.73 5150131.70 214.36
-9774157.03 5149907.66 219.76
-9773748.85 5149910.41 213.95
-9774168.22 5151601.30 202.92
-9774150.97 5151172.76 208.31
-9773952.80 5151189.06 204.36
-9773731.12 5150966.78 210.95
-9773943.37 5150763.28 218.12
-9773744.52 5152245.04 212.06
-9772691.87 5150552.90 206.70
-9773116.21 5150351.88 206.93
-9772686.06 5150127.83 213.06
-9773319.38 5149912.88 208.63
-9772686.58 5149944.52 211.49
-9772470.09 5149936.98 215.74
-9773336.14 5151605.87 210.85
-9773091.35 5151388.05 214.77
-9772891.62 5151392.94 206.42
-9772882.08 5151605.48 208.95
-9772693.61 5151611.88 214.41
-9773318.87 5149701.39 206.88
-9772885.96 5149700.08 204.04
-9772471.85 5151180.08 206.27
-9773313.58 5150957.59 209.10
-9773327.31 5152425.89 210.65
-9772692.21 5152449.00 202.22
-9772470.55 5152436.41 214.68
-9772909.87 5152221.61 204.35
-9773116.06 5152042.08 210.73
-9773310.95 5151805.11 206.90
-9772477.21 5151806.89 205.19
-9772073.12 5149490.31 207.47
-9771644.68 5150130.22 198.97
-9772258.54 5150123.57 208.90
-9772056.49 5150114.65 213.49
-9771860.61 5149708.43 207.23
-9771600.67 5149693.14 204.62
-9772279.55 5152441.48 211.32
-9772069.22 5152428.01 205.95
-9771635.84 5152449.64 209.21
-9772273.24 5152229.85 201.09
-9772041.77 5152241.38 205.82
-9772260.09 5151820.81 200.73
-9771446.54 5150552.02 204.05
-9771018.90 5150347.14 205.50
-9771417.98 5151611.28 205.56
-9771424.13 5151198.52 207.36
-9771212.42 5151196.07 199.33
-9771008.53 5151175.36 196.00
-9771439.94 5149909.11 205.60
-9771424.60 5152445.56 189.77
-9771249.12 5152447.72 214.03
-9770575.53 5152249.60 199.75
-9771428.97 5152217.20 206.78
-9771005.01 5149706.04 206.00
-9770597.81 5149707.70 202.76
-9771442.21 5152039.83 203.20
-9770367.72 5149505.81 199.48
-9770179.18 5149490.27 208.82
-9770370.17 5150540.68 203.73
-9769940.62 5150551.88 205.18
-9770164.24 5150131.96 202.41
-9769741.73 5150123.74 198.81
-9769958.28 5151161.22 204.17
-9769727.99 5151178.61 196.68
-9770174.54 5149914.69 197.69
-9770146.40 5149701.14 200.41
-9769944.43 5149696.57 201.86
-9770371.56 5149700.07 198.27
-9769946.72 5152228.83 196.32
-9769940.92 5152027.60 196.67
-9769733.12 5152026.33 196.90
-9769954.98 5151812.46 197.16
-9769532.97 5151613.22 195.56
-9769310.17 5150557.63 198.85
-9769327.84 5150768.44 200.21
-9776694.22 5151600.47 201.49
-9776480.55 5150539.35 202.58
-9776058.96 5150553.66 201.85
-9776477.36 5150140.35 207.15
-9776273.43 5150136.68 206.32
-9776272.59 5151608.16 204.91
-9776067.60 5151612.35 207.12
-9776252.89 5151393.73 212.61
-9775845.98 5149922.19 202.13
-9775839.43 5149715.98 202.29
-9776043.56 5152233.36 205.42
-9776263.64 5152025.66 204.76
-9776068.28 5152028.23 203.89
-9776472.10 5150768.95 208.40
-9775439.36 5149510.50 206.96
-9775211.24 5149489.42 205.48
-9775016.96 5149502.95 211.20
-9774991.50 5150327.86 211.73
-9775200.20 5150112.95 215.62
-9775015.78 5150143.95 208.61
-9775008.09 5149931.28 212.72
-9774810.78 5149902.45 212.96
-9774586.79 5149919.29 204.33
-9775443.03 5149710.51 204.86
-9775220.47 5149686.09 205.72
-9775012.02 5149691.10 207.13
-9774803.69 5151603.35 205.81
-9775213.56 5152435.40 207.63
-9775024.33 5152451.96 208.64
-9774588.00 5152456.96 205.37
-9775009.43 5151195.20 212.50
-9775025.99 5152233.20 210.18
-9775219.97 5150966.67 205.92
-9775006.74 5150967.88 213.83
-9775015.74 5152016.81 212.42
-9774808.18 5152023.97 204.43
-9775005.14 5150752.45 210.01
-9774595.05 5151816.17 204.74
-9774180.07 5149478.31 207.18
-9773946.81 5149499.17 211.04
-9773738.08 5149483.87 209.96
-9773541.08 5150129.80 206.99
-9773537.55 5149914.05 217.19
-9773515.79 5151387.21 213.43
-9773742.27 5149688.07 215.23
-9773526.38 5150969.67 204.72
-9774358.49 5152449.00 207.68
-9774166.56 5152457.16 201.64
-9773975.88 5152452.52 214.25
-9773750.35 5152438.54 215.15
-9773955.75 5152235.79 210.47
-9773529.02 5152227.12 211.72
-9774183.51 5152009.97 210.30
-9773759.02 5152038.35 212.53
-9773527.87 5152036.40 212.67
-9773529.27 5151815.22 217.41
-9772896.16 5150531.70 204.20
-9773325.50 5149498.97 208.54
-9773123.46 5149472.31 211.21
-9772687.50 5149501.31 203.65
-9772686.37 5150343.63 212.23
-9772475.72 5150347.09 205.68
-9773323.10 5150114.14 209.30
-9773327.66 5151395.25 203.40
-9773119.10 5151601.11 204.87
-9772705.21 5151392.85 204.30
-9772482.91 5151604.96 205.43
-9772697.75 5149714.26 208.07
-9772465.26 5149691.80 212.63
-9773320.34 5151185.75 213.57
-9772900.75 5152435.68 216.65
-9772463.29 5150762.43 207.29
-9773119.32 5152233.06 210.35
-9772700.73 5152237.78 213.55
-9772485.80 5152221.26 207.76
-9772687.06 5152018.64 205.23
-9773111.03 5151804.16 215.32
-9772706.17 5151817.71 214.13
-9771858.15 5150351.81 211.71
-9772254.07 5151600.53 208.89
-9772269.33 5149912.83 206.56
-9772076.15 5149892.39 207.77
-9772056.16 5151166.74 205.55
-9772261.11 5149712.60 212.31
-9772089.16 5152029.80 207.73
-9778812.33 5150545.48 209.85
-9778798.83 5150120.41 209.41
-9779022.63 5151381.17 208.91
-9778811.59 5151178.35 210.85
-9779025.18 5150948.06 218.49
-9779005.23 5150762.13 215.23
-9778584.99 5150532.35 203.70
-9778584.61 5150335.77 209.51
-9777962.47 5150340.30 202.48
-9777758.35 5150120.57 201.50
-9777961.80 5149910.07 207.68
-9777759.26 5149921.29 203.33
-9778594.17 5151590.16 207.65
-9778365.55 5151633.37 209.53
-9778171.22 5151627.84 202.41
-9778402.22 5149700.38 213.76
-9777774.43 5151193.63 206.69
-9778372.37 5150957.60 207.18
-9778593.77 5150761.22 217.05
-9778170.51 5152228.54 192.41
-9778383.35 5152234.14 191.59
-9778603.96 5152043.12 211.94
-9777962.17 5152007.57 205.55
-9777736.66 5152031.53 207.24
-9777115.96 5150339.74 201.88
-9776701.55 5150317.34 206.27
-9777552.97 5150338.36 202.56
-9776690.07 5150115.07 211.66
-9777323.23 5149920.65 205.96
-9777537.73 5149915.53 208.23
-9777111.62 5151181.47 202.09
-9776698.20 5149723.36 212.15
-9776898.81 5152444.35 206.48
-9776698.55 5152448.63 206.24
-9777124.23 5151817.53 201.15
-9776693.69 5151796.86 201.03
-9777546.94 5151807.75 200.78
-9775849.57 5150558.73 203.89
-9776047.36 5150324.66 207.26
-9775859.74 5150131.60 205.17
-9775839.90 5151584.83 210.34
-9776489.99 5152453.04 211.57
-9776278.23 5152473.01 212.90
-9776048.84 5152444.68 203.32
-9775853.08 5152445.70 203.60
-9775639.58 5152446.16 202.54
-9776471.71 5149698.33 210.46
-9776277.37 5149712.87 200.85
-9776044.34 5149694.95 208.73
-9775635.48 5152234.51 204.45
-9776499.30 5152032.24 211.15
-9775842.85 5152037.40 212.66
-9776248.62 5151804.97 209.20
-9776069.82 5151810.58 204.06
-9775232.84 5150325.44 214.57
-9774585.87 5150124.51 206.26
-9775434.83 5150144.95 210.56
-9775221.67 5149906.02 213.37
-9774796.72 5152448.52 204.20
-9774581.42 5151185.85 210.69
-9775424.31 5152246.81 204.00
-9775232.34 5152232.39 210.82
-9774797.80 5152217.97 210.66
-9774597.91 5152226.30 202.53
-9774580.01 5150968.14 206.80
-9775211.82 5152032.77 204.13
-9775016.89 5151825.04 215.51
-9774818.96 5151815.99 213.11
-9774378.26 5150344.55 215.82
-9774384.97 5149924.79 212.53
-9773966.87 5151388.52 215.26
-9774179.49 5151385.08 211.10
-9774386.18 5149701.19 208.15
-9774376.35 5151176.01 212.05
-9774359.11 5152223.91 214.06
-9774371.02 5151814.78 204.06
-9774165.96 5151829.78 211.86
-9773961.93 5151825.66 209.70
-9781123.71 5150339.38 207.17
-9780691.14 5150333.44 202.74
-9781113.93 5151608.73 208.67
-9781137.55 5151377.69 211.87
-9780901.09 5152011.77 211.04
-9780700.99 5152030.66 204.04
-9780713.20 5151814.58 203.95
-9780065.43 5149502.22 211.47
-9779845.30 5149489.81 213.85
-9780261.61 5150336.31 209.79
-9779874.46 5150350.27 206.25
-9780062.01 5151601.65 198.95
-9779645.74 5151401.41 203.69
-9780288.17 5151196.54 200.48
-9780463.29 5149907.47 238.58
-9780275.45 5149702.41 196.71
-9779648.16 5149715.34 207.68
-9780083.81 5152436.89 202.86
-9779858.68 5152450.03 209.41
-9779859.37 5152219.16 195.08
-9780082.73 5152028.52 200.56
-9779657.97 5152011.34 202.65
-9780464.65 5151814.83 204.20
-9780269.95 5151814.70 205.88
-9779859.64 5151816.81 196.00
-9779642.51 5151813.77 202.34
-9779026.54 5149499.58 205.95
-9778777.01 5149486.22 206.58
-9779436.60 5150539.21 206.24
-9779210.32 5150531.98 213.28
-9779229.34 5151182.83 215.89
-9779222.70 5152437.38 216.63
-9779026.33 5152419.26 210.35
-9778804.03 5152446.45 192.44
-9778593.22 5152446.66 192.45
-9779426.16 5149694.24 208.97
-9779223.56 5149711.57 207.02
-9779442.64 5152261.97 204.53
-9779030.67 5152215.88 197.77
-9778804.49 5152233.20 191.64
-9779424.54 5151803.40 211.20
-9778155.88 5149498.97 206.57
-9777968.01 5150546.14 208.66
-9778396.38 5150133.26 207.86
-9777967.37 5150105.84 207.22
-9777762.62 5151592.50 214.77
-9777971.63 5151371.21 211.85
-9777740.66 5151395.37 201.19
-9778595.79 5149691.70 201.38
-9778204.89 5149683.51 212.63
-9777751.17 5150962.49 209.27
-9778168.20 5150773.28 207.64
-9778397.25 5152477.45 204.03
-9777933.57 5152427.45 207.32
-9777934.26 5152230.63 201.00
-9778583.61 5152228.86 215.63
-9778352.64 5152020.48 205.70
-9777123.78 5150530.21 208.89
-9776910.29 5150559.68 209.24
-9777120.22 5150118.90 201.52
-9777534.07 5151618.83 201.43
-9777119.52 5149905.54 203.41
-9776898.95 5151581.51 205.02
-9776700.48 5151388.07 207.22
-9777540.36 5149712.87 199.24
-9776924.01 5149684.05 206.27
-9776697.21 5150955.60 200.92
-9777111.21 5152463.72 208.50
-9777111.87 5150770.17 208.46
-9777545.19 5150766.17 205.30
-9777335.72 5152223.61 206.63
-9776922.48 5152233.94 205.14
-9777535.86 5152021.29 200.40
-9777107.52 5152018.19 200.75
-9776916.60 5152037.34 210.38
-9776920.32 5151809.17 210.01
-9777327.14 5151818.05 208.06
-9776064.40 5151163.88 213.47
-9776066.86 5150953.72 214.69
-9776271.14 5150759.55 209.26
-9776065.18 5150742.34 206.50
-9781952.42 5150550.89 211.31
-9781967.53 5151587.88 212.51
-9781756.13 5151597.90 200.18
-9781753.03 5150133.31 212.19
-9781748.01 5149689.81 203.31
-9781780.94 5152221.23 212.08
-9781967.22 5152016.00 210.18
-9781317.21 5149485.26 207.23
-9781111.46 5149497.25 204.19
-9781314.39 5150117.59 203.06
-9780702.49 5150124.89 195.70
-9781551.48 5149921.81 206.78
-9781545.99 5151607.17 206.71
-9781337.55 5149722.05 209.18
-9781117.47 5149712.13 207.89
-9781555.40 5151385.59 206.19
-9780901.11 5149710.41 210.27
-9781334.43 5152446.10 195.24
-9780907.09 5152453.39 212.15
-9780724.87 5152437.56 206.90
-9781541.78 5152449.49 204.14
-9781550.11 5152242.97 213.39
-9781124.56 5152239.50 201.15
-9780912.24 5152249.20 202.01
-9780675.73 5152238.92 210.56
-9781553.94 5152011.06 211.42
-9781340.06 5152042.33 208.30
-9780495.01 5149492.89 196.90
-9780494.13 5150552.29 208.64
-9780492.23 5150345.31 203.41
-9780070.02 5150316.32 201.66
-9779662.80 5150333.44 202.89
-9780293.94 5151598.82 201.84
-9780500.97 5151420.70 208.11
-9780284.24 5151392.38 201.09
-9780490.73 5150126.62 212.66
-9780066.75 5150116.35 204.41
-9780506.53 5149691.92 205.40
-9780507.86 5152453.42 208.16
-9780285.15 5152451.72 205.06
-9779649.87 5152441.59 210.19
-9780487.93 5150734.79 206.19
-9780074.25 5150732.78 209.84
-9779859.02 5150750.26 205.00
-9780483.48 5152035.32 202.33
-9780279.53 5152031.87 200.57
-9780070.47 5151812.95 198.53
-9779439.02 5150333.34 203.45
-9779033.10 5150338.00 204.22
-9779232.34 5150137.37 208.93
-9779035.57 5150111.26 209.17
-9779447.47 5151615.05 198.30
-9779208.79 5149900.14 205.43
-9779032.17 5149912.45 205.01
-9778831.07 5149913.40 206.27
-9779444.96 5152446.80 215.80
-9779427.91 5152026.74 187.87
-9778988.31 5152039.73 205.33
-9778387.27 5150346.70 201.69
-9778611.12 5151178.97 204.50
-9778386.71 5150755.44 211.64
-9778591.15 5151831.88 211.39
-9781754.60 5150556.91 205.76
-9781948.82 5151397.58 215.42
-9781970.55 5149922.20 207.32
-9781967.94 5152470.64 213.91
-9781966.58 5149703.33 207.12
-9781779.77 5150741.12 209.57
-9781768.25 5152033.18 213.23
-9781529.03 5150352.57 208.01
-9780920.15 5150127.47 209.44
-9781544.99 5149727.63 207.45
-9781334.10 5151392.41 219.50
-9780696.51 5151399.36 199.62
-9781340.03 5151183.78 205.99
-9780699.16 5150967.71 208.82
-9781335.11 5152233.97 195.47
-9781562.20 5151802.85 209.58
-9780902.51 5151802.90 209.10
-9781755.04 5148230.47 208.97
-9781743.59 5149510.16 209.28
-9781763.65 5148002.76 207.32
-9781978.00 5149076.64 208.67
-9781761.10 5148835.61 208.06
-9781967.77 5150328.78 207.33
-9781761.68 5150339.21 215.90
-9781763.50 5148639.41 212.15
-9781968.72 5150126.25 212.32
-9781969.79 5150968.68 215.59
-9781752.89 5150966.22 216.00
-9781973.37 5150753.36 214.93
-9781527.23 5148434.20 210.59
-9781329.62 5148444.47 209.71
-9780704.97 5148439.79 199.08
-9780924.24 5148232.74 201.34
-9780705.95 5148225.96 196.45
-9781329.72 5148013.79 194.08
-9780910.63 5148015.81 194.69
-9780705.35 5148012.82 201.99
-9781134.13 5150543.65 202.66
-9780917.39 5150534.59 206.41
-9780694.76 5150549.85 214.09
-9781320.20 5150350.01 211.52
-9781313.17 5149072.82 209.92
-9780698.75 5149072.09 202.43
-9781541.44 5148872.41 212.80
-9781334.81 5149915.57 199.80
-9780701.99 5149915.54 194.80
-9781545.29 5148649.30 211.35
-9781554.94 5150973.47 213.23
-9781327.78 5150979.17 213.90
-9781347.86 5150752.37 213.78
-9781115.46 5150746.12 216.25
-9780505.23 5148444.57 208.21
-9779832.48 5149304.50 241.35
-9779859.40 5149064.95 199.02
-9780077.35 5150561.20 206.49
-9780098.09 5148853.27 221.50
-9780286.99 5150106.07 203.88
-9779857.32 5150143.85 209.77
-9779652.90 5150132.07 208.75
-9779865.08 5148648.74 201.60
-9780062.89 5149917.32 211.92
-9779646.97 5149902.59 207.03
-9780282.76 5150750.99 214.08
-9781958.99 5148429.93 214.67
-9781755.69 5148435.38 211.42
-9781969.26 5148221.09 208.91
-9781962.81 5149267.22 204.99
-9781765.97 5149909.06 208.75
-9780905.35 5148441.79 195.79
-9781545.04 5148237.42 209.39
-9781346.92 5148242.67 208.27
-9780701.52 5149281.45 201.96
-9781544.71 5148014.34 200.66
-9781124.41 5148028.29 200.47
-9781535.68 5150535.52 210.57
-9781346.62 5150553.84 199.44
-9780908.24 5150338.99 202.95
-9780913.08 5149069.93 201.20
-9781551.98 5150122.82 200.00
-9781118.01 5150122.05 208.08
-9780921.56 5148840.10 207.58
-9781103.28 5148862.93 212.88
-9781110.37 5149913.32 203.57
-9780913.44 5149911.16 210.03
-9781113.07 5148658.54 209.01
-9780703.67 5148649.33 194.35
-9780702.48 5149704.54 203.37
-9781122.85 5150989.33 205.80
-9780915.71 5150971.04 214.57
-9781552.65 5150758.39 203.50
-9780906.64 5150773.86 214.37
-9780704.29 5150761.17 212.67
-9779647.71 5148435.32 200.17
-9780296.36 5148237.62 208.04
-9780085.20 5148236.14 209.01
-9780491.66 5148230.89 207.48
-9780079.44 5148033.27 209.03
-9779661.77 5148015.90 204.80
-9780286.16 5149057.51 205.37
-9780261.60 5150557.95 206.25
-9779859.28 5150546.37 208.93
-9780263.46 5148863.24 212.10
-9780496.43 5148649.26 199.98
-9780285.93 5149917.54 198.10
-9780494.27 5150969.98 198.08
-9780292.37 5150963.51 201.53
-9780077.60 5150970.47 200.02
-9779859.90 5150971.12 198.07
-9779649.44 5150993.42 208.82
-9779663.58 5150754.34 201.59
-9779424.29 5148438.18 208.82
-9778809.67 5148451.97 201.85
-9779227.02 5148228.13 200.69
-9779411.71 5148014.05 208.02
-9779219.85 5148002.69 203.39
-9778799.49 5148018.32 207.38
-9779027.26 5149280.29 198.18
-9779015.26 5149071.43 192.34
-9779225.29 5150317.01 202.95
-9778803.58 5150334.67 206.79
-9779444.97 5148864.18 209.95
-9779210.02 5148868.09 200.66
-9779226.43 5148651.26 201.24
-9778809.13 5149690.82 205.53
-9779435.99 5150983.02 210.59
-9779226.06 5150954.50 213.46
-9779436.97 5150758.95 200.51
-9778601.33 5148420.87 198.85
-9778389.72 5148441.56 199.85
-9778596.71 5149496.11 210.54
-9777932.57 5148265.68 221.56
-9778367.38 5148217.73 197.91
-9778383.07 5150550.54 204.98
-9777744.30 5150564.94 209.37
-9778160.03 5149282.81 214.18
-9778186.55 5150338.08 196.29
-9777739.95 5150339.46 201.29
-9778596.33 5148018.63 197.54
-9778380.11 5148024.64 198.22
-9778603.21 5150132.49 206.31
-9778155.17 5150135.42 208.22
-9778198.68 5149066.63 208.12
-9778162.25 5149892.98 209.11
-9778159.40 5148872.50 198.90
-9778353.40 5148653.11 201.20
-9778589.01 5148652.33 201.28
-9778166.50 5150956.07 207.95
-9777969.43 5150770.24 211.03
-9777750.31 5150762.96 194.44
-9777335.05 5149494.50 201.74
-9777540.81 5149287.51 217.66
-9777118.90 5149259.11 207.55
-9777549.25 5148653.23 206.22
-9777316.28 5150118.19 200.49
-9777136.97 5149711.54 207.14
-9779638.47 5150545.26 215.08
-9779648.26 5148648.94 199.07
-9779852.36 5149909.20 208.63
-9780067.85 5149702.04 196.66
-9779857.07 5149691.74 214.12
-9779223.58 5148438.66 206.69
-9779012.68 5148229.01 210.64
-9778804.53 5148227.15 192.29
-9779016.78 5148016.72 203.47
-9779009.52 5150564.26 204.10
-9779223.18 5149074.49 192.85
-9779445.60 5150142.47 208.28
-9779015.66 5148651.12 201.12
-9779431.78 5148649.42 212.33
-9779442.32 5149916.88 202.68
-9779001.72 5149699.30 208.29
-9778791.38 5150970.32 207.36
-9778803.69 5150761.42 220.18
-9779220.58 5150740.93 209.67
-9778381.47 5149503.87 210.85
-9778166.38 5148225.19 203.99
-9778166.99 5150521.13 211.73
-9778594.60 5149924.61 211.70
-9778387.29 5149932.06 208.24
-9777960.55 5149694.23 214.40
-9777740.45 5149724.57 202.17
-9778596.21 5150974.05 209.58
-9777973.07 5150980.40 208.00
-9777120.34 5148442.49 203.48
-9777562.87 5148243.01 205.14
-9777346.61 5148222.65 205.84
-9776710.05 5148245.12 207.71
-9776673.89 5149470.11 213.72
-9777330.37 5148022.47 212.20
-9776893.58 5148891.11 211.71
-9776898.75 5148651.74 204.12
-9777545.50 5150557.11 204.02
-9777325.50 5150533.98 210.93
-9776702.82 5150541.81 200.06
-9776914.09 5150351.28 200.00
-9776914.69 5150124.74 200.15
-9777540.49 5150123.37 212.29
-9776906.43 5149913.07 199.48
-9777538.68 5150975.25 205.69
-9777334.27 5150963.93 207.07
-9777122.02 5150972.91 211.83
-9776909.12 5150968.84 193.21
-9777325.85 5150748.58 204.21
-9776881.04 5150758.66 205.42
-9775830.19 5148455.40 209.71
-9775853.81 5148246.42 212.78
-9776277.44 5148861.41 210.08
-9775846.91 5148873.33 206.48
-9776271.58 5150551.61 210.76
-9775651.78 5150552.70 204.84
-9776495.02 5150330.89 207.22
-9776288.57 5150325.97 209.74
-9775633.38 5150325.51 209.35
-9775855.25 5148643.60 211.19
-9775639.48 5150116.24 203.20
-9776486.33 5149916.86 199.92
-9776064.38 5149905.49 206.05
-9775646.37 5149904.95 205.20
-9776266.64 5150967.57 212.39
-9775842.69 5150962.40 202.83
-9775840.51 5150751.66 204.47
-9775647.05 5150766.70 210.90
-9775222.36 5148426.66 199.89
-9775223.10 5148218.78 199.42
-9775448.10 5150554.00 208.65
-9775234.42 5150538.35 211.33
-9775024.64 5150547.49 213.35
-9774806.17 5149486.58 213.33
-9774821.53 5150319.75 216.21
-9775205.89 5149063.13 214.51
-9775440.42 5149911.80 205.27
-9775438.62 5148869.42 200.36
-9774589.44 5149706.97 204.23
-9775021.54 5148656.54 212.92
-9776901.58 5148431.73 210.11
-9777111.94 5149052.13 212.48
-9777342.39 5148904.75 213.05
-9777118.48 5148640.53 208.44
-9776692.13 5148631.69 211.19
-9777324.17 5150336.59 204.05
-9776669.68 5149926.66 210.56
-9777312.34 5149689.07 209.96
-9776694.15 5150780.82 209.10
-9776488.31 5148442.55 205.82
-9776060.72 5148449.74 200.01
-9775648.15 5148436.29 210.71
-9776063.93 5148241.26 207.72
-9775615.72 5148225.77 209.25
-9776268.94 5148022.13 209.96
-9775635.41 5149286.10 202.49
-9775842.89 5149080.98 210.54
-9775634.26 5149065.08 208.32
-9776478.56 5148879.42 205.36
-9775855.08 5150333.84 203.37
-9776507.07 5148648.40 206.99
-9776061.60 5150138.71 203.28
-9776264.34 5149887.76 209.50
-9775641.91 5149694.39 213.02
-9776490.48 5150965.04 207.47
-9775637.54 5150973.41 203.82
-9775417.60 5148440.62 213.72
-9774584.12 5148441.02 204.96
-9774793.99 5148235.60 207.47
-9774582.25 5148240.20 201.89
-9774800.26 5150539.22 205.16
-9774585.00 5150548.14 204.02
-9775419.33 5150346.27 209.04
-9774591.10 5150336.05 206.58
-9775231.45 5148021.71 206.21
-9774993.46 5148038.18 209.21
-9774598.90 5149067.33 208.63
-9774594.33 5148866.81 205.38
-9775220.79 5148647.83 209.55
-9775430.42 5150983.71 206.84
-9774790.79 5150967.11 207.48
-9775407.88 5150757.27 211.21
-9775231.19 5150772.66 212.27
-9774800.82 5150756.54 212.52
-9774583.22 5150749.69 205.30
-9773512.40 5148449.16 211.09
-9773519.71 5148233.20 211.46
-9774159.31 5148030.22 210.93
-9773527.46 5149275.02 212.94
-9774173.90 5150555.66 209.54
-9773527.68 5150554.81 212.57
-9774399.88 5148847.07 216.38
-9773959.55 5148871.89 217.55
-9773552.34 5148858.84 215.44
-9773550.61 5149688.69 214.89
-9774379.96 5148665.89 217.54
-9774175.09 5148651.16 215.29
-9773724.83 5148644.59 217.00
-9774375.81 5150969.22 208.02
-9774369.77 5150755.91 209.33
-9774162.31 5150739.25 216.72
-9773744.11 5150738.85 217.45
-9773542.94 5150763.84 205.04
-9772880.22 5148444.78 215.48
-9773332.62 5148231.50 210.04
-9773114.60 5150556.48 208.52
-9772459.65 5150554.11 210.06
-9772905.29 5149505.71 204.96
-9772909.30 5149289.22 211.37
-9773112.04 5150146.76 207.02
-9772491.32 5150134.12 216.11
-9773110.55 5149080.85 207.16
-9772687.81 5149072.18 201.48
-9772900.58 5149918.18 206.99
-9773307.16 5148669.47 214.60
-9773093.90 5150982.48 213.78
-9773332.00 5150748.45 207.85
-9773089.57 5150751.79 214.33
-9774814.69 5149285.60 207.34
-9774575.52 5149287.37 225.24
-9774801.29 5150128.01 204.62
-9774786.75 5149712.77 207.14
-9774804.20 5148646.34 205.50
-9774382.55 5148236.18 208.68
-9773950.21 5148229.65 201.38
-9773760.59 5148242.60 211.13
-9773733.61 5149283.76 212.37
-9773526.63 5150346.19 211.15
-9774383.49 5150124.70 206.07
-9773959.21 5150126.51 214.62
-9773733.30 5150119.69 210.94
-9773954.70 5149917.17 211.99
-9773764.32 5148869.35 213.19
-9774154.46 5149692.29 217.68
-9773982.39 5149697.92 223.24
-9774164.89 5150959.37 210.38
-9773943.65 5150964.71 205.99
-9773122.87 5148225.30 203.68
-9772892.68 5148233.83 210.22
-9773109.61 5148024.57 203.70
-9773328.32 5150554.45 207.94
-9773313.71 5150349.64 211.88
-9772903.68 5150326.10 211.26
-9773325.82 5149277.52 216.07
-9773097.82 5149287.11 209.47
-9772892.34 5150107.92 205.48
-9772898.98 5149090.36 219.56
-9773105.15 5149929.12 209.30
-9772684.21 5148857.86 198.06
-9773112.30 5149716.31 207.90
-9772894.47 5150965.38 204.37
-9772464.07 5150985.63 213.31
-9772899.63 5150771.66 206.23
-9772680.36 5150767.37 209.08
-9772480.91 5148431.09 207.99
-9772052.50 5148427.99 207.03
-9772471.42 5148219.91 210.63
-9772059.64 5148221.38 216.26
-9771863.30 5148235.80 212.17
-9771628.98 5148246.02 218.43
-9772490.13 5148001.37 213.47
-9772258.81 5148022.52 210.25
-9772066.81 5148021.96 218.26
-9771628.05 5148018.87 201.94
-9771626.77 5149267.71 203.89
-9771865.34 5149067.36 211.41
-9772247.66 5150542.84 207.08
-9772055.46 5150553.34 203.55
-9771841.02 5148869.23 203.64
-9772274.44 5148648.79 205.44
-9772063.12 5150954.37 204.99
-9771846.67 5150965.09 207.14
-9771628.27 5150959.69 197.62
-9772256.43 5150754.34 205.76
-9772051.56 5150747.88 206.64
-9771858.14 5150756.10 206.41
-9771653.87 5150761.38 201.70
-9771423.45 5148430.25 202.71
-9770608.70 5148196.66 219.53
-9771426.35 5148212.12 201.48
-9770996.11 5149278.79 202.59
-9771413.36 5149069.90 201.48
-9771002.51 5150536.89 198.92
-9770582.63 5150531.20 208.41
-9770578.32 5150349.29 203.31
-9771211.75 5148653.54 201.03
-9771005.17 5148655.84 199.77
-9770778.87 5150119.19 205.92
-9771212.72 5150118.43 206.00
-9771207.57 5150967.53 201.20
-9770785.86 5150970.28 205.88
-9771418.41 5149687.44 207.51
-9771437.21 5150754.55 203.93
-9770360.12 5149283.79 197.97
-9770172.18 5149088.99 205.25
-9770350.32 5150333.17 204.69
-9769736.95 5149070.39 187.96
-9770152.10 5148649.41 198.94
-9769943.76 5149910.80 204.92
-9770370.83 5150757.84 201.70
-9772689.86 5149282.05 206.09
-9772473.72 5149079.60 208.40
-9772278.50 5149083.31 208.90
-9771642.39 5150536.55 201.45
-9772260.97 5150328.72 207.84
-9772065.52 5148862.09 209.28
-9771622.75 5148851.16 203.52
-9771850.36 5150135.08 208.03
-9771635.46 5149914.67 189.87
-9772070.10 5149705.98 211.01
-9771004.85 5148431.54 202.80
-9770577.48 5148443.06 197.31
-9770790.20 5148234.12 205.41
-9771411.17 5148055.32 208.35
-9771220.03 5148020.50 205.10
-9770789.35 5149489.11 199.70
-9770593.70 5149500.05 203.93
-9771211.85 5149072.82 194.64
-9770795.00 5149071.35 200.18
-9771413.15 5148863.00 203.60
-9771208.10 5148845.38 205.91
-9771438.31 5150331.60 209.12
-9771420.94 5148647.74 199.65
-9771440.37 5150131.98 201.45
-9771220.62 5149910.90 201.03
-9770571.14 5150975.41 201.22
-9771213.44 5150752.02 198.94
-9771003.23 5150762.82 196.47
-9770784.12 5150766.64 204.97
-9770580.61 5150748.70 199.51
-9769932.86 5148443.10 201.09
-9769746.97 5148439.68 201.24
-9770368.06 5148206.41 201.78
-9769953.84 5148229.43 200.37
-9770360.98 5149076.16 200.28
-9770155.46 5150561.45 200.81
-9769520.43 5150543.21 205.19
-9770381.99 5150141.76 204.66
-9769932.08 5148619.46 245.76
-9769735.37 5148649.71 200.84
-9769944.93 5150961.38 203.83
-9769519.83 5150981.29 203.66
-9770165.08 5150976.76 200.60
-9770160.56 5150755.59 200.74
-9769947.79 5150739.89 214.69
-9769750.24 5150751.77 203.52
-9768467.40 5148449.03 198.89
-9769105.95 5148225.32 198.96
-9768906.81 5148224.87 203.29
-9768906.54 5147994.19 200.83
-9769104.49 5149277.66 203.34
-9769104.32 5150332.58 196.12
-9768683.13 5150324.87 199.71
-9768684.04 5150527.45 199.70
-9768677.99 5149086.60 203.86
-9768694.54 5150119.55 200.40
-9768467.88 5150135.78 194.39
-9769324.71 5148867.67 205.62
-9769101.76 5148850.39 204.77
-9768883.33 5148853.91 197.50
-9768681.00 5149910.67 198.52
-9769321.86 5149917.83 202.21
-9769107.85 5149919.92 197.00
-9768893.02 5149913.65 200.97
-9769317.44 5148630.77 197.50
-9769104.92 5148652.19 199.22
-9768895.65 5148653.40 193.95
-9768469.67 5148663.45 203.48
-9769313.25 5150970.37 198.54
-9768866.11 5150979.52 203.97
-9768483.28 5150976.25 205.23
-9768890.23 5150776.45 199.21
-9768479.11 5150752.29 194.68
-9768044.99 5148408.86 205.69
-9767634.08 5148439.68 196.45
-9768245.66 5149486.54 202.75
-9767642.91 5149261.53 202.31
-9768262.07 5150336.98 194.61
-9768256.35 5150553.20 194.81
-9767824.86 5150343.30 193.86
-9767850.48 5150549.15 205.10
-9768261.89 5149091.81 200.26
-9767630.36 5149053.25 203.37
-9767617.36 5148862.94 196.11
-9767414.15 5148669.60 205.01
-9767847.04 5149708.12 201.08
-9768053.68 5150749.73 194.84
-9767212.65 5149278.67 198.16
-9769529.68 5148232.99 199.96
-9770166.31 5149274.55 200.23
-9769739.73 5150324.91 198.36
-9769733.82 5150566.13 206.00
-9769526.01 5150325.59 205.95
-9770142.06 5148858.50 201.83
-9769517.73 5148857.88 201.47
-9769938.05 5150124.10 206.62
-9769522.94 5150763.79 197.66
-9768687.23 5148426.79 198.80
-9768470.26 5148237.75 201.97
-9769342.05 5148239.74 199.97
-9769313.35 5148023.34 203.16
-9768477.48 5148000.47 200.07
-9769311.14 5149488.15 199.39
-9768708.30 5149503.30 202.06
-9769307.20 5149283.63 197.26
-9768677.94 5149284.80 201.11
-9769315.60 5150331.82 197.81
-9768891.19 5150544.26 195.20
-9768674.22 5148853.18 203.84
-9768455.84 5149916.69 206.46
-9769101.36 5150973.64 202.63
-9769090.86 5150772.28 197.83
-9768053.57 5148223.37 198.63
-9767629.18 5148227.02 192.82
-9768034.88 5148009.48 202.56
-9767846.49 5150113.55 195.59
-9767834.16 5149912.52 193.48
-9768262.11 5150961.56 196.19
-9768048.98 5150960.66 197.27
-9767828.04 5150964.89 200.26
-9767631.24 5150965.45 198.28
-9768044.96 5148647.75 195.58
-9767840.88 5148644.07 195.95
-9768246.37 5150748.46 200.56
-9767833.01 5150768.38 198.26
-9767625.43 5150770.34 197.93
-9767412.24 5150770.45 198.74
-9766797.45 5148453.83 200.87
-9766582.02 5148433.51 193.04
-9767207.59 5148232.67 192.10
-9767011.54 5148216.87 203.85
-9766370.77 5147989.44 202.85
-9767224.35 5150529.98 201.14
-9767003.04 5150337.23 204.10
-9767212.51 5149082.50 195.15
-9766785.99 5149071.96 197.15
-9766580.36 5149080.65 196.85
-9766774.49 5149921.15 201.92
-9766368.51 5149921.44 203.20
-9766373.71 5148645.98 193.95
-9766557.28 5149718.67 198.64
-9766375.51 5149702.06 200.16
-9766805.71 5150971.50 201.95
-9766354.28 5150930.36 215.35
-9766977.35 5150961.32 202.20
-9766999.30 5150754.79 193.04
-9766784.30 5150540.44 194.73
-9766145.39 5148437.51 194.39
-9765725.42 5148250.84 203.67
-9765943.33 5150343.95 203.42
-9765953.97 5149294.61 195.77
-9765514.16 5149281.85 188.91
-9765940.53 5150123.79 191.32
-9765719.97 5149930.48 195.71
-9765936.66 5149701.69 201.18
-9765514.79 5148652.25 196.13
-9765733.92 5150757.43 195.14
-9765299.34 5150540.75 201.72
-9765107.71 5149503.53 194.18
-9764870.56 5149283.88 198.78
-9765064.39 5149918.26 210.99
-9765290.20 5148650.22 199.66
-9767409.24 5148440.67 188.87
-9767414.55 5150310.82 199.74
-9767628.58 5150129.29 204.83
-9767421.81 5150122.41 193.34
-9767636.92 5149925.87 201.42
-9767624.01 5148650.48 197.64
-9767635.57 5149685.93 196.81
-9766981.91 5148435.93 195.27
-9766785.41 5148230.37 193.68
-9766355.48 5148225.66 202.85
-9766790.94 5148003.67 196.17
-9766573.83 5149283.10 194.40
-9767204.12 5150330.90 195.88
-9766362.30 5150324.67 193.79
-9766987.04 5149058.97 207.64
-9766577.64 5150123.24 193.49
-9766581.12 5148864.79 197.23
-9767216.26 5148646.79 197.64
-9767229.66 5149713.07 201.98
-9766802.62 5149708.90 196.59
-9767208.75 5150756.22 194.30
-9766978.27 5150553.71 205.07
-9766363.84 5150537.11 189.48
-9766139.40 5148220.05 199.43
-9765930.55 5148236.29 200.42
-9765522.67 5148210.80 201.85
-9766140.88 5148013.46 193.19
-9765730.45 5148022.06 194.16
-9765522.40 5150322.89 197.07
-9765743.25 5150123.17 192.59
-9765527.58 5149926.23 198.23
-9766146.09 5149913.33 192.36
-9765944.27 5149925.57 204.32
-9765937.29 5150973.30 192.98
-9765748.48 5151005.00 215.26
-9765306.72 5150951.11 198.23
-9766170.60 5148657.97 202.96
-9766156.65 5150752.25 194.86
-9766148.32 5150548.92 187.64
-9765725.54 5150550.26 192.70
-9765302.89 5148444.47 198.74
-9765082.93 5148432.90 201.65
-9765111.05 5148239.16 193.32
-9764889.37 5148227.78 194.29
-9764471.90 5148222.77 198.60
-9764460.24 5148017.84 198.68
-9765325.46 5148009.36 207.75
-9765117.24 5148029.24 202.77
-9764679.99 5148022.89 195.65
-9764471.28 5148873.31 199.87
-9764884.96 5148643.56 196.21
-9764465.36 5148667.15 194.82
-9764680.50 5150960.59 193.49
-9764451.63 5150969.00 195.14
-9764885.44 5150962.95 195.64
-9765092.58 5150753.72 195.31
-9764892.89 5150754.37 195.49
-9764670.03 5150761.98 196.11
-9764482.59 5150754.89 195.88
-9764042.80 5148230.63 201.15
-9763827.27 5148010.09 196.36
-9763422.80 5148856.55 203.86
-9764248.89 5150319.09 194.13
-9764041.74 5150348.41 194.59
-9763838.53 5150318.17 199.44
-9763621.39 5150317.05 214.74
-9763401.22 5149912.13 199.53
-9763849.16 5149910.27 193.11
-9764034.21 5150958.02 194.02
-9764255.23 5149705.29 191.71
-9763622.65 5150752.82 194.56
-9762571.24 5149281.07 194.60
-9762359.34 5149280.26 192.57
-9762992.25 5149071.09 201.18
-9762995.29 5150334.47 197.05
-9762775.78 5150336.88 195.59
-9762570.93 5150339.32 192.29
-9762779.98 5148854.33 197.82
-9763178.51 5148651.59 202.25
-9763195.39 5149909.77 196.45
-9762563.29 5149930.06 197.26
-9763181.47 5150759.69 193.41
-9763194.32 5150541.39 196.72
-9762996.48 5150555.67 197.87
-9764680.08 5148232.56 195.88
-9764483.63 5149284.42 201.55
-9765087.03 5150339.34 199.34
-9764668.90 5150331.74 194.52
-9764689.82 5150112.75 194.81
-9764679.37 5149908.71 198.82
-9765305.75 5149914.04 199.65
-9764249.25 5148433.94 195.48
-9764033.53 5148438.76 202.88
-9763408.17 5148428.08 196.33
-9763616.20 5148233.52 204.15
-9763405.92 5148210.32 198.35
-9764250.27 5148217.99 195.93
-9764256.03 5148007.89 195.47
-9764062.64 5148025.12 198.78
-9763412.88 5148025.62 192.93
-9764248.08 5149274.45 198.68
-9764040.63 5149291.03 200.65
-9763843.97 5149291.72 195.60
-9763622.63 5149295.73 201.00
-9764047.54 5150121.99 195.69
-9763412.49 5150145.42 200.04
-9764256.27 5149915.35 198.60
-9764056.88 5149914.58 196.96
-9763620.95 5150980.53 195.67
-9763821.92 5149714.72 192.23
-9763403.23 5149690.12 201.71
-9764254.28 5150761.36 193.84
-9763831.42 5150751.71 195.58
-9764047.13 5150550.51 195.70
-9762783.56 5148435.73 202.29
-9763196.44 5148219.39 198.69
-9762971.74 5148223.90 201.11
-9762569.59 5148230.99 192.11
-9762359.03 5148215.30 199.95
-9762357.97 5150335.24 199.81
-9762349.07 5148867.03 196.82
-9763003.31 5148646.32 199.78
-9762999.01 5149920.56 193.33
-9762994.36 5149703.56 192.69
-9763203.43 5150989.47 196.75
-9762563.27 5150989.77 199.68
-9762770.38 5150771.33 191.16
-9762378.82 5150740.73 200.19
-9761939.26 5148439.34 197.64
-9761498.87 5148235.68 202.03
-9761297.58 5148224.65 191.27
-9762145.37 5148020.27 191.45
-9761528.34 5149057.90 197.60
-9761951.66 5148641.01 196.16
-9761517.80 5150352.98 210.30
-9761318.46 5150345.56 195.65
-9762159.42 5150106.15 199.07
-9761735.61 5150141.16 201.70
-9761724.96 5149915.08 192.21
-9761713.10 5150753.59 191.07
-9761302.12 5149701.81 186.37
-9761940.17 5149702.62 193.12
-9760880.22 5150125.37 194.20
-9760469.69 5150134.09 198.75
-9760667.96 5149914.33 190.74
-9760670.18 5149088.90 199.69
-9760880.03 5149703.95 190.96
-9760675.01 5148873.33 196.82
-9760252.82 5148862.56 198.88
-9761095.61 5150554.37 191.63
-9760050.90 5149484.89 192.69
-9762574.75 5148439.57 193.10
-9762777.59 5150135.24 193.25
-9762773.14 5149917.19 201.35
-9762356.55 5149692.85 191.80
-9761514.76 5148436.61 193.78
-9762136.03 5149287.00 190.18
-9761717.60 5148864.60 192.97
-9761302.48 5148879.67 193.19
-9762135.08 5148647.33 193.75
