-9752033.12 5131576.75 193.92
-9751809.69 5131561.33 194.64
-9751624.06 5131568.10 206.07
-9751808.59 5131374.44 197.84
-9751596.54 5131354.97 196.36
-9751374.09 5131355.99 194.97
-9750561.44 5130722.22 198.96
-9750326.61 5131778.54 195.20
-9750548.37 5131159.98 222.78
-9750133.17 5130728.20 195.54
-9749929.56 5130693.69 234.64
-9750127.47 5131738.24 245.32
-9749915.66 5131599.27 253.49
-9749470.88 5130939.99 185.84
-9754977.62 5130963.68 201.66
-9754363.49 5130932.39 195.52
-9754772.23 5130740.64 192.52
-9754995.11 5131777.17 197.99
-9755019.19 5131574.99 213.67
-9754755.49 5131160.82 194.65
-9753675.41 5130932.69 205.84
-9753495.09 5130738.39 198.67
-9754112.08 5131781.09 201.54
-9753922.79 5131796.53 195.88
-9753496.02 5131571.19 197.68
-9753912.03 5131560.21 199.88
-9753290.57 5131360.10 194.34
-9753485.35 5131154.52 195.01
-9752240.05 5130730.46 222.25
-9752874.17 5131568.37 200.33
-9753087.42 5131563.68 199.16
-9752430.81 5131355.70 201.00
-9752239.88 5131369.38 196.77
-9752452.92 5131137.62 201.84
-9752235.04 5131146.72 201.31
-9752014.05 5130943.95 195.09
-9751819.13 5130957.61 194.35
-9751599.28 5130935.42 193.58
-9754541.60 5130728.59 192.53
-9754361.93 5130732.56 192.42
-9754765.11 5131795.76 195.35
-9754765.38 5131572.14 185.92
-9754545.32 5130936.83 192.51
-9755007.81 5130686.43 214.73
-9754357.46 5131560.15 189.38
-9754350.94 5131354.54 191.26
-9754965.79 5131146.90 191.63
-9754554.78 5131143.82 193.12
-9754339.58 5131161.50 194.76
-9754980.36 5132835.51 180.52
-9754979.89 5132402.05 194.83
-9754554.59 5132409.59 196.42
-9754963.60 5132200.40 196.40
-9754553.85 5133240.46 192.27
-9754973.74 5133043.95 180.52
-9754129.28 5131359.33 192.95
-9753908.64 5131359.19 195.82
-9753919.26 5132621.63 195.18
-9753922.89 5132413.57 195.61
-9753716.89 5131993.06 194.78
-9754765.18 5130936.44 185.96
-9754554.45 5131576.63 189.64
-9754996.94 5131356.77 192.76
-9754764.47 5131357.88 187.74
-9754570.66 5131350.91 190.98
-9754557.05 5132818.76 194.46
-9754568.60 5132622.09 200.84
-9753516.25 5130901.67 207.18
-9753922.48 5130734.43 191.48
-9753282.55 5131588.78 194.88
-9753295.29 5131141.37 195.21
-9754126.34 5132834.06 198.82
-9753709.27 5132848.23 196.67
-9753513.26 5132623.74 205.13
-9753500.05 5133247.47 198.20
-9753295.21 5133263.52 198.58
-9754129.48 5133249.02 198.08
-9753919.78 5133284.14 194.77
-9753694.22 5133259.77 194.37
-9753314.51 5133064.07 196.59
-9753083.30 5130902.24 203.02
-9752867.57 5130725.92 180.38
-9752670.71 5130969.27 192.35
-9752451.81 5132833.05 204.41
-9752856.88 5132612.74 199.32
-9752238.44 5132627.40 193.45
-9752237.58 5132414.43 195.74
-9752227.60 5131995.75 193.31
-9753072.58 5133259.85 195.49
-9752890.73 5133049.21 197.45
-9752652.61 5133035.46 187.77
-9751808.31 5130730.16 191.46
-9751167.57 5131579.66 200.72
-9751789.89 5131146.01 203.40
-9751994.46 5132835.52 204.89
-9751800.51 5132836.00 198.87
-9751818.72 5132619.66 220.04
-9751618.42 5132200.89 199.86
-9752010.84 5133047.35 194.43
-9751183.68 5132000.88 194.91
-9753291.42 5130717.43 203.07
-9754127.91 5131573.49 198.28
-9753722.00 5131153.66 195.13
-9753499.15 5132829.15 196.88
-9754119.07 5132409.80 195.45
-9753484.87 5132396.04 202.21
-9753295.50 5132409.79 196.16
-9753502.47 5132208.85 196.54
-9752446.42 5130938.12 204.55
-9752223.11 5130926.48 189.42
-9753094.56 5130726.52 201.99
-9752224.39 5131555.10 207.41
-9752864.57 5131359.26 198.19
-9753058.99 5131142.50 199.88
-9752657.10 5132836.39 195.28
-9752244.43 5132838.88 195.65
-9753084.70 5132194.43 196.32
-9752665.43 5132201.24 196.37
-9752440.26 5132188.73 190.95
-9752652.64 5133250.85 189.39
-9752010.56 5130716.49 196.45
-9751603.96 5130726.35 191.45
-9751389.07 5130720.14 196.65
-9751379.79 5130930.47 199.84
-9752010.62 5131349.94 195.10
-9752038.88 5131160.83 198.44
-9751610.18 5131155.07 195.22
-9751191.69 5132836.36 193.55
-9751589.40 5132621.75 196.69
-9751375.94 5133242.01 196.42
-9751595.54 5133264.09 192.13
-9751806.60 5133054.98 197.38
-9751393.24 5133064.23 195.60
-9750346.22 5131567.37 188.20
-9750973.18 5132829.89 190.74
-9750332.07 5132833.65 192.49
-9750128.42 5132837.50 177.03
-9750337.31 5132619.75 192.29
-9750763.40 5131150.87 197.30
-9750333.21 5132420.34 195.18
-9750115.88 5132194.91 193.87
-9750746.44 5130938.29 198.16
-9750126.22 5133255.14 176.97
-9750559.44 5131989.95 198.15
-9750960.64 5133038.44 190.73
-9750334.80 5133048.23 177.10
-9749709.10 5130729.70 200.37
-9749282.94 5131569.83 177.15
-9749725.93 5131349.71 194.91
-9749282.47 5131356.77 177.13
-9750117.79 5131368.89 225.78
-9750133.67 5131144.93 194.54
-9749719.18 5131149.20 207.70
-9749487.70 5131138.68 185.59
-9749707.51 5132832.74 177.15
-9749493.83 5132837.96 177.04
-9749283.84 5132832.50 177.16
-9749280.54 5132623.21 177.02
-9749911.91 5132623.07 177.16
-9749703.05 5132626.50 177.04
-9749704.42 5132412.38 176.96
-9749487.39 5132412.60 177.23
-9749283.31 5132205.28 177.30
-9749917.07 5132204.70 177.04
-9749494.12 5132196.36 177.17
-9749286.97 5130936.18 177.35
-9749709.24 5131991.58 177.14
-9749495.55 5131991.46 177.02
-9749284.35 5131987.63 177.10
-9749494.08 5133256.20 177.09
-9749280.11 5133043.07 177.10
-9748861.23 5131354.49 177.35
-9749071.54 5132833.86 176.90
-9749070.26 5132624.78 177.04
-9749070.43 5130935.72 177.28
-9749076.34 5132413.18 177.26
-9749070.94 5132200.04 176.97
-9748862.16 5132200.14 176.90
-9748646.67 5132199.73 176.97
-9749075.39 5131986.55 177.07
-9748864.58 5131991.58 177.02
-9748645.92 5131989.82 177.07
-9751197.35 5130937.57 196.78
-9751609.20 5131785.49 199.28
-9751159.79 5131347.07 205.34
-9751172.96 5131148.65 199.99
-9751391.31 5132628.21 193.99
-9751594.63 5132392.66 199.62
-9751386.36 5132210.61 200.05
-9751168.24 5132203.88 194.51
-9750963.53 5130706.84 198.76
-9750340.63 5130729.19 194.90
-9750748.34 5131748.51 206.20
-9750550.23 5131573.74 194.29
-9750743.21 5131575.09 196.64
-9750740.04 5132846.32 195.60
-9750747.35 5131371.76 217.45
-9750762.69 5132629.14 193.31
-9750126.80 5132625.22 176.93
-9750747.89 5132212.14 195.74
-9750559.22 5132195.40 248.55
-9750305.80 5130953.70 219.97
-9750753.74 5132003.55 199.19
-9750341.27 5131984.88 194.76
-9750124.07 5133044.23 176.96
-9750126.12 5131575.71 189.26
-9749963.70 5131163.99 249.86
-9749911.26 5132831.73 177.18
-9749490.50 5132622.02 176.98
-9749283.91 5132417.35 177.15
-9749704.87 5132202.98 177.01
-9749903.55 5130933.73 193.01
-9749283.25 5133252.01 177.13
-9749913.51 5133044.89 177.00
-9749706.66 5133045.42 177.01
-9749491.89 5133044.88 177.11
-9748231.31 5130724.50 177.29
-9748228.68 5131564.86 176.98
-9748649.37 5131148.18 177.22
-9748649.61 5132829.32 177.09
-9748438.86 5132837.16 177.28
-9748230.78 5132839.53 177.35
-9748227.65 5132621.16 177.19
-9748650.78 5132621.53 177.12
-9748437.15 5132411.08 177.09
-9748439.67 5132206.44 177.23
-9748224.55 5132203.92 177.20
-9749070.29 5131571.67 177.10
-9748858.86 5131571.83 177.17
-9748862.15 5132622.81 177.07
-9748440.81 5130932.71 177.21
-9748860.22 5132411.77 176.93
-9748651.21 5132414.05 177.04
-9748227.00 5132406.71 177.16
-9754980.03 5134305.31 187.51
-9754977.08 5134101.22 177.70
-9754771.30 5133907.20 200.15
-9754561.36 5133655.40 194.37
-9754765.11 5134942.96 182.26
-9754550.99 5133464.74 192.28
-9755030.80 5133464.52 211.78
-9754977.54 5133250.59 179.02
-9754774.26 5134105.44 190.14
-9754930.98 5135996.88 212.86
-9754935.12 5135811.52 212.70
-9754758.33 5135792.82 202.63
-9754343.59 5135786.45 192.44
-9754787.35 5135367.37 186.83
-9754362.94 5135169.38 200.95
-9753923.50 5133891.24 197.14
-9753723.21 5133913.55 199.07
-9753717.86 5134937.42 199.04
-9753527.71 5134941.44 237.01
-9753737.37 5134731.31 201.44
-9753294.31 5134730.40 191.33
-9753921.57 5133660.34 200.74
-9753503.56 5134530.96 192.11
-9753282.04 5134536.84 202.92
-9753280.44 5133458.64 195.88
-9753725.98 5134323.29 206.30
-9753517.54 5134070.48 214.37
-9754134.46 5135996.94 198.87
-9753723.43 5135999.09 198.04
-9753509.42 5135802.77 194.18
-9753937.77 5135574.42 202.32
-9753692.61 5135576.67 203.63
-9753512.39 5135560.39 198.73
-9754130.32 5135165.30 192.72
-9754125.02 5136189.11 205.56
-9752870.59 5133904.24 194.82
-9752671.12 5133890.73 198.39
-9752877.17 5133666.54 196.74
-9753077.26 5134941.81 193.54
-9753077.06 5134741.08 194.98
-9753077.99 5134309.74 192.96
-9752661.66 5134082.85 193.94
-9753042.59 5135783.65 216.53
-9753092.42 5135575.13 189.74
-9753079.12 5135160.16 195.76
-9754572.01 5134712.32 199.32
-9754743.12 5133490.33 211.47
-9754543.50 5134512.94 190.42
-9754582.28 5135776.52 255.25
-9754565.90 5135344.71 199.55
-9754138.00 5133901.90 199.18
-9753283.85 5133892.66 200.33
-9753301.26 5134973.30 201.78
-9753289.71 5133675.94 198.39
-9753925.79 5134293.37 195.54
-9754138.38 5134304.13 206.41
-9753272.86 5135998.89 189.66
-9753717.70 5135376.38 196.18
-9753294.80 5136221.10 195.78
-9753077.06 5133927.24 197.22
-9752466.95 5133884.90 204.01
-9752675.05 5133690.23 199.78
-9752859.20 5133461.29 195.86
-9752436.78 5133460.46 195.72
-9752868.65 5134105.90 191.28
-9753045.51 5135999.15 216.05
-9752864.35 5135811.09 220.80
-9752662.77 5135816.53 203.50
-9752443.47 5135760.34 199.03
-9752867.66 5135375.41 198.44
-9752879.83 5136205.42 198.16
-9752236.20 5136215.26 195.79
-9751816.36 5133886.80 197.24
-9751178.45 5133698.99 196.45
-9751812.43 5134942.34 188.70
-9751825.25 5134755.02 195.35
-9752029.27 5135985.40 181.17
-9751782.19 5136001.23 185.30
-9751392.52 5135994.77 177.05
-9751180.79 5135785.20 177.26
-9751813.28 5135786.67 177.11
-9752020.08 5135556.79 193.94
-9751181.90 5135579.71 177.37
-9751391.60 5136206.54 177.05
-9751218.18 5136209.54 177.34
-9750759.90 5133885.10 177.06
-9750334.63 5133890.80 177.27
-9750335.73 5133679.61 177.35
-9750968.64 5133474.26 194.87
-9750968.29 5134733.69 177.01
-9750759.60 5134731.57 176.99
-9750209.79 5134735.56 177.42
-9750970.40 5134519.18 177.10
-9750757.06 5134522.31 177.06
-9750969.87 5134309.75 177.08
-9750545.62 5134312.47 177.04
-9750334.88 5134309.69 177.20
-9750760.12 5134099.99 177.08
-9750759.34 5135952.95 176.92
-9750969.93 5135786.08 177.07
-9750763.85 5135786.11 177.48
-9750759.42 5135577.49 177.52
-9750971.50 5135154.40 177.19
-9750206.12 5135153.34 177.03
-9752238.49 5133883.58 195.86
-9752223.60 5133693.34 195.05
-9752870.93 5134942.03 195.71
-9752658.78 5134956.06 196.23
-9752236.14 5134944.68 194.17
-9752240.74 5133461.12 194.37
-9752652.35 5134509.79 216.81
-9752477.98 5134522.89 203.06
-9752856.35 5134342.75 199.80
-9752636.93 5134331.25 202.80
-9752655.31 5135147.20 196.01
-9751367.38 5133898.57 199.13
-9751368.63 5133683.17 193.97
-9752052.44 5134720.84 194.58
-9751179.98 5134521.25 177.02
-9751825.60 5133249.42 198.92
-9751179.94 5134310.36 179.50
-9751811.67 5135566.40 180.71
-9751601.12 5135576.85 177.30
-9752019.08 5135373.40 188.46
-9751813.99 5135138.57 193.76
-9751601.72 5135154.39 180.27
-9751389.85 5135154.01 177.18
-9750545.45 5133884.75 177.17
-9750966.74 5133673.65 196.34
-9750545.85 5133680.48 177.17
-9750550.12 5133465.75 176.80
-9750337.06 5133466.22 177.14
-9750123.40 5133468.28 177.28
-9750758.25 5133466.89 180.70
-9750955.62 5133265.21 202.03
-9750754.01 5133279.23 195.02
-9750340.21 5133252.39 177.12
-9750759.93 5134310.44 177.03
-9750970.19 5134099.93 177.07
-9750550.07 5134103.40 177.20
-9750338.62 5135949.16 176.90
-9750199.22 5135947.87 177.06
-9750547.96 5135575.63 177.14
-9749700.86 5133891.65 177.05
-9749282.89 5133889.38 177.06
-9749489.35 5133673.87 177.28
-9749284.33 5133676.85 177.10
-9749915.83 5133466.18 177.08
-9749703.70 5133467.10 177.02
-9749492.16 5133466.37 177.03
-9749281.28 5133464.73 176.95
-9749911.52 5133256.50 177.06
-9750129.57 5133883.77 177.08
-9750123.15 5133676.42 177.17
-9750550.15 5134942.55 177.17
-9750333.94 5134946.71 177.43
-9750552.52 5134515.97 177.32
-9750211.49 5134523.73 176.91
-9750213.37 5134312.38 177.13
-9750336.83 5134098.85 177.05
-9750215.19 5134102.57 176.91
-9750204.33 5135364.94 176.89
-9750339.75 5135153.18 177.34
-9749916.17 5133889.59 177.28
-9749492.13 5133890.53 177.12
-9749912.61 5133681.47 177.15
-9749704.33 5133674.83 177.13
-9749701.70 5133257.99 177.13
-9754341.34 5151389.65 177.30
-9754156.70 5151389.87 177.22
-9754974.95 5152444.08 177.14
-9754554.87 5152443.00 176.87
-9754763.83 5152235.09 177.08
-9754343.17 5152232.15 177.07
-9754149.90 5152238.26 177.08
-9754972.61 5152022.65 177.02
-9754151.51 5152026.93 177.09
-9754154.15 5151812.07 177.35
-9754764.78 5151602.28 176.98
-9754155.02 5151599.20 177.13
-9754972.87 5153429.32 176.98
-9754559.51 5153425.91 177.15
-9754341.52 5153424.06 176.88
-9754145.10 5153420.71 176.94
-9754344.80 5153288.44 177.36
-9754975.64 5153288.80 177.02
-9754763.30 5153075.44 177.10
-9754554.11 5153073.82 176.96
-9754342.63 5153075.72 177.05
-9754143.55 5153077.66 176.93
-9754977.02 5152866.41 176.96
-9754552.77 5152868.34 177.07
-9754144.57 5152866.03 177.06
-9754146.52 5152661.05 176.97
-9754975.80 5152659.43 177.09
-9754764.70 5152657.00 177.25
-9754975.72 5151392.17 177.06
-9754762.80 5151392.13 177.24
-9754344.73 5151181.32 177.40
-9754974.78 5152234.57 176.98
-9754552.31 5151814.22 177.14
-9754342.91 5151809.76 177.10
-9754973.85 5151601.92 177.22
-9754767.82 5153426.66 176.81
-9754766.37 5153290.73 177.04
-9754555.71 5153287.37 177.10
-9754142.66 5153286.36 177.06
-9754981.88 5153078.92 177.18
-9754768.08 5152869.74 177.26
-9754347.25 5152868.81 177.10
-9754559.29 5152655.48 177.07
-9754343.21 5152654.85 177.17
-9754764.13 5150337.05 177.08
-9754556.10 5150334.14 177.28
-9754340.49 5150335.36 177.13
-9754165.32 5150339.05 176.93
-9754345.00 5150126.14 177.21
-9754167.18 5150128.14 177.14
-9754765.42 5150124.51 177.30
-9754554.83 5151390.72 177.09
-9754978.18 5151180.17 177.08
-9754766.79 5151180.14 177.21
-9754553.99 5151180.59 177.16
-9754158.53 5151178.01 177.01
-9754342.12 5149703.66 176.96
-9754170.68 5149699.28 177.00
-9754764.61 5150968.60 177.06
-9754553.69 5150971.90 176.97
-9754342.25 5150967.09 177.16
-9754765.71 5150755.95 177.17
-9754556.80 5150754.82 177.13
-9754978.82 5150543.89 177.26
-9754163.91 5150550.57 176.98
-9754999.44 5149491.58 194.85
-9754342.40 5149492.79 177.08
-9754172.94 5149493.09 177.15
-9754148.10 5152443.94 177.03
-9754553.75 5152023.28 177.14
-9754972.65 5151812.50 177.13
-9754557.62 5151601.77 177.19
-9754345.59 5151599.53 177.14
-9754977.42 5149909.93 191.83
-9754979.11 5150969.41 181.52
-9754344.28 5150758.27 176.98
-9754161.95 5150760.21 177.05
-9754979.39 5150754.82 177.24
-9754762.06 5152444.61 176.96
-9754347.84 5152446.86 177.05
-9754553.95 5152236.24 177.15
-9754768.85 5152020.91 177.23
-9754343.14 5152022.77 177.11
-9754768.31 5151813.76 177.23
-9754766.56 5148266.45 197.22
-9754347.18 5149069.32 177.34
-9754976.89 5150340.28 177.19
-9754966.71 5150110.50 185.78
-9754556.40 5148435.93 177.39
-9754168.96 5149912.54 177.08
-9754160.33 5150965.70 176.99
-9754764.16 5150548.61 177.04
-9754554.86 5150549.46 176.92
-9754342.69 5150546.82 177.24
-9753707.83 5148013.26 177.18
-9754551.24 5148235.13 191.53
-9755014.30 5149089.65 193.44
-9754552.45 5148645.80 177.17
-9753710.45 5148224.88 177.07
-9753499.45 5148015.54 177.12
-9753162.00 5148021.52 176.98
-9754766.63 5139372.05 204.48
-9754760.44 5140190.47 245.57
-9753926.22 5140016.46 253.12
-9753516.80 5141470.60 194.93
-9753072.95 5141073.65 195.14
-9754780.92 5139996.12 189.45
-9754522.87 5142099.49 208.76
-9754344.26 5141685.64 233.88
-9754750.52 5141480.28 200.63
-9753920.15 5139165.25 205.70
-9753707.37 5140006.39 189.22
-9753904.74 5140685.34 244.59
-9753686.54 5139153.70 224.52
-9752871.00 5139160.10 209.51
-9751187.44 5139793.68 176.95
-9751814.52 5141058.72 177.13
-9751180.73 5141057.04 177.22
-9751598.00 5139373.97 177.23
-9751601.21 5140847.43 177.02
-9751392.63 5140846.40 177.14
-9751180.47 5140844.16 177.16
-9751179.59 5141902.92 177.07
-9751182.15 5141691.97 177.16
-9751179.92 5141481.47 177.12
-9752024.11 5141267.30 177.14
-9752242.51 5141028.90 186.22
-9751191.11 5139373.06 176.95
-9751390.54 5139162.82 177.14
-9751602.02 5140212.85 177.16
-9753290.08 5148225.44 177.10
-9753160.73 5148237.38 176.90
-9753292.29 5148014.58 177.20
-9753289.32 5147805.31 176.74
-9753165.59 5147597.84 177.22
-9753168.40 5147383.49 176.98
-9754135.29 5147172.80 177.17
-9754978.20 5147005.55 226.59
-9754133.30 5146963.05 176.95
-9754129.61 5147809.11 177.03
-9754132.85 5146544.32 177.39
-9754346.42 5147383.78 177.01
-9754134.69 5147382.44 177.10
-9754345.90 5149280.68 177.19
-9754175.74 5149074.06 176.98
-9754343.62 5148860.80 177.03
-9754179.52 5148646.07 177.09
-9754181.00 5148435.35 176.84
-9754558.54 5149491.95 177.25
-9753917.32 5147172.45 177.21
-9753713.12 5147167.67 177.15
-9753502.03 5147177.40 177.01
-9753169.47 5147159.96 177.03
-9753713.12 5146964.65 177.06
-9753498.51 5146963.66 177.13
-9753170.85 5146977.42 176.94
-9753500.74 5146755.49 177.08
-9753172.66 5146744.94 177.04
-9753924.29 5146539.05 177.11
-9753710.81 5146536.18 177.31
-9753922.34 5147807.25 177.00
-9753500.50 5147598.33 177.38
-9753921.69 5147383.38 176.91
-9753712.87 5147383.57 176.96
-9753501.07 5147386.63 177.10
-9753289.33 5147382.78 177.23
-9754558.30 5147158.33 243.56
-9754960.62 5146780.29 227.88
-9754531.84 5146755.48 210.36
-9754526.96 5146567.53 233.68
-9754378.18 5146539.27 246.71
-9754556.24 5147384.60 252.59
-9754174.07 5149283.37 177.12
-9754766.27 5149073.09 177.06
-9754177.61 5148858.62 177.02
-9753921.04 5146961.37 177.08
-9753284.33 5146965.66 176.92
-9753918.64 5146750.86 177.22
-9753708.35 5146753.39 177.01
-9753164.92 5147805.71 176.99
-9753290.36 5147601.83 177.16
-9753922.37 5147595.22 177.21
-9754979.89 5147170.68 229.34
-9754978.20 5147573.18 251.60
-9748863.31 5132831.92 177.02
-9748440.41 5132621.48 176.95
-9751380.60 5132837.42 196.18
-9751193.05 5132600.81 208.95
-9751187.68 5133906.45 193.11
-9751173.00 5132393.68 207.54
-9751184.76 5133463.34 190.85
-9751188.33 5133265.41 196.75
-9751182.24 5134105.19 187.25
-9751172.03 5133043.96 190.51
-9750983.96 5132626.17 192.86
-9750566.78 5132639.26 203.23
-9750748.98 5132440.07 249.65
-9750963.12 5133880.26 183.79
-9750804.99 5133670.09 200.66
-9750354.99 5132190.06 200.43
-9750967.05 5132184.02 204.18
-9749709.00 5131773.05 196.52
-9749915.69 5132411.66 177.00
-9749922.82 5132001.79 192.94
-9748440.98 5131780.52 176.96
-9748437.78 5131991.74 176.96
-9748227.96 5131989.64 177.06
-9753676.66 5132642.89 204.76
-9753280.57 5132616.96 199.17
-9753500.04 5133887.48 197.11
-9753695.42 5133685.23 198.50
-9753506.60 5133674.59 200.20
-9753295.19 5134308.92 193.48
-9753918.64 5133047.74 194.15
-9752248.81 5131778.98 203.44
-9752644.05 5132643.12 197.63
-9753063.08 5132422.72 193.59
-9753061.25 5133673.36 194.81
-9752452.25 5133674.86 232.89
-9752232.14 5134728.89 193.68
-9753061.36 5133469.26 194.46
-9753078.86 5134539.07 195.39
-9753087.87 5131996.21 196.60
-9752849.40 5131986.43 192.65
-9752860.17 5133255.05 194.24
-9753074.29 5133048.47 196.02
-9752240.71 5134100.15 193.73
-9751408.23 5131794.85 201.24
-9751587.55 5132830.46 196.99
-9752032.96 5132610.94 195.89
-9752029.19 5133894.09 198.99
-9751407.85 5134725.66 184.89
-9751601.45 5133467.20 195.70
-9752019.83 5134523.08 198.36
-9751796.67 5132201.66 202.97
-9751826.01 5134304.36 215.12
-9752028.12 5131984.02 198.97
-9751809.41 5132003.20 198.05
-9752030.68 5134109.26 197.00
-9751813.90 5134086.29 204.50
-9751590.47 5133058.28 192.19
-9750981.78 5131790.02 198.19
-9750550.87 5132840.99 189.77
-9750550.23 5132412.57 192.50
-9750118.11 5132408.70 190.94
-9750960.51 5132390.81 193.86
-9750562.01 5133235.98 185.68
-9750973.47 5131989.83 196.24
-9750767.07 5133051.86 200.14
-9750545.43 5133035.62 188.34
-9749908.13 5131779.82 252.04
-9750111.26 5131984.85 253.38
-9754996.47 5131995.54 197.24
-9754750.86 5132012.80 197.44
-9754535.64 5131768.81 192.60
-9754553.68 5131990.49 182.58
-9754335.92 5132836.55 197.11
-9754562.04 5133881.19 193.89
-9754326.49 5133890.15 193.34
-9754787.14 5132624.69 185.88
-9754340.49 5132615.34 197.61
-9754980.84 5133679.65 178.36
-9754761.95 5132415.23 189.89
-9754342.47 5132395.35 193.88
-9754358.60 5133463.27 192.24
-9754761.11 5132211.59 190.32
-9754765.12 5134525.15 189.94
-9754338.26 5133245.72 190.69
-9754317.44 5131987.17 194.38
-9754564.76 5134305.34 196.21
-9754342.15 5134320.61 195.25
-9754774.98 5133019.45 189.75
-9754354.31 5133049.04 189.08
-9753706.91 5131779.12 196.43
-9753495.82 5131788.35 194.94
-9753923.55 5132832.46 194.55
-9754138.26 5132621.43 202.27
-9753306.41 5132221.00 241.71
-9753716.54 5134530.13 193.00
-9754149.53 5134510.78 196.66
-9753705.16 5132201.72 193.01
-9754133.68 5133468.52 199.48
-9753507.14 5134328.74 203.24
-9753933.11 5132011.07 190.95
-9753492.92 5131979.90 197.86
-9753295.38 5131997.58 195.01
-9753927.92 5134095.30 194.98
-9753296.45 5134098.41 201.46
-9754152.77 5133047.87 193.67
-9753077.06 5131792.51 204.54
-9752863.50 5131782.91 197.00
-9752640.85 5131788.33 200.20
-9752409.02 5131786.68 203.36
-9753060.05 5132827.50 196.32
-9752875.84 5132824.25 196.67
-9753075.80 5132609.80 195.88
-9752456.23 5132624.67 197.52
-9752878.12 5132410.64 194.23
-9752657.67 5132428.15 197.79
-9752440.99 5132444.22 203.84
-9752860.85 5134743.99 193.45
-9752879.00 5132192.66 196.55
-9752236.08 5132205.17 190.11
-9752661.37 5133472.73 195.91
-9752232.02 5134534.75 202.14
-9752665.71 5131979.00 198.53
-9752458.47 5131985.32 197.40
-9752432.37 5133262.96 196.89
-9752237.96 5133258.00 201.17
-9752461.36 5134313.26 196.98
-9752236.57 5134314.41 195.73
-9752457.00 5133024.82 191.50
-9752235.56 5133026.74 190.95
-9752449.74 5134084.32 202.15
-9753073.09 5134090.35 194.81
-9752020.66 5131769.70 198.46
-9751582.53 5133895.92 196.01
-9752029.93 5133670.56 193.84
-9751826.87 5133673.00 199.25
-9751597.12 5133684.96 192.21
-9752027.72 5132414.47 198.35
-9751814.21 5132406.68 195.89
-9751404.15 5132421.60 198.41
-9752019.72 5133448.19 195.61
-9751804.89 5133470.86 196.04
-9751397.55 5133479.27 191.67
-9751822.66 5134517.32 222.96
-9751610.06 5134524.24 195.78
-9752038.85 5132191.31 200.72
-9752017.86 5133255.49 191.28
-9751596.52 5134326.68 189.51
-9751397.44 5134292.43 193.06
-9752020.18 5134306.70 195.56
-9751612.86 5132002.39 202.64
-9751613.81 5134116.94 207.01
-9751403.73 5131991.77 198.55
-9751381.70 5134095.32 193.46
-9754344.36 5131815.98 221.88
-9754749.04 5132827.48 194.42
-9754966.48 5133917.74 193.48
-9754957.02 5132633.25 216.72
-9754780.02 5133670.33 188.29
-9754349.98 5133670.98 195.14
-9754341.57 5132199.68 193.77
-9754518.21 5132210.51 194.33
-9754783.28 5133265.73 199.46
-9754748.53 5134328.36 196.88
-9754543.03 5133062.36 191.98
-9754552.32 5134111.92 192.42
-9754364.61 5134098.46 198.08
-9753287.48 5132835.71 196.21
-9754136.10 5133676.57 201.65
-9753713.08 5132408.18 191.24
-9753930.97 5134512.91 198.85
-9754137.26 5132207.12 200.28
-9753925.09 5132171.60 203.32
-9753928.95 5133457.05 200.81
-9753707.92 5133470.56 193.40
-9753506.68 5133466.26 197.18
-9754133.89 5131996.90 199.53
-9753708.32 5134109.18 194.62
-9754134.21 5134097.43 196.67
-9753706.69 5133058.20 191.38
-9753496.61 5133045.61 195.90
-9752656.72 5138103.04 185.85
-9752447.34 5138104.21 177.47
-9752235.60 5137470.32 177.54
-9752234.71 5136418.84 185.62
-9752450.06 5137265.09 177.41
-9751599.99 5137054.70 177.38
-9751388.67 5137050.55 177.18
-9751602.46 5136838.94 177.24
-9752027.95 5137894.31 177.24
-9751212.87 5136846.15 177.18
-9751813.75 5138105.72 177.12
-9751603.56 5138104.74 177.24
-9751387.09 5137686.60 177.30
-9751627.71 5136614.27 193.94
-9751214.53 5136632.67 177.37
-9752024.36 5137469.80 177.29
-9752017.83 5136415.42 177.99
-9752025.22 5137262.88 177.40
-9751209.09 5137265.53 177.10
-9751600.12 5138950.10 177.13
-9751194.69 5138948.07 177.42
-9752022.03 5138531.34 177.38
-9752020.93 5138319.05 177.28
-9751601.08 5138316.57 177.24
-9751391.07 5138320.04 177.28
-9751601.81 5139158.11 177.17
-9754545.55 5137059.77 196.79
-9754345.18 5136828.36 195.03
-9754342.61 5137683.07 196.53
-9754779.20 5137270.97 203.72
-9754733.28 5138518.14 198.83
-9754127.10 5138095.45 186.88
-9753484.98 5137895.29 194.86
-9753296.31 5138117.23 197.89
-9754123.55 5137871.99 202.55
-9753714.07 5137883.67 191.29
-9753913.59 5137488.59 197.51
-9753919.82 5137276.05 199.47
-9753678.67 5138906.05 237.04
-9754124.49 5138747.28 207.87
-9753725.52 5138735.67 200.74
-9753499.86 5138529.18 215.92
-9752233.24 5136005.13 193.36
-9752209.67 5136657.97 192.33
-9752860.99 5137506.23 192.79
-9752867.63 5136410.73 224.01
-9752618.71 5136428.47 201.48
-9752643.99 5136205.51 195.42
-9752867.48 5138948.44 209.67
-9752671.32 5138544.37 195.18
-9751812.60 5136847.02 177.45
-9751813.57 5137893.39 177.23
-9751396.97 5137893.21 177.36
-9751204.16 5137896.37 177.16
-9751599.65 5137685.23 177.31
-9751607.27 5136419.49 177.38
-9751601.51 5136206.80 177.13
-9751388.09 5138741.34 177.24
-9751391.49 5138526.85 177.35
-9751809.71 5138526.28 177.30
-9751811.94 5138319.54 177.19
-9754970.11 5136630.84 177.96
-9754766.33 5136422.13 191.06
-9754345.96 5136418.16 199.27
-9754756.55 5138962.54 193.51
-9754937.71 5136182.59 211.88
-9754340.80 5136221.74 194.93
-9754346.59 5138771.26 204.07
-9753921.32 5135984.07 194.48
-9754110.08 5137056.64 247.38
-9753935.29 5136830.80 194.60
-9753499.52 5136834.19 194.67
-9753295.25 5136836.51 198.26
-9753494.84 5138127.68 201.60
-9754140.32 5136418.88 195.26
-9753507.50 5136422.13 191.77
-9753924.37 5136208.01 199.84
-9753502.31 5136206.93 193.14
-9754159.31 5139154.88 252.57
-9753921.11 5138925.72 213.08
-9753500.84 5138741.15 219.96
-9753290.76 5138747.05 212.44
-9753499.02 5138317.19 210.13
-9753089.25 5137048.25 197.63
-9753076.90 5136840.99 195.57
-9752449.98 5136848.83 196.27
-9752232.75 5136837.77 179.89
-9752845.48 5138128.36 205.14
-9753076.09 5136418.12 201.31
-9752229.88 5137263.78 177.38
-9753082.66 5136224.57 200.85
-9754949.79 5138071.08 207.90
-9754719.13 5138138.77 208.25
-9754553.97 5138109.00 192.31
-9754328.26 5138098.47 201.21
-9754998.14 5137898.20 211.13
-9754762.68 5136644.01 198.05
-9754802.79 5138738.93 205.72
-9754749.92 5138317.71 185.60
-9750556.13 5135951.12 177.32
-9750548.50 5135784.34 177.15
-9750200.61 5135786.58 176.95
-9750337.42 5135574.51 177.18
-9750202.38 5135574.74 177.18
-9750339.22 5135362.06 177.29
-9752657.48 5136006.89 196.94
-9752651.69 5135565.85 196.43
-9752465.32 5135569.61 196.50
-9752220.22 5135569.13 200.17
-9752446.76 5135163.27 190.83
-9752466.01 5136420.73 188.21
-9751601.77 5134946.15 196.14
-9751394.47 5134951.92 186.57
-9751220.00 5136001.23 177.20
-9751605.60 5135788.78 177.16
-9751390.99 5135787.77 177.11
-9752005.62 5135784.86 200.23
-9752023.45 5137050.26 177.10
-9751814.46 5137052.54 177.31
-9751210.92 5137049.13 177.04
-9751387.06 5136842.80 177.38
-9751812.45 5137472.91 177.06
-9751392.90 5137471.05 177.18
-9751389.75 5136418.62 177.04
-9751216.36 5136419.77 177.07
-9751602.35 5135365.06 177.14
-9751390.81 5135367.27 177.42
-9751180.49 5135368.95 177.26
-9751813.43 5137260.86 177.37
-9751602.77 5137261.94 177.07
-9751388.49 5137264.60 177.28
-9750971.06 5134941.28 177.38
-9750760.58 5134942.02 177.20
-9750208.01 5134947.74 177.27
-9750550.16 5134734.39 177.01
-9750337.99 5134734.13 177.30
-9750336.02 5134522.80 176.96
-9750969.25 5135577.35 177.21
-9750972.31 5135363.90 177.11
-9750760.28 5135357.73 177.68
-9750547.87 5135364.30 177.11
-9750759.97 5135150.32 177.18
-9750544.25 5135153.34 177.36
-9754329.95 5134925.95 199.67
-9754571.49 5135994.37 201.11
-9754774.51 5135549.46 187.35
-9754551.79 5137252.45 190.27
-9754119.09 5134735.82 198.46
-9753294.46 5135791.40 189.25
-9754157.23 5135785.73 195.74
-9753914.15 5135790.88 192.17
-9753921.70 5137051.63 182.26
-9753457.51 5137073.99 234.06
-9753313.68 5137068.15 195.27
-9753717.30 5136849.44 193.94
-9754152.63 5135576.20 194.69
-9753291.06 5135341.45 248.28
-9754139.79 5136626.95 192.95
-9753299.68 5136609.22 189.62
-9753496.76 5135160.04 193.17
-9753296.44 5135153.23 201.77
-9753320.16 5137467.49 191.44
-9753309.02 5137257.14 191.76
-9752650.66 5134734.99 194.34
-9752430.55 5134736.57 201.16
-9752863.17 5134527.84 199.70
-9752870.19 5135994.57 204.62
-9752237.15 5137053.64 177.42
-9752874.61 5135595.13 199.23
-9753092.40 5136630.76 199.03
-9752865.22 5136629.75 183.83
-9753059.23 5135370.96 195.43
-9752444.69 5137474.04 177.20
-9752861.42 5135153.47 205.43
-9752223.61 5135185.80 203.30
-9752852.99 5137236.67 192.12
-9753081.22 5137261.33 182.57
-9752023.14 5134944.56 182.94
-9751182.18 5134943.63 177.13
-9751616.84 5134751.22 193.21
-9751181.11 5134735.05 177.33
-9751392.95 5134530.21 189.53
-9751603.61 5135995.99 177.16
-9752033.79 5136847.92 190.74
-9751393.00 5135577.82 177.33
-9751393.22 5136632.92 177.12
-9751817.86 5135360.51 193.65
-9751816.03 5136213.06 179.74
-9751999.89 5135161.08 200.01
-9751177.35 5135152.29 177.20
-9750970.54 5135954.79 176.89
-9750332.66 5135788.60 177.44
-9754554.15 5134933.07 189.85
-9754764.59 5134733.00 182.01
-9754323.33 5134748.75 195.07
-9754360.95 5134522.48 195.18
-9754970.88 5134525.47 176.49
-9754983.28 5135567.76 178.10
-9754981.73 5136825.57 190.55
-9754921.99 5135160.06 214.78
-9754325.98 5137490.22 195.04
-9754984.73 5137479.24 196.79
-9754991.97 5137240.27 195.63
-9754130.26 5134947.32 194.66
-9753916.62 5134946.27 193.60
-9753922.93 5134720.52 196.64
-9753509.51 5134742.96 200.10
-9753508.55 5135987.58 194.17
-9753726.50 5135794.82 193.92
-9753307.22 5135578.78 199.63
-9754152.67 5135355.56 194.56
-9753914.99 5135369.61 195.47
-9753507.10 5135367.76 198.63
-9753919.64 5136627.68 193.44
-9753932.43 5135143.37 193.08
-9753710.48 5135152.41 194.75
-9753921.53 5136420.92 192.33
-9753319.70 5136417.62 201.11
-9754136.48 5137477.87 195.06
-9753727.87 5136206.57 199.49
-9754132.64 5137281.24 243.92
-9752449.51 5134974.07 205.48
-9752462.77 5136000.50 194.75
-9752232.80 5135793.02 192.73
-9752443.28 5137058.95 188.91
-9752654.21 5135353.70 195.95
-9752444.69 5135359.14 205.22
-9752245.07 5135363.05 194.17
-9752429.81 5136203.29 193.29
-9754978.26 5134944.32 181.06
-9754975.00 5134739.18 178.33
-9754775.42 5135995.31 192.76
-9754354.01 5136004.97 195.38
-9754566.28 5135572.84 198.13
-9754352.58 5135540.76 197.17
-9754957.03 5137054.18 193.11
-9754768.17 5137043.30 200.15
-9754344.84 5135380.78 195.76
-9754986.34 5135363.74 180.82
-9754761.65 5135140.13 193.56
-9754544.61 5135167.42 193.16
-9754977.11 5136417.81 177.46
-9754759.24 5137890.81 190.26
-9754532.73 5138950.57 196.12
-9754770.35 5137665.81 195.78
-9754555.25 5137669.77 191.75
-9754549.06 5137476.01 194.72
-9754986.14 5138523.03 189.81
-9754325.86 5138306.27 194.24
-9754338.57 5139993.34 223.92
-9754557.45 5140213.72 248.16
-9753311.62 5137694.83 195.69
-9754130.21 5137696.59 199.42
-9753713.18 5138516.55 212.53
-9753919.96 5138330.41 210.47
-9753276.05 5139770.25 192.05
-9753698.76 5139347.61 211.65
-9753531.86 5140434.31 201.65
-9753492.19 5139137.01 210.17
-9753504.44 5140218.10 221.08
-9752862.16 5137893.18 194.55
-9752654.46 5138742.86 196.29
-9752233.69 5138739.83 177.10
-9752237.86 5139796.27 177.23
-9752446.44 5138525.67 177.18
-9752235.13 5139370.92 177.16
-9752866.98 5139365.93 176.92
-9752022.96 5138739.67 177.26
-9752020.68 5139159.36 177.16
-9754543.72 5138519.30 206.41
-9754552.25 5139581.91 193.34
-9754335.99 5139585.73 192.61
-9753728.11 5137697.60 197.10
-9754128.26 5138928.82 249.38
-9754132.27 5138336.26 193.66
-9753758.32 5139787.13 244.41
-9754139.16 5139379.34 203.98
-9753717.43 5140208.34 191.91
-9752229.14 5138107.55 177.41
-9752237.17 5137895.82 177.23
-9752664.05 5137686.81 184.60
-9752654.74 5137251.20 192.45
-9752444.45 5140005.44 180.42
-9751388.17 5138108.31 177.28
-9752023.72 5137683.74 177.20
-9751816.19 5137684.84 177.25
-9751602.23 5137472.76 177.20
-9751599.86 5138527.28 177.16
-9751201.16 5138319.44 177.24
-9752024.74 5140005.13 177.18
-9751185.71 5140005.31 177.23
-9751813.37 5139789.63 177.15
-9751394.81 5139790.85 177.40
-9751812.87 5139580.27 177.17
-9751811.11 5139370.96 177.40
-9751182.19 5140424.68 177.03
-9751184.24 5140215.01 177.16
-9752445.71 5138948.68 176.92
-9752234.27 5138947.96 177.20
-9752235.59 5138316.24 177.36
-9751603.85 5137897.10 177.43
-9751205.53 5137682.52 177.12
-9751207.36 5137479.26 177.47
-9751393.11 5138952.09 177.28
-9751198.28 5138528.16 177.14
-9751599.60 5140004.95 177.24
-9751389.63 5139369.26 177.21
-9751192.88 5139167.17 177.22
-9751392.10 5140215.48 177.20
-9752445.53 5138736.12 177.18
-9752860.98 5140839.79 181.37
-9752657.16 5140851.79 189.01
-9752449.01 5140852.48 192.57
-9752236.03 5140635.89 177.12
-9752657.64 5141269.00 177.16
-9752446.65 5140214.87 181.42
-9751813.12 5138948.55 177.11
-9751602.75 5138740.28 177.15
-9751809.98 5139161.61 177.18
-9754972.20 5138944.93 185.01
-9754980.36 5139153.92 188.89
-9754354.26 5138919.19 201.32
-9754968.58 5141061.00 197.39
-9754341.32 5140418.46 233.39
-9754547.18 5141461.47 219.59
-9754141.52 5141472.80 189.41
-9753940.28 5141053.69 252.27
-9753910.42 5139588.93 195.40
-9753725.64 5141253.87 192.89
-9752848.18 5141019.33 195.26
-9752649.84 5141025.57 196.43
-9752438.19 5141034.64 186.24
-9752468.21 5140606.53 196.57
-9752460.98 5140433.43 189.57
-9751808.38 5138739.31 177.31
-9751196.94 5138744.22 177.23
-9751393.83 5141057.41 177.08
-9754795.37 5139131.71 222.66
-9754552.12 5139160.79 192.83
-9754533.55 5138747.95 189.30
-9754309.91 5139795.09 251.69
-9754366.53 5140847.73 205.48
-9754956.38 5139353.29 191.28
-9755017.70 5141518.73 252.32
-9754939.89 5140209.04 210.64
-9754343.10 5141271.25 253.63
-9753473.27 5138949.66 209.75
-9753299.65 5138949.49 221.98
-9753922.54 5138738.40 212.49
-9754130.35 5139794.40 194.86
-9753707.14 5140649.14 192.57
-9753485.98 5139348.24 198.17
-9753276.14 5139360.81 193.71
-9753078.22 5139160.32 209.34
-9754969.03 5139992.64 191.65
-9754147.41 5142113.94 190.90
-9754342.62 5140627.94 252.89
-9754145.93 5141884.89 202.82
-9754552.46 5141690.77 245.82
-9754785.36 5142768.08 252.29
-9754102.23 5142742.57 198.69
-9754583.55 5142322.41 239.80
-9754152.44 5142321.77 205.70
-9754122.50 5140447.84 256.20
-9754127.61 5140188.83 197.96
-9753873.27 5140232.02 225.39
-9754141.15 5141264.98 190.74
-9753916.25 5141279.48 195.72
-9753089.96 5139989.30 190.44
-9752445.55 5142112.50 177.09
-9752649.99 5140635.99 190.12
-9754336.34 5141902.01 252.16
-9753710.34 5141044.07 198.07
-9753503.98 5140008.18 193.98
-9753499.09 5139796.88 191.27
-9753498.32 5142111.54 190.52
-9753691.75 5140425.52 195.22
-9753913.46 5141699.25 197.89
-9753731.77 5142737.38 197.00
-9753488.93 5142726.05 196.46
-9752662.50 5139986.90 187.40
-9752234.42 5140003.54 177.19
-9753087.07 5139791.13 188.69
-9752857.68 5139781.95 192.06
-9752442.91 5139786.53 179.95
-9753090.83 5140852.35 194.97
-9752444.07 5142533.85 177.12
-9752865.65 5141691.05 177.13
-9753076.54 5141259.59 200.14
-9752673.03 5140212.76 186.44
-9751813.57 5140001.97 177.14
-9752021.90 5139793.30 177.20
-9751602.42 5140637.44 177.15
-9751180.36 5140636.34 177.08
-9751175.25 5142108.46 177.01
-9751390.48 5140424.83 177.22
-9751600.82 5141903.08 177.15
-9752236.00 5142323.87 177.13
-9752264.16 5140232.12 193.85
-9753943.37 5142116.59 203.62
-9753732.32 5142110.48 193.64
-9753294.32 5142114.57 177.50
-9753916.00 5141893.20 200.47
-9753492.36 5143170.87 192.80
-9753713.95 5144207.84 206.05
-9753942.52 5144009.61 253.02
-9753942.36 5143796.79 252.24
-9753700.54 5142323.26 184.76
-9753498.48 5143594.01 205.79
-9752445.75 5142744.81 177.11
-9752235.00 5142534.65 177.08
-9752654.78 5141693.21 177.19
-9752901.11 5143610.19 202.29
-9752838.99 5144420.23 194.53
-9751391.48 5141691.14 177.13
-9752021.93 5141689.38 177.11
-9751390.97 5141480.26 177.09
-9751395.77 5144427.59 177.09
-9751180.70 5144431.93 177.05
-9751810.19 5144389.22 177.00
-9751830.62 5144243.04 187.46
-9754969.85 5144216.39 255.10
-9754553.93 5142739.62 250.74
-9754346.73 5143796.97 231.63
-9754131.06 5144417.34 252.33
-9753937.85 5141464.75 197.21
-9753701.69 5141481.88 192.93
-9753485.81 5142951.68 200.28
-9753281.53 5144200.94 193.55
-9753526.40 5143362.71 200.40
-9752871.72 5141905.24 177.69
-9752236.18 5141690.40 177.10
-9751812.19 5142112.41 177.03
-9755010.80 5141711.07 220.80
-9754560.83 5144281.24 250.43
-9754553.79 5143588.62 252.22
-9753939.39 5142746.99 202.07
-9754724.39 5146139.64 252.66
-9754759.82 5146541.98 255.57
-9754989.59 5148848.49 196.21
-9754766.07 5148446.19 193.00
-9754979.00 5149711.74 191.02
-9754966.90 5144900.03 246.36
-9754977.73 5144655.48 231.19
-9754977.56 5142950.18 251.77
-9754747.99 5141257.88 196.90
-9754765.14 5144221.91 253.80
-9754976.32 5143601.02 252.62
-9754764.61 5143568.82 255.14
-9754803.54 5144629.04 217.81
-9754768.57 5139792.75 190.28
-9754766.22 5140621.89 192.67
-9754978.14 5138317.72 214.24
-9754967.09 5139576.90 194.60
-9754757.87 5139586.68 195.40
-9754368.71 5137050.11 194.78
-9754714.15 5136830.76 205.30
-9754540.98 5136850.82 193.96
-9754555.76 5136630.71 194.41
-9754324.80 5136625.95 195.58
-9754779.52 5137459.22 199.83
-9754566.01 5136421.56 197.13
-9754776.60 5136206.45 201.92
-9754570.88 5136196.11 201.12
-9754558.05 5140004.85 207.95
-9754968.28 5139788.10 188.90
-9754373.31 5140213.01 205.31
-9753709.82 5137051.39 195.98
-9754142.35 5136828.84 191.45
-9753719.43 5136629.44 192.76
-9753507.38 5136642.68 193.07
-9753500.98 5137678.75 194.17
-9753729.96 5136417.82 190.97
-9753712.13 5137472.40 182.15
-9753480.95 5137471.98 195.85
-9753728.91 5137256.83 198.43
-9753467.30 5137264.24 233.89
-9754126.90 5140010.55 250.75
-9753912.87 5139799.53 192.29
-9754128.11 5139577.88 194.94
-9753085.99 5138090.10 193.19
-9753065.79 5138341.33 209.98
-9754977.92 5137692.05 193.52
-9754334.13 5139150.14 208.06
-9754314.07 5138528.68 201.46
-9754577.51 5138325.09 189.33
-9754597.50 5141889.58 258.40
-9754164.26 5141686.27 201.30
-9754346.30 5142966.21 251.52
-9753924.01 5138099.33 241.22
-9753917.10 5137903.06 195.98
-9753923.66 5137723.15 256.82
-9754132.36 5138531.27 220.89
-9753711.43 5138334.09 210.26
-9753722.19 5140845.30 198.63
-9753709.33 5141901.56 179.61
-9753310.36 5140439.44 210.27
-9753288.74 5141480.54 177.11
-9753516.24 5141294.66 194.77
-9753288.77 5142323.82 177.08
-9753095.12 5138721.35 202.98
-9753100.03 5138548.39 202.62
-9753102.18 5139588.62 188.86
-9753072.71 5140648.01 185.52
-9753082.67 5140221.87 195.20
-9754724.51 5141660.60 255.07
-9755001.08 5141268.68 201.45
-9754137.22 5143792.77 252.58
-9754963.11 5145054.44 198.00
-9754348.67 5145065.57 252.30
-9754119.94 5143588.82 206.39
-9753484.61 5141051.27 220.50
-9753477.66 5141876.42 193.14
-9753523.95 5141700.20 193.78
-9753297.09 5142958.68 177.49
-9753710.67 5144858.25 253.21
-9753696.53 5144460.22 251.12
-9753086.70 5143591.46 183.82
-9754121.30 5143184.99 204.82
-9754553.76 5144024.13 251.64
-9754769.51 5142538.47 231.23
-9754343.23 5143378.34 251.85
-9754341.61 5146108.52 263.21
-9754345.66 5147174.66 177.07
-9754134.42 5147593.06 177.02
-9754766.20 5147385.50 252.17
-9753268.67 5143197.25 190.94
-9753928.68 5142967.89 195.51
-9753687.10 5145064.18 251.39
-9753488.26 5144842.96 248.68
-9753291.01 5144850.07 251.79
-9753496.04 5146120.51 177.23
-9753077.04 5146117.97 177.09
-9753722.90 5145921.83 252.23
-9753499.93 5144427.45 252.00
-9753076.63 5145064.22 177.13
-9753063.72 5144632.46 198.20
-9753087.40 5144440.31 188.95
-9754765.26 5145064.25 252.72
-9754764.57 5144825.09 251.33
-9754123.43 5146119.22 252.84
-9754133.51 5148226.52 177.26
-9754344.15 5148009.26 189.24
-9754980.39 5147810.47 194.76
-9754956.71 5149279.33 187.03
-9754761.79 5149284.99 177.17
-9754552.38 5149283.22 177.11
-9754553.15 5149069.96 177.05
-9754554.76 5148860.31 177.10
-9754965.16 5148659.68 187.61
-9754346.63 5148651.54 177.18
-9754341.34 5148440.43 177.25
-9754763.51 5149914.86 177.47
-9754343.01 5149916.09 177.30
-9754763.68 5149702.83 177.21
-9754552.16 5149703.92 177.10
-9753712.69 5146097.67 190.95
-9753495.42 5145908.00 177.06
-9753713.31 5147803.00 177.18
-9753502.87 5147802.76 177.21
-9753712.20 5147593.50 177.24
-9754551.32 5150125.19 177.11
-9753289.49 5138528.87 210.45
-9753247.50 5139586.67 210.85
-9753321.91 5139148.48 209.75
-9753080.76 5137894.40 193.31
-9753076.75 5137676.43 189.37
-9752444.87 5137680.71 177.11
-9752233.99 5137688.69 177.41
-9752664.37 5136617.28 201.49
-9752439.30 5136629.11 193.62
-9753078.34 5137480.59 183.52
-9753067.48 5138955.40 209.64
-9752867.19 5138734.41 209.62
-9752870.14 5138525.52 184.68
-9752654.66 5139585.67 177.10
-9752445.64 5139580.40 177.04
-9752233.16 5139583.67 177.22
-9753075.84 5139370.57 193.00
-9752838.85 5138315.67 194.57
-9752638.76 5139366.42 182.06
-9752670.31 5138322.07 188.41
-9752444.36 5138314.58 177.21
-9752847.35 5140429.14 192.11
-9752445.89 5141269.26 177.16
-9752856.76 5140212.26 187.14
-9752026.63 5138107.52 177.24
-9751201.99 5138111.96 177.11
-9752031.73 5136599.78 191.22
-9751809.41 5136644.74 194.57
-9751824.90 5136419.87 179.40
-9752022.83 5136193.12 179.59
-9751386.74 5140005.80 177.29
-9751603.59 5139793.26 177.05
-9752023.24 5139584.75 177.16
-9751389.96 5139582.90 177.17
-9751189.43 5139583.99 177.07
-9752023.37 5141059.81 177.10
-9751600.87 5141059.21 177.17
-9751810.29 5140845.41 177.24
-9752023.30 5140637.40 177.25
-9751813.63 5140633.37 177.19
-9751813.38 5140426.24 177.07
-9751603.81 5140427.36 177.11
-9751810.38 5140213.30 177.12
-9751814.13 5141478.57 177.08
-9751601.00 5141269.39 177.12
-9751390.72 5141267.54 177.13
-9751181.00 5141268.58 177.03
-9753281.59 5141061.38 197.96
-9753290.87 5140638.61 194.48
-9753289.94 5141690.31 177.09
-9753281.63 5141241.64 189.67
-9753289.40 5142534.19 177.10
-9752855.88 5140003.96 185.15
-9752661.09 5139797.65 182.23
-9752646.83 5139161.50 183.05
-9752446.12 5139157.14 177.03
-9752447.86 5143167.47 177.18
-9752447.34 5142955.75 177.09
-9753070.70 5142983.40 192.70
-9753077.37 5142113.34 177.09
-9752867.18 5142112.42 177.12
-9753076.49 5141916.83 183.15
-9752656.66 5141901.07 177.13
-9752868.21 5140635.37 183.45
-9753076.36 5142535.16 177.09
-9752445.43 5142322.86 177.10
-9752234.97 5140425.35 177.15
-9753083.09 5140425.89 185.41
-9753080.22 5141481.99 177.16
-9752656.97 5141479.63 177.09
-9752233.23 5141479.78 177.13
-9752445.72 5143591.17 177.06
-9752234.75 5143586.15 177.10
-9752848.83 5143357.40 187.03
-9752657.82 5143376.69 177.12
-9752234.95 5143377.93 177.10
-9751603.50 5139581.56 177.06
-9751393.17 5140635.49 177.06
-9752024.28 5142112.54 177.10
-9751603.98 5142111.97 177.07
-9751812.68 5141902.05 177.10
-9751603.16 5141480.10 177.10
-9753291.92 5143801.85 251.84
-9753075.75 5145484.70 177.14
-9753075.37 5143151.67 190.74
-9752852.12 5142975.78 195.30
-9752868.59 5142744.66 177.09
-9752656.30 5142323.85 177.14
-9752865.48 5141482.31 177.17
-9752446.94 5141481.65 177.11
-9752692.91 5144208.73 203.90
-9752444.76 5144011.13 177.05
-9752235.90 5144011.07 177.11
-9752656.05 5143797.19 177.12
-9752444.41 5143799.95 177.09
-9752236.40 5143799.93 177.15
-9753086.98 5143399.15 177.40
-9752869.19 5145276.33 177.15
-9752874.02 5145063.58 194.41
-9752233.96 5145907.71 177.09
-9752654.00 5145907.87 177.08
-9752866.94 5145697.54 177.20
-9753078.92 5144840.57 199.65
-9751390.96 5142109.47 176.99
-9751390.44 5141901.82 177.10
-9751600.12 5141691.02 177.15
-9751625.73 5145259.82 177.06
-9751599.57 5145064.30 177.13
-9751392.48 5145272.37 177.11
-9751391.11 5145061.85 177.08
-9751184.09 5145048.75 177.13
-9751816.69 5141268.21 177.22
-9751392.51 5144852.64 177.12
-9751603.98 5146118.85 177.16
-9751603.20 5145907.19 177.03
-9752023.69 5145699.16 177.10
-9751390.35 5144640.43 177.07
-9751606.18 5144222.51 177.07
-9753289.89 5146119.57 177.09
-9753176.07 5146333.74 177.02
-9753290.99 5145700.39 177.12
-9753287.44 5146541.86 177.21
-9753285.42 5145489.26 177.06
-9753087.39 5143782.42 199.88
-9752886.28 5143805.64 195.18
-9752872.95 5146226.20 177.10
-9752665.83 5146224.56 177.10
-9752447.76 5144675.72 197.22
-9751182.16 5144854.32 177.05
-9751392.56 5146120.19 177.06
-9751177.72 5146120.95 177.25
-9751393.54 5145911.10 177.22
-9754343.11 5148225.35 177.28
-9754764.92 5146718.53 248.73
-9754369.02 5147628.42 193.80
-9754971.25 5147383.10 201.38
-9754785.84 5148843.42 191.17
-9754764.13 5148661.72 190.80
-9754986.87 5148449.72 189.48
-9754553.26 5149915.94 177.34
-9754766.05 5149490.19 177.13
-9753714.19 5146324.57 177.46
-9753497.53 5146331.50 177.22
-9753079.78 5145274.35 177.11
-9752658.46 5145697.80 177.18
-9752020.31 5145908.11 177.12
-9754344.19 5143170.26 247.16
-9754345.82 5144221.77 253.16
-9754343.46 5144010.40 252.10
-9754581.00 5145068.41 231.38
-9754363.83 5144856.05 251.09
-9754126.76 5144853.60 252.48
-9754563.80 5146963.19 257.63
-9753928.68 5143160.23 194.12
-9753920.56 5144177.17 252.08
-9753739.88 5143768.05 250.40
-9753924.62 5143575.31 203.36
-9753273.50 5144640.40 225.61
-9753174.45 5146543.02 177.03
-9753921.30 5148016.86 177.42
-9752659.69 5143166.98 177.12
-9752658.89 5142955.33 177.15
-9753107.84 5144009.46 200.70
-9752656.42 5143588.93 177.11
-9752446.77 5143379.28 177.11
-9752443.45 5145696.22 177.19
-9752021.67 5146118.99 177.09
-9751813.22 5145912.29 177.04
-9752024.54 5144430.95 177.06
-9754551.80 5141057.56 193.67
-9754784.97 5141905.33 220.11
-9754767.40 5142955.71 262.51
-9754550.52 5141248.06 223.05
-9754792.87 5144009.62 251.17
-9754749.23 5143782.65 243.68
-9754584.86 5142531.48 225.24
-9754156.57 5142508.64 198.30
-9754977.31 5142327.84 236.99
-9754346.01 5143584.50 211.12
-9753302.99 5141889.21 182.05
-9753499.64 5145256.94 248.85
-9753282.66 5145249.27 190.76
-9753922.18 5145063.41 254.10
-9753501.73 5142338.05 190.77
-9753923.49 5144855.09 252.23
-9753920.88 5144679.33 217.64
-9753077.09 5145695.89 177.10
-9752656.28 5142112.10 177.10
-9752234.53 5142112.68 177.12
-9752444.79 5141902.42 177.09
-9753077.39 5142745.38 177.05
-9752869.03 5142535.40 177.12
-9752656.02 5142533.97 177.11
-9753077.01 5141689.33 177.10
-9752444.09 5141692.31 177.13
-9753079.08 5142324.64 177.13
-9752868.20 5142321.84 177.16
-9752867.34 5141268.54 177.13
-9752450.20 5144252.84 185.66
-9752235.83 5141267.48 177.13
-9752657.30 5144009.67 177.08
-9752236.17 5145064.95 193.33
-9752448.02 5144402.41 189.02
-9754535.10 5139788.26 194.83
-9754759.74 5141055.75 195.78
-9754749.06 5140838.74 196.06
-9754574.10 5140900.21 240.47
-9754579.57 5140624.58 254.33
-9754565.05 5139376.20 198.89
-9754347.47 5139369.83 205.40
-9754976.24 5140436.87 190.55
-9754761.76 5140429.83 192.47
-9754574.59 5140377.77 234.25
-9754344.96 5141483.78 219.53
-9754133.17 5142957.15 198.74
-9753714.35 5138113.25 195.71
-9753270.86 5137893.84 191.39
-9753903.66 5138528.42 216.32
-9753296.62 5140007.71 190.49
-9753289.30 5138317.38 210.18
-9753698.91 5139584.25 251.77
-9753490.46 5139567.97 192.75
-9753921.43 5139342.90 224.04
-9753710.58 5141690.60 179.65
-9753709.51 5142936.74 188.59
-9752658.41 5138950.26 176.95
-9752237.51 5138527.65 177.08
-9752865.58 5139570.81 198.23
-9752443.90 5139371.35 177.06
-9752238.19 5139160.11 177.18
-9752233.54 5140846.00 177.15
-9752866.54 5143167.53 177.11
-9752234.84 5141901.61 177.09
-9752234.49 5142745.25 177.08
-9752025.48 5138949.62 177.24
-9752022.55 5140847.37 177.11
-9752022.25 5140423.92 177.10
-9752023.57 5141900.36 177.08
-9751815.43 5141690.58 177.20
-9752025.77 5140214.85 177.13
-9752023.89 5141480.60 177.10
-9754342.24 5137895.82 199.78
-9754562.72 5137897.59 191.85
-9754343.09 5137260.10 191.99
-9754985.19 5138746.93 190.46
-9753918.81 5140856.26 254.01
-9753504.54 5140867.83 216.83
-9753909.89 5140435.87 196.98
-9753296.99 5140203.41 198.52
-9752857.10 5137052.18 186.73
-9752655.45 5137040.53 192.48
-9752877.37 5136852.18 199.28
-9752673.88 5136844.91 194.96
-9752654.25 5137880.97 188.34
-9752444.05 5137896.06 177.07
-9752860.25 5137698.81 191.45
-9752651.72 5137497.54 191.98
-9752667.16 5140394.63 191.05
-9752022.13 5139372.67 177.31
-9753292.03 5145909.42 177.12
-9753079.81 5145908.32 177.06
-9753292.39 5146753.91 177.28
-9753500.10 5146538.54 177.10
-9752869.33 5144223.46 175.87
-9752254.50 5144249.32 186.78
-9752654.59 5145260.46 190.04
-9752867.77 5146121.48 177.13
-9752653.54 5146119.48 177.09
-9752235.68 5146116.15 177.13
-9752868.44 5145907.63 177.17
-9752446.27 5145906.67 177.10
-9752233.82 5145696.89 177.11
