-9768516.72 5136471.18 192.84
-9768524.78 5137421.02 189.40
-9768418.92 5134995.70 181.05
-9768408.45 5135101.14 184.75
-9768314.07 5135101.22 181.28
-9768103.00 5134996.83 181.98
-9768102.69 5135100.90 180.84
-9768001.13 5134891.10 186.98
-9767684.52 5134890.60 185.20
-9768416.38 5134785.18 187.04
-9768313.85 5134788.82 187.40
-9768420.03 5135838.76 186.77
-9768412.31 5134573.59 184.08
-9768313.32 5134573.95 187.10
-9767997.28 5134574.04 185.68
-9767892.10 5134574.87 197.59
-9767789.93 5134571.41 190.26
-9768419.03 5135627.96 197.91
-9768313.80 5135628.10 197.89
-9768313.68 5135522.65 197.92
-9768524.54 5135311.79 199.42
-9768313.65 5135312.30 183.38
-9768207.80 5135312.70 183.03
-9767676.41 5136989.93 191.81
-9768420.67 5135210.60 182.62
-9767575.73 5136893.02 185.63
-9768312.68 5136786.27 197.04
-9767575.24 5137734.57 187.07
-9767680.82 5137631.49 185.81
-9768417.72 5137632.54 196.41
-9768309.85 5137635.84 194.33
-9768215.39 5137637.54 197.26
-9768111.51 5137629.53 198.94
-9768000.19 5137622.48 195.42
-9767893.22 5137631.65 191.59
-9768308.46 5137517.44 189.15
-9767997.59 5137525.87 188.10
-9767888.87 5137521.82 188.43
-9767790.59 5137522.70 186.63
-9767580.45 5137531.34 190.44
-9768102.22 5137419.92 185.57
-9767891.86 5137420.75 193.86
-9768419.20 5137420.72 185.25
-9768421.55 5137321.42 186.84
-9768313.59 5137310.97 191.08
-9767790.24 5137310.53 198.78
-9768418.42 5137208.20 198.92
-9768205.18 5137211.73 194.12
-9767364.77 5134995.69 186.49
-9767055.95 5134995.36 192.36
-9766840.23 5135094.33 186.00
-9766520.25 5135104.18 188.85
-9766727.28 5134900.42 187.67
-9767470.23 5134890.34 189.79
-9767364.30 5134889.94 181.11
-9766942.28 5134889.86 186.52
-9767470.44 5134784.63 189.81
-9767354.58 5134791.55 188.60
-9767259.06 5134785.55 181.55
-9767155.13 5134782.99 192.52
-9767366.36 5134675.48 190.41
-9766838.28 5134679.04 182.13
-9767364.79 5134564.34 191.91
-9766732.35 5134574.29 182.90
-9767152.03 5136050.15 195.68
-9767259.54 5135943.17 189.86
-9766732.13 5135942.72 189.55
-9766520.07 5135944.97 186.06
-9766946.75 5135832.91 191.54
-9766837.76 5135838.93 192.15
-9766731.94 5135839.06 185.87
-9767374.87 5137113.98 196.93
-9766519.04 5135735.74 189.43
-9767140.65 5137105.27 192.65
-9766626.65 5137110.42 193.02
-9767372.79 5137001.40 198.38
-9766732.05 5135628.68 189.17
-9766720.75 5136895.49 193.12
-9767364.65 5135520.89 188.20
-9766839.10 5135521.80 189.53
-9767265.90 5136789.71 192.99
-9767153.45 5136787.67 186.26
-9766833.75 5136791.97 184.72
-9766726.30 5136784.22 195.12
-9767364.52 5135417.54 181.92
-9766522.74 5136788.13 195.94
-9767162.70 5135411.50 190.55
-9767057.53 5135419.88 194.36
-9767365.84 5136686.23 187.14
-9767470.29 5137735.98 185.34
-9767261.71 5136681.78 192.18
-9767365.64 5137737.99 185.36
-9767257.11 5137735.84 187.18
-9767147.49 5137737.12 192.83
-9767469.98 5135311.73 182.06
-9767257.13 5135311.35 185.15
-9767364.98 5136566.02 191.71
-9766835.12 5136576.16 194.06
-9766524.74 5137529.90 191.70
-9766942.76 5135206.58 182.09
-9766723.30 5135207.30 188.45
-9766626.16 5135205.88 183.42
-9767469.19 5136470.27 188.25
-9767055.36 5136471.60 202.77
-9766943.11 5137420.02 183.31
-9766835.45 5137421.02 183.54
-9766837.92 5136471.67 188.80
-9767041.43 5137319.85 195.55
-9766627.27 5137316.25 192.98
-9767259.19 5137315.06 191.75
-9767153.20 5136367.47 191.95
-9767143.10 5137209.00 192.33
-9766838.28 5137209.31 182.72
-9766837.50 5136260.71 189.72
-9766731.98 5136260.90 193.95
-9767153.20 5136155.02 191.50
-9766309.37 5134998.69 189.31
-9765786.32 5134994.53 203.10
-9765787.24 5135945.17 190.93
-9766415.52 5137104.36 197.08
-9766306.25 5137104.65 190.31
-9765992.89 5137099.72 197.99
-9766309.38 5135838.78 181.93
-9765784.67 5137109.76 192.35
-9765992.79 5137004.82 194.61
-9765573.29 5135732.94 189.91
-9765674.86 5137000.25 192.20
-9765571.33 5136998.47 196.40
-9766100.91 5135627.82 188.82
-9766310.34 5135522.83 181.95
-9766415.84 5136896.70 189.15
-9765989.85 5135416.38 201.35
-9765782.61 5135416.71 188.34
-9765574.03 5136894.46 196.32
-9765985.36 5135313.46 204.01
-9766204.84 5135206.37 182.23
-9766099.94 5135205.18 184.09
-9766415.92 5136678.93 192.16
-9766204.10 5136578.48 188.62
-9765888.03 5136588.44 191.20
-9765678.87 5136578.35 196.47
-9766416.07 5136474.23 186.56
-9766198.70 5136467.90 192.80
-9765994.55 5136478.42 197.66
-9766419.46 5136270.03 186.50
-9766207.76 5137522.97 188.54
-9766102.84 5137526.94 195.39
-9765468.04 5136258.08 196.48
-9766099.74 5136154.98 180.98
-9766216.64 5137313.40 193.53
-9766097.92 5137207.82 190.51
-9765993.43 5137211.61 196.33
-9765258.09 5136161.28 187.47
-9767997.47 5135100.42 180.77
-9767891.93 5135101.07 181.22
-9768313.06 5134890.70 192.09
-9768526.34 5134784.80 186.97
-9767680.95 5135951.39 189.17
-9768523.98 5134675.07 182.13
-9767680.55 5135733.62 184.82
-9767566.91 5135732.06 185.43
-9767786.98 5135417.16 181.56
-9768108.86 5137107.46 193.46
-9767681.83 5135312.31 185.44
-9767791.46 5136999.94 191.12
-9767893.62 5136893.61 191.64
-9767786.70 5136788.37 183.31
-9767785.84 5136475.88 191.61
-9767680.60 5136471.57 194.26
-9768427.02 5137529.58 191.52
-9768208.45 5137422.19 185.15
-9767567.55 5136249.50 193.83
-9767575.72 5136154.59 187.16
-9767467.38 5136261.41 187.12
-9767471.26 5136153.52 191.25
-9768526.81 5139106.49 191.47
-9768523.36 5137842.43 190.60
-9768517.53 5138895.83 191.92
-9768532.61 5138685.50 195.40
-9768521.64 5137630.92 196.22
-9768525.51 5138580.84 198.09
-9768524.82 5138368.37 192.98
-9768521.06 5139843.42 191.17
-9768519.96 5139633.28 195.27
-9768524.44 5139530.11 200.14
-9768525.32 5139422.46 196.66
-9768519.89 5140485.56 196.41
-9768524.45 5140372.83 193.54
-9768526.17 5140267.19 194.18
-9768305.63 5138160.88 193.66
-9768099.54 5138156.68 198.33
-9767880.36 5138156.81 192.72
-9768318.80 5138053.79 191.34
-9768207.84 5138052.96 192.25
-9767889.05 5138060.43 192.48
-9767783.50 5138061.68 192.76
-9767674.71 5138058.06 189.93
-9767569.75 5138056.76 192.00
-9768102.59 5137945.95 192.18
-9767993.63 5137947.21 191.65
-9767891.64 5137954.90 191.59
-9767786.34 5137948.18 188.33
-9767674.54 5137954.72 191.98
-9767578.59 5137943.34 192.40
-9768208.35 5137949.15 194.12
-9768213.21 5139216.06 194.16
-9768003.04 5139104.71 199.46
-9767680.94 5139107.67 192.45
-9768422.59 5137847.58 191.21
-9768209.20 5137832.70 195.59
-9768101.29 5137842.10 194.33
-9767892.42 5137838.44 190.28
-9767575.41 5137845.75 191.05
-9768417.60 5139004.26 193.78
-9768208.79 5139010.31 191.64
-9767890.20 5139002.66 191.83
-9767577.58 5139004.82 195.60
-9768423.49 5137734.16 196.26
-9768312.43 5137737.34 192.50
-9768208.69 5137735.88 185.64
-9768104.19 5137723.41 193.87
-9767784.72 5137747.85 198.32
-9767575.79 5137631.62 185.81
-9767781.17 5137625.71 198.53
-9768208.58 5138791.38 190.99
-9768001.58 5138790.31 189.52
-9767780.61 5138790.77 188.42
-9768211.53 5138684.99 195.47
-9768415.90 5138583.46 195.26
-9767995.22 5138579.48 191.76
-9767891.34 5138580.74 199.25
-9767574.28 5138575.21 191.85
-9768099.77 5137312.07 197.64
-9768418.88 5138472.33 193.42
-9768102.75 5138474.83 198.03
-9768001.91 5138471.61 193.19
-9767892.19 5138474.66 194.76
-9767680.58 5138479.42 188.51
-9767680.11 5138365.74 192.03
-9767575.91 5138368.20 190.20
-9768418.63 5138264.35 195.67
-9768420.09 5140162.29 187.45
-9768003.92 5140163.03 194.44
-9768418.21 5140054.84 198.45
-9767786.49 5140056.63 192.90
-9768102.26 5139951.10 199.87
-9767999.99 5139952.33 195.19
-9768419.49 5139845.43 184.93
-9768100.77 5139842.15 187.38
-9768418.03 5139745.08 194.90
-9767786.59 5139740.25 192.89
-9767577.60 5139737.69 197.86
-9768414.81 5140480.75 193.77
-9768312.54 5140482.82 194.87
-9768102.26 5140476.61 199.18
-9767996.91 5140480.29 194.18
-9768315.33 5139520.97 193.70
-9768105.75 5139528.01 191.03
-9768300.40 5140376.50 196.20
-9768108.99 5140373.31 190.70
-9767887.96 5140374.05 194.84
-9767787.11 5140376.35 196.45
-9767671.39 5140376.90 194.66
-9767574.93 5140376.01 194.42
-9768416.15 5139429.10 190.78
-9768103.05 5139424.19 192.55
-9767894.14 5139424.75 191.97
-9767781.21 5139426.12 191.10
-9768420.23 5140267.12 187.91
-9768314.98 5140266.12 194.77
-9768206.13 5140265.22 194.90
-9768417.93 5139319.76 190.58
-9768003.27 5139318.54 193.99
-9767891.66 5139314.58 191.02
-9767787.97 5139318.06 193.27
-9767578.42 5139216.87 196.18
-9767364.56 5138159.04 194.05
-9767259.28 5138158.54 192.48
-9766838.64 5138159.75 187.23
-9767049.47 5138054.04 191.48
-9767469.62 5137948.04 185.47
-9767150.89 5137948.91 189.45
-9766951.25 5137946.94 188.99
-9766833.27 5137939.29 188.13
-9767247.69 5137850.72 192.49
-9766837.62 5137841.70 196.44
-9767045.85 5137732.81 190.60
-9767258.75 5137630.64 182.21
-9767041.23 5137629.77 192.79
-9767151.26 5139108.20 202.82
-9766942.98 5139001.99 195.28
-9767474.93 5138894.83 191.16
-9767157.66 5138897.18 196.37
-9766945.56 5138893.49 186.58
-9766733.49 5138907.70 190.15
-9766628.20 5138894.22 194.84
-9767364.87 5140166.66 188.31
-9767260.59 5140163.85 186.57
-9767470.10 5138788.47 189.22
-9767153.95 5140056.49 197.59
-9767048.09 5140053.46 199.06
-9767257.72 5138791.29 190.07
-9767149.23 5138787.65 192.29
-9766942.82 5138790.98 197.47
-9766825.81 5138784.14 193.02
-9767259.49 5138685.81 190.80
-9767354.87 5139949.51 194.97
-9767045.15 5139952.37 197.72
-9766936.20 5139944.60 193.67
-9766732.58 5138580.35 183.52
-9767367.79 5139838.56 191.36
-9767255.95 5139844.50 197.37
-9767360.19 5138471.13 187.82
-9766624.28 5138473.49 193.76
-9766518.71 5138475.26 192.71
-9767255.60 5138362.16 193.80
-9767148.01 5138367.77 197.22
-9767048.22 5138359.53 192.35
-9766834.52 5138364.31 187.62
-9767365.03 5139740.51 184.97
-9767160.97 5139739.66 202.39
-9767056.12 5139741.15 197.19
-9767259.37 5138263.65 192.40
-9767154.97 5138263.87 190.97
-9766725.24 5138267.36 185.93
-9766626.43 5138261.84 187.80
-9767465.81 5139634.35 190.88
-9767051.71 5139638.73 189.33
-9766723.81 5139630.91 195.34
-9766629.41 5139635.11 195.25
-9767470.10 5139534.73 194.65
-9766627.24 5139529.80 189.52
-9767051.56 5139422.23 191.52
-9767475.66 5139319.62 188.76
-9767352.74 5139324.23 192.09
-9766852.55 5139317.57 194.67
-9766626.55 5139318.37 188.11
-9767369.35 5140270.70 187.86
-9767259.74 5140266.36 200.26
-9766734.94 5139213.45 188.86
-9766523.62 5139217.65 196.25
-9768522.14 5138054.04 193.87
-9768524.67 5139001.86 195.82
-9768524.54 5137733.87 191.34
-9768526.88 5138791.56 190.77
-9768529.54 5138263.73 193.34
-9768524.49 5140056.14 192.44
-9768523.37 5139953.68 191.40
-9768419.17 5138157.90 192.02
-9768001.34 5138158.95 192.93
-9767790.72 5138159.09 193.59
-9767680.70 5138153.81 187.99
-9768103.69 5138054.16 194.18
-9768002.13 5138055.87 191.63
-9768422.71 5139103.57 189.44
-9768211.25 5139107.20 190.65
-9768102.71 5139107.83 191.96
-9768000.25 5139211.73 193.04
-9767787.38 5139212.27 198.98
-9767997.82 5137836.48 194.88
-9767784.46 5137840.78 187.88
-9767683.32 5137841.82 185.55
-9768316.45 5138999.35 193.77
-9767884.98 5137735.79 193.18
-9767683.72 5137744.48 199.96
-9767683.14 5138895.43 192.27
-9767576.57 5138896.80 193.98
-9768102.94 5138791.24 190.88
-9767684.23 5137527.53 187.21
-9767681.05 5138793.82 190.79
-9768001.45 5137415.79 194.05
-9767686.54 5137420.87 193.59
-9767581.55 5137417.51 192.02
-9768418.48 5138685.73 193.32
-9767892.69 5138689.57 195.44
-9767572.95 5138693.32 190.76
-9768210.20 5138582.89 193.69
-9767995.76 5137315.00 194.48
-9767679.97 5137313.98 199.62
-9767786.49 5138474.55 192.35
-9767783.49 5138369.99 187.13
-9768314.06 5138369.93 194.45
-9767892.67 5138369.25 192.86
-9768004.73 5138264.86 197.37
-9767681.39 5138263.93 190.63
-9768312.35 5140161.14 194.33
-9767885.04 5140161.53 194.19
-9767789.67 5140160.35 193.20
-9767576.82 5140160.78 187.80
-9768313.61 5140056.51 195.53
-9767999.21 5140057.01 197.98
-9767892.10 5140057.62 194.77
-9767570.70 5140059.81 187.04
-9768320.59 5139951.32 194.14
-9767786.71 5139952.21 193.36
-9767684.73 5139959.93 194.80
-9767891.73 5139743.28 189.73
-9767686.90 5139740.34 192.26
-9768316.10 5139633.94 193.24
-9768205.84 5139632.15 193.87
-9767896.57 5139637.27 193.44
-9767576.20 5139635.04 199.01
-9767998.06 5139530.22 198.88
-9767894.49 5139528.51 191.55
-9768213.10 5139423.22 192.98
-9768005.65 5139423.10 193.77
-9768102.79 5140267.02 197.74
-9768000.52 5140266.41 198.34
-9767887.38 5140267.96 194.08
-9767786.38 5140263.84 194.51
-9767690.97 5140260.05 192.47
-9767579.65 5140265.49 186.78
-9768313.69 5139317.62 191.78
-9768209.09 5139318.86 200.22
-9766942.58 5138053.04 187.29
-9766520.62 5138157.27 190.22
-9767159.26 5138050.20 188.39
-9767259.09 5137947.77 184.21
-9767057.09 5137957.63 192.91
-9766626.68 5137947.90 199.81
-9767480.27 5137841.63 194.26
-9767365.01 5137846.36 192.28
-9766952.90 5137842.45 194.55
-9766732.30 5137842.23 183.69
-9766731.98 5137736.77 184.95
-9766636.25 5137728.82 193.19
-9767467.58 5137627.59 185.37
-9767156.24 5137628.58 193.88
-9766731.89 5137626.87 184.89
-9767045.61 5137520.09 195.09
-9766732.08 5137526.28 182.90
-9767470.08 5137420.36 183.76
-9767057.97 5137414.33 193.19
-9766522.69 5137423.28 191.86
-9767474.41 5138997.42 192.01
-9767363.80 5139003.43 193.23
-9767155.94 5139001.85 197.54
-9767370.30 5138900.38 198.54
-9767480.45 5140159.46 192.24
-9767152.68 5140163.06 199.81
-9767049.94 5140164.40 188.33
-9766837.05 5140161.16 183.94
-9766722.72 5140162.13 197.15
-9766624.95 5140156.48 191.78
-9766516.95 5140164.82 190.07
-9767468.21 5140054.95 185.73
-9767363.77 5140055.43 186.12
-9766942.46 5140055.79 199.23
-9766838.85 5140057.93 194.60
-9767470.23 5138685.94 183.70
-9766522.01 5139953.06 193.16
-9767262.62 5139945.55 187.57
-9766836.94 5139953.45 191.59
-9767364.59 5138580.57 183.98
-9767259.28 5138580.33 192.08
-9767151.04 5139844.29 196.78
-9767053.67 5139844.28 190.42
-9767151.30 5138474.89 185.85
-9766938.95 5139845.57 196.47
-9767364.43 5138374.24 188.32
-9767473.25 5139740.80 196.65
-9767248.79 5139743.18 196.81
-9766944.39 5139739.57 190.80
-9767364.36 5138258.43 193.60
-9767364.61 5139634.79 185.03
-9767158.28 5139636.29 201.81
-9767369.69 5139528.66 190.49
-9767048.66 5139528.92 187.12
-9766521.96 5139529.47 192.50
-9767468.47 5139423.06 187.12
-9766838.85 5140469.17 187.16
-9766732.41 5140478.22 190.94
-9766626.78 5140478.20 187.97
-9767362.87 5140364.19 194.21
-9767262.07 5140364.30 195.33
-9767048.42 5140372.97 187.64
-9766944.69 5140369.46 192.87
-9766731.67 5140375.24 190.20
-9766626.13 5140372.85 189.68
-9766521.48 5140371.68 187.50
-9767156.81 5140266.48 199.97
-9767048.12 5140266.67 188.11
-9766942.81 5140267.57 192.71
-9766838.56 5140261.52 192.42
-9766628.48 5140263.86 197.89
-9766528.21 5140273.89 195.52
-9766418.41 5138059.71 189.51
-9766312.24 5138168.49 194.55
-9766308.80 5138052.74 189.22
-9766099.15 5138157.38 189.90
-9766098.16 5138055.42 194.55
-9765992.74 5138157.58 188.44
-9765989.10 5138049.58 197.48
-9765887.68 5138151.34 192.19
-9765780.31 5138052.04 191.59
-9765678.67 5138052.87 195.15
-9766206.27 5139111.10 191.17
-9765889.17 5139109.58 187.94
-9766195.98 5137841.48 195.41
-9765890.47 5137842.33 192.96
-9765784.42 5137841.09 193.48
-9765678.62 5138903.14 195.30
-9766416.91 5137732.73 194.43
-9766098.14 5138789.11 191.72
-9765884.14 5137739.97 192.33
-9765786.52 5138798.71 195.72
-9765679.91 5137738.82 189.07
-9766095.90 5138682.90 191.60
-9765996.33 5138677.78 193.29
-9766413.14 5137633.06 192.64
-9765677.63 5137630.54 190.45
-9766204.54 5138580.48 199.16
-9766096.52 5138579.53 192.89
-9766416.03 5137524.12 196.41
-9765782.06 5138471.50 191.33
-9766302.40 5137422.03 189.80
-9766416.40 5138266.11 192.06
-9766205.60 5138268.08 191.01
-9765790.95 5138269.89 190.37
-9765458.94 5138261.83 193.06
-9765994.77 5137325.95 193.10
-9765782.65 5140160.33 195.89
-9766303.53 5140052.75 192.99
-9765891.38 5140052.23 195.12
-9765677.90 5140059.56 195.72
-9765572.32 5140056.45 199.85
-9765465.65 5140057.09 198.64
-9766309.62 5139953.59 194.70
-9766204.93 5139950.17 192.44
-9765994.10 5139950.65 198.32
-9765887.75 5139953.75 192.34
-9765781.93 5139951.36 198.75
-9765570.95 5139951.14 196.36
-9765993.41 5139856.42 192.80
-9766214.29 5139730.30 192.26
-9765564.32 5139738.48 194.36
-9766203.54 5139640.23 199.83
-9766096.65 5139639.35 200.12
-9765676.11 5139644.54 193.18
-9766309.16 5139529.16 199.51
-9765773.29 5139427.16 190.09
-9765995.61 5140481.39 190.62
-9765887.89 5140478.16 183.91
-9765789.51 5140486.31 192.22
-9765677.29 5140474.18 195.05
-9766203.13 5140477.72 193.64
-9766303.56 5139321.15 193.19
-9765677.48 5139320.26 199.07
-9765466.22 5139320.17 195.81
-9765466.31 5140372.78 183.36
-9766413.79 5140374.49 187.31
-9766311.44 5140374.46 200.79
-9766204.93 5140373.11 199.60
-9766102.14 5140367.53 195.31
-9765776.64 5140368.30 190.38
-9765464.27 5139211.47 192.38
-9766415.25 5139218.07 195.92
-9766204.57 5140267.05 199.10
-9765995.46 5140266.14 195.41
-9765888.37 5140267.18 193.48
-9765466.90 5140268.89 198.68
-9765361.34 5138053.35 191.62
-9765362.55 5138157.01 192.12
-9764836.37 5138047.22 199.06
-9764830.89 5138157.88 189.39
-9764519.64 5138164.24 195.00
-9764832.36 5137940.96 198.21
-9765151.06 5137945.17 193.11
-9765248.26 5137843.93 188.78
-9764513.97 5137841.95 187.78
-9765249.62 5137738.06 192.22
-9765254.27 5137636.32 188.60
-9764519.06 5138999.43 196.97
-9764732.46 5138897.68 192.43
-9765265.59 5138789.02 188.61
-9764833.31 5138791.00 192.75
-9765256.36 5138684.82 182.22
-9765044.59 5138682.42 192.77
-9764621.07 5138689.46 192.67
-9764521.50 5138473.78 192.76
-9765354.01 5140164.03 196.19
-9765142.74 5140160.60 193.74
-9765044.81 5140166.40 194.49
-9764945.88 5140167.60 191.36
-9765253.84 5138364.50 190.37
-9765254.94 5140061.04 191.83
-9765146.41 5140058.62 191.40
-9765049.42 5140056.58 193.74
-9764941.29 5140057.05 198.96
-9765149.95 5138261.05 193.10
-9764829.13 5138261.01 188.21
-9765049.36 5139950.43 190.72
-9765367.20 5139848.39 194.12
-9765362.76 5139741.57 194.55
-9764940.68 5139742.34 194.34
-9765361.28 5139634.96 200.01
-9764936.41 5139635.08 188.30
-9764519.94 5139636.86 195.58
-9765361.93 5140373.87 191.22
-9764829.98 5139528.07 195.05
-9765248.96 5140373.51 194.77
-9765148.78 5140370.85 197.57
-9765042.44 5140368.72 195.06
-9765249.83 5140270.76 198.30
-9765153.39 5140267.63 198.99
-9765042.79 5140267.31 197.86
-9765151.34 5139424.56 193.88
-9765045.32 5139318.25 194.36
-9764935.66 5139318.94 195.59
-9764832.18 5139319.14 195.38
-9764729.19 5139318.35 199.23
-9765048.99 5139212.81 196.19
-9764412.44 5138158.58 188.71
-9764305.04 5138052.95 191.53
-9764098.35 5138894.03 190.22
-9764412.40 5138684.60 188.15
-9764207.33 5138682.72 186.80
-9764412.82 5138584.06 192.01
-9764198.97 5138581.86 198.33
-9764412.94 5138470.06 191.44
-9764302.20 5138475.77 192.88
-9764417.16 5139955.75 191.45
-9764426.86 5139846.70 193.82
-9764319.22 5139838.12 192.43
-9764416.48 5139732.34 188.06
-9764423.94 5139631.77 192.71
-9764202.30 5139634.94 191.44
-9764412.46 5139529.60 194.29
-9764202.89 5139529.93 188.44
-9764205.55 5139419.61 196.31
-9764307.37 5139318.59 181.53
-9764210.43 5139316.88 190.19
-9766943.37 5138160.49 187.54
-9766733.02 5138052.89 189.26
-9766511.15 5138045.09 197.32
-9766732.10 5137947.65 184.26
-9766521.65 5137944.63 196.88
-9766524.48 5137836.45 192.60
-9766522.65 5137742.03 191.00
-9766731.91 5139107.53 190.65
-9767045.96 5139000.90 196.76
-9766521.90 5139002.28 190.92
-9766629.81 5140053.26 198.37
-9766628.25 5138793.48 189.20
-9767048.33 5138686.33 196.48
-9766521.28 5138685.77 188.59
-9766729.67 5139947.16 201.54
-9766626.30 5139949.22 196.40
-9767048.24 5138580.52 198.28
-9766633.95 5139849.59 193.44
-9766521.06 5139842.80 190.42
-9767048.43 5138475.08 198.24
-9766831.53 5139843.92 194.35
-9766837.28 5138474.83 189.47
-9766732.15 5138474.62 183.37
-9766785.32 5138459.21 261.07
-9766945.55 5138361.23 192.20
-9766626.66 5138369.35 199.88
-9766841.23 5139737.97 194.23
-9766627.68 5139740.64 193.48
-9766831.02 5138267.10 185.04
-9766839.47 5139632.45 195.29
-9766839.56 5139525.70 192.20
-9766942.76 5139422.36 185.72
-9765575.11 5138053.50 191.24
-9765572.56 5138152.91 193.60
-9765475.18 5138059.65 191.57
-9765470.45 5138162.47 188.10
-9765780.79 5137950.56 192.97
-9765686.82 5137952.36 193.75
-9766416.01 5137947.25 193.39
-9766206.16 5137946.61 198.50
-9766094.36 5137944.88 194.12
-9766308.47 5139003.01 192.50
-9765888.97 5139008.23 191.24
-9766414.99 5137835.14 191.51
-9766310.49 5137841.99 204.02
-9766109.66 5137840.32 191.91
-9765678.76 5137842.59 191.71
-9765575.22 5137841.62 190.16
-9766411.98 5138887.92 192.67
-9766307.86 5138886.21 193.05
-9766312.62 5137742.20 191.82
-9766415.14 5138793.17 193.29
-9766099.41 5137736.85 199.85
-9766312.54 5138795.71 196.05
-9765994.02 5138790.94 192.32
-9765889.42 5138791.64 199.08
-9765569.56 5137738.11 197.51
-9765468.53 5137737.29 187.09
-9766208.88 5138690.72 192.07
-9765679.24 5138581.78 187.15
-9765888.29 5138474.84 195.08
-9765575.09 5138477.51 193.60
-9765887.17 5137413.47 189.56
-9765786.71 5137419.67 194.75
-9765572.84 5137418.72 194.82
-9765582.77 5138374.50 187.79
-9765471.77 5138368.12 192.46
-9766199.95 5138367.87 191.71
-9765889.13 5138368.92 190.74
-9765677.37 5138264.45 194.35
-9765571.92 5138266.79 186.48
-9765464.56 5137316.12 191.08
-9766418.45 5140159.94 195.07
-9766310.70 5140162.25 197.33
-9766205.25 5140162.61 198.93
-9765994.46 5140161.84 192.41
-9765888.34 5140161.52 196.01
-9765678.44 5140157.86 194.23
-9765572.70 5140161.75 195.08
-9765466.56 5140161.32 198.45
-9766415.99 5140053.14 196.02
-9765994.18 5140056.65 199.68
-9765783.29 5140054.36 195.37
-9766099.35 5139951.11 199.57
-9765680.15 5139950.93 195.88
-9765466.37 5139954.72 191.36
-9765677.98 5139844.20 183.98
-9765478.86 5139843.75 191.30
-9766418.43 5139740.11 196.33
-9766303.43 5139736.77 186.87
-9765991.43 5139731.97 196.22
-9765785.27 5139741.59 194.08
-9765675.30 5139742.55 194.66
-9765467.57 5139736.29 190.99
-9766310.46 5139636.38 192.63
-9765998.91 5139632.88 190.25
-9765672.16 5139531.61 188.90
-9765474.90 5139530.13 192.74
-9766410.59 5139526.94 191.57
-9765888.64 5139529.87 184.08
-9766417.16 5139434.90 196.92
-9766202.90 5139326.26 196.15
-9765993.91 5139318.75 198.34
-9765895.78 5139319.83 198.03
-9765783.78 5139320.70 194.55
-9765782.82 5139212.79 191.16
-9765677.60 5139213.24 189.75
-9765773.80 5140266.73 191.72
-9765571.41 5140267.70 198.93
-9764941.78 5138153.61 196.86
-9764732.97 5138053.51 189.10
-9764623.19 5138158.31 190.69
-9765362.09 5137946.46 196.63
-9765250.66 5137936.50 190.51
-9765360.55 5137845.50 193.41
-9765043.95 5137842.80 200.31
-9764839.92 5137839.42 192.77
-9764516.29 5137736.35 189.70
-9765040.20 5137734.22 192.70
-9764728.49 5137737.02 190.81
-9764619.53 5137628.93 193.02
-9765351.20 5137522.77 194.59
-9764518.35 5137523.71 190.79
-9765256.48 5137420.15 185.36
-9765150.08 5137419.06 194.88
-9765255.58 5139107.74 189.26
-9764845.76 5139007.71 191.12
-9764728.65 5139001.98 186.18
-9765254.04 5139000.52 195.54
-9765147.19 5139001.64 191.90
-9765363.01 5138896.30 194.07
-9765047.21 5138889.27 191.53
-9764837.84 5138899.21 193.02
-9765149.97 5138688.10 196.29
-9764940.80 5138682.51 198.82
-9764832.71 5138681.89 191.17
-9765158.90 5138474.13 187.47
-9764728.68 5140157.72 187.72
-9764630.40 5140158.70 189.69
-9764517.05 5140159.82 193.19
-9765040.41 5138373.47 191.47
-9765358.23 5140057.78 199.67
-9764728.40 5140056.33 190.12
-9764631.43 5140046.95 198.06
-9764518.12 5140054.72 190.64
-9765259.68 5138263.82 191.15
-9764730.43 5138262.53 193.94
-9765359.88 5139950.91 196.87
-9765150.96 5139951.22 182.91
-9764732.56 5139949.49 192.20
-9764613.97 5139956.44 193.61
-9764614.74 5139845.99 191.97
-9764520.42 5139848.29 189.64
-9765045.17 5139843.56 194.14
-9765150.72 5139740.30 199.79
-9764833.12 5139634.55 196.73
-9764622.90 5139633.16 190.06
-9765356.98 5140476.68 188.10
-9765255.86 5140475.44 195.95
-9764931.35 5140470.48 191.84
-9764834.02 5140478.18 196.22
-9764728.72 5140477.85 195.31
-9764519.98 5140478.19 200.13
-9764410.35 5140481.21 194.52
-9764723.03 5139527.29 189.95
-9764632.90 5139524.60 191.46
-9764840.99 5140367.56 191.61
-9765361.95 5139528.63 195.73
-9764728.22 5140374.35 189.27
-9764408.61 5140368.07 194.80
-9765366.40 5140264.12 195.36
-9764938.32 5140266.08 193.93
-9764728.89 5140267.50 198.67
-9764513.91 5140276.02 192.16
-9764411.85 5140267.72 194.90
-9764729.85 5139423.54 195.96
-9764405.41 5140166.62 192.94
-9764940.33 5139214.86 198.00
-9764829.54 5139209.80 193.34
-9765146.33 5139214.54 193.75
-9763885.64 5138057.06 190.22
-9763567.49 5138054.85 197.21
-9763461.51 5137946.53 189.18
-9764412.55 5137948.08 180.66
-9764201.39 5137942.21 194.04
-9763894.37 5137947.98 190.40
-9764098.74 5137841.09 197.04
-9763988.27 5137841.06 194.62
-9763892.29 5137840.44 191.66
-9763781.46 5137842.73 188.29
-9764296.15 5137741.78 190.57
-9763994.93 5138899.78 192.21
-9763674.55 5138896.53 184.00
-9763462.66 5138893.04 190.89
-9764198.61 5137521.27 195.53
-9763464.27 5138680.52 195.03
-9764308.78 5137418.86 192.45
-9764102.80 5137421.46 195.14
-9763887.17 5137418.20 195.03
-9763990.43 5138581.31 193.52
-9763463.63 5138580.06 189.32
-9763468.03 5138475.61 195.25
-9764097.03 5138365.33 192.13
-9763877.33 5138367.23 186.03
-9763768.71 5138368.01 190.93
-9763462.98 5138372.90 192.13
-9764201.50 5140155.96 195.71
-9763997.99 5140151.47 192.09
-9763892.49 5140172.49 193.43
-9763567.56 5140162.23 196.01
-9764306.69 5140056.98 190.06
-9764096.66 5140054.99 191.66
-9763781.66 5140061.43 195.60
-9764096.34 5138266.89 195.08
-9763672.77 5140056.97 192.99
-9763466.86 5140049.40 193.41
-9763563.70 5138268.23 191.31
-9763887.74 5139949.42 190.78
-9763779.51 5139952.46 190.48
-9763669.79 5139954.88 189.89
-9763576.90 5139952.83 192.68
-9763575.51 5138160.95 190.09
-9763779.72 5139846.23 181.26
-9764209.73 5139845.98 188.70
-9764100.80 5139837.69 188.15
-9763994.20 5139845.16 189.28
-9763885.25 5139743.14 192.12
-9763788.84 5139734.38 191.71
-9763677.16 5139738.40 198.64
-9764096.48 5139637.38 189.67
-9763779.81 5139634.75 199.60
-9763673.94 5139629.33 197.39
-9763577.57 5139631.91 183.67
-9763670.16 5139526.29 190.53
-9764098.32 5139426.84 190.81
-9763571.34 5139418.35 195.23
-9764307.17 5140478.08 199.89
-9764100.43 5140480.00 188.60
-9763782.79 5140479.45 198.80
-9763674.82 5140480.30 193.70
-9763566.77 5140478.89 190.38
-9763991.59 5139316.50 192.35
-9763787.81 5139317.19 191.17
-9763781.89 5139209.11 193.17
-9764314.14 5140378.29 187.49
-9764097.46 5140374.99 191.42
-9763886.29 5140381.71 192.70
-9763778.31 5140372.92 194.96
-9763568.83 5140372.79 189.25
-9764197.23 5140266.05 193.27
-9764095.24 5140269.96 198.22
-9763990.96 5140261.92 193.77
-9763885.92 5140262.92 190.95
-9763779.72 5140266.17 193.16
-9763568.56 5140271.80 192.95
-9763037.33 5138056.65 190.83
-9762724.37 5138053.57 189.28
-9762624.37 5138048.90 189.94
-9762726.22 5137947.19 197.17
-9762626.95 5137953.74 186.50
-9762410.35 5137937.10 192.15
-9762512.32 5137842.17 191.17
-9762406.26 5137838.19 188.52
-9763032.09 5139110.66 192.58
-9763041.61 5137840.56 193.52
-9762828.23 5139106.42 196.54
-9762725.75 5137848.18 191.99
-9762836.36 5138992.70 195.19
-9762719.41 5137743.55 189.08
-9762616.32 5137745.02 188.84
-9762518.42 5137743.41 189.25
-9762406.89 5137744.75 189.53
-9763347.00 5137630.77 192.26
-9763252.90 5137634.71 186.18
-9762827.78 5137623.31 186.53
-9762724.38 5138791.38 189.74
-9763356.87 5139848.60 184.82
-9763142.03 5139847.22 189.63
-9763040.25 5138686.82 197.45
-9763029.14 5139847.71 191.56
-9763252.87 5139740.00 180.96
-9763148.65 5138579.37 187.47
-9762410.78 5138583.15 193.67
-9762725.19 5139634.86 180.58
-9763038.40 5138473.80 199.66
-9762514.94 5138475.68 192.23
-9762832.32 5139528.78 195.86
-9762514.83 5139529.23 180.75
-9763037.14 5138369.79 195.01
-9762929.89 5138370.51 185.82
-9762514.59 5138369.64 197.51
-9762726.39 5139423.94 199.74
-9763358.78 5138263.95 190.98
-9763138.54 5138269.03 195.45
-9763041.05 5138277.07 187.03
-9762932.27 5138263.16 195.33
-9763356.84 5138158.52 190.72
-9763149.07 5138158.51 193.17
-9762832.11 5138155.28 190.28
-9762723.85 5138158.01 196.43
-9763147.73 5139220.16 193.05
-9763354.15 5140479.94 192.06
-9763036.25 5140483.52 190.66
-9762930.29 5140478.56 190.96
-9763259.55 5140372.03 195.58
-9762952.42 5140371.52 190.41
-9762511.25 5140376.90 179.07
-9762208.52 5138053.20 196.93
-9761885.79 5138049.20 192.53
-9761984.12 5139006.59 194.67
-9761885.49 5138996.01 194.23
-9762198.06 5139002.39 198.78
-9762197.69 5137733.74 192.01
-9762304.45 5138889.25 191.08
-9761881.80 5138892.46 188.33
-9762093.91 5139950.93 195.88
-9761679.72 5138684.91 197.67
-9762305.67 5139742.17 195.12
-9762302.26 5138475.98 186.28
-9762198.56 5139528.98 195.26
-9761776.43 5139529.33 198.22
-9762302.25 5138370.02 192.98
-9762096.03 5138377.71 189.70
-9761993.16 5138375.05 190.22
-9761668.00 5139419.85 191.89
-9762188.37 5138262.89 189.18
-9762092.26 5138263.91 197.81
-9762092.77 5139322.55 190.70
-9761988.59 5139315.10 185.15
-9761996.79 5139212.66 195.42
-9761891.14 5139215.46 191.67
-9761882.34 5138165.24 189.11
-9764621.37 5138902.99 191.70
-9764516.95 5138364.30 187.14
-9764623.69 5139317.50 193.54
-9764629.14 5139218.80 189.63
-9764513.65 5139211.77 194.19
-9764412.94 5138049.91 191.59
-9764104.09 5138159.10 195.01
-9763989.51 5138160.34 192.60
-9763888.38 5138159.20 184.60
-9763779.14 5138054.36 185.57
-9764302.27 5137948.51 192.61
-9763566.75 5139112.55 195.04
-9763465.31 5137843.23 189.83
-9764412.18 5139001.97 190.62
-9764201.95 5138999.73 191.20
-9764100.17 5139004.59 197.34
-9763990.23 5138999.78 189.85
-9763884.03 5138997.99 190.02
-9764100.48 5137731.20 190.51
-9763995.46 5137734.47 188.41
-9763782.56 5137735.42 188.96
-9763463.22 5137735.85 185.20
-9763778.41 5138898.77 190.71
-9763993.29 5137629.66 182.43
-9763456.41 5137627.68 191.77
-9764414.63 5138804.93 195.29
-9764211.31 5138797.68 192.24
-9763784.07 5138786.59 190.50
-9763678.42 5138681.31 193.65
-9764306.63 5138681.15 194.38
-9764100.96 5138689.31 193.98
-9764095.07 5138578.32 191.16
-9763564.73 5138584.92 193.76
-9764312.95 5138581.21 191.44
-9764098.38 5138472.06 194.14
-9763782.68 5138468.69 190.76
-9763674.51 5138475.07 201.33
-9764309.03 5138369.68 191.23
-9763573.36 5138364.90 204.89
-9764105.87 5140163.65 188.57
-9763782.91 5140155.57 192.34
-9763465.48 5140156.93 191.74
-9764307.88 5138264.08 191.43
-9763567.71 5140056.83 192.59
-9764201.52 5139953.69 194.64
-9763877.34 5139835.72 190.42
-9764306.91 5139736.11 190.32
-9764204.57 5139733.37 191.71
-9764097.13 5139739.29 189.66
-9763983.43 5139748.68 190.78
-9763983.74 5139637.18 190.53
-9763569.84 5139532.35 189.40
-9763467.58 5139533.04 193.14
-9764306.95 5139529.15 190.02
-9764095.06 5139525.98 191.71
-9763995.31 5139531.47 192.94
-9763877.76 5139534.67 192.60
-9764308.80 5139426.78 192.02
-9763461.31 5139425.92 196.26
-9763881.52 5139319.92 197.51
-9764095.95 5139212.92 200.06
-9763885.60 5139213.15 191.66
-9763668.87 5139219.52 193.19
-9763465.66 5140258.32 187.38
-9763252.61 5138057.35 190.70
-9763154.05 5138055.95 191.59
-9762947.97 5138052.91 187.74
-9762832.13 5138057.07 188.16
-9763252.72 5137947.36 187.43
-9763149.53 5137946.27 193.01
-9763044.09 5137953.51 194.36
-9762836.16 5137948.65 185.21
-9762934.90 5139099.39 199.08
-9763149.07 5137843.57 192.63
-9762940.80 5137841.31 190.25
-9762832.97 5137838.72 192.43
-9762620.27 5137844.77 193.23
-9763358.55 5140155.32 193.76
-9763153.40 5140161.72 192.05
-9762618.49 5140168.45 181.57
-9763357.60 5139001.07 188.96
-9762514.84 5139002.61 197.76
-9763248.77 5140057.41 190.97
-9762943.61 5137743.41 189.04
-9762832.10 5140051.05 184.82
-9762727.54 5140057.41 196.07
-9763354.44 5139951.43 194.94
-9763145.64 5139944.85 190.64
-9762723.53 5139954.91 192.34
-9762616.31 5137521.98 197.41
-9762936.44 5138790.24 199.97
-9762831.26 5138793.80 194.31
-9763147.03 5138790.15 190.68
-9762834.16 5137415.87 189.56
-9762731.52 5137422.59 190.71
-9762615.04 5137421.68 197.21
-9762514.76 5137426.31 191.56
-9762409.29 5137420.43 197.54
-9763354.88 5137420.00 189.26
-9763145.86 5137416.20 195.23
-9763357.52 5138692.57 191.72
-9762941.35 5138678.64 195.87
-9762938.59 5139845.08 193.33
-9762936.63 5137315.40 183.25
-9762831.48 5137317.24 190.01
-9763047.17 5139744.54 195.83
-9762937.60 5139739.00 180.90
-9762620.24 5139740.75 180.13
-9763365.40 5138580.59 190.07
-9763041.84 5138584.74 190.45
-9762725.49 5138581.53 194.36
-9762937.26 5139635.03 180.71
-9762820.19 5139635.45 188.66
-9762620.77 5139635.26 180.02
-9763147.61 5139634.82 189.33
-9763252.39 5138475.40 188.88
-9762402.29 5139534.18 191.55
-9763041.47 5139520.53 189.60
-9763362.50 5138369.64 190.44
-9762725.35 5138369.07 194.58
-9763151.47 5139421.66 191.95
-9763049.29 5139424.50 197.86
-9762622.80 5138266.49 189.24
-9762518.63 5138262.39 196.86
-9762516.96 5139315.34 199.85
-9763252.76 5138155.60 191.20
-9763037.59 5138154.38 200.74
-9762927.12 5138166.47 190.73
-9762413.14 5138155.82 193.20
-9763033.00 5139207.82 192.45
-9762730.80 5140478.74 184.23
-9762622.31 5140472.75 192.11
-9762410.46 5140265.17 187.51
-9762931.03 5140269.48 184.55
-9762831.01 5140267.35 179.66
-9762725.92 5140271.10 178.89
-9762303.25 5138051.97 190.79
-9761569.12 5138042.78 184.84
-9761460.14 5138053.18 180.66
-9762091.32 5137950.65 195.51
-9761990.40 5137952.15 190.07
-9761453.03 5137835.85 184.60
-9761985.70 5137838.64 187.72
-9762304.82 5139002.48 189.25
-9762095.36 5137728.07 190.94
-9761778.19 5137729.46 196.17
-9761567.30 5137733.28 197.57
-9762092.90 5140161.92 204.80
-9761987.55 5140161.93 200.18
-9761776.51 5140161.52 180.50
-9761354.77 5140162.08 184.33
-9761358.52 5140058.22 184.40
-9761987.70 5137631.34 194.39
-9761459.12 5137634.53 192.77
-9762201.96 5139842.41 193.47
-9761776.13 5139846.00 180.50
-9761882.64 5137528.41 182.49
-9761782.39 5137528.06 185.05
-9761775.21 5139723.23 195.12
-9762201.24 5139739.69 194.09
-9761562.57 5138581.62 189.02
-9762200.20 5137412.92 188.49
-9761985.74 5137419.95 182.31
-9761780.05 5137419.84 181.29
-9761674.04 5137424.55 181.73
-9761461.38 5137420.90 196.20
-9761354.88 5139636.29 191.92
-9761568.75 5139423.41 195.15
-9761669.09 5138265.80 191.46
-9761568.74 5138277.88 189.07
-9761464.34 5139317.54 191.11
-9762303.72 5139211.06 189.79
-9762295.10 5138157.92 192.68
-9762203.03 5138157.24 197.96
-9761666.21 5138161.61 190.11
-9761565.10 5138156.35 181.80
-9762097.07 5140477.59 193.13
-9761987.34 5140484.94 196.72
-9761668.47 5140474.16 192.15
-9761459.87 5140478.43 184.80
-9762298.50 5140364.36 194.58
-9762087.29 5140377.17 195.96
-9761770.16 5140378.33 189.26
-9761565.78 5140373.33 194.01
-9762303.23 5140259.70 191.15
-9761779.71 5140261.73 189.67
-9761565.69 5140267.38 192.65
-9761252.63 5138049.07 192.24
-9760824.07 5138051.49 190.69
-9760501.73 5138056.31 190.01
-9760406.24 5138053.21 188.08
-9761144.06 5137949.39 196.98
-9760717.17 5137939.77 191.48
-9760396.34 5137942.89 189.56
-9761142.74 5137836.76 191.11
-9760713.92 5137844.91 187.45
-9760614.23 5137847.97 194.41
-9760405.90 5137842.30 188.88
-9761255.07 5137840.32 196.19
-9761346.24 5139107.51 189.97
-9761346.23 5137735.54 200.21
-9760824.28 5139103.31 189.07
-9761149.56 5137730.02 196.07
-9760933.38 5137735.22 182.83
-9760832.39 5137736.35 190.80
-9761249.59 5140161.95 200.38
-9761135.53 5140157.60 189.60
-9760510.80 5137630.92 191.33
-9761038.28 5140161.89 185.12
-9760933.81 5140051.05 185.81
-9760616.45 5140056.35 184.14
-9760511.44 5140056.95 184.95
-9761145.43 5138891.06 187.99
-9761250.50 5139751.87 189.94
-9760615.21 5139741.17 191.14
-9760511.69 5139737.39 188.37
-9760824.74 5139631.56 188.60
-9761345.08 5138474.35 199.32
-9761139.92 5138474.48 191.79
-9761039.47 5138471.69 189.82
-9760824.66 5138367.98 191.64
-9761039.34 5139322.09 190.74
-9760615.87 5139321.49 195.12
-9761038.43 5139200.74 192.44
-9760934.25 5139217.63 186.31
-9760400.28 5138274.97 189.79
-9761246.71 5138263.31 188.85
-9760512.54 5139208.51 186.82
-9760824.37 5138263.64 191.88
-9760511.49 5138159.54 188.29
-9761039.19 5138166.09 190.65
-9760932.93 5138150.21 188.11
-9761250.97 5140484.83 190.38
-9760933.35 5140478.16 189.58
-9760723.20 5140479.13 191.01
-9760512.82 5140472.29 191.05
-9761249.35 5140368.68 200.82
-9761131.52 5140371.53 190.29
-9760933.98 5140369.11 183.51
-9760827.42 5140372.95 184.29
-9761249.46 5140266.87 181.53
-9760298.58 5138053.88 191.44
-9759667.68 5138050.96 190.72
-9759984.06 5137956.08 191.70
-9759772.81 5137947.90 189.81
-9759987.32 5137847.11 190.84
-9759877.36 5137738.13 182.11
-9759553.60 5137744.77 188.12
-9760301.84 5137740.27 189.67
-9760191.13 5137735.81 182.98
-9760088.54 5137631.38 185.60
-9759887.26 5137621.11 190.38
-9759879.11 5137526.56 180.30
-9760088.11 5138994.23 188.99
-9759979.98 5140052.61 185.94
-9759878.50 5140056.57 184.56
-9760091.93 5139958.51 188.45
-9759984.07 5139951.08 184.37
-9759873.46 5138896.42 191.65
-9759880.54 5138797.08 192.37
-9759878.79 5138690.98 187.21
-9759352.09 5139741.00 192.68
-9759867.55 5139638.14 198.15
-9759352.58 5139625.03 191.55
-9760309.74 5138578.68 193.37
-9759997.56 5138576.82 193.28
-9759667.30 5138579.21 191.80
-9759457.13 5138580.16 199.61
-9759877.78 5138474.45 188.62
-9759664.01 5138483.11 186.62
-9760089.82 5138464.09 190.09
-9759984.85 5138474.99 185.05
-9759884.67 5139429.62 190.45
-9759774.08 5139427.58 187.46
-9760198.89 5138371.76 189.16
-9759878.72 5138367.69 191.16
-9759456.14 5138261.08 188.27
-9759562.43 5138263.96 183.73
-9759246.71 5138894.48 195.01
-9759140.23 5138474.86 179.81
-9759250.23 5139428.29 193.38
-9761465.26 5139101.31 189.53
-9761455.97 5139002.08 188.25
-9761669.23 5140056.66 194.12
-9761563.98 5140056.32 198.67
-9761882.96 5138792.61 190.18
-9761775.35 5138790.76 187.50
-9761566.22 5139847.31 193.68
-9762092.54 5138583.05 192.43
-9761888.50 5138579.98 191.14
-9761672.94 5138578.78 196.21
-9761460.88 5139632.29 195.50
-9761778.81 5138470.77 188.39
-9761659.76 5139526.32 188.60
-9761889.27 5138367.79 195.74
-9761668.74 5138377.71 189.61
-9761566.06 5138370.61 182.27
-9761882.23 5138265.15 191.48
-9761565.03 5139317.19 194.38
-9761565.47 5139208.65 198.13
-9761044.63 5138052.59 190.77
-9760721.98 5138053.15 181.10
-9761045.22 5137948.10 190.03
-9760831.17 5137945.86 196.14
-9760506.10 5137938.07 189.02
-9760935.68 5137832.47 186.43
-9760510.59 5137843.49 190.23
-9761249.02 5137737.79 193.62
-9761041.05 5137744.45 187.83
-9760722.56 5137737.70 187.81
-9760616.87 5137733.11 190.14
-9760930.91 5139006.32 192.30
-9760827.58 5137630.27 191.74
-9760831.36 5140169.12 210.87
-9761351.46 5138897.41 185.27
-9761153.02 5139951.11 192.20
-9761038.48 5139951.17 180.84
-9761366.14 5137527.27 199.74
-9761246.20 5137530.70 193.07
-9760827.67 5137523.63 184.54
-9760406.50 5139845.58 187.82
-9760508.82 5137525.18 191.30
-9760409.75 5137528.20 192.59
-9761148.51 5139749.69 189.34
-9761147.16 5138684.32 191.94
-9760933.81 5139635.99 189.92
-9760406.76 5139635.03 193.55
-9760837.35 5137314.22 188.39
-9760723.92 5137318.20 184.75
-9760616.92 5137315.29 184.46
-9760403.30 5138587.82 188.72
-9761248.38 5139532.35 196.63
-9761360.11 5138578.08 197.95
-9760413.55 5138468.12 194.77
-9760718.07 5139424.29 191.39
-9761255.00 5138375.22 189.31
-9761043.04 5138368.84 191.44
-9760933.05 5138372.10 191.27
-9761144.84 5139318.24 189.80
-9760720.79 5139316.30 193.81
-9760719.29 5139212.01 189.93
-9761252.40 5138161.10 195.51
-9760089.72 5137948.37 183.49
-9759667.22 5137947.68 189.53
-9760086.81 5137840.53 190.10
-9759667.28 5137840.35 190.70
-9759562.57 5137842.45 191.80
-9759353.53 5137841.22 190.79
-9760300.31 5137842.34 189.31
-9760194.98 5137842.81 179.61
-9760084.48 5137732.06 191.01
-9759668.79 5137733.20 190.87
-9759988.91 5137531.85 188.67
-9759458.98 5137526.53 190.15
-9760312.26 5137528.13 185.70
-9759560.17 5137414.61 180.70
-9760310.46 5139005.46 196.01
-9760090.01 5140162.06 188.41
-9759563.39 5140044.39 190.72
-9759351.65 5140164.12 188.09
-9760192.09 5139846.82 192.63
-9760198.62 5138688.65 189.68
-9760327.06 5138673.60 252.73
-9760190.22 5139526.29 188.24
-9760196.90 5138471.03 192.30
-9760085.14 5138361.13 191.36
-9759773.67 5138369.20 186.80
-9759981.43 5140480.34 188.67
-9760301.31 5138263.16 189.84
-9759781.60 5138265.96 186.48
-9759875.65 5140379.47 191.01
-9759986.35 5138157.55 182.93
-9760089.41 5140265.73 187.95
-9759670.69 5140261.69 190.69
-9759351.07 5140267.25 180.42
-9759141.13 5138053.80 189.69
-9758719.18 5138053.54 190.26
-9758502.85 5138055.71 187.70
-9759244.26 5137955.81 188.34
-9758725.00 5137832.25 187.66
-9759035.22 5137841.95 185.44
-9758933.83 5137838.01 193.50
-9758824.15 5137841.46 189.55
-9758927.79 5137630.46 211.62
-9758403.59 5137635.98 190.07
-9759247.22 5137630.27 182.75
-9759134.99 5137632.26 190.74
-9759246.33 5137525.80 180.69
-9758932.76 5137520.49 188.72
-9758921.35 5139105.64 189.32
-9758396.75 5139109.79 191.29
-9759035.65 5140152.71 190.67
-9758718.84 5140057.12 190.47
-9758613.43 5140056.56 190.43
-9758507.91 5140056.51 190.51
-9758402.91 5140058.33 190.43
-9758300.25 5140061.93 190.52
-9759035.96 5139002.41 194.10
-9758719.47 5139949.37 194.69
-9759140.91 5139850.92 202.15
-9758613.29 5138791.34 191.06
-9759031.44 5138679.91 189.32
-9758818.05 5138683.42 180.73
-9758923.19 5138580.71 189.12
-9758823.44 5138580.18 187.92
-9758828.23 5139737.64 193.16
-9759035.86 5138473.61 197.75
-9758506.51 5138478.69 188.48
-9758934.76 5138378.82 190.26
-9758620.48 5138378.68 188.99
-9759140.85 5139529.30 188.46
-9758925.41 5139531.17 187.08
-9758612.69 5138264.22 188.94
-9758400.87 5138264.01 185.64
-9758283.87 5140485.49 189.18
-9758927.61 5140477.07 193.17
-9758822.02 5140478.77 194.65
-9758721.14 5138164.50 180.61
-9758610.58 5138157.95 186.40
-9759256.31 5140261.09 191.60
-9758295.98 5140277.23 191.28
-9758171.19 5138033.64 177.07
-9757977.79 5138054.11 181.50
-9757873.72 5137947.59 190.94
-9757770.51 5137842.14 185.36
-9757347.65 5139101.46 181.98
-9758091.90 5138892.50 182.93
-9757964.45 5138794.25 198.58
-9757776.00 5138791.73 185.94
-9757559.05 5138474.94 200.63
-9757965.43 5138362.39 204.13
-9757770.62 5138369.62 192.01
-9757664.70 5138369.43 201.79
-9758081.75 5138259.28 204.39
-9757996.74 5138276.40 182.11
-9758296.89 5138158.60 182.09
-9758190.17 5140153.82 190.56
-9758086.53 5140155.77 190.52
-9757980.77 5140056.05 184.61
-9757769.88 5140162.53 190.32
-9757663.13 5140158.89 190.27
-9757875.64 5139740.79 191.56
-9757763.24 5139637.36 191.00
-9757564.23 5139635.42 191.61
-9758192.35 5139526.48 191.02
-9757774.19 5139424.92 188.46
-9758191.94 5140478.30 188.08
-9757980.33 5140479.47 196.63
-9758085.62 5139212.97 195.57
-9757869.55 5140370.46 192.99
-9757866.75 5140270.31 186.11
-9757242.62 5138053.69 183.59
-9757137.93 5137842.59 188.93
-9757029.15 5139004.52 189.70
-9757137.94 5138790.79 179.11
-9756926.65 5138580.09 181.91
-9757246.16 5138474.96 189.11
-9757235.21 5139746.21 190.03
-9756925.32 5139527.72 192.80
-9757247.91 5139425.58 187.91
-9757044.45 5139427.68 188.50
-9759455.47 5137944.96 187.15
-9759351.93 5137948.43 183.26
-9759560.94 5139742.68 191.02
-9759668.75 5138693.05 190.51
-9759351.55 5138369.57 200.36
-9759669.52 5138263.24 180.98
-9759562.86 5138159.02 191.90
-9759236.68 5138053.91 183.60
-9759034.45 5138053.64 193.24
-9758401.00 5138044.86 186.58
-9758943.26 5137947.74 192.09
-9759140.25 5137840.47 190.75
-9759250.66 5137746.89 178.41
-9759035.66 5137735.25 178.51
-9758931.55 5137737.45 187.45
-9758508.84 5137631.48 179.68
-9758295.83 5139105.60 187.06
-9759140.89 5140056.21 190.46
-9758929.99 5140161.98 190.77
-9758614.06 5140161.32 190.51
-9758508.19 5140162.06 190.42
-9758296.47 5139950.06 187.11
-9759140.86 5139951.18 193.11
-9758406.93 5138896.65 189.34
-9759249.31 5139851.03 187.17
-9759141.68 5138681.33 180.32
-9758717.21 5139742.59 191.16
-9758509.17 5139738.10 195.02
-9758403.92 5139739.54 191.00
-9759248.77 5138589.64 188.39
-9758504.86 5139630.73 192.20
-9758398.28 5139634.03 191.91
-9758294.09 5139635.07 189.81
-9759036.66 5138370.18 189.52
-9758297.06 5138369.84 179.61
-9759244.62 5139529.65 191.70
-9758831.27 5138264.13 188.16
-9759036.58 5139430.34 189.24
-9758929.41 5140269.11 195.11
-9758920.71 5139319.19 190.51
-9758509.06 5139318.87 193.21
-9757454.35 5137842.46 183.79
-9757454.20 5137737.92 189.08
-9758086.50 5139002.07 189.67
-9758191.77 5138791.40 185.22
-9757664.56 5138797.10 191.21
-9757560.94 5138789.58 186.85
-9757662.34 5137522.95 189.33
-9757560.61 5137526.73 190.56
-9757346.82 5138678.15 182.22
-9758079.99 5137514.19 193.18
-9758198.94 5138584.36 188.11
-9757883.32 5137430.58 187.56
-9757560.57 5137421.53 187.03
-9758192.90 5138477.33 182.83
-9757768.46 5138464.43 185.69
-9757449.46 5137323.08 193.82
-9757668.54 5138262.52 202.79
-9758192.63 5138159.64 204.32
-9758192.31 5140065.65 190.45
-9757980.82 5140158.06 190.11
-9757877.35 5140160.07 190.39
-9757559.04 5140160.64 190.28
-9757769.13 5139949.77 200.35
-9757559.37 5139950.86 192.13
-9757450.54 5139845.65 199.43
-9757559.13 5139844.62 195.43
-9757879.54 5139633.97 195.60
-9757873.89 5139424.43 197.20
-9757772.91 5140478.25 195.59
-9757452.16 5140476.35 186.39
-9757444.98 5139208.55 188.87
-9757463.15 5140267.27 190.98
-9756391.53 5138054.58 186.82
-9757032.41 5137841.69 190.04
-9756927.69 5137846.74 189.18
-9756298.88 5137840.66 191.59
-9756818.86 5137739.30 187.30
-9756718.10 5137736.99 196.89
-9756293.56 5137734.79 187.42
-9757246.77 5137635.15 189.39
-9757019.94 5137634.62 177.81
-9756822.54 5137525.48 187.03
-9757132.30 5137421.28 184.96
-9756926.67 5137421.05 190.64
-9756715.88 5137428.56 198.97
-9756608.11 5137417.47 194.51
-9756407.05 5137316.83 195.93
-9756287.15 5138793.23 184.78
-9756609.66 5138580.50 198.69
-9756924.99 5139962.49 191.71
-9756294.01 5138263.63 200.59
-9756402.65 5138157.62 196.54
-9756610.36 5139634.92 200.03
-9756920.91 5140475.10 193.32
-9757237.23 5140363.66 187.71
-9757037.79 5140371.43 187.21
-9756929.27 5140267.75 193.08
-9756820.44 5140269.06 191.44
-9756399.13 5140267.20 185.99
-9757146.48 5140161.55 199.36
-9755555.95 5138053.81 187.99
-9756189.96 5137946.58 193.46
-9755870.25 5137951.18 195.96
-9755448.61 5137944.57 189.86
-9756192.03 5137840.00 187.46
-9755974.28 5137843.75 191.25
-9755767.06 5137842.37 185.64
-9755979.68 5137738.53 193.38
-9755651.55 5137735.44 191.58
-9755239.56 5137737.23 190.33
-9756080.50 5137639.16 185.93
-9755441.90 5137631.54 193.80
-9755340.64 5137627.99 188.97
-9755657.02 5139107.16 201.54
-9756199.87 5138797.06 180.05
-9756188.66 5140056.20 193.65
-9755662.44 5138473.58 190.32
-9755877.73 5138369.40 189.64
-9755346.95 5138370.06 192.14
-9755872.63 5139637.19 189.84
-9755344.15 5138263.97 197.46
-9755540.82 5139506.30 184.69
-9755554.68 5140472.38 180.94
-9755449.22 5140478.81 175.82
-9755451.67 5140370.61 175.86
-9755768.17 5140268.36 179.40
-9755240.21 5140267.57 182.27
-9756188.81 5140154.25 184.92
-9755555.36 5140160.22 186.59
-9755128.02 5138378.53 193.36
-9755133.82 5140054.79 182.81
-9757032.02 5138054.02 183.57
-9756610.51 5137947.82 190.28
-9756821.95 5137948.08 187.84
-9756604.88 5137734.53 187.46
-9757035.42 5139110.30 191.53
-9756932.68 5139001.00 181.82
-9757132.79 5138681.40 182.12
-9756504.83 5138685.69 179.19
-9756400.91 5138685.19 199.53
-9757031.98 5138580.25 191.83
-9756505.04 5138474.77 198.15
-9757031.71 5138475.06 191.95
-9756932.77 5138477.25 183.22
-9756608.42 5139849.61 190.06
-9756400.14 5139850.90 187.90
-9757136.90 5138158.09 183.08
-9757032.24 5138159.30 180.55
-9756611.55 5139743.36 189.37
-9757036.48 5139633.44 188.99
-9756718.45 5139420.92 200.18
-9757138.60 5139319.21 188.76
-9756611.55 5140166.07 194.72
-9755875.00 5138061.06 190.11
-9755241.70 5137949.92 185.69
-9755661.88 5137945.53 195.81
-9755344.27 5137748.10 191.59
-9755247.13 5137525.69 191.17
-9756085.92 5137419.23 184.50
-9755345.26 5137415.85 188.19
-9755772.94 5139103.59 190.91
-9755344.99 5137314.70 187.89
-9755468.03 5139941.11 191.08
-9755243.60 5138580.02 187.31
-9756190.10 5138266.74 195.53
-9755346.54 5139530.49 190.48
-9755771.66 5139422.95 197.46
-9755346.01 5140478.03 179.80
-9755344.97 5140162.93 183.83
-9755237.11 5140166.53 184.96
-9755145.44 5137738.40 199.51
-9755239.80 5137313.78 193.91
-9755135.24 5140266.64 182.20
-9755239.69 5138896.77 190.84
