-9749650.72 5133413.59 176.97
-9749548.70 5133413.64 177.19
-9749438.25 5133415.47 177.27
-9749861.91 5133412.90 177.09
-9749547.30 5133308.66 177.06
-9749441.26 5133201.86 176.99
-9749337.61 5133201.97 177.15
-9749230.21 5133204.23 177.16
-9754502.08 5139951.98 186.53
-9754397.86 5139849.07 188.18
-9754502.19 5141110.14 191.20
-9754721.51 5141004.24 189.75
-9754287.64 5139782.60 289.19
-9754925.89 5140792.69 190.49
-9755025.07 5142165.32 189.62
-9754923.60 5142165.31 198.19
-9754290.94 5139527.57 194.95
-9754397.12 5142061.16 203.92
-9754712.25 5139423.89 203.53
-9755025.38 5141940.14 273.82
-9755022.59 5141868.65 276.19
-9754306.18 5141847.91 264.26
-9754290.48 5140583.66 201.95
-9754608.74 5141848.26 264.10
-9754395.62 5139320.01 188.14
-9754395.73 5139217.55 189.61
-9754712.13 5141632.39 200.13
-9754295.78 5140370.94 270.71
-9754501.41 5140265.23 199.89
-9754290.57 5140164.39 190.39
-9755040.62 5141425.41 271.57
-9754502.49 5141215.48 198.94
-9754175.28 5141111.64 259.24
-9753768.66 5141000.88 198.97
-9753883.87 5140893.50 268.80
-9753828.33 5139782.41 252.76
-9753764.63 5139746.23 191.57
-9753763.31 5139529.13 196.73
-9753433.37 5139518.46 192.52
-9753560.03 5139420.19 181.64
-9754185.43 5139423.84 195.01
-9753763.63 5141849.12 179.41
-9753978.99 5139317.79 199.67
-9754186.85 5139137.60 258.65
-9753048.55 5140697.15 178.24
-9755028.79 5141104.01 191.61
-9754300.61 5141099.36 272.07
-9755038.26 5141009.43 191.68
-9754501.65 5139637.35 188.25
-9754281.15 5139634.95 191.66
-9754923.64 5142056.54 199.91
-9754606.47 5140792.87 191.51
-9754502.28 5142049.84 191.33
-9754314.88 5142039.46 266.05
-9754381.20 5142041.92 266.93
-9754396.30 5140737.29 266.54
-9754602.42 5141959.31 198.25
-9754501.46 5139424.97 187.19
-9754379.96 5141954.39 264.26
-9754500.90 5141843.75 184.38
-9754296.64 5140591.69 272.03
-9754490.69 5139319.38 194.14
-9755025.42 5140480.80 184.03
-9754494.30 5141742.90 198.30
-9754286.15 5140371.33 199.45
-9755028.48 5140161.40 182.69
-9754588.91 5140187.93 255.53
-9754607.11 5141426.86 197.34
-9754501.17 5141319.94 200.21
-9754188.33 5141005.00 260.53
-9754183.08 5139951.51 200.67
-9753872.27 5139845.63 194.44
-9753974.04 5140917.35 295.80
-9753872.84 5140898.94 185.90
-9753713.56 5139639.92 253.56
-9754185.43 5139316.01 200.24
-9753763.71 5139313.34 192.88
-9753975.24 5141752.71 195.60
-9753549.56 5139213.79 200.39
-9754184.78 5140277.67 195.76
-9753237.07 5141638.07 177.09
-9753658.83 5140164.06 187.99
-9752833.40 5139838.06 192.04
-9752500.61 5139847.15 183.01
-9753029.20 5139743.03 183.16
-9752390.95 5139632.79 178.48
-9752391.59 5139431.14 177.14
-9752918.35 5139403.23 177.03
-9752816.44 5139321.74 177.56
-9753025.69 5139213.05 209.36
-9752919.82 5139212.99 209.32
-9752290.04 5141004.19 194.20
-9752283.37 5140795.55 178.59
-9752709.10 5142060.06 177.10
-9752287.72 5142058.32 177.06
-9752499.08 5141953.93 177.07
-9752392.20 5141638.39 177.12
-9753026.56 5141531.63 177.13
-9752814.12 5141533.58 177.09
-9752603.54 5141428.07 177.14
-9752182.60 5139318.52 177.06
-9752181.41 5139424.66 177.06
-9751866.28 5139951.21 177.16
-9751338.36 5139950.29 177.03
-9751549.30 5139634.27 177.12
-9752077.87 5139529.78 177.09
-9751231.66 5139529.42 177.07
-9751760.78 5141110.87 177.04
-9751338.41 5141111.49 177.12
-9751761.86 5141006.05 177.16
-9751234.27 5141005.10 177.06
-9751761.64 5139422.58 177.13
-9751865.38 5140899.04 177.06
-9751444.34 5140900.68 177.12
-9751655.11 5139318.76 177.11
-9751551.59 5140794.11 177.16
-9751339.04 5140793.94 177.01
-9751444.85 5140688.91 176.99
-9751337.16 5140688.54 177.06
-9751179.80 5140701.40 177.10
-9751760.44 5139212.03 177.00
-9751865.90 5140583.86 177.17
-9751866.23 5142060.96 177.06
-9751656.21 5142059.86 177.06
-9752075.35 5140477.42 177.05
-9751550.09 5141955.28 177.09
-9752075.76 5141954.63 177.08
-9751865.99 5141954.17 177.11
-9751761.00 5141954.03 177.10
-9751444.21 5140371.72 177.16
-9751233.35 5140372.98 177.03
-9751170.88 5141745.53 177.11
-9751971.71 5140266.70 177.08
-9751338.53 5141637.74 177.03
-9751233.43 5140267.39 177.18
-9751339.20 5141532.91 177.13
-9751338.28 5141427.89 177.11
-9751173.46 5141429.37 177.06
-9753444.03 5140896.26 200.72
-9753231.92 5139737.98 187.40
-9753233.61 5140368.65 192.64
-9752600.53 5139633.75 185.16
-9752709.17 5139528.72 177.06
-9752814.62 5139423.10 176.98
-9752601.83 5139321.27 185.15
-9752513.23 5139323.72 176.96
-9752713.34 5140797.31 188.73
-9752600.59 5140689.85 186.35
-9752287.70 5141321.86 177.09
-9751866.03 5139845.58 177.09
-9751442.83 5139845.20 177.04
-9751337.90 5139845.45 177.14
-9751443.95 5139634.88 177.12
-9751655.24 5139527.33 177.12
-9752077.42 5139422.72 177.06
-9751443.57 5139423.96 177.04
-9751971.82 5139316.68 176.99
-9751233.65 5139317.76 177.04
-9751232.69 5139212.53 177.00
-9751656.34 5140689.24 177.13
-9751865.43 5139213.79 177.06
-9751761.33 5139107.62 177.09
-9751654.72 5139109.20 177.10
-9751168.19 5142062.81 177.10
-9752077.33 5140161.58 177.14
-9751865.09 5141322.53 177.13
-9751175.35 5141216.95 177.01
-9748386.43 5132781.36 177.00
-9748914.27 5132780.44 176.91
-9748186.03 5132676.29 177.10
-9749019.74 5132678.16 176.95
-9748914.56 5132675.62 176.84
-9748187.56 5132570.61 176.90
-9748911.77 5132464.26 176.95
-9748703.11 5132464.56 176.87
-9748385.47 5132359.86 176.91
-9750170.16 5132258.08 194.61
-9751236.34 5132360.18 196.87
-9751445.25 5132781.66 194.57
-9751337.95 5132784.98 191.93
-9751341.31 5132675.15 195.34
-9751339.55 5133931.32 189.93
-9751333.76 5133727.70 189.59
-9751332.76 5133097.64 193.83
-9750707.67 5131842.84 194.39
-9750283.36 5131832.29 193.85
-9750382.05 5131716.65 186.28
-9750283.66 5132886.50 176.89
-9750605.41 5132774.24 184.38
-9750279.89 5132782.52 194.55
-9750917.93 5132680.20 192.61
-9750600.40 5132677.32 199.19
-9750930.66 5132579.36 192.35
-9750385.13 5132575.65 190.94
-9750179.92 5132569.89 179.48
-9750707.99 5132456.48 189.95
-9751128.57 5132462.66 193.40
-9750395.81 5132359.43 191.92
-9751128.36 5132358.94 192.62
-9751022.56 5133940.81 179.66
-9750917.03 5133818.12 191.65
-9750711.69 5132358.39 191.53
-9751023.48 5133623.85 182.55
-9750912.27 5133610.92 196.22
-9751015.16 5133414.52 194.76
-9750285.46 5132146.11 193.47
-9751017.34 5133199.61 190.21
-9750819.86 5132043.36 196.23
-9750601.38 5132051.76 194.91
-9750497.82 5132043.55 197.29
-9750393.92 5132041.66 193.38
-9750602.86 5133099.48 189.62
-9750811.04 5132993.65 196.88
-9750916.53 5131941.08 194.07
-9750698.65 5131942.12 191.88
-9750284.58 5131938.02 200.27
-9750174.56 5132362.70 192.07
-9750179.25 5131835.80 193.57
-9749996.25 5131802.56 255.31
-9749547.90 5132887.07 176.88
-9749230.02 5132571.62 176.86
-9750083.59 5132248.52 189.27
-9749332.76 5132254.12 177.00
-9749756.39 5132147.97 176.80
-9749229.48 5132150.10 177.05
-9750169.48 5132049.45 255.34
-9750078.08 5132047.57 187.67
-9749968.84 5132042.86 179.94
-9749440.57 5132044.02 176.79
-9749336.72 5131939.26 176.98
-9750180.94 5131937.40 191.29
-9750092.99 5131966.41 255.41
-9749962.83 5131944.29 190.75
-9749545.53 5133892.59 176.87
-9749335.65 5133835.48 176.94
-9749966.90 5133731.07 177.05
-9749441.17 5133730.57 177.03
-9749441.09 5133625.15 176.93
-9749335.85 5133624.13 176.91
-9750075.32 5133519.56 176.97
-9749231.62 5133413.96 177.04
-9750073.56 5133098.34 176.85
-9749442.21 5133100.16 176.98
-9749967.46 5132993.20 176.99
-9749124.92 5131832.51 176.83
-9748807.88 5131834.53 176.90
-9748386.70 5131831.34 176.88
-9748492.31 5132571.28 177.10
-9749124.50 5132465.10 176.89
-9749016.41 5132464.51 177.06
-9748597.58 5132466.03 176.88
-9749019.48 5132360.84 176.90
-9749124.93 5132254.58 176.99
-9749017.66 5132254.43 176.89
-9748914.42 5132148.28 176.91
-9749125.23 5132044.15 176.83
-9748913.09 5132043.78 176.88
-9749124.19 5131938.40 176.90
-9750177.63 5132774.00 181.74
-9753239.26 5132881.62 193.66
-9753242.27 5133412.15 200.42
-9753235.97 5133838.54 198.04
-9753234.83 5134153.69 196.83
-9753760.88 5132783.54 188.14
-9753657.33 5132781.16 193.53
-9753556.13 5133940.94 189.65
-9753348.94 5133942.64 190.27
-9753441.87 5133837.33 189.85
-9753658.58 5132570.37 182.51
-9753657.71 5133732.23 195.17
-9753655.80 5132365.72 192.64
-9753341.38 5132359.68 186.36
-9753446.05 5133626.47 194.16
-9753658.04 5133518.89 182.06
-9753558.60 5133519.81 192.48
-9753349.00 5133518.66 192.56
-9753442.65 5132049.31 196.04
-9753554.91 5133309.34 192.69
-9753547.47 5134256.77 193.78
-9753340.47 5134254.99 192.96
-9753448.01 5134153.87 194.60
-9753422.43 5134133.63 255.68
-9753658.44 5134046.54 192.47
-9753341.57 5134046.30 194.12
-9753865.63 5132994.98 193.75
-9753342.55 5132993.19 195.18
-9753237.35 5134467.84 198.86
-9753239.83 5133204.18 196.86
-9752813.07 5131830.24 191.66
-9752498.42 5131832.60 182.01
-9752392.51 5131832.39 191.94
-9752706.33 5131730.65 192.10
-9753140.65 5132571.43 194.91
-9752820.50 5132570.65 194.01
-9752496.27 5132571.04 190.56
-9752389.51 5132570.56 191.66
-9752293.26 5132571.98 189.93
-9752392.80 5133940.00 192.28
-9752285.16 5133837.01 193.31
-9752603.39 5132464.34 190.51
-9752393.05 5132465.07 201.43
-9753030.14 5133732.67 183.52
-9752709.03 5133725.01 194.94
-9752501.26 5133734.40 199.27
-9752287.44 5133730.40 197.87
-9753028.91 5132350.29 198.30
-9753027.44 5133626.78 188.34
-9752499.74 5133624.22 198.30
-9753240.52 5132260.07 196.65
-9753028.54 5133520.20 191.81
-9752709.04 5133519.68 199.30
-9752603.24 5133516.18 191.35
-9752392.74 5133519.50 189.61
-9752287.56 5133519.62 191.98
-9752920.52 5134679.48 192.87
-9752605.25 5134678.00 191.08
-9753243.46 5132155.41 191.89
-9753138.49 5132151.39 194.39
-9753132.88 5134574.16 192.98
-9752814.76 5134579.12 198.02
-9752709.70 5134574.52 182.79
-9752287.99 5134569.70 186.28
-9752602.00 5133412.37 183.84
-9752498.37 5133414.83 193.99
-9752715.74 5132042.93 196.46
-9753024.90 5134468.62 182.75
-9752502.24 5132044.12 191.41
-9752499.68 5134463.24 194.18
-9752286.60 5134463.09 191.05
-9753025.49 5133308.05 197.53
-9752815.54 5134362.13 197.84
-9752298.82 5134358.87 193.58
-9753131.02 5134363.10 199.66
-9752920.27 5134364.21 199.50
-9752609.28 5131933.06 186.58
-9752492.86 5131936.19 188.33
-9753237.19 5131938.41 196.58
-9752709.23 5134256.43 199.18
-9752599.41 5133095.37 194.26
-9752920.90 5133102.33 190.45
-9752603.40 5132985.66 191.98
-9752287.54 5132992.56 181.58
-9753119.83 5134045.33 192.87
-9752811.91 5134048.80 193.01
-9752708.24 5134046.95 186.50
-9752497.95 5134055.65 197.84
-9752076.65 5131834.14 194.82
-9751554.18 5131832.97 191.08
-9751338.40 5131831.23 197.17
-9752183.90 5131728.12 185.85
-9751758.09 5131729.30 193.67
-9751658.90 5131726.42 196.27
-9751337.05 5131724.49 200.33
-9751866.31 5132886.77 199.22
-9752185.69 5132776.49 188.34
-9752081.97 5132671.93 193.00
-9751866.49 5132677.01 198.01
-9751654.28 5132675.55 194.40
-9752069.96 5132572.67 190.82
-9752076.11 5133729.05 194.02
-9751762.77 5133737.78 189.54
-9751555.51 5133728.59 191.15
-9751548.17 5134788.34 195.95
-9752176.05 5132464.95 194.99
-9751342.05 5134785.98 180.67
-9752072.62 5133623.36 197.13
-9751971.73 5133628.93 183.71
-9751542.78 5132468.39 195.83
-9751443.56 5132464.04 188.96
-9751551.15 5133622.68 188.35
-9752073.94 5133514.48 193.65
-9751760.74 5133520.23 191.79
-9752186.69 5134681.93 190.90
-9751983.13 5134679.98 194.40
-9752078.35 5132359.94 195.05
-9751651.63 5134680.83 188.13
-9751972.49 5132363.83 191.06
-9751547.65 5134679.58 193.31
-9751339.92 5134679.30 180.00
-9751547.10 5132360.25 198.17
-9751970.31 5134570.85 196.28
-9751548.87 5134573.69 180.57
-9751976.10 5132252.58 191.88
-9751759.79 5132254.11 199.56
-9751340.26 5132250.66 194.34
-9751870.24 5134469.20 190.23
-9751762.51 5134469.78 191.73
-9751967.61 5134360.42 191.84
-9751758.99 5132150.15 198.62
-9751655.26 5132148.60 199.78
-9751761.43 5133204.22 195.35
-9751549.35 5134252.50 188.73
-9751341.10 5134265.86 189.79
-9751969.24 5132041.26 197.05
-9752184.89 5134146.67 190.77
-9751868.23 5134158.67 192.26
-9751448.05 5132044.98 192.76
-9751340.99 5132043.71 192.55
-9751658.05 5133102.34 193.72
-9751863.59 5134047.83 191.48
-9751657.48 5134051.61 191.42
-9751558.45 5134044.75 187.47
-9751438.79 5134048.56 188.78
-9751344.35 5134047.26 189.54
-9752072.52 5132997.43 195.79
-9751760.57 5132994.09 196.44
-9752075.10 5131933.78 191.77
-9751970.98 5131938.28 194.43
-9751867.92 5131942.86 191.36
-9751654.85 5131939.17 195.75
-9751443.77 5131937.96 195.18
-9751341.12 5131946.26 194.21
-9751232.76 5131937.75 198.87
-9751133.27 5131837.00 192.74
-9751021.99 5131833.02 199.78
-9750919.72 5131833.36 187.57
-9750811.27 5131832.72 179.56
-9750595.08 5131832.92 189.63
-9750389.55 5131832.67 179.91
-9750916.52 5131727.28 195.64
-9750594.24 5131729.40 188.40
-9750496.03 5131728.14 196.09
-9750709.91 5132887.98 196.47
-9750278.08 5132677.75 192.14
-9750706.73 5132569.06 186.00
-9750604.66 5132568.84 184.39
-9750496.05 5132569.61 194.17
-9750805.87 5132463.68 192.01
-9750599.51 5132462.26 192.73
-9750760.05 5132459.19 252.76
-9750602.73 5132369.07 188.32
-9750283.53 5132358.86 180.47
-9751020.81 5132362.58 195.85
-9750919.13 5133939.01 177.69
-9750812.57 5132356.66 183.76
-9750389.35 5132254.12 199.12
-9751127.77 5132255.58 195.86
-9751024.30 5132252.88 187.84
-9750706.05 5132256.52 185.99
-9750603.68 5132256.09 191.86
-9750495.36 5132254.21 193.41
-9750813.14 5133517.23 186.57
-9750709.70 5133516.56 179.84
-9750810.81 5133414.78 189.24
-9750285.77 5133413.87 176.83
-9751126.36 5132145.15 190.94
-9750916.83 5132150.92 192.78
-9750705.45 5132150.19 198.13
-9750601.08 5132148.39 194.97
-9750496.47 5132139.79 194.69
-9750385.27 5132155.58 192.94
-9750587.53 5132178.48 253.72
-9750705.82 5133201.59 196.02
-9751128.44 5132043.11 196.92
-9751021.71 5132042.93 198.68
-9750916.78 5132041.64 193.88
-9750713.67 5132043.55 193.45
-9750507.09 5132080.31 255.77
-9750285.81 5132039.75 197.43
-9751129.86 5131936.90 191.16
-9751021.74 5131938.72 193.66
-9750803.29 5131938.67 188.83
-9750498.88 5131938.29 190.65
-9750385.12 5131939.61 191.71
-9751128.23 5134152.01 179.08
-9751022.98 5134152.11 179.27
-9750075.77 5131835.43 191.57
-9749857.23 5131833.46 193.49
-9749758.59 5131830.20 180.30
-9749964.75 5131727.05 186.53
-9750086.80 5132148.95 187.69
-9750132.39 5132107.61 258.74
-9750065.61 5132015.47 264.16
-9750070.75 5131940.26 192.61
-9749757.49 5131926.09 187.39
-9751233.20 5132887.04 191.41
-9751231.35 5132784.04 190.58
-9751243.26 5132672.45 191.55
-9751233.23 5134149.23 188.73
-9751232.10 5134046.92 186.05
-9754290.88 5132676.08 198.20
-9754289.89 5133936.62 191.12
-9754291.40 5134257.70 182.15
-9755035.51 5131947.04 201.95
-9754923.94 5131937.14 186.53
-9754817.79 5131937.52 184.36
-9754607.02 5131937.83 182.65
-9754607.14 5131727.12 182.29
-9754816.51 5132887.00 185.03
-9754725.56 5132882.73 190.41
-9754712.62 5133942.18 189.95
-9754919.19 5133830.92 179.91
-9754712.54 5133836.13 184.34
-9754598.94 5133834.98 194.80
-9754503.24 5133844.98 190.41
-9754606.44 5132676.10 181.47
-9754402.00 5132675.26 191.95
-9754604.14 5133729.02 196.35
-9754389.55 5133732.51 189.82
-9754917.82 5132566.69 194.27
-9754715.40 5132582.72 189.95
-9754599.70 5132571.19 201.64
-9754915.57 5133617.95 179.77
-9754607.64 5132464.74 188.11
-9754819.70 5132359.12 193.46
-9754499.59 5132366.35 190.63
-9754716.17 5133514.40 193.73
-9754606.78 5133518.31 188.29
-9754817.55 5132253.62 184.62
-9754921.03 5133413.43 176.27
-9754925.92 5134580.62 184.20
-9754606.98 5132149.20 182.28
-9755044.86 5134465.78 184.51
-9754607.63 5134468.35 181.69
-9754817.73 5132043.20 183.62
-9754816.65 5134368.18 202.67
-9754609.88 5134359.33 195.47
-9754400.22 5134363.22 199.57
-9754917.09 5134264.08 186.29
-9754610.12 5134259.66 192.23
-9754502.33 5134253.77 192.62
-9755035.34 5133101.58 184.97
-9754390.99 5133099.26 183.73
-9754924.06 5134150.28 177.85
-9754603.62 5134149.14 194.11
-9754396.05 5134152.49 199.74
-9754396.51 5132992.39 195.98
-9754710.10 5134052.30 190.59
-9754286.92 5133413.66 191.85
-9754288.69 5131942.91 192.30
-9754290.31 5134046.04 181.28
-9754090.08 5131828.47 196.24
-9753871.32 5131837.20 196.74
-9753665.96 5131833.18 193.67
-9753554.54 5131831.56 193.45
-9753444.80 5131831.63 193.93
-9753342.10 5131830.19 197.14
-9754078.01 5131727.31 194.62
-9753868.65 5131727.28 185.99
-9753763.83 5131726.76 194.87
-9753665.18 5131728.21 191.79
-9753552.42 5131723.85 194.02
-9754080.31 5132782.50 193.67
-9754184.51 5132676.31 193.54
-9754185.69 5133723.99 191.73
-9754081.33 5133730.01 189.41
-9753979.55 5133731.64 192.00
-9753772.11 5132354.44 187.19
-9753876.25 5134679.95 192.49
-9753763.41 5134679.16 200.18
-9753561.91 5134678.38 190.10
-9753447.37 5134679.55 197.96
-9753341.45 5134679.24 189.87
-9753343.43 5132254.11 194.48
-9753868.86 5134565.89 196.21
-9753971.28 5132238.88 194.33
-9753862.30 5132257.08 189.38
-9753654.90 5132252.94 194.37
-9754082.18 5134467.77 188.36
-9753974.43 5134464.32 195.16
-9753872.49 5134467.89 194.22
-9753760.75 5134469.05 196.77
-9753661.71 5134475.26 186.81
-9753551.52 5134473.71 192.56
-9753449.29 5134468.88 193.72
-9753341.28 5134467.04 198.05
-9753551.45 5132150.03 194.58
-9753448.27 5132151.27 192.30
-9753661.44 5134355.88 198.64
-9753341.89 5134362.75 199.53
-9753864.56 5132042.22 184.98
-9753539.21 5132048.00 193.56
-9754075.96 5134365.27 192.82
-9753868.53 5131938.26 181.93
-9753778.12 5131934.77 193.68
-9753973.27 5134255.89 193.90
-9753552.31 5131936.05 182.33
-9753338.39 5131938.11 195.07
-9754079.54 5133203.87 198.90
-9753971.49 5134152.45 195.09
-9753343.27 5134147.79 196.91
-9754181.34 5134149.27 196.65
-9753377.06 5134132.49 255.58
-9753236.80 5133729.95 191.17
-9753235.30 5134571.31 191.98
-9753126.33 5131827.11 190.51
-9753025.98 5131832.80 182.39
-9752920.00 5131832.92 193.06
-9752704.34 5131832.77 193.98
-9752287.01 5131839.61 193.17
-9753235.13 5131724.21 195.79
-9752919.80 5131726.94 192.78
-9752815.13 5131726.69 190.83
-9753124.52 5132878.91 194.69
-9752707.71 5132883.80 192.33
-9752818.26 5132781.10 197.51
-9752699.47 5132789.07 194.00
-9752288.83 5132778.45 192.17
-9753237.56 5132678.96 194.68
-9753030.48 5132682.24 194.12
-9752610.11 5132675.02 195.32
-9752391.92 5132674.48 193.27
-9752291.40 5132678.26 193.80
-9752918.94 5132569.88 193.90
-9752607.71 5132570.78 191.49
-9752920.31 5133941.01 182.47
-9752810.59 5133836.10 196.21
-9752710.42 5133837.28 197.04
-9753239.06 5132463.55 189.38
-9752922.90 5132468.18 192.82
-9752810.26 5132473.49 191.48
-9752927.86 5133730.32 198.08
-9752393.65 5133736.76 190.89
-9752710.58 5132360.68 196.28
-9752711.88 5133626.97 198.66
-9752395.68 5133622.16 191.35
-9752815.24 5132254.54 193.69
-9753140.42 5133519.48 196.07
-9753130.62 5134679.45 183.40
-9752392.57 5134679.00 197.04
-9752289.02 5134679.21 193.62
-9752924.46 5132148.73 192.77
-9752699.71 5132149.02 196.89
-9752494.29 5132141.58 189.59
-9752287.96 5132145.45 185.84
-9752397.30 5133420.91 194.58
-9752917.54 5132050.80 200.37
-9753123.69 5134466.90 192.13
-9752597.34 5132042.26 194.34
-9752914.43 5134467.32 191.52
-9752388.29 5132047.91 196.85
-9752279.10 5132049.03 198.93
-9752392.46 5134469.09 193.21
-9752709.30 5133310.90 195.41
-9752708.26 5134350.82 192.55
-9752604.14 5134361.25 197.07
-9753135.72 5131946.09 192.05
-9753024.78 5131947.85 191.34
-9752810.27 5131942.39 192.12
-9753131.57 5134257.65 192.94
-9752392.95 5134255.44 190.51
-9752287.38 5134257.49 202.02
-9752814.50 5133097.82 182.98
-9752392.91 5133098.30 182.13
-9752927.27 5134149.73 196.19
-9752816.55 5134150.96 198.99
-9752705.68 5134150.30 194.04
-9753125.32 5132991.97 197.50
-9752814.19 5132991.91 182.16
-9752498.60 5132991.36 184.29
-9752607.55 5134049.02 190.89
-9752393.61 5134044.88 198.10
-9752290.76 5134049.77 195.66
-9751972.12 5132887.97 199.25
-9751754.97 5132884.82 195.57
-9751651.96 5132886.43 196.99
-9751761.17 5132783.74 195.56
-9751656.07 5132787.73 195.26
-9751549.85 5132675.93 192.16
-9751444.01 5132675.89 184.14
-9752187.05 5133940.86 191.97
-9752079.54 5133939.57 193.93
-9751654.30 5133941.33 194.41
-9751551.45 5133941.83 188.79
-9751453.97 5133947.34 192.81
-9751437.70 5133834.85 191.30
-9751232.47 5133938.47 184.37
-9752180.17 5133833.93 195.41
-9751867.58 5133837.63 192.19
-9751970.14 5132570.71 190.09
-9751866.13 5132574.53 192.19
-9752184.38 5133727.84 192.52
-9751548.05 5132565.08 193.84
-9751445.93 5132570.13 189.72
-9751230.60 5132577.03 194.07
-9751443.41 5133743.95 189.61
-9752080.36 5132466.64 196.58
-9751654.11 5132470.09 196.42
-9751771.05 5133629.73 192.10
-9751229.06 5132465.73 190.73
-9752183.11 5133522.11 197.23
-9751968.01 5133518.46 196.92
-9751444.44 5133519.69 181.64
-9752174.03 5132361.65 194.14
-9751864.79 5132362.39 194.90
-9751338.74 5132363.41 193.42
-9751870.55 5133414.42 192.13
-9752169.63 5134563.82 201.83
-9752181.11 5132253.09 193.50
-9751865.72 5132255.78 192.27
-9751645.18 5132254.93 196.38
-9751547.90 5132254.94 196.54
-9752076.49 5134470.44 197.95
-9751968.81 5134469.18 199.95
-9751548.33 5133310.85 182.99
-9751767.26 5134358.37 191.96
-9751660.96 5134358.05 190.28
-9751543.56 5134360.09 188.71
-9751452.08 5134361.65 188.05
-9751340.61 5134362.57 192.20
-9751970.29 5132151.06 197.21
-9751550.83 5132149.46 198.95
-9751449.91 5132142.16 196.04
-9751342.19 5132152.69 188.49
-9751753.86 5134260.39 187.19
-9751651.85 5134256.53 195.90
-9751454.00 5134258.15 192.44
-9752076.73 5132040.77 195.63
-9751867.44 5132045.28 195.89
-9751653.89 5132044.35 196.40
-9751659.79 5134159.20 193.41
-9751555.95 5134149.21 186.26
-9751757.26 5133097.99 194.32
-9752068.74 5134046.48 196.23
-9751760.41 5134046.25 200.97
-9751866.43 5132992.40 193.56
-9751339.20 5132992.34 192.57
-9751757.77 5131935.13 192.59
-9751551.55 5131934.74 195.85
-9751021.93 5132886.60 193.11
-9751120.84 5132663.19 195.30
-9751015.14 5133734.25 192.02
-9750920.58 5133521.05 192.20
-9751121.46 5132983.91 190.68
-9751016.02 5132982.78 190.49
-9753235.07 5133625.89 189.51
-9754285.79 5132245.89 195.46
-9754289.86 5133625.84 194.48
-9754290.80 5132782.30 194.33
-9754710.52 5131939.45 190.88
-9754612.91 5131838.04 190.29
-9754507.74 5131843.10 189.73
-9754497.05 5131951.51 190.95
-9754394.97 5131832.29 197.74
-9754287.02 5131834.71 195.83
-9755028.22 5133938.45 183.94
-9754818.13 5133947.00 197.10
-9754394.25 5133938.81 189.69
-9754391.70 5133842.87 191.48
-9755027.57 5133836.03 176.04
-9755019.63 5132672.12 182.31
-9754506.33 5132676.60 188.59
-9754818.19 5133730.40 185.68
-9754503.60 5133731.55 190.78
-9754501.72 5132572.89 192.79
-9754399.76 5132568.39 193.89
-9755036.40 5133631.83 196.03
-9754497.74 5133626.62 186.82
-9754290.05 5132359.57 181.51
-9754713.24 5132360.43 190.17
-9754396.13 5132360.79 192.24
-9754821.50 5133518.55 187.52
-9754714.07 5134676.07 195.73
-9754611.94 5134686.26 193.54
-9754498.17 5134678.59 200.16
-9754396.26 5133518.87 197.85
-9754290.00 5134686.20 187.14
-9754914.97 5133513.32 192.68
-9754711.55 5132259.16 195.67
-9754605.86 5132252.67 182.96
-9754503.78 5132248.33 193.05
-9755031.52 5133409.87 186.16
-9754399.80 5134583.26 191.63
-9754717.05 5133412.24 191.57
-9754499.14 5133410.55 190.73
-9755018.22 5134585.29 192.93
-9754501.74 5132147.77 192.50
-9754392.07 5132161.22 188.49
-9754292.58 5132147.87 197.57
-9755028.71 5132149.32 181.20
-9754925.26 5132159.12 196.81
-9754711.63 5132145.59 191.36
-9754816.45 5134471.48 186.20
-9754712.54 5134468.34 181.71
-9754395.98 5132043.15 182.30
-9754923.28 5132043.59 194.74
-9754926.70 5134370.29 180.59
-9754502.37 5134362.38 194.00
-9754404.88 5133202.33 184.39
-9754818.30 5134258.26 192.74
-9754402.74 5134269.80 190.63
-9754609.75 5133100.74 191.39
-9754816.90 5134152.71 189.22
-9754713.09 5134150.81 188.90
-9755026.56 5132988.54 187.08
-9754609.65 5134048.47 189.49
-9753763.07 5132886.98 192.73
-9753661.63 5132883.72 197.67
-9753549.77 5132886.47 193.31
-9753451.00 5132889.82 196.07
-9753340.49 5132887.99 189.23
-9753866.42 5132676.38 193.73
-9753760.23 5132677.47 192.36
-9753869.96 5133945.21 189.98
-9753658.43 5133950.92 190.74
-9753655.70 5133833.33 197.60
-9753340.67 5133835.57 198.94
-9753973.47 5132577.03 188.08
-9753550.24 5133731.55 187.73
-9753334.08 5133726.04 194.63
-9753447.69 5132471.11 189.33
-9753347.04 5132461.79 193.74
-9754079.68 5132359.17 195.38
-9753973.28 5132351.40 191.77
-9754183.92 5133623.86 193.47
-9754082.16 5132249.89 196.01
-9754177.30 5133514.91 198.15
-9754190.37 5134467.98 197.51
-9753974.52 5132148.12 181.76
-9753765.75 5133412.95 194.78
-9753555.95 5133414.49 193.78
-9754185.32 5133308.52 195.69
-9754183.20 5131934.30 196.27
-9753660.95 5134258.42 195.31
-9753765.03 5133203.62 193.66
-9753344.67 5133202.70 186.21
-9753867.69 5134154.18 194.84
-9753655.46 5134151.43 196.88
-9753551.57 5134152.35 194.57
-9754076.22 5134151.79 195.56
-9754185.15 5133098.92 189.74
-9753872.12 5133095.39 193.79
-9753550.34 5134046.54 199.48
-9753445.73 5134048.76 196.93
-9754079.87 5132989.39 195.53
-9753763.54 5132986.17 190.40
-9753552.94 5132992.51 195.20
-9752606.84 5136983.84 191.84
-9752388.52 5136894.20 183.54
-9752811.42 5137951.69 199.72
-9752393.55 5137947.81 177.19
-9752393.66 5136683.01 180.84
-9752287.51 5137523.96 177.25
-9752279.68 5136578.18 189.70
-9752605.31 5137209.43 179.74
-9752391.19 5137209.72 177.18
-9752705.26 5137211.41 193.18
-9752287.10 5137103.46 177.29
-9752287.80 5138687.59 177.35
-9752180.45 5138686.94 177.19
-9752604.11 5138580.50 176.98
-9752604.60 5138370.03 177.18
-9752392.10 5138369.50 177.31
-9752606.47 5138157.85 177.26
-9752181.47 5136893.45 177.23
-9752183.36 5137841.45 177.20
-9752181.67 5137736.53 177.06
-9752181.92 5137527.21 177.31
-9752077.58 5136999.39 177.03
-9751760.83 5137000.08 177.18
-9751971.39 5138054.45 177.22
-9751971.68 5137947.36 176.92
-9751866.98 5138053.00 177.18
-9751865.44 5137948.31 177.02
-9751654.74 5137841.25 177.22
-9751338.53 5137843.05 177.11
-9751443.34 5136788.81 176.91
-9751653.69 5137736.20 177.34
-9751550.73 5137738.05 177.46
-9751443.98 5137738.15 177.16
-9751231.96 5137736.89 177.09
-9751655.11 5136684.75 177.10
-9751232.92 5136682.08 177.27
-9751762.54 5137629.69 177.27
-9751549.86 5137630.81 177.08
-9751974.05 5136584.49 177.57
-9751443.54 5136575.66 177.28
-9751233.83 5136578.73 177.19
-9751967.85 5136475.27 178.10
-9751232.01 5136473.46 177.37
-9751971.17 5137421.58 177.45
-9751866.25 5137422.95 177.23
-9751549.15 5137419.84 177.20
-9752076.69 5136360.15 179.71
-9751550.78 5136368.12 177.41
-9751445.50 5137315.06 177.21
-9751655.16 5137211.78 177.37
-9751549.35 5137210.23 177.30
-9751233.52 5137210.99 177.49
-9751337.09 5136153.24 177.25
-9751235.99 5137104.02 177.10
-9751971.60 5137103.79 177.16
-9751864.34 5137104.37 177.28
-9751971.06 5139003.48 177.03
-9751758.82 5139002.52 177.23
-9751866.49 5138897.69 177.05
-9751234.22 5138897.60 177.17
-9751759.93 5138790.84 177.27
-9751444.32 5138791.45 177.39
-9751444.15 5138685.43 177.18
-9751233.63 5138684.69 177.25
-9751233.02 5138582.54 177.14
-9751761.70 5138580.35 177.21
-9752075.76 5138475.70 177.01
-9751654.65 5138475.29 177.09
-9751339.15 5138474.81 177.04
-9752076.20 5138368.40 177.24
-9751972.88 5138367.85 177.06
-9751760.36 5138370.09 177.30
-9751550.72 5138369.79 177.08
-9751443.49 5138367.55 177.32
-9751337.32 5138369.26 177.04
-9751866.11 5138159.51 177.12
-9751340.15 5138159.55 177.30
-9751653.94 5139213.41 177.01
-9751442.50 5139214.46 177.31
-9751547.01 5139105.93 177.17
-9750495.38 5135943.67 177.20
-9750391.68 5135945.06 176.98
-9750285.26 5135943.95 177.08
-9754498.70 5138055.14 191.33
-9754393.83 5137944.19 199.75
-9754512.37 5136888.61 193.44
-9754492.26 5137842.35 196.05
-9754399.15 5136781.37 193.77
-9754508.51 5136676.99 193.06
-9754294.41 5136683.88 195.62
-9754606.68 5136679.25 189.79
-9754290.02 5137631.46 185.75
-9754504.28 5136574.95 182.87
-9754284.26 5136467.94 192.08
-9754291.07 5139104.44 191.49
-9754294.35 5137317.02 191.42
-9754919.14 5137208.72 185.27
-9754607.05 5137209.91 197.96
-9754721.20 5138577.70 188.93
-9754817.75 5138474.82 180.34
-9754502.00 5138474.99 193.01
-9754712.30 5138368.32 190.67
-9754395.48 5138264.55 201.83
-9754818.45 5138264.39 182.20
-9754080.29 5136999.06 200.16
-9753876.81 5138053.16 191.39
-9754183.29 5137839.72 197.37
-9753976.51 5136682.23 190.55
-9753554.29 5136682.76 190.11
-9753447.07 5136682.27 199.89
-9753648.92 5137632.55 189.45
-9753974.42 5136366.21 196.96
-9753553.46 5136264.67 195.04
-9754082.91 5137314.33 183.10
-9753975.03 5138999.35 201.18
-9753863.37 5139008.29 306.38
-9753658.12 5139001.50 200.65
-9753552.11 5139003.00 200.53
-9753238.04 5138897.24 193.60
-9754185.91 5138798.77 192.59
-9753447.18 5138685.60 210.39
-9753762.28 5138685.87 198.06
-9753866.24 5138580.82 210.68
-9753655.98 5138582.91 197.41
-9753447.53 5138580.47 210.36
-9753864.47 5138475.71 210.01
-9753658.13 5138478.95 186.60
-9753341.78 5138369.84 210.29
-9753446.61 5138265.98 190.54
-9753663.33 5138152.49 192.79
-9753451.96 5139317.02 195.75
-9753868.87 5139214.86 186.11
-9753763.83 5139200.41 195.97
-9753236.43 5136365.91 198.71
-9753235.90 5137104.17 183.86
-9752920.73 5135943.00 197.82
-9752808.99 5135945.30 192.46
-9752709.23 5135944.57 200.37
-9752501.10 5135952.47 188.09
-9753127.92 5137001.59 194.61
-9752919.70 5136788.07 187.03
-9753128.48 5136683.22 194.52
-9752915.29 5136685.33 194.89
-9752288.00 5136676.01 187.73
-9752394.65 5136576.91 183.92
-9753020.62 5136472.26 196.66
-9752392.80 5136471.59 199.81
-9753131.68 5137210.06 183.40
-9753025.27 5137209.16 182.80
-9752500.35 5136366.49 180.66
-9752918.76 5136366.72 198.01
-9752708.56 5136367.32 196.27
-9752813.41 5136262.34 195.42
-9752715.75 5136266.00 192.98
-9752605.10 5136262.72 187.38
-9752393.68 5136271.10 185.25
-9752288.81 5136257.39 192.50
-9752920.77 5136262.00 196.27
-9753025.52 5139002.14 209.32
-9752709.23 5139001.24 176.98
-9752603.51 5139002.14 176.95
-9752392.74 5139000.66 176.99
-9752814.72 5138896.61 209.38
-9752710.05 5138897.58 177.01
-9752391.57 5138896.24 177.02
-9753130.50 5138682.77 185.92
-9752920.50 5138474.98 187.68
-9753129.74 5138371.15 193.05
-9753030.05 5138163.41 198.49
-9752925.67 5138163.82 187.79
-9752601.74 5139107.01 187.54
-9752499.41 5139108.22 179.39
-9752389.41 5139101.33 184.18
-9751865.31 5136998.37 177.03
-9751549.70 5136999.43 177.09
-9752077.63 5136894.03 186.67
-9751863.97 5136893.13 177.18
-9751337.04 5136893.95 176.88
-9751760.13 5138051.79 177.37
-9751655.26 5137948.37 177.26
-9751337.39 5136789.25 177.16
-9751231.31 5136787.10 177.26
-9751338.03 5137736.65 177.18
-9752180.04 5136665.62 195.01
-9752081.30 5136562.23 187.01
-9752064.76 5136486.47 187.31
-9751875.74 5136484.36 185.73
-9751654.02 5136470.64 176.95
-9751443.45 5136368.79 177.38
-9751337.37 5136366.90 177.16
-9751338.72 5136262.18 177.20
-9751655.63 5137314.08 177.00
-9752079.71 5136260.18 177.58
-9751654.14 5136261.47 177.06
-9751551.90 5136262.85 177.19
-9751971.87 5137210.91 177.24
-9751336.63 5137206.89 177.40
-9752175.11 5136051.19 194.02
-9751547.33 5139001.84 177.19
-9751548.65 5138898.11 177.23
-9751230.51 5138792.44 177.23
-9751550.57 5138689.29 177.47
-9751864.62 5138581.14 177.20
-9751759.44 5138473.48 177.12
-9751655.48 5138370.35 177.09
-9751234.80 5138263.21 177.13
-9752077.25 5139209.74 177.39
-9751549.27 5139212.50 176.98
-9751970.81 5139107.04 177.12
-9752181.63 5138580.92 177.02
-9755030.38 5137000.12 178.32
-9754290.97 5136893.03 181.78
-9755017.55 5136793.19 193.55
-9754916.06 5136789.48 188.53
-9754908.64 5136471.82 190.30
-9754608.97 5136469.92 190.95
-9754500.13 5136471.41 186.43
-9754823.04 5139103.26 200.12
-9754496.38 5139109.02 195.72
-9754395.76 5139105.59 187.00
-9754393.30 5136362.97 191.45
-9754822.66 5138891.42 189.83
-9754711.96 5138897.15 180.34
-9755027.23 5136250.38 184.46
-9754498.26 5136265.55 191.14
-9754394.61 5136256.66 189.27
-9755034.14 5138686.21 182.99
-9755011.60 5136156.11 186.17
-9754926.21 5136150.57 185.55
-9754822.99 5136150.96 191.05
-9754712.74 5136150.24 191.04
-9754616.73 5136157.46 192.23
-9754924.19 5138580.39 183.86
-9754506.74 5138574.67 192.50
-9754388.47 5136058.37 190.74
-9754290.78 5136050.02 197.08
-9754400.80 5138481.58 192.76
-9754395.82 5138382.75 199.55
-9754287.90 5138273.14 182.64
-9755031.41 5138264.19 185.06
-9754185.69 5136999.94 193.93
-9753869.26 5136998.91 182.23
-9753764.34 5137000.38 191.29
-9753551.22 5136895.29 191.87
-9753346.17 5138045.17 186.09
-9753972.91 5137945.30 193.26
-9753341.85 5137842.51 182.33
-9753658.07 5136683.28 193.98
-9753890.58 5137735.52 257.53
-9753560.41 5136573.50 190.25
-9754180.57 5136575.02 192.02
-9754076.80 5136478.54 198.14
-9753866.77 5136471.38 200.00
-9753547.62 5136472.14 190.75
-9753342.71 5137523.25 193.53
-9753450.62 5136362.77 193.92
-9753766.86 5137415.31 193.81
-9753976.76 5136268.15 195.00
-9753872.22 5136269.52 191.99
-9753656.73 5136254.74 193.27
-9753552.80 5137318.66 194.60
-9753449.78 5137317.61 191.24
-9753344.71 5136157.06 190.74
-9754179.04 5136154.48 191.34
-9753862.58 5136151.88 194.90
-9753649.26 5137209.61 191.41
-9754185.09 5139002.12 199.87
-9754196.19 5139109.41 190.62
-9754081.62 5139003.10 293.55
-9753868.64 5138896.64 200.05
-9753341.78 5138896.80 210.22
-9754168.00 5138887.07 255.01
-9753973.66 5137109.26 193.14
-9753552.59 5138791.12 197.47
-9753341.89 5138685.86 210.13
-9754183.60 5138472.70 196.31
-9754073.61 5138479.00 189.53
-9753763.45 5138474.87 209.77
-9753558.42 5138472.53 192.60
-9753447.27 5138474.72 210.28
-9753552.18 5138263.44 188.77
-9753858.25 5138159.90 190.20
-9753342.04 5138159.05 189.73
-9754082.00 5139212.67 192.78
-9753234.10 5136468.10 196.54
-9753237.42 5138685.25 210.24
-9752287.68 5136893.92 178.95
-9752826.40 5138051.79 188.10
-9752603.36 5138049.10 191.01
-9752497.69 5137842.56 177.00
-9752391.74 5137737.25 177.04
-9753027.70 5136681.29 192.74
-9753020.84 5137526.14 186.09
-9753025.14 5136573.90 196.23
-9752814.87 5136577.33 184.29
-9752610.07 5137413.54 190.54
-9752394.30 5137424.16 177.28
-9752918.47 5136474.35 194.67
-9752702.57 5136473.16 187.34
-9752604.42 5136468.86 193.42
-9753130.42 5137315.22 182.67
-9752285.81 5137211.48 177.38
-9752921.70 5137213.50 185.93
-9753131.66 5136365.70 184.67
-9752604.31 5137092.38 191.83
-9753025.25 5136261.80 195.25
-9752496.70 5138897.77 177.12
-9752499.19 5138792.62 177.10
-9752602.75 5138686.57 176.93
-9752291.72 5138262.87 177.54
-9752710.55 5139107.96 177.00
-9752393.42 5138159.59 177.35
-9752182.36 5137316.75 177.38
-9752183.76 5138264.43 177.28
-9752077.40 5137842.84 177.39
-9751969.81 5137842.47 177.07
-9752076.90 5137524.97 177.13
-9754608.62 5136992.92 189.02
-9755027.72 5138048.94 185.63
-9754924.12 5138053.18 183.69
-9754609.58 5138057.25 190.58
-9754932.00 5137941.18 194.02
-9754409.84 5136892.38 192.84
-9754934.65 5137842.22 192.50
-9754394.87 5137841.71 190.56
-9754814.05 5136793.77 187.41
-9754406.19 5137519.22 188.53
-9755033.48 5136469.35 178.57
-9754937.28 5136361.64 199.76
-9755032.57 5137316.45 195.83
-9755027.81 5138898.76 188.74
-9754710.49 5137311.27 199.32
-9755029.91 5137196.71 194.18
-9754697.52 5137104.46 195.88
-9754818.01 5138579.95 180.36
-9754498.75 5138362.35 189.62
-9754707.90 5138159.33 188.35
-9750199.24 5135944.51 176.97
-9750390.56 5135838.70 177.29
-9750200.12 5135838.49 176.75
-9750390.73 5135628.38 177.16
-9750202.83 5135524.29 177.23
-9750387.57 5135523.64 177.22
-9750283.60 5135522.35 176.76
-9750388.87 5135417.66 177.13
-9750282.52 5135417.47 177.39
-9750204.65 5135313.16 177.34
-9752298.53 5135948.92 192.53
-9752817.04 5135833.94 196.92
-9752495.94 5135842.83 195.65
-9752384.11 5135841.02 193.22
-9752291.32 5135739.77 190.06
-9752504.45 5136985.97 193.22
-9752604.76 5135628.73 197.57
-9752498.16 5135627.56 197.90
-9752395.42 5136790.09 184.22
-9752712.96 5135525.45 191.18
-9752289.79 5135519.94 192.37
-9752605.78 5136576.56 179.51
-9752288.25 5135311.86 182.42
-9752498.32 5135206.19 190.74
-9752287.45 5136471.92 185.32
-9752394.49 5135209.01 192.59
-9752287.60 5137314.21 177.08
-9752393.05 5135101.14 184.25
-9752181.34 5137210.01 177.22
-9752285.12 5136367.60 193.00
-9752285.29 5134996.38 192.39
-9752603.69 5136366.23 199.12
-9752602.75 5136157.14 187.70
-9752189.85 5134897.86 189.49
-9752073.80 5134889.66 192.70
-9751970.49 5134890.04 182.78
-9751669.88 5134897.20 192.25
-9751444.53 5134889.80 182.99
-9751444.61 5134789.48 188.78
-9751233.14 5134786.28 177.02
-9751974.66 5135942.37 183.51
-9751759.39 5135941.87 177.15
-9751550.94 5135943.76 177.10
-9751445.67 5135943.66 177.05
-9751233.72 5135944.86 177.16
-9751231.76 5135840.99 177.22
-9752188.19 5135833.41 192.72
-9751865.34 5135732.52 177.22
-9751760.65 5135731.64 177.15
-9751546.90 5135733.35 177.20
-9751654.53 5136997.70 177.12
-9751973.94 5136886.19 176.97
-9751653.45 5136893.93 177.14
-9751550.68 5136892.06 177.30
-9751445.19 5136892.58 177.05
-9752179.25 5135638.17 189.10
-9751865.96 5136787.19 177.02
-9751761.45 5136786.91 177.19
-9751549.84 5136788.10 177.03
-9751549.42 5135627.29 177.21
-9752079.03 5136688.25 179.85
-9751979.03 5136682.22 180.20
-9751866.76 5136687.25 179.07
-9751761.23 5136681.98 182.25
-9751550.27 5136682.06 177.08
-9751443.64 5136682.42 177.14
-9751973.07 5135520.80 180.07
-9751754.88 5136579.91 176.99
-9751548.37 5136575.83 177.09
-9751338.48 5136577.85 177.24
-9751864.61 5137526.80 177.24
-9751760.85 5137527.18 177.33
-9751653.04 5137524.78 177.34
-9751340.37 5137526.01 177.12
-9751971.24 5137526.65 177.00
-9751443.02 5136470.78 177.20
-9751761.73 5137419.40 177.19
-9751656.64 5137418.83 177.17
-9751442.51 5137421.53 177.38
-9751654.73 5136365.29 177.18
-9752077.09 5135417.01 180.48
-9751233.08 5136261.60 176.97
-9752074.60 5137317.90 177.48
-9751339.36 5137313.53 177.03
-9751232.51 5137317.84 177.31
-9751759.66 5136262.70 176.95
-9751444.45 5136259.57 177.22
-9751761.03 5137212.07 177.13
-9751443.24 5137209.84 177.11
-9751233.07 5136157.84 176.97
-9752180.66 5136157.72 184.12
-9751654.62 5136154.22 177.25
-9751232.74 5135310.61 177.33
-9751338.56 5137104.66 177.04
-9751760.00 5137102.83 177.24
-9751653.24 5137103.76 176.98
-9751548.96 5137104.05 177.21
-9751444.14 5137102.54 177.00
-9752179.76 5135312.93 193.18
-9752076.69 5135311.29 197.66
-9751657.17 5136048.69 177.16
-9751444.24 5136049.31 176.89
-9752076.35 5136050.53 176.94
-9751760.33 5135206.32 179.75
-9751441.72 5135207.95 177.30
-9751339.02 5135205.05 177.24
-9752180.58 5135101.14 195.61
-9752076.17 5135097.53 186.91
-9751868.53 5135099.18 195.03
-9751650.70 5135111.57 186.20
-9751549.02 5135100.13 180.57
-9751444.99 5135097.60 178.73
-9751232.55 5135101.31 176.94
-9752181.76 5134994.95 183.00
-9751125.86 5134891.51 177.20
-9751022.01 5134893.16 177.28
-9750915.35 5134889.71 177.17
-9750813.02 5134891.84 177.19
-9750706.47 5134889.97 177.11
-9750388.16 5134889.39 177.49
-9750208.29 5134891.57 176.78
-9751124.70 5134785.92 177.31
-9750916.25 5134785.93 177.16
-9750811.42 5134784.82 177.20
-9750706.64 5134783.38 176.93
-9750600.52 5134787.15 177.30
-9750495.64 5134784.58 176.99
-9750390.36 5134783.74 177.06
-9750284.84 5134784.50 176.91
-9750209.27 5134786.32 176.93
-9751126.78 5134680.80 176.78
-9750387.81 5134679.54 177.15
-9750286.16 5134679.50 176.97
-9750210.12 5134676.12 177.06
-9750916.43 5134573.16 177.01
-9750813.34 5134572.62 177.08
-9750705.89 5134571.87 177.07
-9750493.95 5134572.79 177.08
-9750390.56 5134572.55 176.98
-9750211.60 5134571.47 176.98
-9750211.94 5134469.04 177.18
-9751126.72 5135943.40 177.21
-9751019.98 5135945.78 177.30
-9751022.16 5135840.29 177.24
-9750813.74 5135838.42 177.10
-9750601.39 5135838.56 177.38
-9750918.09 5135733.54 177.20
-9750809.61 5135732.97 177.10
-9751023.32 5135627.39 177.15
-9750706.78 5135628.75 177.49
-9751023.93 5135523.18 177.19
-9750601.95 5135523.25 177.07
-9751125.99 5135415.42 177.42
-9751022.12 5135415.11 177.20
-9750915.34 5135417.13 177.08
-9750708.11 5135415.04 177.24
-9750600.88 5135416.80 177.12
-9750495.55 5135417.04 177.09
-9750918.27 5135310.56 177.34
-9750493.79 5135312.72 177.61
-9751128.22 5135205.72 177.05
-9750598.19 5135206.83 177.17
-9751127.14 5135103.30 177.18
-9750704.34 5135101.27 177.03
-9750388.89 5135103.52 177.37
-9750283.61 5135102.25 177.23
-9751127.42 5134994.11 177.02
-9751020.45 5134995.75 177.06
-9750917.28 5134995.73 177.11
-9753241.79 5135306.49 190.97
-9753238.31 5135204.97 190.69
-9754395.77 5134995.67 190.90
-9754719.32 5135942.34 191.89
-9754714.47 5135843.48 191.95
-9754605.53 5135844.54 187.81
-9754391.98 5135726.47 189.12
-9754399.69 5135524.25 186.07
-9754290.25 5135518.94 189.70
-9754918.67 5135520.31 181.96
-9754712.17 5135311.60 181.54
-9754396.45 5135312.09 181.58
-9754712.84 5136683.65 197.59
-9754612.41 5135093.22 190.20
-9754291.49 5135101.93 197.95
-9754912.16 5136576.98 191.02
-9754294.94 5136573.95 192.41
-9754817.21 5136471.91 185.73
-9754499.87 5137315.02 189.72
-9754501.39 5136155.56 197.33
-9754290.76 5136158.85 185.71
-9754499.12 5137104.73 187.41
-9754291.03 5137104.16 199.88
-9754501.53 5136049.63 197.43
-9754923.84 5136042.98 189.39
-9753974.77 5135004.90 193.61
-9753661.14 5135000.77 192.45
-9753552.02 5134994.31 193.42
-9753345.05 5134892.85 187.43
-9753869.90 5134783.79 192.94
-9753762.27 5134783.78 188.68
-9753649.87 5134784.39 190.91
-9753239.06 5134783.09 185.71
-9753971.59 5134784.42 189.24
-9754187.45 5135947.91 192.46
-9753973.79 5135943.25 191.94
-9753762.90 5135944.84 191.64
-9754185.78 5135838.77 196.18
-9754187.38 5135734.81 194.19
-9753653.32 5135731.71 187.03
-9753341.08 5135727.61 189.54
-9753974.24 5136998.98 181.74
-9753344.52 5137000.71 191.07
-9753972.71 5135640.33 188.46
-9753763.44 5135628.31 196.87
-9753654.37 5135628.02 194.51
-9754079.98 5136897.84 199.23
-9753873.11 5136887.03 192.59
-9754185.95 5135624.83 195.61
-9754186.45 5135523.07 191.88
-9753868.17 5136787.42 183.76
-9753757.89 5135521.13 192.29
-9753553.01 5135524.31 196.92
-9753451.92 5135520.50 194.83
-9753280.43 5135506.20 254.84
-9754084.90 5135417.42 192.56
-9753975.16 5135411.95 191.35
-9753873.76 5135414.91 190.70
-9753761.95 5135419.43 192.17
-9753448.77 5135420.41 198.37
-9753335.79 5135418.51 192.28
-9754086.30 5135313.64 196.48
-9753763.44 5135313.44 191.06
-9754183.32 5135312.33 192.46
-9753663.28 5136576.81 194.25
-9753450.09 5136575.42 196.44
-9753982.65 5136576.60 190.83
-9753340.61 5135210.38 198.13
-9754184.25 5135208.04 196.26
-9753974.03 5135206.61 181.42
-9753870.99 5135203.81 194.15
-9753445.65 5136470.13 197.82
-9754082.70 5137526.10 194.21
-9753658.10 5135101.68 198.43
-9753545.61 5136364.93 194.43
-9753344.37 5136364.25 195.69
-9753340.38 5137420.40 195.40
-9754080.52 5136261.12 193.26
-9754078.59 5137210.96 199.07
-9753761.41 5136048.51 193.90
-9753757.46 5137112.52 189.03
-9753235.36 5136581.06 183.52
-9753234.38 5137638.76 193.83
-9753237.28 5137313.44 185.00
-9753119.32 5134889.39 194.21
-9753120.07 5134995.72 194.58
-9753027.53 5134889.85 194.20
-9752800.04 5134995.77 193.10
-9752699.96 5134997.97 189.03
-9752507.80 5134991.50 200.68
-9753126.72 5134782.11 188.15
-9752810.85 5134786.44 189.42
-9752603.88 5134784.73 193.76
-9752496.28 5134788.51 190.04
-9752395.17 5134784.03 191.27
-9752279.85 5134791.35 188.71
-9752711.78 5134678.40 190.39
-9753025.47 5134574.02 183.27
-9752920.65 5134572.94 199.69
-9752498.09 5134573.81 183.06
-9753025.91 5135731.27 193.74
-9752815.67 5135740.16 191.71
-9753025.72 5136893.46 182.86
-9753134.06 5137630.87 183.87
-9752817.47 5137634.27 192.81
-9752392.97 5137632.06 177.06
-9752919.97 5135417.19 183.56
-9752705.09 5135415.29 196.75
-9752496.91 5137526.14 177.31
-9753131.08 5135312.15 183.41
-9753025.92 5135311.81 183.85
-9752828.42 5135308.31 191.87
-9753016.57 5137426.52 188.78
-9752711.92 5137420.53 188.40
-9752498.07 5137419.35 177.99
-9752922.01 5135207.88 194.85
-9752603.88 5135208.19 193.87
-9752709.34 5137315.73 180.35
-9753135.25 5136472.99 194.67
-9752393.52 5137313.35 177.25
-9753119.79 5135101.48 193.54
-9753025.48 5135100.98 194.35
-9752387.50 5134993.61 190.09
-9753025.31 5136367.92 193.19
-9752928.38 5137102.23 190.42
-9753128.58 5136259.96 194.77
-9751545.11 5134891.99 194.71
-9751234.14 5134889.91 177.04
-9751765.69 5134788.73 194.70
-9751654.24 5134779.76 192.48
-9751871.40 5134779.91 192.94
-9752074.60 5134687.27 194.15
-9751440.18 5134688.48 186.31
-9752072.84 5134565.77 192.58
-9751866.73 5134574.07 198.42
-9751759.33 5134577.41 193.22
-9751443.58 5134573.72 179.81
-9751338.07 5134574.19 179.84
-9751232.80 5134573.37 177.07
-9751550.17 5135839.19 177.19
-9751864.56 5135840.56 177.08
-9751762.11 5135840.64 177.10
-9751971.45 5136999.49 177.03
-9751336.68 5136998.38 177.17
-9751758.65 5136892.15 177.01
-9751234.95 5136893.21 177.17
-9751655.33 5135629.58 177.13
-9751441.81 5135627.20 177.14
-9751337.43 5135627.16 177.01
-9751867.53 5137632.45 177.22
-9751861.59 5135522.44 184.07
-9751443.81 5135523.46 177.14
-9751549.15 5137526.21 177.20
-9751549.67 5136471.59 177.21
-9751870.33 5136375.82 179.44
-9751968.69 5135416.32 196.85
-9751866.58 5135419.25 186.32
-9751653.89 5135418.20 177.13
-9751339.43 5135416.95 177.21
-9751234.15 5135418.72 177.05
-9751972.35 5137312.77 177.15
-9751866.31 5137315.91 177.23
-9751762.41 5137316.03 177.13
-9751550.26 5137314.60 177.28
-9752077.76 5137211.32 177.20
-9751964.77 5135311.00 187.70
-9751759.92 5136052.80 181.69
-9751973.31 5135204.17 196.59
-9751868.29 5135204.93 193.23
-9751665.23 5135204.59 185.49
-9752073.60 5134993.96 196.19
-9751876.55 5134988.53 196.80
-9751760.20 5134995.45 180.89
-9750601.12 5134889.41 177.05
-9750915.77 5134678.72 177.04
-9750810.05 5134679.96 177.14
-9751129.33 5134573.64 177.18
-9751022.89 5134575.41 177.42
-9750915.22 5135944.06 177.29
-9750601.08 5135946.11 177.34
-9751127.72 5135837.58 177.08
-9750493.73 5135839.07 176.94
-9750284.29 5135731.79 177.05
-9751023.85 5135733.83 177.10
-9750598.72 5135734.04 177.11
-9750495.01 5135733.71 177.07
-9750811.76 5135626.08 177.35
-9750494.92 5135625.23 177.25
-9750918.16 5135519.84 177.28
-9750812.47 5135417.27 177.32
-9750203.82 5135415.20 177.28
-9751128.68 5135310.62 177.03
-9750810.07 5135311.79 177.27
-9750598.39 5135314.46 177.21
-9750705.65 5135207.84 177.08
-9750205.56 5135208.30 177.07
-9751024.22 5135102.06 177.35
-9750601.62 5134996.67 177.13
-9753231.66 5136158.04 190.72
-9753236.74 5134678.95 182.35
-9753236.47 5135100.78 183.21
-9754291.25 5134784.44 194.49
-9755035.99 5134995.66 183.78
-9754805.25 5134888.71 192.23
-9754715.50 5134875.93 190.73
-9754593.51 5134895.95 191.31
-9754397.87 5134892.33 193.21
-9755019.00 5134783.76 185.61
-9754921.88 5134794.42 180.81
-9754813.99 5134775.58 190.47
-9754719.70 5134774.79 194.82
-9754501.09 5134783.81 188.41
-9754397.25 5134784.78 181.87
-9754910.84 5134666.23 210.49
-9754811.37 5134671.62 190.08
-9754702.75 5134583.72 188.17
-9754606.96 5134573.72 181.59
-9754502.27 5134568.36 201.03
-9754295.91 5134573.54 189.80
-9754819.60 5134572.97 193.40
-9754291.26 5135205.08 197.04
-9755025.65 5136683.05 177.51
-9754913.05 5135107.17 187.05
-9754810.86 5135101.62 196.17
-9754712.44 5135100.86 199.05
-9754396.42 5135099.91 191.86
-9755037.55 5137625.66 186.01
-9754928.28 5137628.62 193.71
-9754712.45 5137631.53 199.67
-9755028.32 5137528.75 188.55
-9754718.32 5137531.16 199.92
-9754607.82 5137524.37 197.76
-9754712.67 5137420.61 181.39
-9754720.99 5137202.32 199.41
-9754389.17 5137204.96 190.18
-9754292.98 5137209.67 187.77
-9754398.12 5137105.14 194.23
-9755023.53 5137104.55 182.37
-9754078.21 5134889.77 192.25
-9753978.62 5134896.77 186.14
-9753872.22 5135002.55 195.39
-9753760.44 5135000.39 191.48
-9753664.37 5134891.16 191.14
-9753448.75 5134991.60 190.94
-9753342.71 5134995.79 183.05
-9753234.88 5134885.56 187.41
-9753446.98 5134783.39 198.59
-9754176.33 5134680.02 189.60
-9754076.76 5134671.73 193.51
-9753970.83 5134680.19 192.00
-9753657.51 5134675.66 193.14
-9753658.93 5134568.05 187.57
-9753557.80 5134571.06 192.68
-9753448.90 5134576.14 191.27
-9753336.13 5134580.74 186.32
-9754184.70 5134573.95 199.16
-9754077.93 5134583.16 193.49
-9754074.47 5135942.87 196.14
-9753647.62 5135940.50 191.21
-9753459.02 5135942.30 188.27
-9753342.91 5135839.55 190.67
-9754078.96 5135845.78 191.38
-9753867.79 5135838.72 196.65
-9753451.12 5135840.05 193.62
-9753975.68 5135733.83 189.28
-9753861.21 5135733.69 191.96
-9753552.74 5135731.75 188.09
