-9755477.06 5135390.66 181.09
-9755421.02 5135395.17 220.80
-9755371.24 5135390.91 188.99
-9756098.79 5135384.40 200.11
-9756265.51 5135339.83 180.48
-9756161.89 5135338.07 180.45
-9756268.19 5136656.19 179.92
-9756056.66 5135338.89 180.76
-9755793.65 5135337.71 181.71
-9755740.67 5135338.40 185.78
-9755687.55 5135338.10 185.21
-9755582.30 5135337.96 181.08
-9755371.20 5135338.26 181.33
-9755378.09 5135350.77 207.35
-9755318.74 5135338.25 181.26
-9755473.02 5136650.61 180.78
-9755687.90 5135285.69 185.29
-9755635.45 5135285.69 185.11
-9755529.56 5135285.35 181.00
-9755371.46 5135285.83 181.18
-9755318.75 5135289.59 181.50
-9756213.43 5135285.41 179.73
-9756212.46 5136604.59 179.32
-9756017.72 5135308.75 199.86
-9755951.40 5135285.65 180.78
-9755738.79 5136593.83 181.03
-9756215.62 5135234.82 179.73
-9756056.93 5135234.90 180.17
-9755951.39 5135232.94 180.85
-9755793.35 5135232.63 181.09
-9755529.86 5135232.81 180.98
-9756162.11 5136550.66 180.49
-9755319.08 5135232.52 181.43
-9755845.32 5136548.80 180.70
-9756267.66 5136550.42 180.99
-9756162.23 5135180.29 180.58
-9756109.73 5135180.26 180.77
-9756057.28 5135180.35 180.69
-9755951.72 5135179.94 180.64
-9755635.38 5135179.70 185.23
-9755477.09 5135180.06 181.00
-9755318.49 5135180.08 181.27
-9756215.16 5136497.93 180.76
-9756056.32 5135127.25 180.57
-9756003.65 5136497.97 180.62
-9755845.71 5136497.91 180.73
-9755740.48 5136498.22 180.55
-9755943.70 5135135.70 199.91
-9755582.13 5136498.20 180.45
-9755741.00 5135125.90 180.37
-9755695.58 5135154.41 200.43
-9755530.17 5135128.40 180.79
-9755476.82 5135127.46 181.01
-9755424.07 5135127.73 181.02
-9755529.05 5135074.86 181.10
-9755424.04 5135074.40 181.13
-9755335.64 5135125.17 200.47
-9755318.85 5136445.46 180.90
-9756056.40 5135074.24 180.81
-9756002.20 5135077.25 180.53
-9755788.98 5136449.86 201.77
-9755739.96 5135074.47 181.24
-9755688.20 5135074.28 181.35
-9755634.29 5135074.51 185.42
-9755950.01 5136396.37 180.32
-9755633.32 5136394.05 183.59
-9756056.66 5135021.88 180.02
-9755526.00 5136391.43 180.88
-9755318.65 5136392.76 180.45
-9755898.74 5135021.85 180.55
-9756215.22 5136392.14 180.89
-9756162.38 5136392.55 179.76
-9755790.40 5135022.84 181.64
-9755738.76 5135021.36 181.98
-9755686.66 5135021.49 181.70
-9755476.90 5135022.08 181.17
-9756162.72 5136341.72 179.85
-9756003.85 5136339.52 180.60
-9755846.45 5136340.05 181.03
-9755632.62 5136340.42 183.56
-9755529.42 5136340.04 180.72
-9755339.11 5134981.33 199.98
-9755369.98 5136339.96 180.55
-9756057.16 5136286.59 180.60
-9755950.04 5136283.76 180.56
-9755846.11 5136287.08 180.86
-9755793.01 5136287.10 180.76
-9755737.64 5136287.95 180.03
-9755582.23 5136287.00 180.71
-9755525.08 5136286.47 180.76
-9755471.68 5136287.81 181.12
-9755633.47 5136232.93 180.19
-9755476.93 5136234.64 180.53
-9755371.42 5136234.86 180.77
-9755318.59 5136234.74 180.74
-9756109.45 5136234.15 180.87
-9755898.60 5136234.36 180.87
-9756162.18 5136181.99 180.11
-9756005.27 5136185.31 179.59
-9755951.45 5136177.65 181.26
-9755472.21 5136181.88 178.55
-9755371.72 5136181.90 180.82
-9756109.71 5136129.26 180.99
-9755951.09 5136133.03 181.27
-9755845.62 5136129.20 180.88
-9755711.90 5136136.95 200.72
-9755477.84 5136129.31 203.12
-9755951.01 5137340.93 179.81
-9755898.27 5137341.61 180.36
-9756214.72 5136079.83 180.97
-9755581.53 5137341.32 180.90
-9756214.93 5137341.66 180.50
-9756162.59 5137343.73 179.78
-9755951.61 5136020.50 181.13
-9755898.96 5136023.25 180.98
-9755845.81 5136023.58 180.99
-9755475.54 5136023.85 180.68
-9755424.23 5136023.77 180.73
-9755732.16 5136023.12 200.74
-9755740.22 5137288.90 180.60
-9755392.69 5137294.32 199.85
-9755529.70 5137235.85 180.69
-9755475.44 5137235.23 180.82
-9756214.97 5137236.28 180.80
-9756161.92 5137236.52 180.17
-9756056.91 5137235.99 180.61
-9756055.90 5137241.78 200.44
-9755951.48 5137235.51 180.77
-9756160.53 5137182.70 180.33
-9756109.82 5137182.57 180.27
-9756005.67 5137183.45 180.41
-9755950.83 5137183.99 180.61
-9755740.84 5137183.48 181.01
-9755529.72 5137183.48 180.59
-9756109.73 5137129.96 180.40
-9756057.22 5137131.12 180.71
-9755950.51 5137077.52 180.73
-9755845.82 5137078.07 180.52
-9755792.35 5137078.92 180.58
-9755739.96 5137078.04 180.87
-9755635.00 5137078.08 180.58
-9755375.83 5137074.29 201.34
-9755720.13 5137069.30 201.27
-9755266.15 5134916.30 181.34
-9755213.03 5134969.60 181.76
-9755160.59 5134968.93 181.76
-9755213.10 5134864.16 181.65
-9755160.67 5134864.13 182.14
-9755212.65 5134812.08 181.58
-9755160.62 5134811.16 181.76
-9755183.61 5134792.31 199.99
-9755111.54 5134756.92 182.62
-9755265.89 5134758.53 181.43
-9755107.62 5134600.33 181.39
-9755287.90 5135989.67 202.19
-9755213.54 5135970.67 181.43
-9755106.45 5135970.93 180.94
-9755160.78 5135918.22 181.27
-9755212.94 5135865.52 181.67
-9755160.45 5135865.28 181.25
-9755266.03 5135812.88 181.21
-9755160.76 5135812.88 181.28
-9755265.84 5135706.92 181.18
-9755107.74 5135707.15 181.31
-9755113.58 5135724.14 205.84
-9755265.21 5135659.63 181.24
-9755205.62 5135661.47 181.48
-9755213.55 5135603.21 220.90
-9755108.14 5135601.42 181.37
-9755160.57 5135549.04 181.54
-9755160.53 5137023.50 180.09
-9755213.47 5135496.56 188.95
-9755081.91 5135481.45 213.68
-9755265.86 5135390.98 181.36
-9755279.76 5135399.46 227.90
-9755160.96 5135390.88 181.46
-9755159.44 5135379.73 212.88
-9755132.84 5135380.05 212.66
-9755106.41 5135338.20 181.70
-9755265.67 5136867.15 179.88
-9755211.98 5136868.43 180.47
-9755266.85 5135338.78 181.51
-9755160.94 5135285.21 181.84
-9755159.21 5136813.74 181.16
-9755107.66 5135232.80 181.78
-9755265.27 5136761.67 180.78
-9755159.90 5135180.09 181.59
-9755100.56 5135182.14 181.65
-9755266.03 5135127.74 181.26
-9755213.28 5135127.72 181.37
-9755160.50 5135127.40 181.40
-9755213.58 5136711.40 180.40
-9755153.29 5136711.34 209.07
-9755107.36 5135128.23 181.58
-9755107.91 5136709.29 180.80
-9755266.30 5135074.42 181.27
-9755160.48 5135074.64 181.57
-9755107.70 5135073.45 181.38
-9755264.52 5136654.69 180.98
-9755213.85 5136651.70 180.66
-9755160.26 5135021.93 181.79
-9755264.34 5136603.66 180.83
-9755213.81 5136549.51 180.84
-9755155.12 5136552.27 216.95
-9755266.04 5136444.81 180.63
-9755160.30 5136392.69 181.27
-9755133.70 5136400.48 213.92
-9755265.46 5137341.24 180.61
-9755107.83 5136339.99 180.70
-9755213.35 5136282.61 180.80
-9755108.14 5136286.95 180.69
-9755108.10 5136234.52 180.78
-9755213.99 5137229.96 180.86
-9755107.74 5137235.46 181.23
-9755265.74 5137183.97 180.73
-9755160.62 5136181.84 181.23
-9755162.31 5137078.94 180.04
-9755107.05 5136023.43 180.75
-9756320.74 5135496.48 180.60
-9756320.10 5135443.78 180.65
-9756320.11 5136498.26 180.70
-9756320.40 5136550.67 180.45
-9756320.51 5135180.54 180.32
-9757322.40 5135918.49 180.27
-9757321.48 5136707.95 180.21
-9757323.75 5136868.74 180.50
-9758365.53 5135128.41 180.55
-9759378.47 5135761.60 180.38
-9759377.68 5136339.55 180.51
-9759378.29 5136234.56 179.43
-9759379.04 5136039.63 199.85
-9759376.72 5136392.23 181.02
-9759430.71 5135970.62 180.46
-9759483.61 5135920.06 179.98
-9759377.03 5136641.87 180.53
-9759390.06 5136680.81 228.38
-9759431.01 5135601.68 180.71
-9759377.92 5135602.20 181.03
-9759430.16 5135549.23 180.73
-9759483.29 5136445.62 180.48
-9759431.30 5136444.69 179.52
-9759431.04 5136287.50 180.36
-9759483.27 5136181.75 180.49
-9759417.98 5136058.75 199.87
-9759410.80 5136039.13 201.85
-9759378.49 5136594.75 180.64
-9759061.91 5135022.60 180.83
-9759008.85 5134968.97 180.62
-9758692.82 5134969.37 180.77
-9758581.49 5134965.29 200.32
-9758549.03 5134981.22 201.59
-9759008.14 5134916.79 180.13
-9758640.65 5134916.80 180.69
-9758429.28 5134916.68 180.56
-9758955.50 5134863.59 179.91
-9758849.99 5134863.91 180.51
-9758745.56 5134863.62 181.02
-9758640.06 5134863.12 180.66
-9758692.54 5134810.98 180.44
-9758640.09 5134810.97 180.40
-9758534.53 5134811.28 180.14
-9758375.96 5134810.72 180.65
-9758591.13 5134768.40 179.91
-9758531.62 5134758.39 185.11
-9758582.71 5134705.80 187.09
-9759008.83 5136024.25 180.45
-9758903.85 5136023.40 180.42
-9758692.70 5135975.78 181.03
-9758639.58 5135976.41 181.00
-9758479.94 5135974.41 180.83
-9759204.26 5135941.48 200.21
-9759167.47 5135918.27 180.54
-9758903.57 5135918.64 180.38
-9758797.74 5135918.06 180.44
-9758533.89 5135917.76 180.71
-9758481.98 5135917.78 180.50
-9759061.46 5137025.28 191.97
-9758956.34 5137025.27 180.29
-9758988.87 5137014.91 230.83
-9758903.28 5137025.29 179.89
-9758796.95 5137025.17 176.57
-9758534.10 5137025.33 180.25
-9758537.84 5137021.80 205.71
-9758639.42 5136972.27 186.69
-9758586.30 5136971.02 181.40
-9758430.00 5136972.94 179.83
-9759166.49 5136972.18 180.70
-9759008.81 5136972.51 180.64
-9759007.83 5136970.96 230.18
-9758797.68 5136973.14 175.78
-9758690.15 5136969.99 180.67
-9758851.10 5135865.41 180.71
-9758597.51 5136984.94 225.79
-9758639.46 5135872.89 180.26
-9758587.47 5135873.68 180.42
-9758693.07 5136919.57 180.36
-9759325.01 5135814.39 180.40
-9758536.17 5136918.35 180.32
-9759153.38 5135810.85 201.63
-9759113.84 5135812.80 180.82
-9759062.78 5135812.57 180.80
-9759009.15 5135812.29 180.55
-9758805.16 5136921.59 224.99
-9758955.46 5135812.61 180.82
-9758902.98 5135812.90 180.40
-9758376.19 5135812.70 181.09
-9759219.94 5136867.01 181.37
-9759114.37 5136867.33 182.04
-9758639.97 5136866.94 178.77
-9758481.65 5136867.21 179.42
-9758429.10 5136867.52 180.38
-9758376.37 5136866.96 179.74
-9759061.04 5135759.24 180.63
-9758956.52 5135759.71 180.82
-9758902.67 5135760.22 180.15
-9758851.26 5135757.22 180.85
-9758642.16 5135760.08 189.45
-9759326.09 5135759.61 180.22
-9759273.53 5135759.20 180.81
-9759220.23 5135759.83 181.11
-9759161.00 5135784.72 199.88
-9759167.20 5136814.45 183.73
-9759097.04 5136841.10 231.16
-9758899.02 5136810.14 180.33
-9758843.69 5136806.62 180.48
-9759216.27 5136796.36 231.30
-9759276.32 5136762.01 227.21
-9759222.67 5136770.57 231.57
-9759166.93 5136761.30 181.93
-9759166.55 5135707.37 180.83
-9759114.68 5135708.05 180.72
-9758902.74 5136761.36 180.41
-9759008.84 5135707.18 180.49
-9758587.20 5136761.79 178.79
-9758481.23 5135707.33 191.28
-9759098.66 5136748.60 228.01
-9759219.68 5135654.69 181.05
-9758688.09 5136708.48 179.43
-9759114.96 5135658.89 180.46
-9758954.61 5135654.98 180.59
-9758902.74 5135654.46 180.33
-9758850.00 5135658.67 180.62
-9759061.92 5136709.00 180.43
-9758954.62 5136707.70 180.44
-9759272.78 5135655.24 180.91
-9759323.57 5136644.37 180.15
-9759271.88 5136650.07 181.33
-9759221.42 5136657.57 183.81
-9758956.37 5136656.26 180.30
-9759273.37 5135602.32 180.78
-9758646.28 5136648.63 175.82
-9759165.40 5135602.00 180.84
-9758799.41 5135610.49 180.51
-9758745.30 5135601.83 180.51
-9758639.75 5135602.26 183.44
-9758586.93 5135601.53 179.81
-9758482.81 5135602.04 178.58
-9759326.49 5136597.82 181.60
-9759272.44 5136603.81 184.18
-9758790.57 5135593.03 212.53
-9759069.23 5136621.01 210.64
-9758957.21 5136601.86 179.32
-9759219.93 5135549.05 180.87
-9759061.96 5135549.32 180.48
-9759053.70 5135576.71 199.85
-9759076.05 5135564.51 200.00
-9758956.38 5135549.07 180.56
-9758961.68 5135563.34 200.30
-9758850.59 5135548.51 180.23
-9758745.91 5135550.64 180.60
-9758587.28 5135548.87 179.51
-9758534.43 5135548.84 180.60
-9758369.62 5135549.50 186.90
-9759272.15 5136550.77 180.87
-9758956.04 5136550.90 179.70
-9758903.51 5136551.11 180.60
-9758745.28 5136550.89 180.74
-9758375.48 5136550.67 180.37
-9759324.60 5135496.54 180.93
-9758957.54 5135496.69 180.17
-9758740.60 5135488.00 180.85
-9758639.71 5135496.48 179.87
-9758482.00 5135496.74 180.33
-9759273.00 5136498.39 180.79
-9758956.10 5136497.88 180.57
-9758481.68 5136497.91 180.37
-9759219.58 5135444.08 180.71
-9759061.87 5135443.35 179.94
-9759008.07 5135442.77 180.41
-9758956.37 5135444.85 180.09
-9758850.77 5136446.03 180.46
-9758745.24 5135443.70 216.98
-9758692.23 5136445.44 187.41
-9758745.70 5135442.46 181.51
-9758632.78 5136445.48 180.80
-9758482.29 5135443.74 180.25
-9758543.74 5136438.73 175.82
-9758481.63 5136445.24 179.74
-9759343.65 5135460.65 202.52
-9758429.42 5136445.47 180.59
-9759219.67 5136445.41 180.47
-9759009.43 5136444.84 179.79
-9759322.65 5135384.05 181.62
-9759272.73 5136392.64 180.57
-9759113.13 5135387.94 203.77
-9758905.35 5135392.23 180.05
-9758739.63 5135390.99 180.83
-9758745.55 5136392.71 180.61
-9758535.59 5136391.93 179.91
-9758429.26 5135390.46 180.31
-9758376.47 5135391.60 180.94
-9758376.42 5136392.45 180.66
-9759325.23 5136339.32 180.33
-9759168.01 5136339.32 180.49
-9759058.33 5136340.26 179.85
-9758903.84 5136339.66 180.49
-9758534.42 5136340.12 179.28
-9758376.12 5136339.80 180.01
-9758587.26 5135338.63 180.46
-9758428.03 5135338.04 180.11
-9758850.39 5137340.85 176.87
-9758481.63 5137341.34 179.93
-9759035.31 5135337.47 200.10
-9758468.12 5135314.36 200.08
-9758428.97 5135285.60 180.34
-9758378.55 5135297.48 180.04
-9758587.22 5136287.62 180.79
-9759273.83 5135285.50 180.43
-9759008.29 5135285.77 180.46
-9758797.86 5135286.24 191.28
-9758745.68 5135281.45 186.56
-9758640.25 5137288.57 180.53
-9758640.04 5135285.60 180.45
-9758482.14 5137288.65 179.67
-9758429.84 5137288.03 179.91
-9759219.30 5136234.51 179.39
-9759167.13 5136234.23 180.44
-9759114.41 5136234.28 179.68
-9758380.90 5136229.55 176.93
-9759220.75 5135233.01 180.83
-9759167.40 5135233.67 179.98
-9759062.23 5135233.39 180.87
-9759008.92 5135233.05 180.55
-9758956.34 5135232.55 180.17
-9758851.37 5135224.65 220.00
-9758800.86 5135233.71 223.85
-9758796.12 5135264.92 216.81
-9758692.44 5137235.84 180.53
-9758640.66 5135232.31 180.53
-9758428.97 5135232.64 180.38
-9758376.48 5135232.99 180.47
-9758429.40 5137236.06 183.77
-9758377.86 5137237.11 185.19
-9758534.45 5136181.62 180.66
-9758768.44 5135236.44 220.44
-9758903.29 5137183.14 179.78
-9758813.35 5137175.57 179.40
-9758479.41 5137180.19 179.02
-9758439.46 5137194.53 229.09
-9758534.55 5135180.17 180.42
-9758481.66 5135180.51 180.44
-9759061.95 5135178.09 179.99
-9758956.10 5135179.59 179.80
-9758638.92 5135180.21 180.49
-9758956.34 5136128.83 180.34
-9759061.98 5137131.03 192.08
-9758956.30 5137130.41 180.23
-9758851.00 5137131.21 178.89
-9758424.31 5137122.82 180.21
-9758536.89 5136129.91 180.52
-9758481.98 5136128.94 181.03
-9758429.19 5136128.97 179.91
-9759166.60 5135126.54 179.90
-9759009.16 5135127.11 180.41
-9759006.40 5137077.93 180.80
-9758798.49 5135139.24 181.54
-9758801.01 5137078.63 178.76
-9758640.67 5135127.21 180.42
-9758587.68 5135127.48 186.80
-9758692.74 5137077.61 183.58
-9758534.76 5135128.07 180.39
-9758534.46 5137078.07 185.62
-9758376.65 5137078.34 180.35
-9759114.48 5137077.93 192.20
-9758795.81 5135120.89 210.83
-9758805.46 5135094.03 211.42
-9758849.57 5136076.09 179.94
-9758587.03 5135074.50 180.26
-9758376.51 5135074.52 180.12
-9758956.09 5135074.48 180.60
-9758903.86 5135074.15 180.46
-9758852.07 5135093.00 208.43
-9758960.99 5135067.61 200.06
-9758479.62 5135055.88 207.58
-9758903.32 5135022.29 180.80
-9758428.68 5135021.85 180.00
-9758270.35 5134964.76 202.22
-9758218.41 5134965.51 202.27
-9758165.43 5134968.85 180.64
-9758112.71 5134968.82 180.75
-9758059.23 5134968.19 176.86
-9757946.36 5134970.35 178.74
-9757743.54 5134969.46 180.66
-9757691.15 5134969.16 180.66
-9757638.30 5134968.92 180.53
-9757661.32 5134972.00 204.57
-9757427.25 5134969.10 181.86
-9758319.14 5134914.22 190.78
-9758111.11 5134916.86 175.95
-9758007.91 5134894.72 176.90
-9757637.46 5134915.99 179.54
-9757374.83 5134916.46 180.98
-9758271.19 5134868.24 180.95
-9757954.64 5134864.02 181.21
-9757743.89 5134863.75 180.71
-9757691.07 5134864.02 180.77
-9757585.81 5134863.48 180.09
-9757532.82 5134863.51 180.05
-9757427.70 5134862.28 180.39
-9758217.94 5134810.75 180.59
-9758167.17 5134809.89 180.69
-9758112.50 5134810.58 189.55
-9758059.93 5134810.76 180.37
-9757999.79 5134814.98 181.46
-9757901.93 5134810.71 181.61
-9757848.85 5134811.29 181.51
-9757743.93 5134810.78 180.33
-9757532.80 5134811.08 180.20
-9757427.93 5134811.17 180.10
-9758323.79 5134758.31 180.57
-9758165.45 5134758.27 180.47
-9757585.61 5134758.29 181.92
-9757532.24 5134757.29 181.78
-9757374.56 5134758.39 180.98
-9758270.88 5136023.93 178.89
-9757849.26 5135970.54 180.18
-9757375.16 5136024.78 179.48
-9758177.94 5135966.49 180.24
-9758323.64 5135917.49 179.87
-9758270.59 5135917.88 179.04
-9758214.49 5135922.01 179.78
-9757849.31 5135917.89 180.03
-9757744.03 5135917.96 179.24
-9757690.91 5135917.93 179.72
-9757585.39 5135918.23 179.55
-9757427.41 5135922.32 179.54
-9757410.83 5135902.97 200.26
-9758270.55 5135865.76 179.33
-9757901.80 5135865.47 180.26
-9757532.84 5134547.56 180.13
-9757480.08 5134546.99 180.09
-9757637.91 5135865.78 180.05
-9757585.79 5135864.91 180.28
-9757409.81 5135889.87 200.35
-9757322.13 5135865.48 180.39
-9757355.00 5135858.27 200.99
-9757724.30 5135848.66 199.85
-9758323.33 5135813.25 180.91
-9758164.39 5135813.42 180.40
-9757744.24 5135813.41 180.14
-9757589.72 5135812.86 180.13
-9757952.49 5135759.79 203.75
-9757744.32 5135761.18 180.30
-9757690.69 5135760.90 180.38
-9757426.89 5135765.15 179.60
-9758009.71 5135758.26 177.68
-9758059.83 5135707.34 180.53
-9757901.72 5135711.16 198.42
-9757586.20 5135709.07 180.84
-9757532.65 5135707.62 180.15
-9757432.59 5135695.88 210.79
-9758271.23 5135654.91 180.34
-9758218.14 5135653.71 180.73
-9757796.81 5135654.62 180.17
-9757480.22 5135654.71 180.07
-9758271.27 5135601.57 180.39
-9758166.26 5135602.11 181.48
-9758010.21 5135601.59 178.36
-9757743.43 5135608.78 184.89
-9757777.61 5135599.37 205.12
-9758323.41 5135549.12 181.16
-9758270.89 5135549.43 180.71
-9758165.64 5135548.91 180.18
-9758058.38 5135553.13 179.04
-9758015.20 5135549.18 178.52
-9757902.09 5135549.28 178.93
-9757859.69 5135585.28 200.88
-9757860.79 5135574.79 199.85
-9757796.28 5135549.27 179.83
-9757480.06 5135548.87 230.10
-9757396.85 5135582.64 200.41
-9757396.68 5135570.71 201.26
-9758323.70 5135496.41 181.09
-9758271.23 5135496.47 180.52
-9758218.47 5135496.16 180.46
-9758166.27 5135496.19 180.94
-9758060.13 5135496.53 179.01
-9757953.57 5135497.07 176.07
-9757795.70 5135496.60 179.77
-9757637.98 5135496.49 180.54
-9757480.34 5135496.53 230.10
-9757427.76 5135496.53 180.46
-9757374.66 5135496.23 180.45
-9758076.32 5135501.56 199.99
-9757585.52 5135443.50 180.66
-9757374.73 5135443.78 180.43
-9757743.85 5135391.06 187.28
-9757638.21 5135391.13 180.46
-9757534.12 5135387.07 207.31
-9757480.17 5135391.04 205.65
-9757374.68 5135391.12 180.53
-9758060.17 5135338.09 179.84
-9757956.89 5135339.35 179.15
-9757696.00 5135354.52 180.16
-9757638.35 5135338.08 180.38
-9757426.89 5135338.14 180.44
-9757375.25 5135338.54 180.51
-9758270.52 5135344.63 180.67
-9758218.17 5135338.05 180.34
-9758323.69 5135285.95 180.46
-9758269.50 5135286.29 180.73
-9757956.60 5135285.52 178.52
-9757638.56 5135285.42 180.34
-9757531.93 5135285.11 180.58
-9758112.44 5137025.66 180.13
-9758059.86 5135232.71 180.59
-9758009.64 5135232.31 175.80
-9757638.58 5137025.43 179.89
-9757848.84 5135232.36 180.03
-9757638.53 5135232.99 180.47
-9757374.82 5135233.03 186.94
-9758217.57 5135235.46 180.71
-9757748.82 5135237.01 201.69
-9757691.41 5136972.36 179.72
-9757638.02 5136972.45 179.91
-9757374.99 5136972.14 180.36
-9758163.04 5136969.35 180.34
-9758268.15 5135194.01 180.39
-9758165.39 5135180.59 180.24
-9757901.63 5135180.04 185.43
-9757691.09 5135179.96 180.86
-9757638.28 5135180.24 180.51
-9757374.99 5135180.10 180.01
-9758213.65 5135175.80 203.10
-9758012.89 5135128.33 179.54
-9757951.68 5135128.97 176.47
-9757813.03 5135163.34 202.07
-9757533.08 5135127.32 180.45
-9757487.48 5135141.15 199.96
-9758217.31 5135152.87 202.04
-9758060.16 5135127.28 179.88
-9758110.90 5136917.92 179.39
-9758006.85 5136920.59 180.48
-9757690.24 5136918.57 179.31
-9757636.44 5136914.99 179.53
-9757426.81 5136919.75 179.07
-9757374.44 5136920.05 179.35
-9758270.96 5135074.89 180.16
-9758218.16 5135074.90 180.22
-9758112.95 5135074.57 180.23
-9758059.47 5135075.82 180.04
-9757743.89 5135074.62 180.62
-9757427.53 5135074.87 180.74
-9757375.09 5135074.39 180.51
-9757610.85 5135070.54 199.85
-9758324.00 5136865.72 179.19
-9758111.87 5136868.54 179.29
-9757953.55 5136867.42 179.13
-9757637.80 5136866.16 179.30
-9757796.62 5135022.17 180.23
-9757691.07 5135022.15 180.89
-9757632.15 5135026.02 181.74
-9757427.30 5135021.82 181.81
-9757374.19 5135021.88 180.96
-9758270.11 5135021.82 180.32
-9758218.52 5135021.25 180.41
-9758271.22 5135011.00 202.25
-9757950.45 5135026.29 179.77
-9757621.59 5135003.84 204.07
-9757480.58 5136814.32 180.35
-9758217.66 5136813.29 180.09
-9758163.12 5136815.72 179.21
-9758112.73 5136761.63 179.24
-9758057.90 5136763.56 179.59
-9757899.88 5136762.27 178.66
-9757373.89 5136760.97 179.61
-9757486.13 5136709.19 203.65
-9757902.17 5136655.48 179.68
-9757742.41 5136655.89 179.63
-9757691.17 5136656.41 180.04
-9757479.93 5136656.41 179.56
-9757375.07 5136656.17 179.70
-9758113.11 5136602.76 180.29
-9757848.26 5136602.06 179.97
-9758060.05 5136548.64 179.54
-9758007.49 5136551.83 179.25
-9758112.59 5136497.61 179.45
-9757743.84 5136495.91 179.90
-9757690.29 5136498.03 180.18
-9757638.47 5136497.38 179.86
-9758218.08 5136444.94 180.43
-9758060.35 5136445.55 180.27
-9757374.80 5136392.26 180.70
-9758165.84 5136392.20 180.70
-9757901.68 5136392.84 180.23
-9758218.34 5136339.54 180.63
-9757848.74 5136336.80 180.42
-9757796.43 5136337.38 180.48
-9757637.26 5136339.60 180.62
-9757586.16 5136339.01 180.42
-9757479.44 5136341.02 180.49
-9758354.53 5137367.27 199.89
-9758271.70 5137342.70 183.73
-9758165.49 5137341.38 179.92
-9758108.64 5137332.05 180.14
-9757902.28 5137340.80 180.50
-9757796.82 5137341.46 178.94
-9757585.79 5137341.46 180.41
-9757533.34 5137341.09 180.42
-9757425.00 5137338.54 179.67
-9758323.30 5136285.88 179.15
-9758268.95 5136290.32 180.59
-9758060.16 5136286.11 180.28
-9757532.96 5137289.08 179.12
-9757428.11 5137288.26 180.21
-9757374.95 5137289.02 179.28
-9757796.44 5136287.67 180.90
-9757849.72 5137288.48 179.20
-9757480.15 5136287.51 180.34
-9757638.01 5137288.73 180.28
-9757322.37 5136291.33 179.58
-9757901.37 5137236.85 178.75
-9757848.23 5137234.96 180.02
-9758218.54 5137235.68 180.12
-9758163.03 5137233.33 180.48
-9758060.01 5137233.94 184.47
-9757901.73 5136234.73 180.65
-9757848.65 5136237.10 180.62
-9757796.44 5136234.14 180.45
-9757902.18 5137183.57 180.12
-9757743.00 5137181.83 179.43
-9757533.05 5137183.27 180.41
-9757427.92 5137183.74 179.65
-9758218.68 5136181.39 180.53
-9757638.04 5136181.45 179.84
-9757532.95 5136181.22 180.35
-9757485.83 5137182.66 205.38
-9757427.67 5136183.09 179.70
-9757374.55 5136183.86 179.52
-9758271.07 5137130.21 180.41
-9758217.69 5137130.30 178.28
-9758165.19 5137130.77 180.20
-9757901.12 5137130.97 180.22
-9757796.64 5137130.27 180.25
-9757585.20 5137131.21 180.26
-9757805.18 5136146.44 200.56
-9757743.71 5136129.06 179.85
-9757480.75 5136129.07 179.89
-9758059.55 5137078.18 179.22
-9757746.23 5137076.01 178.89
-9757477.75 5136073.98 179.79
-9758323.62 5136076.94 178.86
-9757743.69 5136076.33 179.67
-9757638.17 5136080.19 179.15
-9757322.92 5136396.23 180.74
-9757214.79 5134970.20 180.40
-9757058.80 5134969.50 180.53
-9756952.94 5134969.44 181.78
-9756692.56 5134968.64 180.25
-9756477.99 5134969.22 179.85
-9756373.40 5134969.80 180.51
-9757211.47 5134916.28 180.60
-9757057.93 5134917.43 180.43
-9756900.78 5134916.50 180.37
-9756850.16 5134915.98 180.87
-9756797.07 5134917.35 180.80
-9756479.58 5134915.31 179.73
-9757216.79 5134863.81 180.48
-9757110.94 5134863.83 180.38
-9756953.62 5134865.18 180.59
-9756900.10 5134864.10 180.40
-9756847.11 5134863.79 180.67
-9756794.64 5134863.79 180.39
-9756742.16 5134863.79 180.47
-9757216.72 5134813.74 180.65
-9757210.79 5134807.62 200.74
-9757193.88 5134837.51 200.44
-9757110.75 5134810.76 187.19
-9757001.58 5134812.21 180.83
-9756898.93 5134810.54 180.38
-9756847.74 5134811.10 180.70
-9756689.42 5134811.08 180.61
-9756425.21 5134810.81 180.30
-9757163.22 5134758.45 180.60
-9757059.09 5134758.13 180.33
-9756999.90 5134757.86 185.32
-9756952.76 5134758.10 186.20
-9756900.24 5134758.41 180.44
-9756689.42 5134757.83 180.51
-9756636.38 5134758.37 180.63
-9756476.27 5134759.03 179.89
-9756426.16 5134758.68 180.41
-9756442.52 5134773.21 199.91
-9757216.28 5134707.49 180.52
-9756952.68 5134705.65 180.74
-9756847.71 5134705.66 180.49
-9756742.17 5134705.98 180.59
-9756689.71 5134705.66 180.50
-9756636.69 5134705.36 180.83
-9756372.38 5134705.99 180.84
-9757006.13 5134652.95 187.30
-9756953.02 5134652.97 180.86
-9756742.53 5134653.20 180.75
-9756583.94 5134652.96 180.62
-9756478.66 5134652.67 180.51
-9757216.55 5134652.70 180.55
-9757111.02 5134652.95 180.79
-9756425.61 5134600.28 180.49
-9757321.83 5134600.35 185.85
-9757110.75 5134599.98 180.60
-9757058.53 5134600.58 180.52
-9757005.47 5134599.96 180.59
-9756952.74 5134599.98 180.57
-9756795.30 5134600.31 180.60
-9756320.46 5134547.57 186.52
-9757216.57 5134547.84 180.14
-9756689.19 5134547.57 180.41
-9756583.65 5134547.55 180.45
-9757269.45 5137024.82 180.62
-9757109.25 5137027.78 179.40
-9756636.10 5137024.49 180.58
-9756531.09 5137025.37 180.70
-9756425.80 5137025.12 180.65
-9756636.69 5136971.21 180.26
-9757216.42 5136919.76 180.05
-9757109.60 5136919.67 179.87
-9756636.96 5136919.40 180.30
-9756582.76 5136920.27 180.76
-9757325.15 5135712.50 180.34
-9757267.97 5136865.54 179.55
-9757216.68 5136866.72 179.52
-9756584.42 5136868.92 179.95
-9756531.95 5136867.01 180.25
-9756477.15 5136867.25 180.50
-9757269.41 5135654.39 180.46
-9756531.43 5136813.97 180.48
-9757266.64 5136755.24 180.72
-9756373.32 5135549.09 180.43
-9756428.45 5135494.43 180.64
-9757269.44 5135496.52 180.27
-9757182.55 5135510.53 205.19
-9756425.79 5136654.62 179.70
-9756373.14 5136656.44 180.00
-9756321.17 5136656.09 180.62
-9756478.48 5135443.88 179.96
-9756458.93 5135467.00 200.05
-9756426.23 5135445.05 180.52
-9756373.24 5135443.77 180.60
-9757278.04 5135432.24 201.27
-9756426.09 5135390.48 180.55
-9757322.24 5135390.57 180.43
-9757163.62 5135390.85 179.32
-9756416.72 5135399.15 199.92
-9757269.54 5136603.45 180.47
-9757322.31 5135339.68 180.79
-9757268.96 5135338.45 180.27
-9756425.70 5136603.15 180.07
-9756373.17 5136603.77 179.66
-9756425.99 5135338.16 180.58
-9756425.31 5136551.38 179.49
-9756479.75 5135289.26 180.05
-9757267.98 5135285.70 180.41
-9757163.62 5135285.45 179.57
-9757269.87 5135232.73 179.94
-9757163.21 5135233.19 179.87
-9756582.87 5135233.26 180.14
-9756425.05 5136496.49 180.75
-9756373.00 5135180.02 180.34
-9757217.33 5135180.34 180.26
-9757217.17 5135193.01 200.73
-9757163.97 5135179.66 180.25
-9757058.43 5135180.30 180.36
-9756319.87 5136445.56 180.59
-9757268.94 5136445.31 180.44
-9756373.03 5135128.18 180.30
-9757005.06 5135074.36 180.33
-9756954.72 5135075.13 179.79
-9756373.62 5135074.56 180.69
-9757163.98 5135074.61 180.10
-9757112.29 5135075.94 179.19
-9757058.15 5135074.68 180.41
-9757330.62 5136356.78 201.28
-9757110.92 5135022.19 180.34
-9756742.40 5135022.17 180.63
-9756636.90 5135021.88 180.78
-9756531.26 5135025.35 180.52
-9756953.30 5137339.68 186.36
-9756847.20 5137339.95 186.86
-9756793.20 5137341.62 182.98
-9756742.16 5137341.68 181.12
-9757006.40 5137339.48 184.87
-9756741.85 5137288.72 181.09
-9756689.67 5137288.39 180.46
-9756478.54 5137288.72 180.61
-9756900.17 5137289.61 180.80
-9757059.68 5137269.30 200.18
-9756636.95 5137232.45 180.74
-9757058.59 5137183.08 180.60
-9756953.28 5137183.27 180.56
-9756847.48 5137183.59 180.75
-9756611.47 5137178.97 199.96
-9757005.83 5137130.57 180.56
-9756742.20 5137130.83 180.85
-9757058.58 5137077.95 179.39
-9756952.78 5137077.82 180.75
-9756483.48 5137091.48 200.49
-9756373.12 5137077.83 180.81
-9756544.12 5137034.62 199.85
-9756161.94 5134969.12 180.64
-9756108.89 5134969.10 180.55
-9756057.06 5134969.42 179.79
-9755951.41 5134970.37 180.79
-9755633.14 5134969.40 185.72
-9755424.42 5134969.64 181.10
-9755318.86 5134969.52 182.62
-9756162.00 5134916.41 180.66
-9755952.18 5134917.69 180.98
-9755740.66 5134913.98 180.94
-9755529.99 5134916.41 181.09
-9755318.01 5134916.00 181.23
-9756284.98 5134891.05 199.85
-9756162.02 5134864.04 180.70
-9755899.07 5134863.75 180.57
-9755845.72 5134863.51 180.34
-9755740.53 5134863.98 180.62
-9755687.69 5134863.96 180.77
-9755582.13 5134864.00 180.91
-9755424.11 5134863.89 181.36
-9755371.39 5134863.68 181.14
-9756267.57 5134810.75 180.45
-9756215.33 5134810.82 180.54
-9756003.76 5134811.23 180.59
-9755950.93 5134812.04 180.87
-9755529.39 5134810.90 181.64
-9756004.36 5134758.28 180.96
-9755898.83 5134758.57 180.73
-9755687.74 5134705.26 182.04
-9755635.32 5134705.58 186.32
-9756162.71 5134652.67 180.56
-9756008.33 5134665.12 200.60
-9755898.82 5134652.95 180.46
-9755740.82 5134653.15 181.39
-9755581.66 5134653.18 181.45
-9755476.99 5134652.77 181.37
-9755579.29 5134646.96 217.99
-9755898.83 5134600.49 180.65
-9755793.01 5134599.92 180.56
-9755687.52 5134598.45 180.37
-9755659.87 5134638.06 200.29
-9755529.19 5134600.43 180.60
-9755371.47 5134600.44 180.97
-9755318.44 5134600.09 181.06
-9756109.65 5134600.22 180.48
-9756277.65 5134547.91 181.43
-9756109.35 5134547.25 180.67
-9756003.80 5134547.80 180.98
-9755845.91 5134570.43 180.58
-9755812.39 5134575.25 207.38
-9755739.72 5134547.22 180.49
-9755687.84 5134547.51 186.32
-9755635.09 5134547.47 186.91
-9755582.27 5134553.13 181.72
-9755752.57 5134493.00 200.79
-9755740.28 5134494.51 180.60
-9755688.12 5134494.51 181.03
-9755476.68 5134498.41 180.10
-9756215.05 5135970.89 180.42
-9756109.64 5136023.29 180.50
-9755740.71 5135970.61 185.14
-9755318.18 5135971.03 181.01
-9755528.71 5135918.33 181.83
-9756215.12 5135864.85 180.94
-9755951.69 5135868.03 179.45
-9756267.92 5135812.78 179.95
-9756215.04 5137025.08 180.65
-9756162.48 5137024.79 180.70
-9756004.01 5135813.00 180.81
-9755846.30 5135812.64 180.97
-9755687.68 5135812.75 184.96
-9755634.87 5135812.72 185.12
-9755529.91 5135812.31 181.60
-9755635.61 5136971.21 180.22
-9755636.16 5137025.00 180.39
-9755583.14 5136972.90 180.66
-9755530.67 5137024.40 180.53
-9755426.96 5136970.17 180.62
-9755372.26 5136971.68 181.04
-9756004.21 5136972.42 180.23
-9755318.56 5135759.62 181.58
-9755899.97 5135760.31 180.65
-9755845.44 5135759.91 180.99
-9755739.61 5135760.38 184.89
-9756270.00 5135706.78 180.66
-9755476.91 5135707.52 181.10
-9755424.18 5135702.84 181.06
-9756267.52 5136919.40 180.48
-9756162.25 5136919.93 181.01
-9755451.70 5135717.60 202.03
-9755687.91 5136919.38 185.04
-9755372.42 5136919.48 180.77
-9755634.97 5135654.36 184.99
-9755477.19 5135654.78 181.35
-9755425.08 5135656.66 181.38
-9755373.26 5135667.65 181.35
-9755740.35 5136867.17 180.81
-9755477.12 5136866.82 187.76
-9756216.37 5135597.65 180.16
-9756157.58 5135597.89 202.19
-9756151.91 5135630.01 201.67
-9755899.08 5135601.85 180.56
-9755846.75 5135607.81 181.18
-9755740.16 5135601.91 185.16
-9755634.06 5135601.90 184.98
-9755529.71 5135602.13 181.24
-9755476.97 5135602.03 220.60
-9755521.83 5135593.67 205.05
-9755634.85 5136814.53 180.38
-9755582.72 5136814.11 180.76
-9755529.87 5136814.45 180.79
-9756162.11 5135548.95 180.82
-9756215.89 5136813.96 180.55
-9755473.56 5135547.22 224.18
-9755485.21 5135549.97 181.68
-9755449.70 5135547.82 203.81
-9756215.15 5135496.57 179.89
-9755848.78 5135497.12 180.89
-9755503.62 5135502.66 207.22
-9755444.34 5135489.76 221.12
-9756161.97 5136762.07 180.75
-9756057.08 5136761.50 180.84
-9755686.75 5136762.14 185.12
-9755486.62 5136785.89 202.19
-9755372.07 5136761.71 180.72
-9756109.06 5135443.19 180.63
-9755687.50 5135443.83 185.11
-9755636.55 5135444.40 185.00
-9755746.39 5135430.33 200.98
-9756215.18 5136703.48 180.73
-9756109.25 5136708.78 180.93
-9755898.69 5136707.35 181.01
-9756161.93 5135390.50 180.51
-9755686.22 5136708.79 185.14
-9755582.56 5136705.78 180.76
-9755529.89 5136709.06 180.81
-9755477.80 5136707.50 180.88
-9755793.36 5135391.17 181.62
-9755687.58 5135391.39 185.18
-9755581.72 5135390.63 180.95
-9755450.61 5135405.79 206.81
-9756216.78 5135338.14 179.96
-9756004.19 5135338.62 180.69
-9756004.04 5136656.05 181.26
-9755951.82 5136658.71 180.12
-9755763.76 5135343.79 201.10
-9755742.01 5135366.92 201.37
-9755635.66 5135338.66 185.02
-9755687.67 5136656.38 185.33
-9755476.80 5135338.25 181.07
-9756019.16 5135316.19 199.96
-9755898.28 5135285.35 180.74
-9755740.63 5135285.38 185.47
-9756162.55 5135285.31 180.49
-9756159.05 5136606.78 179.31
-9756056.84 5136603.36 180.84
-9755951.55 5136603.06 179.83
-9755898.50 5136599.18 180.03
-9755528.69 5136603.55 180.82
-9755372.52 5136603.35 180.54
-9755319.10 5136603.59 180.38
-9756162.52 5135232.76 180.59
-9756109.73 5135234.26 180.55
-9755845.90 5135232.58 181.05
-9755634.85 5135232.64 185.18
-9755477.06 5135233.16 181.05
-9755424.12 5135232.01 181.04
-9756109.30 5136550.98 180.14
-9755740.63 5136551.03 180.01
-9755318.24 5136547.18 180.58
-9755710.62 5135224.71 200.09
-9756214.30 5136554.52 179.79
-9755702.78 5136566.20 215.92
-9755740.06 5135180.19 181.28
-9755423.76 5135179.80 181.04
-9756267.83 5135127.56 180.47
-9755951.59 5136497.02 180.47
-9756003.96 5135127.48 180.60
-9755951.45 5135127.50 180.45
-9755793.45 5135127.23 180.59
-9755371.34 5136498.14 180.66
-9755318.52 5135127.11 181.19
-9756267.64 5136443.47 179.94
-9756214.67 5136443.74 179.91
-9756161.65 5136439.51 181.65
-9755898.60 5136445.81 180.59
-9755476.78 5135074.82 181.12
-9756214.71 5135074.55 180.84
-9756161.94 5135074.52 180.61
-9755845.45 5135075.79 180.62
-9756162.00 5135021.85 180.65
-9755847.29 5136391.96 181.08
-9756111.23 5135021.92 180.19
-9755739.50 5136389.75 180.88
-9755582.19 5136392.47 180.62
-9755951.18 5135022.14 180.92
-9756270.02 5136390.02 179.93
-9755902.78 5135061.95 200.18
-9755848.02 5135022.42 181.05
-9756056.61 5136392.28 180.73
-9755633.72 5135021.89 185.55
-9755424.32 5135022.33 181.13
-9755372.19 5135021.96 182.15
-9755951.10 5136335.73 180.13
-9755899.18 5136337.12 180.16
-9755740.01 5136336.24 181.57
-9755476.65 5136339.74 180.86
-9756215.48 5136288.92 179.72
-9755688.10 5136286.83 185.25
-9755631.78 5136288.06 183.74
-9755424.05 5136283.33 180.91
-9755371.10 5136287.02 180.83
-9755320.14 5136286.93 180.97
-9755687.56 5136232.94 185.07
-9755327.64 5136227.27 200.75
-9755740.58 5136181.92 181.03
-9755425.06 5136181.58 181.75
-9755406.05 5136193.90 199.99
-9755320.73 5136168.61 202.27
-9756161.99 5136129.25 180.98
-9755375.14 5137340.07 181.23
-9755951.58 5136073.05 181.15
-9755846.15 5136076.52 180.94
-9755793.15 5136075.92 180.98
-9756003.25 5137340.47 179.14
-9755721.83 5136079.57 200.96
-9755740.99 5136023.29 185.11
-9755737.89 5137338.75 216.43
-9755966.59 5137317.58 200.80
-9755951.32 5137285.41 180.62
-9755966.01 5137310.36 200.40
-9755846.04 5137288.63 180.13
-9755635.47 5137235.89 180.59
-9756109.71 5137236.77 180.24
-9755792.47 5137235.60 180.49
-9755740.20 5137236.22 180.91
-9756056.91 5137183.24 180.68
-9755374.96 5137180.41 180.65
-9755319.45 5137183.12 181.02
-9755846.09 5137130.51 180.39
-9755792.73 5137130.45 180.74
-9755634.98 5137130.78 180.53
-9755370.97 5137129.93 180.42
-9756267.74 5137078.12 180.95
-9756109.08 5137077.21 180.56
-9755688.12 5137077.50 185.05
-9755585.59 5137077.99 180.49
-9755431.02 5137078.72 181.03
-9755265.83 5134968.99 181.63
-9755276.91 5134981.85 204.59
-9755272.46 5134940.26 200.99
-9755107.76 5134968.96 181.61
-9755151.11 5134916.05 215.87
-9755266.14 5134863.86 181.48
-9755148.65 5134864.86 200.67
-9755265.31 5134810.90 181.41
-9755107.85 5134810.83 181.61
-9755270.30 5134796.96 200.68
-9755190.26 5134791.96 200.07
-9755273.88 5134775.75 200.03
-9755206.24 5134643.73 202.60
-9755209.90 5134623.14 200.48
-9755160.70 5134600.64 181.29
-9755160.45 5135971.30 181.28
-9755266.03 5135917.75 181.20
-9755266.08 5135865.31 181.23
-9755213.31 5135759.86 181.48
-9755107.18 5135759.85 181.35
-9755213.29 5135707.16 181.20
-9755267.30 5135598.78 182.05
-9755264.20 5135594.23 208.88
-9755160.55 5135602.06 181.24
-9755266.16 5135549.05 181.27
-9755200.77 5135551.27 226.64
-9755213.07 5136972.54 180.87
-9755106.89 5137023.72 180.75
-9755266.19 5135496.38 181.26
-9755160.39 5135496.58 181.38
-9755107.90 5135496.61 181.37
-9755221.56 5135449.33 223.42
-9755162.12 5136919.92 185.12
-9755194.93 5135371.74 212.40
-9755160.73 5135338.20 181.55
-9755166.65 5136868.86 181.10
-9755267.52 5135296.55 181.59
-9755107.65 5135285.78 181.71
-9755265.95 5136814.14 180.94
-9755266.54 5135231.85 181.54
-9755134.18 5136740.02 201.79
-9755107.96 5136655.94 180.81
-9755212.92 5136600.22 180.21
-9755160.47 5136604.05 181.18
-9755266.06 5136548.15 180.96
-9755107.98 5136550.81 180.78
-9755213.21 5136497.93 180.79
-9755212.91 5136445.19 180.73
-9755266.16 5136393.61 180.94
-9755213.04 5136394.50 180.66
-9755265.59 5136342.02 180.60
-9755213.26 5136342.48 180.80
-9755134.88 5137367.82 202.93
-9755108.61 5137288.75 182.35
-9755160.24 5137184.29 180.67
-9755108.04 5137183.08 180.74
-9757340.02 5135867.04 199.85
-9757322.26 5136918.89 179.51
-9757321.33 5137288.09 180.61
-9758376.33 5134652.66 191.77
-9758376.46 5134600.89 190.06
-9758362.97 5135231.71 202.46
-9759374.10 5134757.79 180.34
-9759379.33 5135338.24 180.70
-9759379.05 5135074.20 180.54
-9759377.98 5137288.75 180.08
-9759377.51 5137130.60 191.86
-9760385.43 5136672.91 232.57
-9760379.52 5136695.18 232.79
-9761168.64 5137077.61 180.92
-9760643.23 5137079.33 180.01
-9761434.00 5135601.61 180.42
-9761592.47 5135971.30 181.83
-9761697.14 5135865.55 192.64
-9761486.55 5135865.65 180.98
-9761434.04 5135812.69 181.26
-9761644.12 5135769.31 181.13
-9761592.08 5135759.92 181.01
-9761624.98 5135707.59 181.20
-9761539.56 5135707.47 180.91
-9761486.81 5135706.96 180.94
-9761626.18 5135656.43 181.35
-9761486.76 5136972.66 180.17
-9761434.03 5136972.39 180.22
-9761539.57 5135601.86 180.72
-9761539.99 5135545.87 181.05
-9761487.06 5135546.40 180.91
-9761591.97 5135496.34 180.92
-9761539.81 5135496.40 180.85
-9761485.67 5135495.34 180.53
-9761433.69 5135496.19 180.98
-9761539.25 5136814.19 179.82
-9761486.46 5136761.53 179.28
-9761434.24 5136761.87 178.83
-9761539.50 5135443.69 180.77
-9761431.65 5135441.67 180.04
-9761592.94 5136710.07 180.70
-9761464.78 5136736.31 211.16
-9761432.74 5136711.13 180.39
-9761433.96 5136656.32 181.41
-9761486.39 5135339.69 181.23
-9761644.79 5136603.50 181.08
-9761442.73 5136615.32 175.69
-9761539.40 5136550.50 175.62
-9761488.32 5136558.95 176.08
-9761645.10 5136392.72 179.81
-9761592.22 5136392.41 179.46
-9761433.92 5136393.31 182.44
-9761698.06 5136392.54 177.76
-9761539.45 5136341.08 183.28
-9761596.06 5136341.62 202.07
-9761592.27 5136286.60 182.96
-9761639.79 5136275.32 233.04
-9761481.23 5136226.41 182.55
-9761433.55 5136234.88 182.73
-9761647.52 5136138.32 180.98
-9761592.19 5136129.09 181.62
-9761433.57 5136076.16 182.29
-9761224.85 5134968.54 183.35
-9761170.92 5135022.36 184.19
-9761173.47 5135023.08 202.12
-9761012.02 5134969.60 180.60
-9760959.85 5135022.02 180.52
-9760906.45 5135021.74 180.79
-9760906.78 5134969.02 180.77
-9760801.19 5134969.45 179.61
-9760749.02 5135021.56 180.10
-9760680.79 5135026.86 202.06
-9760660.64 5135032.77 199.88
-9760642.86 5134968.63 179.76
-9760590.47 5135021.88 180.60
-9760537.70 5135021.56 180.85
-9760495.09 5135027.07 203.32
-9760432.36 5135022.20 181.05
-9760903.99 5134917.28 202.62
-9760801.53 5134916.41 180.00
-9760748.45 5134916.73 180.05
-9760643.18 5134916.16 179.95
-9760590.12 5134916.41 180.96
-9760537.98 5134916.25 180.23
-9760485.15 5134916.79 180.03
-9760462.26 5134931.36 200.36
-9760959.52 5134863.64 180.50
-9760801.52 5134863.43 179.86
-9760485.22 5134863.79 180.03
-9761065.02 5134863.57 180.64
-9761012.26 5134863.88 180.67
-9760989.62 5134877.68 201.10
-9760940.07 5134867.41 199.99
-9760903.93 5134867.66 201.50
-9760856.58 5134867.03 202.01
-9760856.63 5134821.52 201.33
-9760801.49 5134811.29 180.02
-9760537.95 5134811.10 180.23
-9760432.41 5134811.11 180.24
-9761381.35 5136023.44 183.19
-9760854.18 5136023.54 179.54
-9760748.62 5136023.90 179.28
-9761170.47 5135971.92 179.43
-9761117.47 5135971.27 179.45
-9760641.78 5135968.87 179.70
-9760853.96 5134758.25 180.39
-9760801.48 5134758.30 180.17
-9760484.67 5135974.44 180.31
-9760537.94 5134758.36 180.84
-9760902.12 5134756.29 203.54
-9760636.99 5134743.45 204.47
-9760696.09 5135918.17 179.63
-9760592.06 5135920.36 179.63
-9760484.98 5135914.96 179.75
-9760432.25 5135919.11 180.15
-9761410.91 5135919.50 218.22
-9761275.16 5135864.63 179.66
-9761278.52 5135857.99 204.61
-9761170.45 5135864.68 179.56
-9760854.13 5135865.38 179.82
-9761275.75 5135812.44 179.75
-9761353.75 5135811.15 202.22
-9760853.94 5135811.97 180.07
-9760748.85 5135813.28 179.40
-9760636.39 5135810.82 201.93
-9761117.72 5135760.15 179.81
-9761065.20 5135759.89 179.77
-9761382.83 5137027.02 181.54
-9760960.00 5135764.32 179.75
-9761327.25 5137024.70 182.90
-9761274.31 5137025.18 181.35
-9760748.66 5135763.82 179.51
-9761117.57 5137025.46 180.66
-9761117.37 5137077.90 180.54
-9760599.78 5135775.71 200.61
-9761065.15 5137025.22 179.99
-9760537.28 5135759.19 179.52
-9760855.38 5137026.12 180.65
-9760800.93 5137025.37 180.40
-9760801.66 5137077.85 190.11
-9760749.16 5137077.56 190.06
-9760590.43 5137025.14 179.73
-9761354.79 5135785.02 200.79
-9760484.30 5137078.09 179.38
-9760429.40 5137016.45 175.80
-9760432.42 5137078.19 179.73
-9760905.71 5136972.54 180.09
-9760801.19 5136972.46 177.60
-9760748.46 5136972.46 177.29
-9760696.00 5136972.23 177.10
-9760643.22 5136972.52 177.33
-9760531.70 5136987.38 175.88
-9760484.76 5136972.92 175.75
-9760431.56 5136972.40 175.84
-9761273.67 5135707.64 179.97
-9761223.23 5135708.61 179.82
-9761118.02 5135707.40 179.99
-9761064.97 5135707.52 179.81
-9761308.62 5136933.59 203.73
-9760958.11 5135708.49 179.42
-9761293.59 5136933.13 201.16
-9761306.52 5136946.16 199.85
-9760852.27 5135707.34 180.18
-9760801.33 5135707.24 180.41
-9761065.18 5136919.78 180.33
-9760643.08 5135707.02 180.08
-9760958.98 5136919.68 178.14
-9760537.16 5135708.41 179.56
-9760699.34 5136926.62 177.17
-9760657.25 5136938.24 181.43
-9761275.69 5136867.04 180.15
-9761285.06 5136866.41 200.59
-9761222.87 5136867.01 180.56
-9761117.68 5136867.32 181.08
-9761065.19 5136867.06 180.95
-9760959.28 5136866.98 177.53
-9761367.84 5135661.19 202.62
-9760854.00 5136867.29 178.22
-9760801.75 5136868.26 175.85
-9760537.96 5136867.53 181.21
-9761117.97 5135654.72 179.80
-9761065.24 5135654.76 179.82
-9760432.08 5136866.94 182.39
-9760957.32 5135657.17 179.53
-9761395.93 5136824.72 213.27
-9760538.24 5135650.86 179.48
-9761275.89 5136814.05 178.49
-9761223.16 5136814.64 179.57
-9761117.69 5136813.67 181.89
-9761117.66 5135601.67 180.14
-9760853.59 5135601.83 180.26
-9760748.87 5135602.42 180.55
-9760485.02 5135602.24 180.03
-9761329.63 5136762.77 177.28
-9761115.77 5136759.51 175.84
-9761064.59 5136761.77 183.92
-9761028.58 5136771.14 178.75
-9760590.44 5136761.42 182.61
-9760800.71 5135548.79 180.49
-9760750.13 5135549.51 180.90
-9760590.78 5135549.23 180.46
-9760431.88 5135548.66 180.68
-9761278.21 5135562.14 199.92
-9761239.50 5135533.66 203.73
-9761382.91 5136710.72 181.79
-9761281.25 5135487.95 200.12
-9761028.31 5135527.76 200.94
-9760853.55 5135496.16 180.24
-9760874.44 5135522.02 201.20
-9760801.03 5135495.31 179.40
-9760642.97 5135496.42 180.76
-9760674.07 5135502.75 200.47
-9761065.13 5136708.81 184.33
-9761380.89 5136655.45 176.50
-9761326.67 5136653.82 176.97
-9761296.16 5136682.32 175.85
-9761012.01 5136656.12 182.98
-9760906.78 5136656.48 182.18
-9761170.41 5135444.18 180.69
-9761117.66 5135444.16 180.85
-9761120.43 5135478.91 209.41
-9761101.45 5135467.62 201.62
-9760436.35 5136665.24 232.64
-9760801.30 5135443.74 180.11
-9760748.27 5135444.06 180.23
-9761356.57 5135449.07 199.86
-9761170.31 5136603.54 179.42
-9761117.57 5136603.80 180.30
-9760919.13 5136624.19 203.83
-9761222.35 5135389.65 181.08
-9761118.55 5135390.87 181.10
-9760590.42 5136603.19 185.33
-9760906.48 5135390.68 180.67
-9760485.19 5136602.98 184.18
-9760801.27 5135391.00 180.35
-9761170.64 5136550.78 179.67
-9760536.87 5135390.20 181.31
-9761012.36 5136550.25 185.26
-9761327.88 5135390.65 184.24
-9760906.52 5136550.96 184.36
-9760854.00 5136550.35 184.57
-9761170.26 5135391.58 201.95
-9760852.19 5136548.01 228.25
-9761002.41 5135407.41 199.89
-9760432.38 5136550.38 182.45
-9761329.04 5135337.94 184.13
-9761276.21 5135337.14 181.61
-9761117.63 5135337.86 181.08
-9761064.84 5135337.90 180.71
-9761173.99 5136507.60 231.23
-9761168.48 5136532.38 231.49
-9760589.88 5136492.32 180.05
-9761222.56 5135284.07 181.61
-9760537.58 5136497.97 180.19
-9760432.69 5136497.76 180.34
-9761117.88 5135285.48 180.58
-9761064.87 5135285.21 180.68
-9760431.89 5135284.57 180.69
-9760484.81 5136441.04 180.23
-9760432.37 5136445.34 180.20
-9761380.86 5136445.44 182.25
-9761327.48 5136443.86 229.45
-9761063.62 5136445.13 179.52
-9761012.32 5136445.45 179.64
-9760854.79 5136445.79 180.96
-9761170.95 5135233.06 180.98
-9760801.51 5136445.43 186.88
-9760747.85 5136444.86 185.89
-9760643.05 5136445.32 179.91
-9761012.07 5135232.51 180.98
-9760590.31 5136444.99 179.99
-9760532.89 5136446.63 181.31
-9760853.40 5135232.26 183.00
-9760590.77 5135232.63 181.13
-9761223.16 5136392.42 183.61
-9761062.15 5136392.95 179.73
-9761008.65 5136382.61 179.74
-9761010.96 5135231.55 201.23
-9760853.20 5136390.62 181.23
-9760748.70 5136392.86 179.48
-9760484.80 5136392.91 179.98
-9760643.16 5135179.67 180.79
-9761328.12 5135180.48 183.58
-9761381.11 5136339.61 179.44
-9761404.11 5136365.79 233.74
-9761115.18 5136336.24 184.04
-9761008.77 5136333.29 179.67
-9760906.73 5136339.53 185.56
-9760643.12 5136339.83 179.88
-9760485.06 5136339.90 179.97
-9761329.83 5135127.45 182.86
-9761168.10 5135129.98 179.62
-9761117.96 5136288.33 183.56
-9761012.26 5136286.95 179.66
-9760801.24 5135127.51 180.63
-9760748.36 5136287.38 179.78
-9760484.61 5135128.15 180.77
-9760432.16 5135127.29 181.09
-9760590.63 5136287.48 179.71
-9760482.68 5136286.25 179.68
-9760432.53 5136284.51 180.27
-9761263.21 5135118.55 200.73
-9760678.78 5135121.76 205.93
-9760667.97 5135123.16 200.99
-9761279.09 5136298.58 229.01
-9761275.90 5135074.50 183.57
-9761242.38 5135076.40 200.97
-9760747.27 5135074.55 180.68
-9760642.61 5135075.09 180.91
-9761377.17 5136226.73 182.89
-9760590.17 5135075.14 181.02
-9760511.78 5135106.90 202.99
-9760538.62 5135048.97 199.99
-9761170.27 5136234.57 179.72
-9761117.31 5136234.22 179.70
-9761064.93 5136234.23 179.80
-9760642.81 5136234.76 179.38
-9761117.48 5136128.53 180.02
-9761012.22 5136128.89 178.99
-9760743.91 5135019.08 202.21
-9760484.22 5136127.81 179.28
-9760642.85 5136077.36 179.38
-9760590.30 5136076.34 179.57
-9760538.35 5136076.09 179.35
-9760484.72 5136075.88 179.30
-9760538.60 5137077.34 179.15
-9761012.19 5137340.92 180.00
-9760801.34 5137341.61 180.24
-9760816.23 5137354.19 200.04
-9760588.96 5137334.89 181.34
-9760963.01 5137291.88 180.21
-9760801.62 5137288.66 180.09
-9761170.25 5137289.10 186.15
-9761066.12 5137235.82 179.83
-9760906.59 5137236.45 179.88
-9760696.02 5137236.25 179.75
-9760485.25 5137236.32 180.40
-9760432.46 5137236.03 180.30
-9761275.72 5137183.27 181.12
-9761223.38 5137183.29 186.05
-9760695.99 5137183.51 179.73
-9760590.50 5137183.26 179.77
-9760432.13 5137183.32 180.21
-9760432.10 5137130.61 179.77
-9760695.71 5137130.83 179.86
-9760379.89 5136710.24 183.69
-9760379.69 5137183.67 179.77
-9760379.64 5137130.62 179.57
-9760379.37 5135021.96 181.01
-9760326.94 5134969.48 180.60
-9760370.98 5135026.57 202.93
-9760273.84 5135021.94 181.35
-9760168.92 5135021.97 180.74
-9760116.12 5135021.70 180.70
-9760063.64 5134969.03 180.42
-9760063.87 5134977.28 201.48
-9760010.28 5134969.60 181.37
-9760030.50 5135010.07 204.23
-9760071.80 5135031.41 200.30
-9760007.77 5134968.31 205.38
-9759905.32 5134969.35 180.54
-9759747.62 5134969.48 180.87
-9759642.17 5135021.08 180.52
-9759536.53 5135021.59 180.83
-9759483.74 5134967.51 180.66
-9759483.48 5135022.18 180.57
-9759427.34 5134969.33 179.72
-9760164.54 5134973.19 201.45
-9759642.23 5134918.55 180.42
-9759536.28 5134916.46 180.75
-9759484.35 5134920.71 180.26
-9760272.96 5134911.12 180.75
-9760063.59 5134916.37 179.49
-9760022.68 5134942.11 200.42
-9759958.08 5134916.37 180.80
-9759905.08 5134916.68 180.89
-9759945.60 5134922.55 201.13
-9759853.12 5134915.75 180.59
