-9750837.43 5131700.88 179.27
-9750994.90 5131649.48 179.47
-9750784.77 5131647.87 179.64
-9751049.73 5131597.92 180.37
-9750837.59 5131596.08 179.34
-9750673.88 5131597.46 200.76
-9750837.92 5131541.93 178.84
-9750626.38 5131542.43 178.97
-9750588.57 5131542.29 200.56
-9750472.05 5131490.18 188.06
-9750362.90 5131490.03 180.19
-9750257.64 5131490.03 179.49
-9750788.12 5131495.18 180.14
-9750732.79 5131491.31 179.53
-9750942.88 5132860.59 180.78
-9750783.11 5132860.99 182.15
-9750522.29 5132860.30 181.01
-9751047.96 5132808.01 180.79
-9750944.61 5132807.39 180.54
-9750889.59 5132806.95 181.03
-9750837.43 5132807.82 180.78
-9750786.45 5132806.81 182.08
-9750678.68 5132806.56 180.20
-9750627.59 5132807.42 180.53
-9750573.35 5132807.71 179.31
-9750521.40 5132807.96 179.68
-9750469.32 5132807.81 183.05
-9750521.18 5131437.23 179.18
-9750468.76 5131437.52 179.40
-9751154.10 5131437.03 179.77
-9750890.17 5131437.17 179.30
-9751154.30 5132755.95 180.90
-9751109.60 5132778.41 202.60
-9750942.96 5132754.89 180.55
-9750889.89 5132755.15 181.09
-9750838.02 5132755.10 181.16
-9750521.19 5132754.73 179.59
-9750469.68 5132754.84 183.16
-9750679.80 5131384.64 179.06
-9750627.07 5131384.61 179.35
-9750516.26 5131385.34 220.61
-9750358.97 5131385.39 225.01
-9750259.55 5131416.23 229.41
-9751154.03 5132702.63 181.31
-9751048.23 5132702.59 180.58
-9750942.72 5132703.41 181.29
-9750892.02 5132701.86 180.76
-9750784.76 5132702.41 180.82
-9750648.67 5131386.19 208.82
-9750732.86 5132702.06 182.24
-9750678.05 5132702.90 182.42
-9750521.28 5132701.92 179.81
-9750416.35 5132702.26 185.10
-9750312.32 5132701.41 182.70
-9750255.46 5132704.27 184.27
-9750621.72 5132699.30 200.80
-9751153.49 5132649.90 182.65
-9750733.25 5132650.92 180.70
-9750574.36 5132649.35 179.26
-9750575.20 5132642.46 205.02
-9750592.46 5132677.69 200.31
-9750468.82 5132649.32 178.35
-9750310.24 5132649.72 180.42
-9750257.83 5132649.55 182.74
-9751151.80 5131338.45 206.85
-9750776.63 5131332.50 200.05
-9750943.11 5132597.16 180.96
-9750785.13 5132597.36 180.66
-9750626.86 5132596.80 182.91
-9750580.23 5132592.94 177.88
-9750521.32 5132596.49 177.65
-9750362.49 5132597.12 184.45
-9750310.64 5132597.17 183.23
-9750257.84 5132596.43 180.34
-9750469.04 5131277.03 179.67
-9750944.16 5131279.26 179.30
-9750893.90 5131282.33 179.63
-9750837.80 5131279.58 179.04
-9750836.14 5131285.03 203.54
-9750629.70 5132542.13 177.28
-9750574.82 5132544.08 182.79
-9750364.28 5132543.51 180.59
-9751208.39 5132542.99 182.54
-9751156.70 5132558.79 211.74
-9750995.88 5132544.18 180.79
-9750523.80 5132537.65 203.42
-9750679.66 5132492.01 178.13
-9750628.60 5132491.13 182.40
-9750468.67 5132491.16 180.49
-9750574.14 5131226.24 179.59
-9751048.69 5132492.11 180.73
-9750890.47 5132491.37 181.01
-9750679.43 5132438.66 178.97
-9750627.01 5132440.08 180.46
-9750468.16 5132439.33 180.08
-9750204.98 5132438.30 179.67
-9750945.63 5132439.76 180.04
-9750784.72 5132435.05 180.10
-9751051.58 5131206.60 200.40
-9750521.04 5132386.34 183.08
-9750468.52 5132385.68 182.99
-9750362.97 5132386.35 180.05
-9750996.34 5132385.80 181.08
-9750942.67 5132385.78 180.98
-9751038.40 5132380.12 199.85
-9750581.39 5131201.73 222.73
-9751155.46 5131173.07 179.66
-9750944.13 5131172.90 179.21
-9750440.16 5132363.95 200.64
-9751101.32 5132333.19 181.38
-9750736.53 5132334.84 180.65
-9750679.53 5132333.04 179.75
-9751058.09 5132337.04 200.05
-9750893.40 5131128.60 208.34
-9750521.80 5131120.05 179.54
-9751102.00 5131120.93 179.47
-9750591.95 5131117.38 199.98
-9750942.90 5132280.72 180.75
-9750890.28 5132280.31 180.23
-9750840.14 5132281.06 180.51
-9750574.05 5132280.56 179.85
-9750996.18 5131067.88 179.41
-9750890.45 5131068.05 179.70
-9750416.96 5131070.70 179.86
-9750311.73 5131103.33 201.01
-9750885.61 5131056.62 220.61
-9751101.38 5132228.95 180.85
-9750467.50 5131058.13 200.11
-9750890.09 5132228.03 180.13
-9750468.64 5132228.20 182.98
-9750415.93 5132228.71 183.19
-9750411.14 5132230.10 204.16
-9750385.41 5132254.34 201.01
-9750436.41 5131033.51 199.85
-9751155.86 5133440.05 181.48
-9751101.25 5133440.89 180.34
-9750258.14 5131018.39 221.66
-9750837.98 5131017.39 221.04
-9750971.40 5132220.58 199.86
-9750961.53 5132222.13 200.16
-9751153.70 5133385.45 181.89
-9750996.21 5130971.79 179.33
-9750420.80 5130961.02 180.09
-9751048.41 5132175.35 180.97
-9750993.93 5132182.06 201.54
-9751206.45 5130962.67 179.16
-9751153.43 5130965.65 179.67
-9750890.03 5132175.30 180.26
-9751100.85 5130966.08 180.14
-9750836.56 5132167.92 180.51
-9750627.24 5132171.00 180.15
-9750520.53 5132175.67 179.50
-9750836.94 5133335.10 179.77
-9750785.06 5133335.06 179.53
-9750521.50 5133334.31 176.73
-9750468.48 5133334.68 176.69
-9751206.25 5133334.27 181.76
-9750996.35 5130907.28 179.46
-9750679.28 5130909.95 179.53
-9750468.94 5130909.76 180.02
-9750363.43 5130910.00 179.80
-9750310.76 5130913.52 180.92
-9751206.20 5130910.00 179.09
-9750943.08 5133282.44 180.92
-9750785.10 5133282.67 179.59
-9750732.38 5133282.07 179.37
-9750469.55 5133281.73 176.67
-9750310.25 5133283.08 176.57
-9750976.38 5132120.57 200.97
-9750943.43 5132122.09 180.22
-9750890.73 5132122.35 180.26
-9750903.94 5130900.91 201.29
-9750573.65 5132122.14 179.90
-9750415.45 5132122.74 183.15
-9750363.55 5132122.18 183.33
-9750899.45 5130852.50 203.99
-9750859.95 5130894.04 200.08
-9750837.30 5130857.65 179.42
-9751206.36 5133229.55 181.68
-9750837.08 5133229.63 181.00
-9750415.96 5130857.28 180.14
-9750310.15 5130859.02 180.95
-9751235.85 5130877.13 199.85
-9750626.88 5133229.29 179.05
-9750257.81 5133229.81 176.69
-9751100.90 5132070.32 181.05
-9750942.81 5132069.91 201.71
-9750626.63 5133176.92 178.89
-9750881.47 5132074.55 203.95
-9750521.40 5133177.07 180.07
-9750839.29 5132066.44 180.55
-9750857.89 5132091.37 199.85
-9750676.99 5132080.37 202.53
-9751101.17 5133177.10 181.23
-9750627.02 5132069.84 179.52
-9751049.01 5133177.05 180.92
-9750732.14 5133176.65 180.41
-9750679.42 5133176.94 179.33
-9750574.12 5132072.86 226.95
-9750574.02 5132069.50 179.94
-9750521.25 5132073.61 226.93
-9750521.25 5132069.48 179.94
-9750468.47 5132069.69 179.34
-9750418.95 5132068.71 182.06
-9750309.49 5132069.46 181.48
-9751207.07 5133123.58 181.53
-9750837.72 5133124.28 179.89
-9750680.04 5133124.23 180.37
-9750626.38 5133124.17 179.38
-9750520.84 5133124.38 180.36
-9750416.18 5133124.17 176.94
-9750363.15 5133124.14 176.67
-9750339.01 5132067.54 200.24
-9751154.36 5133070.79 182.11
-9751101.25 5133071.74 181.65
-9751054.09 5132014.38 200.51
-9750996.03 5133071.10 180.77
-9750945.09 5133071.87 180.47
-9750891.10 5133071.29 181.57
-9750732.29 5132016.94 180.34
-9750738.06 5132044.28 200.02
-9750521.48 5133071.42 179.31
-9750363.78 5133070.98 176.80
-9750310.43 5133070.87 176.57
-9750258.07 5133071.07 177.17
-9750468.44 5132017.11 179.52
-9750310.75 5133019.15 176.81
-9751207.08 5133019.29 181.73
-9751153.79 5133018.50 181.52
-9751101.34 5133018.40 181.82
-9750574.35 5133018.79 180.34
-9750415.72 5133018.71 179.79
-9750943.95 5132965.73 180.73
-9750784.61 5132966.14 181.72
-9750783.57 5132964.59 206.01
-9750732.01 5132965.85 180.44
-9750574.37 5132965.78 180.50
-9750521.62 5132965.43 180.24
-9750310.94 5132965.83 176.76
-9750257.68 5132965.95 176.74
-9750204.47 5132965.67 176.79
-9751206.89 5132966.08 182.05
-9751101.63 5132965.53 181.37
-9750996.37 5132966.87 180.67
-9751102.30 5132913.08 180.96
-9750943.29 5132913.29 180.77
-9750837.87 5132913.42 182.08
-9750935.61 5131963.50 203.03
-9750521.37 5132913.56 181.15
-9750469.17 5132913.27 180.62
-9750310.64 5132913.16 176.80
-9750205.03 5132913.23 176.53
-9750691.84 5132907.70 200.10
-9750626.53 5131911.45 179.27
-9750205.48 5132808.76 178.56
-9750204.72 5132649.73 179.54
-9750205.25 5133070.65 176.86
-9750204.83 5132860.01 176.78
-9750204.93 5130804.56 180.11
-9750152.68 5130810.09 203.56
-9750047.01 5130804.73 179.87
-9749995.43 5130800.26 223.50
-9749889.76 5130804.16 179.89
-9749678.13 5130804.20 179.35
-9749572.31 5130804.69 179.56
-9749519.86 5130804.38 179.53
-9749413.51 5130804.50 180.04
-9749361.31 5130804.50 179.66
-9749308.78 5130804.60 176.77
-9749847.73 5130752.77 200.24
-9749730.29 5130751.79 179.31
-9749572.28 5130751.65 178.98
-9749519.93 5130752.02 179.54
-9749467.46 5130751.59 179.94
-9749393.68 5130758.58 200.10
-9749308.92 5130751.56 178.34
-9749203.72 5130752.24 176.67
-9750098.79 5131859.32 180.04
-9750026.41 5131808.25 225.22
-9749994.84 5131858.87 179.84
-9749835.96 5131805.80 180.13
-9749836.19 5131858.81 179.64
-9749783.78 5131858.77 179.74
-9749626.42 5131858.24 177.14
-9749572.10 5131859.22 176.67
-9749466.69 5131859.74 176.66
-9749415.28 5131858.71 176.87
-9749361.78 5131806.07 176.87
-9749255.88 5131806.61 176.79
-9749255.35 5131858.58 176.80
-9750047.96 5130698.48 204.05
-9749888.57 5130699.25 179.79
-9749784.07 5130698.58 179.50
-9749571.91 5130708.45 201.10
-9749415.06 5130698.30 180.57
-9749308.70 5130699.10 180.31
-9749318.26 5130684.02 204.05
-9749254.48 5130701.52 176.35
-9749203.07 5130699.60 176.91
-9749625.62 5131753.52 181.14
-9749466.99 5131753.45 176.91
-9749414.37 5131753.55 176.89
-9749256.97 5131752.95 176.81
-9750047.02 5131701.26 179.95
-9749941.58 5131701.07 179.70
-9750205.16 5130646.48 180.09
-9750153.57 5130646.77 180.18
-9749942.90 5130646.33 180.08
-9749572.66 5131700.51 181.21
-9749361.68 5131701.53 176.95
-9749256.66 5131700.34 176.93
-9749783.42 5130646.49 179.64
-9749734.08 5130667.68 200.32
-9749577.17 5130653.13 179.35
-9749487.24 5130678.17 199.95
-9749484.74 5130663.78 201.12
-9749361.51 5130646.10 180.92
-9749889.10 5131649.83 179.82
-9749677.88 5131647.95 179.81
-9749625.10 5131647.88 180.18
-9749466.89 5131648.37 179.48
-9749361.81 5131647.94 176.67
-9749256.55 5131648.18 176.61
-9749940.24 5131630.08 224.89
-9749361.92 5131595.54 176.59
-9750206.09 5131594.85 184.33
-9750047.16 5131594.05 179.96
-9749945.33 5131595.49 179.79
-9749730.69 5131595.31 179.70
-9749995.23 5131543.62 223.31
-9749943.52 5131542.56 180.79
-9749872.78 5131538.77 200.07
-9749308.78 5131542.64 176.63
-9750205.56 5131489.78 184.30
-9750099.72 5131489.92 179.95
-9750047.53 5131490.76 179.85
-9749997.26 5131487.08 183.04
-9749624.99 5131489.87 179.43
-9749572.52 5131489.80 180.24
-9749519.79 5131489.95 181.72
-9749941.57 5131489.80 278.83
-9749890.45 5131496.48 228.27
-9749360.93 5131436.86 176.77
-9749256.63 5131437.33 176.72
-9749203.55 5131436.95 176.89
-9750047.00 5131437.17 179.80
-9750111.15 5131418.72 221.76
-9750046.81 5131384.50 179.99
-9749994.33 5131384.48 180.09
-9749941.85 5131385.28 179.80
-9749888.64 5131384.42 179.45
-9749519.87 5131384.67 180.92
-9750202.61 5131376.21 200.58
-9749308.52 5131332.01 176.75
-9749256.56 5131331.88 176.65
-9749783.97 5131331.38 179.72
-9749730.62 5131331.80 180.10
-9749944.04 5131283.76 179.21
-9749783.71 5131278.99 179.15
-9749750.26 5131287.40 203.52
-9749730.72 5131278.93 179.80
-9749751.10 5131305.99 202.42
-9749677.96 5131278.89 179.96
-9749941.88 5131279.21 227.12
-9749973.05 5131268.04 225.61
-9750205.19 5131226.60 180.11
-9749995.34 5131230.51 181.32
-9749995.10 5131231.01 226.82
-9749678.62 5131226.24 179.32
-9749572.52 5131225.84 179.60
-9749256.85 5131225.70 176.69
-9750151.44 5132860.82 176.75
-9750046.18 5132859.80 176.56
-9749994.39 5132860.14 176.89
-9749836.51 5132860.49 176.77
-9749783.51 5132860.31 176.69
-9749731.39 5132860.31 176.70
-9749572.24 5132861.05 176.87
-9749519.55 5132859.89 176.84
-9749468.05 5132861.54 176.64
-9749414.57 5132860.51 176.82
-9749308.64 5132859.95 176.72
-9750152.08 5132807.49 176.81
-9750099.58 5132807.50 176.87
-9750046.86 5132807.81 176.69
-9749994.34 5132808.25 176.94
-9749942.54 5132808.47 176.59
-9749888.80 5132808.24 176.89
-9749727.65 5132808.32 176.85
-9749572.34 5132807.24 176.80
-9749520.91 5132808.95 176.60
-9749466.89 5132807.06 176.71
-9749413.52 5132806.89 176.83
-9749308.53 5132807.95 176.88
-9749256.75 5132808.07 177.12
-9749730.80 5131173.27 179.23
-9750099.57 5132754.89 176.69
-9750046.87 5132755.43 176.97
-9749994.27 5132754.69 176.82
-9749941.44 5132754.73 176.74
-9749889.53 5132754.10 177.04
-9749835.20 5132755.49 176.64
-9749730.63 5132754.80 176.85
-9749624.79 5132754.43 176.41
-9749573.82 5132755.72 176.82
-9749466.47 5132755.31 176.74
-9749414.59 5132756.13 176.75
-9749308.02 5132754.48 176.71
-9749624.97 5131173.76 179.19
-9749256.08 5132755.59 177.02
-9749572.51 5131173.75 179.41
-9749413.62 5131174.13 176.50
-9749518.76 5132702.06 176.93
-9749467.25 5132701.99 176.86
-9749414.15 5132702.24 177.03
-9749360.86 5132702.61 176.81
-9749308.06 5132704.33 176.70
-9749202.58 5132702.23 176.81
-9750052.94 5131179.09 179.92
-9749991.96 5131173.24 226.08
-9749985.83 5131176.16 263.85
-9750047.24 5132703.07 176.94
-9749994.13 5132701.83 176.56
-9749942.12 5132703.54 176.77
-9749888.46 5132701.98 176.72
-9749782.98 5132702.53 176.88
-9749728.49 5132703.33 176.74
-9749678.18 5132702.13 176.83
-9749827.57 5131180.88 201.05
-9750047.02 5132649.44 176.89
-9749995.30 5132648.25 177.07
-9749941.80 5132650.15 176.59
-9749889.36 5132649.61 176.96
-9749835.65 5132650.07 176.85
-9749783.14 5132649.88 176.86
-9749624.87 5132651.69 176.72
-9749519.79 5132649.78 176.61
-9749414.00 5132649.48 176.87
-9749361.30 5132650.39 176.50
-9750100.23 5132596.98 176.84
-9750046.63 5132596.84 176.81
-9749942.11 5132597.77 176.79
-9749835.10 5132596.83 176.85
-9749730.68 5132596.43 176.86
-9749677.66 5132596.30 176.81
-9749625.05 5132597.12 177.11
-9749572.58 5132596.66 176.74
-9749520.19 5132596.57 176.70
-9749414.16 5132597.69 176.84
-9749361.92 5132597.50 176.78
-9749308.65 5132596.74 176.77
-9749256.46 5132596.85 176.88
-9749730.52 5132543.84 176.89
-9749678.52 5132544.43 176.86
-9749572.04 5132543.82 176.82
-9749468.04 5132544.31 176.94
-9749414.30 5132543.55 176.70
-9749361.11 5132543.89 176.70
-9749256.58 5132544.24 176.83
-9749203.58 5132543.68 176.93
-9750047.98 5132543.87 177.00
-9749994.68 5132543.97 176.82
-9749941.66 5132544.01 176.78
-9749888.01 5132544.78 176.69
-9749835.90 5132543.93 176.69
-9750047.12 5132491.95 176.65
-9749994.35 5132491.40 176.74
-9749941.91 5132490.85 177.03
-9749888.74 5132491.51 176.74
-9749836.47 5132491.04 176.83
-9749783.42 5132491.18 176.85
-9749730.95 5132491.44 177.04
-9749677.63 5132490.96 176.47
-9749572.57 5132491.64 176.77
-9749467.04 5132490.64 177.06
-9749415.69 5132490.35 176.62
-9749361.57 5132491.57 176.81
-9750046.60 5132439.05 176.50
-9750047.34 5131120.55 179.68
-9749888.98 5132438.41 176.57
-9749781.05 5132439.36 176.44
-9749731.32 5132437.82 177.04
-9749677.28 5132437.45 176.69
-9749572.77 5132438.69 177.02
-9749519.74 5132440.91 176.60
-9749360.75 5132438.65 176.82
-9749890.72 5131124.88 180.41
-9749888.70 5132386.30 176.78
-9749835.85 5132385.60 176.76
-9749782.61 5132385.60 176.75
-9749730.48 5132386.02 176.81
-9749677.86 5132386.33 176.90
-9749626.38 5132386.84 176.71
-9749572.31 5132386.15 176.79
-9749519.14 5132385.63 176.78
-9749467.31 5132385.19 177.22
-9749413.97 5132386.87 176.86
-9749362.41 5132387.01 176.75
-9749308.79 5132386.53 176.75
-9749256.16 5132385.83 176.96
-9749201.73 5132385.79 176.87
-9750152.54 5132385.94 179.75
-9749994.84 5132385.55 176.81
-9749572.58 5131120.48 179.48
-9749256.68 5131121.16 176.88
-9749941.56 5132332.13 177.02
-9749836.57 5132332.82 176.92
-9749783.66 5132333.12 176.74
-9749731.26 5132332.81 176.72
-9749678.08 5132333.57 176.80
-9749625.11 5132333.53 176.83
-9749520.37 5132332.87 176.93
-9749465.55 5132333.06 176.79
-9749362.17 5132333.35 176.75
-9749309.00 5132332.75 176.73
-9749256.41 5132333.32 177.15
-9749203.13 5132332.98 176.65
-9749941.50 5132280.44 177.09
-9749889.82 5132281.76 176.79
-9749730.60 5132281.26 176.72
-9749677.98 5132280.66 176.81
-9749625.16 5132280.64 176.92
-9749572.25 5132280.20 176.72
-9749518.05 5132281.54 176.52
-9749467.76 5132281.07 176.88
-9749307.99 5132282.30 176.42
-9750046.29 5132227.80 180.09
-9749837.19 5132228.08 177.06
-9749677.74 5132227.58 176.81
-9749626.36 5132229.22 176.75
-9749467.73 5132227.69 176.97
-9749413.64 5132227.96 176.91
-9749309.80 5132227.50 176.94
-9749994.08 5131068.14 179.48
-9749711.18 5131091.49 200.07
-9749572.33 5131067.84 179.55
-9749361.71 5131068.39 176.69
-9750047.23 5132175.08 180.26
-9749941.82 5132174.77 176.81
-9749835.62 5132174.20 176.80
-9749730.41 5132175.29 176.77
-9749678.24 5132175.28 176.88
-9749623.38 5132175.29 176.72
-9749572.31 5132176.90 176.68
-9749519.67 5132173.62 177.05
-9749466.47 5132175.17 176.87
-9749414.52 5132175.12 176.71
-9749203.67 5132175.81 176.91
-9749466.05 5132122.98 176.71
-9749414.40 5132121.77 176.84
-9749361.95 5132121.78 176.71
-9749256.21 5132122.61 176.98
-9750098.12 5131015.20 184.59
-9750046.66 5132122.67 180.42
-9749889.06 5132122.09 176.82
-9749783.53 5132123.81 176.58
-9749572.96 5132122.43 176.86
-9749835.14 5131024.60 216.72
-9749783.10 5131015.30 179.66
-9749625.10 5131015.79 179.59
-9749519.67 5131015.61 179.85
-9749309.01 5131015.00 176.68
-9749256.77 5131015.03 176.81
-9749993.69 5132069.64 180.18
-9749835.17 5132069.96 176.71
-9749573.20 5132070.65 176.82
-9749519.74 5132070.67 176.82
-9749466.09 5132070.64 177.24
-9749415.33 5132069.71 176.62
-9749361.76 5132071.15 176.88
-9749308.72 5132069.91 176.95
-9749255.28 5132070.74 176.73
-9749567.96 5130997.31 200.05
-9750214.23 5130965.63 180.88
-9749784.06 5132018.14 176.88
-9749678.37 5132016.92 176.60
-9749572.81 5132017.47 176.98
-9749520.62 5132017.07 176.80
-9749467.28 5132017.06 176.76
-9749414.68 5132016.87 177.11
-9749361.54 5132017.10 176.96
-9749307.86 5132017.45 176.59
-9749791.31 5130965.02 179.64
-9749728.76 5130963.05 219.32
-9749730.40 5130962.77 179.77
-9749728.30 5130993.99 219.24
-9749676.89 5130962.56 222.46
-9749580.14 5130949.97 205.94
-9749627.28 5131962.99 176.88
-9749572.96 5131964.20 176.85
-9749467.63 5131964.98 176.85
-9749361.31 5131964.59 176.68
-9749308.30 5131963.42 176.66
-9750152.00 5131965.19 180.64
-9750095.99 5131967.58 225.35
-9749998.59 5131960.06 184.07
-9749836.10 5131964.46 180.05
-9749782.50 5131964.48 178.68
-9749731.11 5131963.28 176.83
-9749677.57 5131963.44 176.81
-9750071.34 5130946.83 200.14
-9749599.02 5130946.05 200.99
-9749572.23 5130909.73 179.68
-9749520.67 5130909.70 179.67
-9749414.83 5130909.95 179.40
-9749309.29 5130909.72 176.69
-9749678.35 5131911.19 176.77
-9749625.16 5131910.88 176.96
-9749570.16 5131912.28 176.54
-9749518.14 5131912.28 176.63
-9749467.44 5131911.32 176.85
-9749413.56 5131912.01 176.66
-9749361.13 5131911.61 176.60
-9749308.89 5131910.68 176.73
-9749256.50 5131911.80 176.81
-9749785.04 5130925.47 218.90
-9749730.73 5130910.12 179.73
-9749603.44 5130915.20 200.83
-9750153.08 5130857.39 180.19
-9750047.03 5130857.06 180.25
-9750003.83 5130872.16 201.78
-9749572.23 5130857.35 179.77
-9749414.04 5130857.25 179.31
-9749361.09 5130857.86 178.96
-9749309.44 5130857.10 176.74
-9749624.40 5130859.76 200.04
-9749580.29 5130873.58 200.07
-9749783.94 5133441.37 176.67
-9749835.33 5133387.87 176.73
-9749783.12 5133387.86 176.64
-9749994.49 5133334.42 176.29
-9749887.70 5133335.85 176.88
-9749678.27 5133334.99 176.59
-9749625.54 5133334.93 176.76
-9750047.40 5133283.25 176.61
-9749993.91 5133281.29 176.52
-9749573.32 5133283.47 176.54
-9749467.00 5133281.92 176.78
-9750046.84 5133176.41 176.67
-9749941.58 5133176.68 176.64
-9749835.19 5133176.82 176.79
-9749625.92 5133176.88 176.72
-9749573.16 5133176.84 176.67
-9749413.63 5133176.90 176.77
-9749256.38 5133176.52 176.80
-9750151.59 5133124.66 176.35
-9750098.98 5133124.84 176.83
-9750047.96 5133124.87 176.67
-9749836.35 5133123.78 176.76
-9749783.69 5133124.59 176.92
-9749414.14 5133125.38 176.82
-9749202.95 5133123.92 176.67
-9749783.52 5133070.78 176.89
-9749677.71 5133070.97 177.00
-9749625.20 5133071.28 176.93
-9749572.41 5133070.90 176.85
-9749519.29 5133071.22 176.69
-9749308.29 5133071.63 176.88
-9750152.66 5133070.38 176.77
-9750099.71 5133071.28 176.73
-9750045.72 5133069.58 176.72
-9749994.61 5133071.19 176.92
-9750152.24 5133019.35 176.65
-9750099.32 5133018.59 176.94
-9750046.68 5133018.84 176.77
-9749941.56 5133018.15 176.85
-9749836.92 5133018.55 176.77
-9749730.97 5133019.28 176.84
-9749572.97 5133018.24 176.81
-9749519.90 5133018.40 176.83
-9749466.86 5133018.40 176.90
-9749414.46 5133018.46 176.67
-9749361.79 5133017.16 176.81
-9750153.13 5132965.51 177.16
-9750046.87 5132965.70 176.70
-9749888.72 5132965.75 176.73
-9749625.28 5132965.60 176.83
-9749572.61 5132966.10 176.97
-9749519.39 5132965.67 176.59
-9749467.22 5132965.74 176.96
-9749415.28 5132965.64 176.78
-9749361.60 5132965.89 176.84
-9749362.33 5132913.12 176.97
-9749308.70 5132912.25 177.00
-9749256.03 5132912.82 176.80
-9749204.62 5132911.45 176.81
-9750152.66 5132913.46 176.73
-9750099.83 5132913.88 176.66
-9750046.70 5132912.50 176.93
-9749889.36 5132911.95 176.81
-9749782.62 5132913.81 176.64
-9749730.48 5132913.54 177.05
-9749677.69 5132912.84 176.55
-9749519.81 5132912.67 176.56
-9749203.18 5131226.15 176.74
-9749203.33 5132438.96 176.90
-9749203.98 5131067.85 176.71
-9749203.31 5130857.43 176.75
-9749203.55 5132017.16 176.62
-9749150.01 5130804.36 176.87
-9749097.55 5130804.21 176.66
-9749151.03 5130751.77 176.68
-9749151.28 5130699.12 176.59
-9749149.68 5131860.23 176.58
-9749098.25 5131805.68 176.77
-9749098.16 5131858.19 176.89
-9748886.93 5131806.40 176.48
-9748729.20 5131858.89 176.80
-9749045.38 5131754.15 176.81
-9748991.73 5131699.76 176.72
-9748623.89 5131701.11 176.90
-9749150.93 5131648.31 176.87
-9749046.29 5131647.06 176.60
-9748676.75 5131648.17 176.67
-9749151.20 5131595.37 176.72
-9748887.73 5131594.36 176.81
-9748729.65 5131594.84 176.75
-9748939.02 5131542.06 176.70
-9748991.90 5131490.53 176.70
-9748887.38 5131490.31 176.82
-9748834.26 5131489.34 176.63
-9749045.52 5131436.89 176.63
-9748729.21 5131437.11 176.75
-9749150.60 5131384.86 176.78
-9748992.82 5131384.74 176.52
-9748886.58 5131384.36 176.75
-9748780.73 5131384.48 176.59
-9748727.60 5131384.19 176.66
-9749151.47 5131331.13 176.78
-9749045.99 5131330.94 176.57
-9748939.93 5131332.11 176.73
-9748887.52 5131331.65 176.75
-9748835.00 5131332.31 176.60
-9748782.00 5131332.37 176.80
-9748781.45 5131278.65 176.85
-9749150.20 5131279.56 176.81
-9749097.53 5131278.34 176.69
-9749044.32 5131279.43 176.75
-9748992.14 5131278.55 176.91
-9748939.44 5131277.64 176.49
-9749044.98 5131226.99 176.71
-9748887.96 5131226.33 176.66
-9748834.24 5131226.50 176.71
-9748991.99 5131173.49 176.68
-9748886.46 5131173.57 176.65
-9748992.40 5131121.63 176.64
-9748939.85 5131120.76 176.60
-9748887.13 5131120.58 176.93
-9748834.76 5131120.48 176.92
-9749150.86 5132860.37 176.61
-9749097.72 5132860.36 176.91
-9749045.19 5132860.62 176.76
-9748992.83 5132860.48 176.88
-9748940.68 5132859.74 176.91
-9749097.24 5132807.67 176.77
-9748887.67 5132807.87 176.68
-9749151.25 5131068.48 176.77
-9749045.13 5131068.39 176.88
-9748939.37 5131067.67 176.55
-9748887.12 5131068.32 176.64
-9749150.53 5132754.78 176.99
-9749044.79 5132755.58 177.06
-9748992.68 5132755.73 176.71
-9749150.62 5132702.90 176.54
-9748939.58 5132703.22 176.52
-9749150.38 5132649.22 176.79
-9749098.56 5132650.01 176.75
-9748887.62 5132649.16 176.82
-9749099.38 5132598.14 176.72
-9748939.55 5132597.40 176.86
-9748833.69 5132597.61 176.86
-9749096.61 5132544.52 176.80
-9749044.53 5132545.40 176.45
-9748887.97 5132543.89 176.88
-9748782.19 5132543.92 176.86
-9749098.18 5132491.24 176.79
-9748992.80 5132490.85 176.74
-9748887.15 5132491.53 176.96
-9748780.97 5132491.56 176.86
-9749045.17 5130962.55 176.56
-9748991.84 5130962.67 176.79
-9749044.88 5132440.54 176.76
-9748940.52 5132440.57 176.61
-9748887.85 5132439.68 176.82
-9749149.64 5132386.19 176.83
-9749098.07 5132386.37 176.85
-9748833.00 5132386.70 176.80
-9748781.07 5132385.53 176.58
-9748729.12 5132385.85 176.80
-9749151.14 5130910.12 176.63
-9749150.19 5132333.29 176.84
-9748992.66 5132332.35 176.90
-9748938.65 5132333.48 176.71
-9748886.59 5132333.01 177.03
-9748833.38 5132333.58 176.64
-9748782.23 5132332.34 176.81
-9748676.49 5132333.13 176.80
-9749151.25 5132279.90 176.86
-9749098.42 5132279.72 176.89
-9749045.27 5132280.25 176.78
-9748885.88 5132280.64 176.71
-9748781.84 5132280.56 176.84
-9748675.79 5132281.37 176.76
-9748993.13 5132227.91 176.88
-9748728.97 5132228.31 176.80
-9748675.90 5132227.65 176.84
-9749150.60 5132174.83 176.74
-9749045.16 5132174.62 176.64
-9748993.32 5132174.94 176.77
-9748939.23 5132175.39 176.68
-9748887.11 5132174.92 176.78
-9748782.80 5132175.34 176.70
-9748676.94 5132176.55 176.61
-9749097.74 5132123.28 176.71
-9749045.24 5132121.77 176.87
-9748992.09 5132122.52 176.73
-9748728.78 5132123.64 176.97
-9749097.10 5132070.00 176.78
-9749044.66 5132069.28 176.90
-9748887.55 5132069.03 176.80
-9748676.20 5132071.46 176.41
-9749097.80 5132016.98 176.64
-9748992.32 5132015.94 176.60
-9748834.03 5132016.86 176.71
-9748623.66 5132016.93 176.70
-9749097.16 5131964.10 176.71
-9749046.35 5131964.90 176.74
-9748991.69 5131964.61 176.81
-9748939.37 5131964.58 176.74
-9748834.31 5131964.24 176.66
-9748781.57 5131964.64 176.82
-9748729.22 5131964.02 176.81
-9748675.10 5131964.66 176.70
-9748624.24 5131964.69 176.72
-9749150.83 5131911.97 177.03
-9748940.79 5131912.16 176.96
-9748887.43 5131910.59 177.07
-9748729.58 5131911.96 176.96
-9749204.18 5130647.57 178.04
-9749203.05 5131278.11 176.76
-9749203.14 5132860.59 176.97
-9749202.81 5132755.43 176.67
-9749204.85 5132595.87 176.67
-9749203.43 5131015.54 176.79
-9750205.31 5133122.65 176.92
-9750204.11 5133019.20 176.83
-9751259.56 5130857.58 179.26
-9751260.04 5131127.20 179.96
-9751575.24 5131859.44 181.76
-9751362.27 5131859.07 180.94
-9751312.46 5131805.88 181.29
-9751347.16 5131763.33 200.99
-9751522.97 5131700.30 181.29
-9751363.63 5131699.86 180.58
-9751575.88 5131646.80 180.68
-9751523.06 5131594.90 182.00
-9751660.95 5131579.94 202.49
-9751628.29 5131542.57 181.26
-9751523.09 5131542.48 182.02
-9751680.44 5131491.48 203.39
-9751626.19 5131489.84 181.50
-9751470.71 5131489.83 181.41
-9751570.70 5131435.62 202.05
-9751259.38 5131436.47 180.48
-9751259.76 5131333.43 181.02
-9751414.78 5131331.48 181.44
-9751364.40 5131327.20 180.81
-9751520.92 5131228.94 180.86
-9751470.20 5131226.37 180.67
-9751417.54 5131226.40 180.54
-9751520.12 5131169.14 180.95
-9751415.51 5131173.94 180.67
-9751470.06 5131121.06 181.05
-9751311.83 5131068.25 180.80
-9751313.63 5131092.90 199.85
-9751470.13 5131015.42 180.52
-9751259.00 5130965.65 179.56
-9751415.14 5132808.07 181.79
-9751259.23 5132807.75 182.11
-9751348.81 5130905.68 200.36
-9751417.50 5132755.13 181.80
-9751257.44 5132755.74 182.01
-9751259.96 5132649.48 181.91
-9751254.64 5132597.83 181.76
-9751523.88 5132438.68 181.71
-9751417.18 5132438.69 181.98
-9751312.25 5132438.62 181.71
-9751259.69 5132438.65 181.38
-9751576.34 5132382.83 181.85
-9751521.22 5132384.29 181.87
-9751258.16 5132333.36 180.12
-9751575.78 5132280.77 182.13
-9751364.52 5132280.54 182.66
-9751312.21 5132280.71 180.93
-9751628.09 5132175.09 181.92
-9751522.90 5132175.95 181.69
-9751259.68 5132175.23 180.66
-9751453.17 5132177.48 200.94
-9751470.45 5132122.27 181.51
-9751416.52 5132119.50 182.39
-9751618.14 5132126.27 201.01
-9751727.29 5132067.76 182.24
-9751681.20 5132070.01 181.45
-9751671.10 5132051.86 199.96
-9751575.43 5132069.74 181.80
-9751360.95 5132077.51 202.73
-9751470.99 5132015.93 181.46
-9751258.61 5133019.11 181.74
-9751733.75 5131963.81 180.93
-9751681.30 5131964.16 180.91
-9751523.00 5131964.24 181.16
-9751312.02 5131964.54 180.77
-9751637.59 5131913.92 201.87
-9751153.62 5130806.16 178.65
-9751153.73 5130856.94 179.49
-9751100.16 5130804.51 179.52
-9751047.68 5130806.54 179.40
-9750997.03 5130803.60 179.13
-9750926.21 5130856.48 202.46
-9750626.11 5130807.27 180.32
-9750573.85 5130808.39 180.23
-9750533.51 5130818.65 202.32
-9750469.03 5130804.41 180.30
-9750362.96 5130804.30 179.94
-9750307.14 5130804.64 180.45
-9750257.71 5130804.76 180.47
-9751206.54 5130751.39 179.11
-9751101.43 5130751.97 179.18
-9751046.39 5130751.57 179.35
-9750995.91 5130751.79 179.43
-9750943.19 5130751.80 179.09
-9750733.65 5130760.26 180.00
-9750678.88 5130751.85 179.74
-9750362.70 5130752.02 179.92
-9751218.28 5130752.59 200.47
-9750418.50 5130749.60 222.24
-9751101.34 5130698.72 179.23
-9751045.66 5130698.13 179.28
-9751043.16 5130710.84 199.95
-9750943.22 5130699.05 179.60
-9750890.16 5130699.62 179.66
-9750616.97 5130710.33 201.36
-9750468.74 5130700.58 179.61
-9750416.40 5130699.34 180.42
-9750257.59 5130698.66 186.70
-9750468.57 5130646.37 179.77
-9751046.08 5130646.06 179.16
-9750988.12 5130656.59 201.31
-9750617.93 5130639.21 200.53
-9751048.92 5131858.99 180.36
-9750890.35 5131858.89 179.98
-9750574.12 5131859.04 179.24
-9751206.94 5131806.67 181.50
-9750995.36 5131806.32 180.62
-9750623.38 5131806.59 178.64
-9750524.54 5131804.62 202.94
-9750837.74 5131753.53 179.49
-9750458.48 5131753.79 179.90
-9750257.57 5131700.52 183.86
-9751154.00 5131700.09 180.46
-9751101.21 5131700.66 180.00
-9750679.48 5131700.79 179.16
-9750468.54 5131701.21 179.23
-9750943.30 5131647.94 179.09
-9750674.18 5131632.93 200.21
-9750511.91 5131623.10 203.24
-9750514.46 5131621.07 201.40
-9750468.84 5131608.53 180.31
-9750410.07 5131590.68 180.23
-9750310.06 5131595.12 180.32
-9750257.83 5131595.37 179.80
-9751101.31 5131595.05 180.13
-9750944.00 5131595.52 178.62
-9750731.09 5131594.91 179.20
-9750574.48 5131543.60 179.47
-9751154.06 5131542.69 179.77
-9750890.34 5131543.45 178.95
-9750679.38 5131542.44 179.03
-9750733.40 5131541.08 202.22
-9750408.32 5131489.96 180.65
-9751101.68 5131491.76 179.55
-9750995.89 5131493.48 179.31
-9750848.71 5131503.63 200.56
-9751201.15 5132858.01 182.25
-9751152.20 5132860.04 181.80
-9751098.76 5132855.29 180.84
-9751048.68 5132860.65 180.51
-9750890.90 5132859.45 180.19
-9750828.60 5132868.04 201.18
-9750731.58 5132860.11 182.20
-9750732.00 5132862.54 199.88
-9750679.36 5132861.04 180.13
-9750574.16 5132860.73 179.70
-9750416.46 5132860.30 180.41
-9751200.70 5132806.67 182.14
-9750707.52 5132794.70 200.11
-9750678.67 5132807.16 204.62
-9750573.94 5131437.27 179.12
-9750363.50 5132807.68 183.11
-9750257.93 5132807.81 179.54
-9751206.66 5131437.33 180.35
-9751049.00 5131437.29 179.31
-9750943.18 5131437.23 179.33
-9750837.43 5131436.58 179.20
-9750731.85 5131436.32 179.08
-9750645.51 5132795.67 199.98
-9751199.59 5132754.17 182.18
-9751047.97 5132754.61 181.06
-9750785.24 5132755.31 181.15
-9750676.91 5132772.24 203.65
-9750363.48 5132754.84 180.32
-9750574.54 5131384.27 179.55
-9750412.50 5131386.36 180.17
-9750266.41 5131389.73 179.63
-9750995.44 5131384.68 182.33
-9751199.05 5132702.95 182.18
-9751100.96 5132701.69 180.87
-9750835.93 5132699.29 179.67
-9751028.69 5131360.36 200.19
-9750732.03 5131330.44 179.63
-9750679.57 5131331.44 179.06
-9750665.49 5131349.53 206.05
-9750645.14 5131349.74 205.50
-9750626.80 5131331.30 179.60
-9750521.46 5131331.49 179.31
-9751099.93 5132644.73 179.36
-9750943.28 5132650.10 181.09
-9750306.83 5131330.76 185.90
-9750890.29 5132649.79 180.93
-9750784.13 5132650.01 180.17
-9750614.95 5132651.85 202.07
-9750416.35 5132650.12 179.34
-9750362.81 5132652.42 184.39
-9750890.11 5131351.49 213.37
-9750837.76 5131331.74 179.29
-9750745.12 5131323.55 202.02
-9751036.60 5132596.28 182.08
-9750837.52 5132596.92 180.47
-9750469.14 5132597.24 178.73
-9750204.21 5132597.28 180.01
-9750786.43 5131289.00 205.51
-9750679.63 5131279.26 179.10
-9750626.88 5131278.92 179.59
-9751194.59 5132598.46 209.20
-9750520.78 5131279.15 179.30
-9750415.90 5131279.03 180.24
-9750310.30 5131279.32 179.93
-9751202.69 5131298.84 199.87
-9751153.27 5131272.05 200.01
-9751048.50 5131279.19 179.27
-9750995.83 5131278.69 179.62
-9751172.10 5132582.45 200.30
-9750943.14 5132544.18 180.89
-9750732.11 5132543.78 178.79
-9750679.32 5132544.12 177.89
-9750310.40 5132544.22 182.90
-9750257.94 5132544.03 179.97
-9751153.79 5132544.24 181.24
-9751041.31 5132536.87 181.23
-9750784.58 5132491.39 179.89
-9750945.74 5131265.01 204.80
-9750574.20 5132491.38 183.07
-9750523.89 5132507.17 205.41
-9750363.19 5132491.37 180.98
-9750679.93 5131226.33 179.20
-9751207.00 5132491.84 181.18
-9751101.19 5132491.57 180.95
-9750995.95 5132491.52 180.79
-9750575.18 5132437.85 182.91
-9750257.99 5132438.58 181.34
-9751206.73 5132438.58 180.75
-9751048.48 5132438.58 180.54
-9750835.86 5132438.49 180.93
-9750748.61 5132445.74 252.77
-9751048.30 5131225.97 179.29
-9750651.29 5131229.03 200.07
-9750574.00 5132386.01 182.86
-9750504.26 5132388.94 201.81
-9750469.83 5132391.02 204.45
-9750416.03 5132386.10 180.21
-9751153.98 5132386.24 181.26
-9751101.25 5132385.85 181.09
-9750890.93 5132386.86 180.87
-9750784.67 5132386.03 179.98
-9750732.17 5132385.98 179.82
-9750730.30 5131173.88 179.54
-9750626.09 5131174.15 179.53
-9750468.38 5131172.91 179.76
-9750257.36 5131173.58 180.18
-9751048.07 5131173.55 179.29
-9750995.98 5131173.05 179.59
-9750469.93 5132334.17 202.23
-9750363.04 5132333.35 180.20
-9750310.55 5132333.30 180.23
-9751154.05 5132333.54 180.64
-9751048.29 5132333.11 180.94
-9750996.62 5132334.30 181.63
-9750521.58 5132332.79 182.95
-9751217.68 5132342.23 199.86
-9750991.97 5132336.81 202.22
-9750943.17 5131120.86 179.62
-9750890.38 5131121.39 179.39
-9750363.54 5131120.72 179.76
-9750310.39 5131121.00 179.96
-9750310.92 5132280.64 180.09
-9750257.86 5132280.57 180.20
-9750606.68 5131127.97 199.85
-9751154.09 5132281.39 181.36
-9751048.33 5132280.78 181.05
-9751011.51 5131115.30 199.86
-9750992.03 5132280.00 181.26
-9750524.34 5132279.57 181.31
-9750468.88 5132280.62 183.48
-9750943.48 5131068.06 179.53
-9750837.95 5131069.35 179.60
-9750732.47 5131072.92 179.75
-9750626.17 5131074.37 179.74
-9750574.50 5131075.28 180.39
-9750402.47 5131104.86 200.91
-9750359.69 5131073.15 203.72
-9751046.32 5131068.79 179.41
-9750942.96 5131054.61 220.59
-9751206.66 5132228.07 180.35
-9751154.07 5132228.51 180.56
-9750258.14 5132227.92 180.18
-9750685.05 5131015.64 208.24
-9750679.24 5131015.62 179.41
-9750717.79 5131013.77 208.08
-9750626.74 5131015.57 179.55
-9750437.21 5131043.15 200.24
-9750890.20 5130962.15 179.64
-9750838.33 5130962.33 179.74
-9750728.90 5130960.29 183.70
-9751151.30 5132176.05 180.69
-9750679.25 5130962.61 179.44
-9750626.80 5130962.85 179.37
-9751111.06 5132184.27 200.33
-9750881.77 5132179.94 200.18
-9750731.93 5132169.54 180.54
-9750627.18 5132170.94 227.20
-9750573.79 5132171.69 227.20
-9750392.90 5132189.07 199.91
-9750310.70 5132175.26 180.12
-9750257.90 5132175.51 180.35
-9750934.15 5132179.07 202.24
-9750943.62 5130909.85 179.43
-9750837.84 5130910.32 179.68
-9750774.25 5130910.55 179.98
-9750732.14 5130911.80 179.58
-9750628.01 5130912.37 178.89
-9750521.56 5130909.87 179.52
-9751152.29 5132152.53 200.31
-9750731.09 5130916.34 202.92
-9750614.53 5130908.61 204.67
-9750363.01 5133283.21 176.64
-9750626.35 5132122.52 179.69
-9750521.76 5132122.15 180.29
-9750309.74 5132123.26 180.69
-9750678.76 5130857.19 179.56
-9750574.13 5130857.18 179.10
-9750574.41 5133229.30 179.17
-9750414.16 5130847.51 206.87
-9751154.01 5132070.01 181.29
-9750995.79 5132069.14 181.52
-9750447.23 5130849.66 201.64
-9750785.96 5132069.37 181.14
-9750732.33 5132066.36 180.41
-9750679.77 5132069.87 179.21
-9750784.62 5133176.67 180.80
-9750311.64 5132063.29 199.89
-9751153.95 5133123.85 181.92
-9751048.78 5133123.84 180.76
-9750942.90 5133124.29 181.65
-9750732.18 5133124.25 180.65
-9750469.13 5133123.95 176.83
-9750309.67 5133123.59 176.70
-9750386.77 5130829.25 203.30
-9751206.49 5133071.47 181.91
-9751154.36 5132015.71 179.09
-9751101.47 5132016.46 181.14
-9751041.18 5132045.94 200.03
-9750996.40 5132020.17 181.05
-9750837.71 5133070.99 181.35
-9750942.66 5132017.02 180.67
-9750832.21 5132015.99 180.65
-9750782.98 5132016.25 180.58
-9750627.02 5133071.13 180.50
-9750573.97 5133071.17 179.33
-9750415.91 5133071.99 176.55
-9750415.78 5132017.25 179.26
-9750622.31 5132018.29 202.97
-9750257.97 5133018.44 176.63
-9750828.84 5133027.13 200.35
-9750784.73 5133019.22 179.81
-9750732.00 5133018.55 179.51
-9750627.08 5133018.49 180.27
-9750743.98 5132983.39 200.60
-9750679.60 5132966.17 179.50
-9751206.50 5131964.17 180.78
-9750626.56 5132965.83 179.53
-9750415.78 5132966.02 179.23
-9750363.36 5132965.87 176.73
-9750837.51 5131963.68 179.75
-9751151.50 5132960.23 182.23
-9750732.26 5131964.54 179.05
-9750363.42 5131964.41 183.36
-9750258.21 5131964.44 180.52
-9751202.16 5132914.91 182.16
-9750994.23 5132912.55 180.89
-9750768.38 5132931.39 200.10
-9750730.93 5132914.03 179.99
-9750679.61 5132913.19 179.31
-9750362.73 5132913.57 179.11
-9751206.56 5131912.59 181.33
-9751048.30 5131911.71 180.49
-9750942.47 5131911.67 179.82
-9750890.58 5131911.36 179.92
-9750732.08 5131911.55 179.29
-9750728.78 5132906.81 200.15
-9750468.92 5131911.40 179.38
-9751156.64 5131913.80 200.24
-9750618.73 5131909.85 199.85
-9750204.55 5133176.03 176.96
-9750204.97 5132754.82 179.31
-9750204.97 5132702.42 179.36
-9750205.13 5132227.85 180.14
-9749409.30 5130788.27 200.00
-9750202.40 5130762.77 180.68
-9750152.57 5130751.80 180.02
-9750043.48 5130771.13 222.53
-9749994.00 5130751.73 179.83
-9749889.16 5130751.65 179.57
-9749832.05 5130752.35 179.04
-9749625.09 5130751.78 179.11
-9749414.12 5130751.86 180.28
-9750203.72 5131854.74 181.05
-9750151.55 5131858.73 180.52
-9749990.56 5131807.87 224.93
-9749991.01 5131808.72 179.79
-9749888.72 5131806.17 179.71
-9749677.63 5131859.02 179.27
-9749519.64 5131859.01 176.70
-9749363.49 5131858.25 176.89
-9749309.17 5131858.96 176.74
-9750100.52 5130699.87 184.40
-9749831.36 5130699.27 179.06
-9749730.39 5130698.81 179.59
-9749624.85 5130699.06 179.10
-9749519.70 5130698.98 179.56
-9749467.21 5130699.45 179.62
-9749833.41 5131754.01 224.55
-9749353.57 5130703.64 202.74
-9749730.23 5131753.07 179.77
-9749941.49 5130692.68 226.90
-9749994.94 5131705.75 179.74
-9749835.79 5131700.47 180.01
-9749518.98 5131701.45 178.74
-9749888.98 5130646.29 179.86
-9749832.93 5130649.35 178.77
-9749851.60 5130673.50 199.88
-9749729.83 5130646.19 179.48
-9749882.61 5131701.19 226.22
-9749519.76 5130646.35 179.05
-9749467.27 5130645.79 179.38
-9749313.53 5130672.53 200.05
-9749835.62 5131647.69 180.02
-9749308.84 5131647.60 176.87
-9749466.59 5131595.69 179.92
-9749256.33 5131595.72 176.72
-9750096.88 5131595.68 180.16
-9749996.13 5131601.73 223.31
-9749831.68 5131595.61 179.73
-9749783.40 5131595.05 179.33
-9750151.22 5131541.91 180.11
-9750095.94 5131542.86 180.08
-9749730.73 5131542.34 179.70
-9749859.76 5131527.94 200.41
-9750149.48 5131490.68 181.74
-9749994.38 5131489.83 223.93
-9749835.12 5131436.34 179.24
-9749678.05 5131437.54 179.34
-9749466.80 5131437.35 179.55
-9750201.99 5131438.23 179.26
-9750146.49 5131439.99 179.26
-9750099.51 5131436.90 179.80
-9749994.26 5131437.15 179.75
-9750153.22 5131384.07 184.09
-9749677.51 5131384.29 179.15
-9749361.34 5131384.77 176.90
-9750152.07 5131331.67 184.63
-9749993.52 5131332.72 181.39
-9749836.17 5131332.01 179.34
-9749625.47 5131331.87 180.13
-9749414.17 5131332.17 176.73
-9750204.40 5131279.27 179.92
-9750150.28 5131279.42 184.74
-9749836.20 5131279.03 179.37
-9749572.77 5131278.76 179.98
-9749467.26 5131279.33 179.71
-9749256.30 5131279.39 176.74
-9750114.88 5131284.83 200.07
-9750098.61 5131226.45 180.71
-9749625.51 5131225.90 179.42
-9749362.72 5131226.35 176.44
-9749994.40 5131225.26 263.86
-9750099.30 5132860.24 176.75
-9749940.93 5132860.13 176.96
-9749888.36 5132860.88 176.70
-9749677.85 5132859.69 176.61
-9749836.70 5132807.72 176.75
-9749783.44 5132807.77 176.78
-9749677.84 5132807.85 176.69
-9749361.37 5132808.39 176.78
-9750151.98 5132755.94 176.50
-9749678.06 5131173.50 179.31
-9749783.54 5132754.69 176.93
-9749678.08 5132753.25 176.88
-9749519.66 5132755.02 176.98
-9749361.66 5132755.13 176.88
-9750151.89 5131173.64 184.85
-9750099.44 5132702.62 176.93
-9749836.16 5132701.31 176.60
-9749783.86 5131173.57 179.73
-9749761.07 5131172.19 204.55
-9749677.27 5132649.71 176.86
-9749572.98 5132649.96 176.79
-9749467.61 5132649.52 176.77
-9749309.35 5132648.96 176.79
-9750151.72 5132595.78 177.85
-9749889.72 5132596.74 176.78
-9749784.31 5132597.22 176.83
-9749467.05 5132596.32 176.70
-9749964.87 5131170.95 256.67
-9750152.69 5132544.28 179.21
-9749783.30 5132543.93 176.88
-9750099.59 5132492.33 176.94
-9749623.98 5132490.62 176.71
-9749308.87 5132491.11 176.96
-9750204.57 5131121.01 180.04
-9750152.61 5131121.54 184.69
-9750099.47 5132438.89 178.54
-9749993.76 5132438.44 176.77
-9749941.98 5132438.61 176.70
-9749835.89 5132438.98 176.78
-9749625.82 5132439.76 176.77
-9749467.11 5132438.53 176.76
-9749415.72 5132439.94 176.65
-9749307.81 5132439.85 177.02
-9749256.21 5132438.96 176.72
-9749835.71 5131120.65 179.64
-9749783.31 5131120.91 179.96
-9749942.19 5132385.96 176.82
-9750100.05 5132386.17 179.66
-9749309.39 5131120.44 176.82
-9750151.97 5132333.78 180.14
-9749573.87 5132332.83 176.92
-9749255.11 5132280.54 176.85
-9750205.74 5131067.37 179.84
-9750099.56 5131067.87 184.53
-9749994.13 5132227.77 179.44
-9749941.28 5132227.36 176.88
-9749783.64 5132227.95 176.82
-9749572.39 5132226.76 176.88
-9749361.52 5132227.98 176.74
-9749256.04 5132227.99 176.67
-9749880.60 5131072.77 216.65
-9749782.85 5132175.06 176.86
-9749361.10 5132175.00 176.75
-9750093.74 5132126.49 225.39
-9750047.19 5131014.85 179.58
-9749730.09 5132123.51 176.69
-9749677.80 5132123.12 176.63
-9749625.48 5132122.31 176.89
-9749882.16 5131024.28 215.65
-9749836.30 5131015.33 179.57
-9749730.65 5131015.21 179.60
-9749360.81 5131015.62 176.69
-9750144.53 5132061.97 225.44
-9750205.74 5131019.19 221.72
-9750116.55 5132086.05 225.34
-9749941.51 5132069.95 179.48
-9749730.18 5132069.70 176.73
-9749625.32 5132069.59 176.84
-9750206.29 5132016.40 180.44
-9750040.97 5132011.48 225.42
-9749994.61 5132017.24 180.07
-9750100.00 5130962.21 184.69
-9749888.49 5132017.23 179.32
-9749625.72 5132017.96 176.88
-9749888.64 5130962.64 179.98
-9749836.22 5130962.14 180.44
-9749624.54 5130962.97 179.24
-9749519.70 5130962.94 180.03
-9749255.42 5130962.43 176.67
-9749520.19 5131962.79 176.97
-9750099.86 5131964.15 179.73
-9750064.07 5131989.81 227.99
-9749941.60 5131963.98 179.87
-9750084.54 5130957.95 200.43
-9750204.78 5131910.99 180.45
-9749361.40 5130909.94 176.58
-9750100.60 5130909.88 184.38
-9749994.18 5130909.71 179.86
-9749933.17 5130907.61 180.07
-9749784.01 5131911.14 180.10
-9749673.74 5130911.65 179.28
-9750099.54 5130857.20 184.42
-9749833.39 5130857.09 180.60
-9749672.91 5130857.05 179.38
-9749624.71 5130857.14 179.00
-9749941.68 5133387.67 176.87
-9749626.10 5133387.39 176.73
-9750099.50 5133335.28 176.76
-9749519.38 5133334.92 176.86
-9749414.48 5133281.82 176.90
-9749203.43 5133282.70 176.71
-9749731.26 5133282.43 176.53
-9749783.55 5133229.08 176.86
-9749414.91 5133229.72 176.88
-9749309.05 5133229.96 176.85
-9749361.47 5133177.02 176.77
-9749940.68 5133124.49 176.71
-9749889.13 5133124.13 176.67
-9749731.21 5133123.93 177.06
-9749677.91 5133123.67 176.82
-9749624.00 5133124.23 176.71
-9749572.59 5133124.52 176.74
-9749519.78 5133123.70 176.79
-9749467.05 5133123.94 176.77
-9749309.42 5133124.28 176.77
-9749255.29 5133124.16 176.67
-9749730.68 5133071.02 176.71
-9749466.63 5133070.48 176.64
-9749414.71 5133071.35 176.81
-9749255.62 5133071.13 176.93
-9749940.92 5133070.54 176.89
-9749889.34 5133070.83 176.99
-9749836.25 5133071.35 176.72
-9749994.05 5133020.29 176.64
-9749890.45 5133020.39 176.60
-9749783.04 5133018.68 176.59
-9749677.10 5133018.54 176.71
-9749624.87 5133018.53 176.89
-9749255.35 5133017.99 176.96
-9750099.49 5132966.97 176.48
-9749993.98 5132965.85 176.85
-9749835.09 5132965.01 176.91
-9749783.26 5132965.66 176.61
-9749731.27 5132965.71 176.83
-9749680.04 5132965.58 176.90
-9749309.03 5132966.12 176.81
-9749256.04 5132965.95 176.97
-9749204.48 5132964.10 177.04
-9749467.45 5132912.96 176.96
-9749992.57 5132912.36 176.96
-9749942.03 5132913.42 176.84
-9749834.76 5132913.23 176.85
-9749625.12 5132913.23 176.84
-9749572.31 5132911.35 176.99
-9748992.96 5130804.75 176.83
-9748939.25 5130804.08 176.70
-9748728.59 5130804.99 176.54
-9748623.31 5130803.27 176.74
-9748518.32 5130804.98 176.66
-9748465.52 5130804.59 176.68
-9749045.10 5130751.69 176.99
-9748834.17 5130751.77 176.88
-9748465.59 5130751.86 177.01
-9748412.33 5130751.18 176.78
-9748781.49 5130698.88 176.58
-9748623.76 5130698.80 176.93
-9748517.87 5130698.33 176.33
-9748465.55 5130699.33 176.72
-9749045.86 5130698.78 176.71
-9748888.44 5130699.80 176.59
-9749152.29 5130646.46 176.81
-9748992.29 5130645.71 176.64
-9748939.39 5130646.23 176.53
-9748887.65 5130645.88 176.65
-9748728.74 5130646.53 176.71
-9748413.13 5131806.62 176.68
-9748570.18 5131647.91 176.67
-9748465.35 5131648.85 176.76
-9748623.23 5131595.45 176.78
-9748623.78 5131542.78 177.01
-9748623.86 5131489.50 176.75
-9748464.75 5131489.77 176.55
-9748412.95 5131490.12 176.53
-9748569.89 5131437.11 176.56
-9748518.58 5131436.98 176.88
-9748412.97 5131436.95 176.67
-9748465.74 5131384.52 176.75
-9748466.06 5131331.66 176.69
-9748622.76 5131279.07 176.76
-9748464.83 5131279.18 176.87
-9748676.09 5131226.22 176.70
-9748518.40 5131226.01 176.69
-9748729.26 5131173.50 176.85
-9748571.56 5131174.24 176.71
-9748676.64 5131122.00 176.66
-9748518.13 5131120.54 176.78
-9748412.77 5131120.22 176.80
-9749151.19 5131120.81 176.84
-9749098.45 5131121.00 176.74
-9748886.92 5132861.19 176.81
-9748730.47 5132859.76 176.89
-9748676.58 5132860.21 176.69
-9748676.84 5132808.15 176.78
-9748624.18 5132808.11 176.95
-9748570.90 5132807.22 176.88
-9748464.74 5132807.77 176.82
-9748411.96 5132857.77 176.82
-9748360.07 5132807.58 176.74
-9749045.70 5132809.46 176.71
-9748834.64 5132807.58 176.73
-9748781.87 5132808.05 176.60
-9748729.08 5132807.34 176.82
-9748571.03 5132756.36 176.76
-9748519.70 5132754.22 176.78
-9748360.79 5132754.40 176.93
-9748676.72 5131068.41 176.61
-9748623.34 5131067.90 176.67
-9749097.85 5132755.33 176.76
-9748518.59 5131068.22 176.59
-9748834.21 5132754.77 176.71
-9748728.19 5132755.52 176.77
-9748411.96 5131067.30 176.48
-9748675.23 5132754.02 176.80
-9748622.72 5132754.22 177.04
-9748465.63 5132701.86 176.87
-9748412.12 5132702.60 176.93
-9749045.71 5132702.17 176.93
-9748781.95 5132702.02 176.65
-9748729.26 5132702.09 176.86
-9748676.24 5132702.54 176.88
-9748623.85 5132702.85 176.95
-9748570.79 5132704.32 176.48
-9748518.58 5132702.99 176.85
-9748359.67 5132650.29 176.64
-9748782.06 5132649.80 176.65
-9748728.15 5132650.48 176.68
-9748675.96 5132650.24 176.82
-9748623.42 5132650.23 176.55
-9748465.70 5132649.95 176.87
-9748676.20 5132597.15 176.79
-9748571.16 5132595.82 176.82
-9748465.39 5132596.13 176.96
-9748676.34 5131015.36 176.83
-9748623.91 5131015.48 176.83
-9748570.95 5132543.73 176.84
-9748465.69 5132543.71 176.78
-9748359.28 5132544.68 176.75
-9748465.30 5130962.81 176.74
-9749150.70 5132491.48 176.84
-9748676.33 5132492.41 176.69
-9748623.45 5132491.46 177.05
-9749098.86 5130962.80 176.74
-9748412.69 5132491.50 176.85
-9748360.49 5132491.81 176.85
-9748782.18 5130963.40 176.71
-9748729.90 5130963.02 176.58
-9748622.85 5132439.24 176.78
-9748571.22 5132438.41 176.77
-9748518.25 5132438.25 176.69
-9748360.14 5132439.12 176.97
-9748622.96 5130962.74 176.90
-9748571.62 5130962.80 176.82
-9748570.87 5132386.17 176.64
-9748518.21 5132386.32 176.82
-9748411.88 5132385.70 176.81
-9748359.58 5132386.78 176.74
-9748622.30 5132333.29 176.61
-9748518.41 5132333.63 176.68
-9748465.46 5132332.88 176.81
-9748729.99 5130909.62 176.78
-9748360.62 5132332.89 176.76
-9748676.18 5130909.43 176.70
-9748359.24 5130909.88 176.63
-9748623.21 5132281.62 176.51
-9748569.96 5132228.55 176.37
-9748465.13 5132227.85 176.87
-9749098.50 5130856.79 176.73
-9748939.79 5130857.41 176.74
-9748887.21 5130857.69 176.75
-9748571.80 5132174.13 176.82
-9748464.81 5132174.72 176.83
-9748360.13 5132175.61 176.72
-9748782.41 5130857.15 176.76
-9748676.42 5130857.00 176.81
-9748624.06 5130857.28 176.86
-9748571.50 5130856.90 176.84
-9748518.68 5132122.31 176.83
-9748465.64 5132121.82 176.85
-9748412.39 5132121.91 176.73
-9748570.39 5132068.96 176.79
-9748518.37 5132070.56 176.76
-9748412.57 5132069.18 176.58
-9748570.25 5132017.46 177.10
-9748517.75 5132016.66 176.73
-9748464.87 5132017.13 176.74
