-9758180.80 5136932.41 181.79
-9758097.85 5136931.80 184.42
-9757888.67 5136932.87 188.33
-9757863.82 5136932.28 184.82
-9757731.22 5136933.44 188.11
-9757572.81 5136932.73 185.32
-9757493.66 5136932.84 186.31
-9757413.63 5136933.55 186.82
-9758073.41 5136906.90 181.47
-9757889.36 5136905.95 181.48
-9757809.98 5136907.04 182.18
-9757756.10 5136905.77 181.87
-9757705.03 5136907.17 184.54
-9757676.19 5136907.98 186.68
-9757574.73 5136906.76 181.79
-9757494.61 5136906.17 186.86
-9757412.51 5136906.17 186.38
-9757386.38 5136904.61 187.17
-9758125.85 5136906.71 186.39
-9758098.54 5136907.09 185.69
-9758336.33 5136878.59 186.97
-9758310.83 5136879.84 186.71
-9758125.63 5136880.00 186.39
-9758047.03 5136880.22 186.81
-9757941.13 5136880.67 188.31
-9757915.11 5136880.08 186.94
-9757885.40 5136878.85 181.78
-9757809.68 5136880.43 185.98
-9757730.85 5136880.24 180.48
-9757572.20 5136880.26 179.99
-9757467.79 5136884.03 184.77
-9757414.38 5136879.11 186.32
-9758283.30 5136853.36 180.94
-9758152.71 5136854.63 187.75
-9758098.99 5136854.44 185.23
-9758073.64 5136853.73 185.41
-9757599.00 5136853.66 186.44
-9757572.34 5136854.21 187.84
-9757467.15 5136854.16 187.64
-9758073.02 5136827.67 186.70
-9757840.14 5136830.84 186.19
-9757757.38 5136826.93 182.93
-9757704.94 5136827.59 181.62
-9757621.82 5136829.20 185.23
-9757519.20 5136827.23 186.23
-9757492.11 5136825.03 185.55
-9757444.66 5136825.38 186.28
-9757360.45 5136828.36 181.83
-9758231.16 5136826.98 185.85
-9758207.29 5136829.95 185.89
-9758230.27 5136797.05 186.82
-9758204.89 5136801.07 187.04
-9758073.90 5136800.99 179.58
-9757968.08 5136801.55 186.62
-9757756.49 5136801.02 186.38
-9757622.63 5136803.88 180.54
-9757464.37 5136801.70 181.69
-9758100.65 5136774.32 186.21
-9758020.41 5136773.16 184.47
-9757995.47 5136776.19 184.23
-9757918.28 5136771.73 186.46
-9757885.28 5136773.46 184.48
-9757835.84 5136774.97 183.16
-9757782.37 5136774.92 185.22
-9757704.11 5136774.61 187.60
-9757493.22 5136774.70 180.60
-9758020.83 5136748.23 187.46
-9757965.05 5136773.92 200.78
-9757861.71 5136748.94 184.10
-9757836.93 5136750.41 183.87
-9757809.51 5136748.24 186.71
-9757573.66 5136755.52 199.85
-9757361.96 5136748.18 185.62
-9758178.01 5136747.48 184.52
-9758310.54 5136722.06 180.38
-9758285.12 5136723.28 181.44
-9758205.78 5136721.76 181.25
-9758178.74 5136721.92 180.40
-9758072.97 5136719.79 181.87
-9758046.92 5136722.87 181.93
-9757994.13 5136721.59 186.52
-9757967.34 5136722.29 186.54
-9757808.62 5136721.94 185.84
-9757674.19 5136720.15 184.60
-9757414.45 5136719.98 186.79
-9757361.77 5136722.10 186.91
-9757334.46 5136723.54 187.28
-9758336.68 5136695.61 185.01
-9758046.24 5136695.93 188.38
-9757757.56 5136695.59 186.25
-9757704.28 5136695.59 186.06
-9757651.41 5136695.58 186.78
-9757622.29 5136696.15 185.89
-9757598.32 5136695.38 184.36
-9757572.47 5136695.76 186.37
-9757533.47 5136698.83 205.66
-9757438.50 5136695.89 186.11
-9757361.35 5136695.88 183.67
-9758072.89 5136669.50 186.26
-9757966.76 5136669.44 182.48
-9757625.05 5136668.32 183.69
-9757468.21 5136669.86 187.64
-9757360.24 5136669.69 187.20
-9758336.86 5136669.09 187.67
-9758177.93 5136666.33 185.74
-9758258.14 5136643.07 187.01
-9758126.08 5136642.87 180.28
-9758021.61 5136641.77 185.15
-9757912.43 5136643.29 183.76
-9757834.77 5136641.02 184.90
-9757756.54 5136642.44 186.78
-9757678.35 5136642.73 187.16
-9757600.21 5136645.02 187.31
-9757572.37 5136642.69 186.65
-9757336.02 5136642.87 185.63
-9758153.14 5136617.03 184.76
-9757940.66 5136616.45 185.88
-9757807.67 5136617.62 187.90
-9757677.77 5136616.72 186.39
-9757624.97 5136617.74 187.92
-9757597.35 5136617.09 186.09
-9757572.34 5136616.74 185.54
-9757518.04 5136613.28 188.09
-9757885.57 5136590.33 187.65
-9757809.47 5136590.47 180.40
-9757730.14 5136589.32 181.84
-9757572.28 5136586.33 187.59
-9757544.73 5136587.73 187.40
-9757520.86 5136592.94 182.14
-9757358.08 5136587.95 187.18
-9757334.43 5136590.19 186.13
-9757333.51 5136564.18 185.78
-9758310.31 5136563.41 184.93
-9758204.46 5136563.97 185.22
-9758072.89 5136563.38 187.05
-9758018.75 5136563.85 184.01
-9757994.25 5136563.87 187.03
-9757941.16 5136564.20 187.86
-9757835.05 5136563.93 187.63
-9757754.83 5136564.28 186.09
-9757598.84 5136563.51 185.55
-9757572.51 5136568.29 183.39
-9757519.82 5136564.04 185.83
-9758310.16 5136540.56 185.35
-9758257.06 5136540.58 186.93
-9758020.51 5136536.36 185.62
-9757993.81 5136537.19 182.61
-9757831.09 5136551.58 201.95
-9757783.55 5136536.91 187.51
-9757728.85 5136537.68 187.83
-9757598.69 5136537.44 186.83
-9757572.67 5136538.37 185.04
-9758126.08 5136511.05 186.69
-9757967.77 5136510.93 183.52
-9757809.78 5136511.54 183.13
-9757757.83 5136513.28 187.26
-9757729.79 5136511.98 185.15
-9757414.24 5136509.41 186.93
-9757388.69 5136511.36 185.76
-9758283.70 5136484.90 187.92
-9758151.44 5136484.60 185.44
-9758022.78 5136484.47 187.07
-9757993.83 5136484.90 186.10
-9757940.51 5136485.06 188.43
-9757520.70 5136485.13 189.20
-9757417.04 5136484.31 186.18
-9758337.66 5136458.96 187.16
-9758182.17 5136461.45 186.58
-9757546.30 5136458.71 180.53
-9757493.01 5136458.45 187.31
-9757440.82 5136458.15 186.49
-9757412.34 5136458.20 186.22
-9758150.71 5136431.20 186.45
-9757860.22 5136434.42 187.33
-9757757.44 5136431.71 184.85
-9757731.13 5136431.84 186.77
-9757519.66 5136432.27 185.19
-9757493.14 5136432.39 187.24
-9757467.27 5136431.94 191.78
-9757412.86 5136424.87 208.52
-9757407.13 5136433.29 186.67
-9757387.76 5136405.36 180.49
-9758336.48 5136405.92 180.58
-9758230.75 5136405.90 188.15
-9758205.65 5136402.63 183.33
-9758150.40 5136405.43 185.41
-9757941.14 5136405.90 187.10
-9757651.36 5136407.03 188.79
-9757433.23 5136404.46 208.64
-9757416.13 5136407.41 211.66
-9757406.67 5136402.93 188.45
-9758258.39 5136378.71 182.42
-9757809.51 5136379.64 188.39
-9757677.26 5136379.35 188.55
-9757439.17 5136379.86 187.66
-9757413.92 5136377.43 190.02
-9758231.23 5136355.82 182.23
-9758205.43 5136353.07 186.28
-9758123.16 5136351.80 183.63
-9758047.31 5136353.57 184.48
-9757993.65 5136353.12 186.02
-9757862.28 5136356.34 184.32
-9757757.22 5136353.19 187.23
-9757652.04 5136350.19 187.71
-9757625.18 5136351.03 186.95
-9757599.23 5136351.38 188.74
-9757572.75 5136352.27 187.34
-9757488.19 5136373.92 200.69
-9758257.80 5136353.08 180.58
-9757910.70 5137354.76 185.87
-9757730.23 5137355.04 185.81
-9758231.47 5136326.54 186.51
-9758127.76 5136326.29 184.28
-9758086.15 5136336.86 200.53
-9758205.14 5137328.25 187.33
-9758176.08 5137323.95 187.27
-9757860.98 5136325.28 187.88
-9757846.75 5136334.07 200.43
-9757783.21 5137328.27 186.76
-9757755.64 5137329.31 183.35
-9757545.95 5136326.94 180.63
-9757519.06 5136325.84 186.41
-9758231.31 5136300.54 180.49
-9758097.76 5136300.47 184.29
-9758068.89 5136300.67 184.26
-9758231.22 5137301.73 187.24
-9758204.99 5137301.86 187.15
-9757809.51 5137301.81 186.59
-9758230.64 5136271.02 185.13
-9758203.08 5136275.91 186.37
-9758310.40 5137275.56 186.78
-9758205.13 5137275.82 187.13
-9758178.65 5137275.42 186.81
-9758072.87 5136275.09 187.35
-9758098.50 5137276.12 186.82
-9757993.77 5136275.02 184.40
-9758045.21 5137275.18 181.76
-9758020.57 5137275.56 189.33
-9757914.91 5137275.17 185.55
-9757809.63 5137275.96 187.00
-9757598.97 5137274.97 186.22
-9757574.62 5137274.48 186.28
-9757443.45 5137273.35 187.29
-9758338.20 5136274.78 187.04
-9758310.59 5136274.03 186.43
-9757967.61 5137249.37 180.45
-9757889.85 5137248.07 185.46
-9757862.71 5137249.62 187.65
-9757782.75 5137248.94 186.20
-9757436.58 5137247.16 187.19
-9758336.75 5137249.29 186.74
-9758257.75 5137249.18 186.96
-9758284.20 5136247.84 187.51
-9758253.63 5136243.79 184.54
-9758098.49 5137247.95 182.07
-9758045.46 5136247.07 182.63
-9757943.58 5136247.18 187.00
-9758336.97 5137222.95 186.49
-9758231.11 5137223.17 189.19
-9758073.37 5137222.80 186.72
-9757969.10 5137222.40 187.31
-9757756.00 5137221.31 186.32
-9757704.45 5137223.66 185.42
-9758298.27 5136231.57 185.84
-9758279.88 5136221.32 188.15
-9757651.66 5137223.27 187.50
-9757546.12 5137223.16 185.42
-9757441.02 5137224.04 185.72
-9757387.12 5137222.42 181.30
-9758336.55 5137196.58 186.63
-9758231.26 5137196.85 187.46
-9758125.65 5137196.56 187.87
-9758047.31 5137196.79 185.74
-9757888.93 5137196.85 185.29
-9757809.53 5137197.01 184.78
-9757625.30 5137196.56 186.68
-9757546.21 5137196.37 187.17
-9757493.86 5137199.34 181.86
-9757414.12 5137196.82 186.49
-9757510.69 5137188.41 200.78
-9757388.02 5137170.60 187.69
-9757356.13 5137172.04 187.01
-9758337.26 5137170.89 186.35
-9758311.92 5137170.18 187.32
-9758252.60 5137170.66 183.02
-9757942.25 5137170.82 185.01
-9757915.77 5137168.20 185.42
-9757888.46 5137169.83 187.08
-9757861.83 5137172.35 184.38
-9757838.39 5137167.81 185.16
-9757678.19 5137170.84 185.84
-9757598.83 5137170.15 186.50
-9757441.45 5137170.49 183.56
-9758020.16 5137143.25 187.81
-9757967.89 5137143.20 184.39
-9757884.65 5137145.51 187.44
-9757808.00 5137142.44 186.99
-9757783.36 5137144.05 187.74
-9757677.79 5137141.35 182.83
-9757361.98 5137144.13 187.57
-9757782.62 5137117.24 184.98
-9757731.61 5137114.66 185.05
-9757703.06 5137118.57 189.66
-9758283.82 5137117.16 181.91
-9758099.84 5137117.11 187.25
-9758257.82 5137091.27 189.06
-9757942.30 5137088.99 186.72
-9757890.29 5137092.36 186.12
-9757756.77 5137090.07 186.95
-9757730.68 5137091.10 186.72
-9757677.15 5137091.11 186.59
-9757516.76 5137092.78 186.22
-9757361.97 5137094.43 185.09
-9758020.28 5137064.84 187.47
-9757914.94 5137064.46 183.40
-9757703.06 5137062.21 186.45
-9757649.93 5137065.66 185.36
-9758336.94 5137064.65 184.41
-9757335.24 5136036.75 185.45
-9757336.00 5136905.08 183.27
-9757332.31 5136511.14 185.21
-9757334.50 5136432.11 185.85
-9757335.18 5136827.74 185.73
-9757337.84 5136696.24 185.25
-9757335.47 5136616.47 186.08
-9757281.69 5137038.03 185.42
-9756412.16 5137013.31 185.12
-9757256.10 5136932.35 186.74
-9757230.27 5136933.13 186.76
-9756332.08 5136930.71 187.15
-9757309.56 5136933.44 184.97
-9756384.15 5136906.59 182.33
-9756332.99 5136905.50 185.79
-9757308.51 5136906.30 185.75
-9757279.54 5136905.75 183.74
-9756336.82 5136874.83 199.89
-9757282.35 5136853.87 186.24
-9757178.45 5136852.87 186.33
-9757228.96 5136826.93 183.18
-9756412.63 5136827.32 183.75
-9756386.07 5136826.25 184.60
-9756492.12 5136801.33 186.59
-9756331.06 5136800.59 187.00
-9757282.36 5136801.31 187.08
-9757231.10 5136777.30 185.67
-9757203.68 5136774.62 184.40
-9757176.86 5136775.55 185.75
-9756515.80 5136747.19 181.72
-9756386.60 5136746.52 183.75
-9756357.48 5136746.98 183.23
-9757178.08 5136722.12 189.07
-9756365.31 5136721.88 192.41
-9756333.32 5136722.18 187.34
-9757126.42 5136696.70 184.43
-9757285.09 5136699.69 189.74
-9757256.40 5136695.76 186.94
-9756439.14 5136672.89 185.95
-9757308.72 5136669.65 186.71
-9757283.47 5136674.61 186.60
-9757177.06 5136642.92 186.37
-9757074.76 5136642.36 186.69
-9756439.06 5136643.10 186.55
-9757124.98 5136616.38 182.09
-9756464.42 5136616.73 185.89
-9757150.82 5136590.35 186.92
-9757124.60 5136590.20 186.37
-9756570.68 5136590.29 186.51
-9756360.13 5136590.27 186.46
-9757282.72 5136564.90 189.67
-9757149.88 5136565.63 188.13
-9757123.05 5136565.52 188.07
-9757255.32 5136538.48 187.96
-9757229.59 5136537.23 186.68
-9757176.78 5136537.77 187.06
-9757150.82 5136537.65 186.68
-9757045.28 5136537.60 186.71
-9756550.90 5136552.85 199.87
-9756409.41 5136537.45 183.26
-9757229.72 5136511.13 185.86
-9757203.13 5136511.30 186.64
-9757176.62 5136511.71 186.76
-9756623.53 5136510.69 185.65
-9756571.36 5136514.22 186.82
-9756438.92 5136511.70 185.87
-9756333.15 5136510.46 187.19
-9757228.69 5136484.83 186.64
-9757070.64 5136485.31 186.61
-9757044.12 5136484.34 187.10
-9756940.08 5136484.57 185.93
-9756755.14 5136484.80 185.59
-9756725.25 5136486.75 185.21
-9756674.30 5136485.87 186.76
-9756623.15 5136485.50 186.28
-9756384.64 5136484.48 186.22
-9757123.86 5136460.88 186.24
-9756755.03 5136458.47 185.57
-9756725.81 5136458.25 181.90
-9756465.89 5136457.38 185.64
-9756438.96 5136459.27 186.85
-9756385.69 5136459.14 184.63
-9756358.77 5136458.83 187.10
-9757152.20 5136458.18 183.23
-9756518.36 5136432.30 184.19
-9756464.74 5136431.16 187.53
-9756412.59 5136434.45 184.69
-9756386.06 5136432.99 184.47
-9756333.33 5136431.16 185.98
-9757307.98 5136432.18 186.25
-9757282.98 5136432.09 187.09
-9757256.09 5136432.30 184.67
-9757202.75 5136432.15 186.36
-9757123.07 5136426.44 185.29
-9757100.22 5136429.06 185.85
-9756966.54 5136432.06 186.80
-9756939.86 5136432.11 186.72
-9756623.33 5136431.85 187.08
-9757202.40 5136406.37 187.48
-9757121.16 5136406.42 186.10
-9757098.52 5136405.77 187.26
-9757069.38 5136405.59 186.76
-9756938.61 5136405.97 186.12
-9756676.30 5136405.32 185.36
-9756593.24 5136407.73 186.58
-9756543.29 5136406.95 183.19
-9756466.09 5136406.40 186.90
-9756438.82 5136406.35 186.21
-9756359.99 5136406.01 188.82
-9757286.52 5136379.43 185.82
-9757203.94 5136377.74 186.65
-9757071.25 5136381.49 185.18
-9756965.96 5136378.81 187.10
-9756939.13 5136379.72 187.64
-9756912.00 5136378.28 188.21
-9756860.67 5136379.33 187.06
-9756806.60 5136379.74 186.15
-9756676.16 5136379.27 184.72
-9756570.89 5136379.88 186.44
-9756518.39 5136380.19 183.77
-9756491.89 5136379.51 188.70
-9756412.85 5136381.39 185.11
-9757308.70 5136355.70 188.48
-9757286.08 5136353.03 186.71
-9757204.12 5136353.25 185.76
-9757150.97 5136353.13 180.62
-9757045.32 5136354.00 186.08
-9757018.94 5136353.27 186.32
-9756890.36 5136352.58 185.86
-9756754.74 5136351.18 186.78
-9756729.06 5136352.79 180.56
-9756702.58 5136353.17 188.47
-9756387.95 5136350.43 187.62
-9756810.19 5136326.86 186.74
-9756755.26 5136326.47 188.81
-9756623.40 5136326.25 185.01
-9756596.88 5136326.59 188.09
-9756571.05 5136327.75 186.82
-9756439.07 5136326.64 188.10
-9757123.99 5136326.61 180.78
-9757098.94 5136328.33 185.34
-9756993.74 5136325.97 186.53
-9756967.40 5136325.51 183.87
-9756860.76 5136326.60 186.52
-9756834.21 5136326.74 187.05
-9757177.23 5136300.22 181.19
-9757150.97 5136300.41 180.88
-9757072.93 5136302.69 188.05
-9757044.55 5136300.16 186.35
-9756988.81 5136300.26 188.16
-9756966.45 5136298.67 186.10
-9756939.83 5136299.52 187.72
-9756913.97 5136300.32 185.52
-9756886.56 5136300.18 185.81
-9756860.85 5136301.76 185.64
-9756830.61 5136299.83 186.08
-9756781.58 5136300.14 185.56
-9756570.18 5136297.44 186.66
-9756518.30 5136299.93 184.43
-9756491.80 5136300.42 189.13
-9756439.02 5136300.16 188.31
-9756988.31 5136274.06 188.28
-9756913.25 5136273.62 185.51
-9756809.47 5136275.06 186.62
-9756727.65 5136278.77 187.23
-9756702.80 5136274.80 186.29
-9756623.44 5136273.99 188.38
-9756598.07 5136273.18 187.67
-9756575.04 5136275.90 186.59
-9756518.50 5136275.21 186.66
-9756439.40 5136274.59 186.33
-9756412.77 5136274.82 181.37
-9756385.43 5136274.00 184.13
-9756358.12 5136274.34 187.39
-9756331.59 5136274.64 188.55
-9756887.19 5136247.59 188.05
-9756860.64 5136247.88 186.40
-9756781.59 5136247.87 182.95
-9756754.99 5136247.46 185.74
-9756729.12 5136247.72 180.52
-9756649.82 5136248.29 183.35
-9756623.49 5136248.35 186.19
-9756570.78 5136247.79 184.91
-9756544.53 5136247.64 184.82
-9756491.81 5136247.73 189.13
-9756413.38 5136247.80 187.03
-9756385.32 5136248.00 183.74
-9756333.12 5136247.66 186.89
-9756992.81 5136222.31 188.00
-9756807.99 5136221.08 183.01
-9756726.96 5136219.91 186.45
-9756676.23 5136221.25 187.91
-9756623.41 5136220.68 186.73
-9756543.12 5136223.20 188.23
-9756518.23 5136221.19 187.69
-9756412.34 5136221.27 186.78
-9756389.91 5136221.60 190.23
-9756359.45 5136221.42 187.50
-9756331.74 5136224.00 189.50
-9756359.96 5136194.76 186.08
-9757098.27 5136194.38 184.76
-9756940.23 5136195.54 187.56
-9756886.50 5136193.18 185.20
-9756860.56 5136195.09 185.25
-9756755.42 5136194.74 188.31
-9756649.27 5136193.66 186.79
-9756624.45 5136194.95 186.78
-9756598.27 5136192.56 190.06
-9756518.04 5136195.13 184.17
-9756491.87 5136195.12 186.21
-9757150.54 5136169.86 187.08
-9757160.34 5136170.48 205.57
-9757127.97 5136167.89 200.01
-9757100.51 5136167.33 182.15
-9757042.69 5136168.43 184.15
-9757018.78 5136168.23 185.90
-9756991.49 5136165.64 185.60
-9756782.37 5136166.60 184.01
-9756755.24 5136168.56 184.95
-9756702.47 5136168.41 187.27
-9756676.15 5136168.95 180.35
-9756623.15 5136164.36 186.45
-9756598.08 5136167.32 186.14
-9756438.85 5136168.29 185.29
-9756414.83 5136168.72 186.23
-9756384.54 5136168.83 182.68
-9756360.10 5136167.38 186.57
-9756332.68 5136167.25 185.83
-9757123.39 5136142.40 186.35
-9757096.75 5136137.31 185.39
-9757073.49 5136137.93 186.23
-9757042.57 5136141.33 187.72
-9756991.81 5136142.96 186.51
-9756913.75 5136142.68 186.59
-9756862.14 5136142.57 185.18
-9756807.91 5136142.36 188.78
-9756781.94 5136144.51 184.91
-9756734.21 5136143.56 185.36
-9756702.33 5136143.07 186.72
-9756676.36 5136142.09 187.38
-9756546.87 5136144.62 185.48
-9756518.38 5136140.50 185.96
-9756465.57 5136142.31 186.09
-9756438.77 5136142.45 186.52
-9756385.05 5136142.25 183.11
-9756333.78 5136142.20 186.70
-9757255.01 5136112.87 187.58
-9757201.58 5136115.72 185.72
-9757125.33 5136118.56 185.70
-9757096.40 5136117.34 187.32
-9757036.20 5136132.04 203.13
-9757038.39 5136118.87 203.19
-9757018.04 5136115.65 189.92
-9756863.79 5136115.02 187.04
-9756854.73 5136119.68 201.56
-9756831.40 5136130.15 199.99
-9756781.49 5136115.89 187.17
-9756754.90 5136113.87 188.52
-9756728.63 5136115.89 180.55
-9756676.22 5136116.23 186.48
-9756384.63 5136115.38 183.35
-9756359.82 5136116.77 187.20
-9756832.14 5136112.02 200.00
-9757201.17 5136090.01 185.50
-9757177.36 5136089.17 186.09
-9757045.58 5136089.11 186.50
-9756966.20 5136089.38 187.66
-9756886.90 5136089.52 188.33
-9756834.20 5136089.82 186.95
-9756807.32 5136089.21 185.16
-9756781.01 5136087.22 188.08
-9757308.13 5136063.61 185.81
-9757255.77 5136062.80 186.88
-9757229.04 5136062.73 186.77
-9757150.64 5136063.19 186.84
-9757070.71 5136063.04 181.66
-9757046.07 5136063.07 186.72
-9757018.20 5136060.53 186.80
-9756991.71 5136063.84 185.34
-9756966.40 5136061.01 187.01
-9756939.80 5136063.26 186.63
-9756910.61 5136062.22 185.44
-9756887.10 5136065.65 187.00
-9756861.22 5136062.95 186.46
-9757308.85 5136036.81 186.76
-9757282.33 5136036.66 186.60
-9757256.06 5136036.75 186.41
-9757229.84 5136036.74 186.15
-9757202.94 5136037.25 186.97
-9757150.82 5136033.32 186.15
-9757124.37 5136033.44 186.58
-9757097.38 5136039.01 186.74
-9757071.76 5136037.33 186.00
-9756307.15 5137144.11 185.63
-9757308.30 5137120.32 182.14
-9756359.77 5137091.89 187.85
-9756333.32 5137064.82 186.60
-9756387.90 5137037.24 188.01
-9756360.62 5137037.66 183.41
-9756309.44 5137275.14 184.53
-9756307.15 5136907.26 185.71
-9756307.01 5136748.87 186.39
-9756307.14 5137116.77 188.36
-9756307.19 5136958.70 187.25
-9756307.28 5136696.04 186.47
-9755990.90 5135983.60 184.31
-9755965.27 5135983.84 183.69
-9755910.41 5135984.74 187.53
-9755887.23 5135958.68 185.45
-9755886.86 5135981.73 185.11
-9755806.96 5135983.90 180.91
-9755754.89 5135958.09 183.78
-9755754.25 5135984.17 184.65
-9755674.29 5135984.16 185.05
-9755595.40 5135957.78 182.12
-9755569.48 5135957.63 182.13
-9755516.78 5135984.14 187.03
-9755464.02 5135984.01 180.86
-9755745.32 5135959.44 200.64
-9756281.58 5137012.26 185.51
-9756175.90 5137011.38 183.18
-9756096.32 5137011.97 187.71
-9755938.00 5137011.10 185.70
-9755727.11 5137011.76 184.89
-9755621.89 5137011.86 187.97
-9755595.93 5137012.11 185.42
-9755518.05 5137012.51 185.51
-9755411.46 5136984.23 186.99
-9755305.05 5137010.91 182.14
-9756068.07 5136985.27 188.92
-9755990.55 5136985.79 183.59
-9755938.40 5136984.44 186.21
-9756280.87 5136959.04 182.41
-9756228.07 5136959.44 186.06
-9755886.14 5136959.57 185.02
-9755753.72 5136959.33 187.55
-9755700.95 5136959.43 185.33
-9755595.07 5136959.35 187.79
-9756150.20 5136936.41 184.00
-9755990.66 5136932.93 186.51
-9755940.56 5136931.71 186.53
-9755701.07 5136932.77 185.25
-9755568.91 5136933.01 183.65
-9755411.24 5136933.10 188.32
-9755332.16 5136932.69 185.61
-9755964.57 5136906.57 188.62
-9755832.07 5136906.53 186.83
-9755543.82 5136906.56 186.96
-9756149.26 5136880.29 186.52
-9756016.59 5136877.72 183.23
-9755911.83 5136879.93 186.84
-9755674.27 5136880.20 185.23
-9755648.02 5136880.03 185.12
-9755489.99 5136880.50 187.97
-9755437.49 5136879.93 186.30
-9755411.63 5136884.66 186.59
-9756122.63 5136853.93 188.39
-9755964.57 5136853.61 187.95
-9755700.97 5136853.70 185.33
-9755648.18 5136854.00 185.11
-9755621.97 5136853.12 188.27
-9755489.85 5136853.84 187.98
-9755436.96 5136853.14 185.65
-9755411.08 5136827.77 186.42
-9756175.25 5136827.54 188.74
-9755832.63 5136825.37 187.97
-9755806.44 5136825.08 185.67
-9755753.23 5136826.92 186.78
-9755700.83 5136827.38 185.32
-9756095.63 5136800.87 187.07
-9756018.36 5136801.16 187.50
-9755990.52 5136801.10 180.68
-9755964.52 5136801.25 180.80
-9755938.39 5136800.88 187.22
-9755833.27 5136801.15 186.26
-9756149.06 5136774.63 187.25
-9756095.37 5136774.51 186.52
-9756017.50 5136774.86 187.77
-9755703.37 5136795.63 215.92
-9755569.43 5136776.17 188.36
-9755356.15 5136776.38 182.30
-9755859.65 5136748.20 188.13
-9755701.56 5136747.94 186.42
-9755647.46 5136762.71 203.98
-9756174.97 5136722.10 184.77
-9756044.19 5136720.71 188.53
-9755964.18 5136724.03 186.33
-9755858.87 5136721.97 187.16
-9755779.92 5136722.26 187.03
-9755357.98 5136720.04 186.72
-9755909.21 5136695.01 186.58
-9755940.05 5136696.55 188.77
-9755834.95 5136696.29 186.21
-9755410.52 5136690.89 187.20
-9756095.64 5136695.71 186.56
-9755329.23 5136670.02 184.65
-9756122.50 5136669.64 183.57
-9756017.28 5136669.25 186.59
-9755994.07 5136669.97 186.62
-9755937.96 5136668.81 186.11
-9755885.47 5136669.28 187.07
-9755806.36 5136669.46 180.81
-9755597.71 5136669.58 184.71
-9755463.72 5136669.30 186.52
-9756307.02 5136641.50 188.47
-9756253.68 5136643.28 185.30
-9756227.94 5136642.95 184.86
-9756176.33 5136642.89 186.26
-9756122.07 5136642.99 183.12
-9756069.92 5136642.14 185.84
-9755885.10 5136641.91 190.67
-9755806.29 5136643.11 180.70
-9755780.31 5136642.71 180.45
-9755597.08 5136642.50 184.79
-9755569.21 5136642.93 180.58
-9755542.66 5136643.39 180.68
-9755411.20 5136641.57 187.99
-9755360.58 5136643.84 186.44
-9756284.78 5136616.82 188.36
-9756122.24 5136618.01 186.75
-9755964.52 5136617.68 187.12
-9755780.35 5136613.90 186.07
-9755647.85 5136616.54 185.18
-9755384.28 5136616.06 188.56
-9756042.58 5136590.67 186.36
-9755885.11 5136589.60 188.56
-9755806.30 5136589.21 186.94
-9755780.59 5136589.96 180.68
-9755752.54 5136589.83 186.68
-9755701.04 5136590.47 185.10
-9755620.93 5136591.77 184.21
-9755542.77 5136590.25 188.57
-9756175.31 5136563.76 185.56
-9756095.97 5136565.40 186.81
-9755990.49 5136564.14 187.12
-9755911.91 5136564.74 186.43
-9755727.62 5136563.89 186.27
-9755700.63 5136564.14 185.08
-9755648.11 5136564.11 185.22
-9755624.40 5136564.10 185.93
-9755490.09 5136565.78 182.60
-9755410.71 5136566.71 186.16
-9755358.40 5136564.34 186.67
-9755303.27 5136561.58 187.93
-9755623.80 5136537.76 185.72
-9755569.54 5136537.34 184.51
-9755437.44 5136537.21 186.46
-9755331.93 5136536.62 188.16
-9756307.48 5136539.35 186.99
-9756281.16 5136537.90 184.51
-9756227.99 5136537.68 186.66
-9756201.60 5136538.45 186.78
-9756176.76 5136537.37 186.67
-9756096.38 5136538.28 183.73
-9755993.34 5136536.48 185.15
-9755965.32 5136537.66 187.75
-9755938.00 5136537.86 186.75
-9755912.95 5136537.27 188.75
-9755885.40 5136538.23 185.20
-9755727.29 5136539.96 183.26
-9756228.31 5136510.16 186.31
-9756122.27 5136511.29 187.47
-9756020.11 5136511.13 186.99
-9755967.07 5136511.47 187.18
-9755700.61 5136511.38 185.08
-9755648.43 5136511.09 185.21
-9755568.22 5136511.52 188.37
-9755360.62 5136511.41 186.53
-9755332.08 5136514.93 186.32
-9756278.81 5136484.33 188.89
-9756259.10 5136484.30 190.09
-9756227.97 5136481.44 186.09
-9756201.39 5136485.17 180.84
-9756070.01 5136481.59 182.97
-9755779.16 5136480.36 186.18
-9755674.53 5136484.91 185.07
-9755621.87 5136483.88 186.00
-9755410.93 5136484.73 186.72
-9755383.79 5136484.01 181.34
-9755358.26 5136484.61 184.00
-9755305.35 5136484.75 185.35
-9756282.34 5136460.99 183.90
-9756252.40 5136457.00 187.55
-9756175.38 5136458.45 184.95
-9756149.08 5136458.59 184.40
-9756122.99 5136458.57 186.84
-9756016.96 5136458.39 186.50
-9755964.77 5136458.59 186.84
-9755858.40 5136459.89 185.34
-9755727.20 5136458.29 183.72
-9755541.90 5136458.28 186.63
-9755517.22 5136456.63 186.26
-9755463.88 5136458.44 180.96
-9755437.36 5136459.27 184.11
-9755384.84 5136458.84 187.19
-9756307.28 5136432.27 186.18
-9756282.88 5136432.53 185.76
-9756175.98 5136432.43 181.83
-9756124.05 5136431.24 187.22
-9756095.64 5136430.27 187.69
-9756043.37 5136431.24 185.68
-9755990.29 5136432.06 187.41
-9755884.97 5136429.89 188.86
-9755780.96 5136431.72 187.43
-9755788.08 5136452.28 201.49
-9755753.55 5136432.17 186.72
-9755727.58 5136433.38 186.20
-9755622.21 5136432.43 186.61
-9755595.54 5136431.97 184.71
-9755464.02 5136432.02 181.19
-9755437.20 5136432.04 183.81
-9755358.19 5136432.04 186.42
-9755938.10 5136405.47 186.31
-9755806.20 5136407.40 186.87
-9755753.79 5136406.14 187.58
-9755727.27 5136405.97 187.68
-9755621.96 5136404.83 186.36
-9755463.28 5136405.70 181.00
-9755357.46 5136405.99 186.18
-9755335.21 5136402.20 186.13
-9755306.16 5136405.99 186.36
-9756201.25 5136406.34 186.44
-9756095.80 5136405.57 187.29
-9755988.66 5136406.61 185.64
-9755437.55 5136379.39 188.42
-9755411.05 5136379.55 188.93
-9755306.01 5136379.68 186.36
-9756227.66 5136380.25 186.87
-9756175.65 5136379.16 186.81
-9756149.29 5136379.16 186.24
-9756095.44 5136379.63 187.44
-9756016.95 5136379.18 188.72
-9755964.10 5136379.21 186.04
-9755938.48 5136379.31 188.54
-9755911.08 5136379.79 186.04
-9755859.11 5136379.97 184.21
-9755776.20 5136378.05 185.39
-9755751.87 5136379.30 186.61
-9755727.18 5136379.69 186.68
-9755569.05 5136379.36 186.55
-9755542.80 5136379.49 186.89
-9755516.21 5136379.65 180.64
-9756201.02 5136353.22 185.47
-9756175.95 5136354.09 182.09
-9756149.13 5136352.91 184.48
-9756120.90 5136351.91 189.00
-9755988.64 5136351.37 185.85
-9755938.35 5136353.14 186.58
-9755859.03 5136352.40 184.59
-9755830.00 5136353.53 187.84
-9755806.26 5136353.65 188.79
-9755700.99 5136353.22 186.56
-9755595.68 5136352.98 183.76
-9755517.25 5136355.44 184.87
-9755383.89 5136349.32 189.20
-9755331.68 5136350.11 186.71
-9756279.90 5136327.57 180.24
-9756251.97 5136328.63 186.46
-9756228.30 5136326.35 185.54
-9756202.04 5136326.72 180.86
-9756174.65 5136325.63 180.91
-9755964.18 5136328.02 186.57
-9755938.33 5136325.01 186.42
-9755911.94 5136326.73 182.72
-9755885.12 5136325.63 186.57
-9755832.27 5136325.51 183.62
-9755806.42 5136326.55 186.41
-9755779.87 5136326.36 180.77
-9755648.38 5136326.59 185.20
-9756308.12 5136300.08 187.39
-9756280.94 5136300.30 185.12
-9756257.78 5136301.18 186.07
-9756204.62 5136300.08 187.29
-9756069.84 5136300.24 186.98
-9756042.15 5136299.20 187.82
-9755991.14 5136299.55 184.10
-9755964.30 5136303.93 183.86
-9755938.10 5136300.63 187.39
-9755914.53 5136299.26 188.70
-9755886.01 5136304.20 186.57
-9755857.67 5136299.62 184.91
-9755727.21 5136300.79 184.56
-9755701.69 5136300.71 186.64
-9755701.21 5136322.65 215.69
-9755567.10 5136298.25 186.07
-9755540.36 5136299.05 186.24
-9755490.19 5136300.39 186.28
-9755436.45 5136300.62 186.56
-9755410.92 5136300.33 186.32
-9755358.07 5136300.04 186.54
-9755332.90 5136304.06 186.74
-9756174.09 5136272.79 183.42
-9756069.70 5136274.40 181.86
-9756043.12 5136274.27 186.73
-9756017.18 5136275.30 186.48
-9755966.21 5136276.83 186.78
-9755938.14 5136274.10 186.00
-9755859.49 5136275.78 185.17
-9755674.86 5136273.74 185.13
-9755648.11 5136273.85 185.20
-9755622.25 5136275.17 185.28
-9755595.08 5136273.39 184.59
-9755541.03 5136274.36 186.14
-9755516.55 5136275.12 182.07
-9755496.00 5136274.54 185.52
-9755411.05 5136271.88 186.62
-9755384.21 5136270.71 187.07
-9756257.25 5136274.41 186.08
-9755701.04 5136247.83 185.20
-9755674.47 5136247.37 185.31
-9755648.21 5136247.80 185.17
-9755570.11 5136247.69 189.92
-9755517.61 5136243.33 183.35
-9755332.11 5136248.40 184.64
-9756305.15 5136247.82 187.25
-9756231.98 5136250.00 185.58
-9756122.95 5136247.86 185.29
-9756096.41 5136247.62 187.84
-9756069.90 5136247.44 187.92
-9756043.46 5136247.62 186.58
-9756019.31 5136250.00 190.01
-9755832.87 5136248.07 189.56
-9755780.00 5136247.57 180.83
-9755753.83 5136247.63 186.89
-9756255.35 5136220.69 187.55
-9756149.38 5136221.39 186.50
-9756069.61 5136221.49 186.71
-9756043.43 5136220.97 180.84
-9755991.97 5136224.07 186.08
-9755832.99 5136217.48 185.11
-9755779.91 5136221.52 180.87
-9755754.71 5136223.99 182.49
-9755723.49 5136219.00 189.03
-9755622.14 5136221.56 180.58
-9755567.60 5136219.13 184.90
-9755544.70 5136222.01 187.62
-9755385.54 5136220.51 187.24
-9755332.72 5136219.27 204.76
-9756280.75 5136194.72 189.40
-9756227.16 5136200.28 185.83
-9756173.29 5136194.61 186.46
-9755885.29 5136194.92 186.35
-9755331.21 5136194.62 187.17
-9755328.84 5136207.12 200.83
-9756280.91 5136168.09 186.75
-9756228.64 5136168.76 185.92
-9756204.28 5136169.15 187.99
-9756123.39 5136168.62 183.70
-9756130.23 5136185.11 203.03
-9756017.31 5136168.71 187.29
-9755889.06 5136168.59 185.30
-9755726.49 5136168.62 184.54
-9755491.59 5136170.28 188.87
-9755438.29 5136168.07 186.74
-9756307.66 5136142.78 187.10
-9756201.34 5136141.98 186.82
-9756123.31 5136142.23 183.49
-9756069.68 5136141.16 186.69
-9756044.04 5136141.68 186.78
-9756017.19 5136141.81 186.36
-9755890.07 5136144.00 185.31
-9755806.53 5136141.74 180.88
-9755752.35 5136140.78 182.40
-9755727.01 5136142.24 184.96
-9755621.73 5136142.06 182.26
-9755331.76 5136142.23 186.48
-9755306.70 5136149.72 202.53
-9755967.17 5136116.07 183.82
-9755938.26 5136116.24 185.49
-9755889.00 5136113.51 185.29
-9755832.95 5136116.10 180.98
-9755779.92 5136116.15 181.09
-9755711.95 5136138.98 200.88
-9755486.17 5136140.84 201.92
-9755435.21 5136115.95 185.19
-9756096.23 5136114.75 186.15
-9756043.28 5136116.44 186.40
-9755434.00 5136092.54 186.92
-9756254.56 5136089.34 185.66
-9756200.77 5136088.51 186.75
-9756094.11 5136089.64 187.42
-9756070.02 5136090.01 188.17
-9756017.20 5136090.04 186.51
-9755990.90 5136088.71 184.46
-9755962.26 5136089.31 187.30
-9755938.10 5136089.27 185.95
-9755911.63 5136088.68 187.00
-9755888.57 5136090.67 185.45
-9755780.37 5136089.45 181.05
-9756281.34 5137354.02 183.26
-9755754.80 5136090.22 183.74
-9756273.01 5136074.43 200.04
-9756125.18 5136063.17 187.64
-9756070.10 5136062.94 188.74
-9755832.37 5136063.36 181.05
-9755779.96 5136063.13 181.06
-9755751.32 5136063.14 182.83
-9755568.83 5136063.03 182.30
-9755437.01 5136063.24 180.73
-9756069.97 5136037.02 186.39
-9755938.50 5137328.65 186.14
-9756017.25 5136036.23 186.53
-9755963.41 5136036.93 185.43
-9755909.62 5136036.95 186.25
-9755832.55 5136036.46 180.92
-9755780.09 5136037.00 181.05
-9755753.62 5137328.43 186.61
-9755622.05 5136036.95 182.40
-9755516.52 5136036.87 185.21
-9755651.32 5137329.05 184.68
-9755595.43 5137328.07 186.46
-9755489.75 5136036.63 185.83
-9755463.75 5136036.43 180.70
-9755437.34 5136036.69 190.00
-9755305.41 5136036.71 180.93
-9755337.70 5137332.97 200.83
-9756017.28 5136010.24 186.38
-9755753.46 5136012.15 183.28
-9755937.97 5137302.17 180.70
-9755569.12 5136010.61 182.28
-9755542.91 5136010.77 182.13
-9755859.10 5137301.77 186.74
-9755490.11 5136010.42 186.64
-9755806.52 5137301.99 186.73
-9755463.61 5136010.36 180.84
-9755435.03 5136011.38 187.85
-9755420.24 5135997.83 200.42
-9755571.15 5137301.75 186.62
-9755437.36 5137301.93 186.52
-9755305.54 5137301.63 186.63
-9755779.52 5137275.84 185.93
-9755305.38 5137277.15 186.86
-9755621.24 5137247.99 186.09
-9755569.14 5137249.68 187.35
-9755463.89 5137249.38 187.61
-9755964.63 5137247.71 189.87
-9755755.49 5137249.90 186.25
-9755674.73 5137249.26 184.96
-9756070.67 5137224.61 186.16
-9755912.97 5137223.03 186.46
-9755859.19 5137222.25 183.68
-9755674.55 5137222.85 184.95
-9755436.76 5137224.42 187.49
-9755936.89 5137196.74 188.27
-9755700.97 5137196.39 185.19
-9755569.13 5137196.75 186.51
-9755990.96 5137169.68 183.81
-9755911.94 5137170.28 186.23
-9755832.65 5137169.76 187.17
-9755700.86 5137170.02 185.21
-9755595.60 5137169.82 185.88
-9755490.62 5137172.92 187.23
-9755463.48 5137169.82 186.51
-9755358.20 5137170.31 186.48
-9756199.53 5137170.76 186.32
-9756175.33 5137169.65 187.66
-9756122.51 5137170.76 183.67
-9756228.23 5137145.43 186.59
-9755859.05 5137144.62 183.89
-9756280.86 5137117.75 183.78
-9755937.98 5137117.36 186.66
-9755914.70 5137116.42 186.53
-9755569.34 5137117.54 186.50
-9755541.07 5137117.57 190.49
-9755411.00 5137117.60 187.17
-9756096.18 5137090.14 188.53
-9755882.82 5137092.57 185.96
-9755674.47 5137091.06 185.25
-9755595.44 5137091.10 186.85
-9755411.18 5137090.32 188.21
-9755542.60 5137064.41 187.86
-9755490.34 5137064.54 187.54
-9755463.87 5137064.67 185.87
-9756201.38 5137066.35 188.59
-9755858.94 5137065.82 184.61
-9756096.61 5137038.96 181.75
-9755963.78 5137037.56 189.79
-9755780.33 5137038.29 180.79
-9755568.31 5137036.80 184.39
-9755516.04 5137038.68 186.30
-9755489.37 5137035.91 187.74
-9755464.47 5137034.95 187.35
-9755437.44 5137038.29 184.81
-9755120.53 5137012.00 180.71
-9755202.14 5136957.15 186.81
-9755120.85 5136959.58 180.62
-9755279.31 5136912.15 187.50
-9755147.57 5136879.09 187.00
-9755196.97 5136853.06 182.99
-9755094.26 5136827.39 186.63
-9755252.99 5136801.01 186.58
-9755202.71 5136800.81 187.43
-9755226.07 5136775.10 180.79
-9755147.40 5136774.61 180.74
-9755094.85 5136774.92 180.90
-9755280.30 5136747.68 186.85
-9755173.84 5136748.20 186.93
-9755147.56 5136749.56 189.17
-9755148.70 5136719.99 208.94
-9755133.86 5136722.50 201.94
-9755226.53 5136695.70 186.00
-9755154.29 5136695.86 186.43
-9755279.31 5136669.35 187.03
-9755200.77 5136640.12 186.41
-9755175.16 5136643.03 185.94
-9755253.65 5136616.59 188.57
-9755227.38 5136616.40 186.35
-9755173.77 5136616.91 186.80
-9755147.81 5136616.51 185.57
-9755094.63 5136616.78 181.07
-9755174.12 5136590.58 186.28
-9755121.69 5136590.08 185.97
-9755226.53 5136564.06 186.73
-9755147.43 5136563.76 216.78
-9755121.82 5136563.94 186.08
-9755279.22 5136537.93 186.55
-9755252.36 5136540.14 188.15
-9755173.46 5136537.59 186.39
-9755148.67 5136537.55 184.65
-9755226.78 5136511.60 186.35
-9755149.00 5136509.73 181.74
-9755095.31 5136512.13 184.04
-9755225.75 5136484.96 186.67
-9755171.98 5136459.19 186.66
-9755253.60 5136432.25 188.58
-9755171.75 5136432.01 186.57
-9755121.17 5136432.08 186.77
-9755134.16 5136431.55 213.96
-9755096.05 5136405.70 184.31
-9755176.48 5137354.67 186.51
-9755199.41 5136352.64 186.68
-9755147.25 5136353.18 180.77
-9755094.28 5137301.04 186.94
-9755278.82 5136300.84 188.52
-9755200.19 5136300.80 186.78
-9755147.38 5136300.58 186.60
-9755279.09 5137275.20 187.46
-9755118.90 5137275.40 182.04
-9755252.47 5136273.04 186.63
-9755175.01 5136271.90 186.23
-9755118.27 5137249.16 181.97
-9755117.80 5137223.81 182.28
-9755143.56 5136255.14 200.05
-9755096.51 5136221.32 186.71
-9755226.29 5137195.53 188.86
-9755172.75 5137196.84 182.39
-9755252.79 5137168.88 186.75
-9755225.19 5136194.05 186.65
-9755198.88 5136191.55 186.41
-9755199.99 5137143.71 185.11
-9755170.98 5137143.76 185.63
-9755091.48 5137144.97 183.27
-9755225.04 5136167.17 186.72
-9755145.73 5136170.66 185.93
-9755118.81 5136168.67 185.93
-9755199.60 5137117.39 183.83
-9755121.40 5137117.61 182.23
-9755093.33 5137118.99 180.42
-9755101.51 5137090.74 183.19
-9755147.15 5136115.97 181.13
-9755145.91 5137063.06 199.95
-9755279.14 5136089.56 180.82
-9755273.75 5136064.65 187.20
-9755253.53 5136037.42 186.18
-9755225.56 5136036.77 187.61
-9757334.48 5136220.80 186.16
-9757335.37 5136379.67 186.08
-9758365.93 5136218.13 182.33
-9758362.94 5136484.51 181.22
-9758391.78 5137035.97 186.88
-9758443.03 5136985.17 184.89
-9758363.94 5136986.06 181.05
-9758418.60 5136929.60 185.99
-9758416.02 5136906.83 187.02
-9758414.81 5136880.78 183.65
-9758389.72 5136800.98 180.39
-9758390.62 5136773.16 186.61
-9758417.63 5136721.13 187.72
-9758442.36 5136669.49 179.81
-9758389.57 5136669.52 180.09
-9758389.41 5136643.10 180.02
-9758441.77 5136563.71 180.33
-9758442.22 5136537.36 180.40
-9758389.44 5136537.63 180.54
-9758415.95 5136484.80 180.42
-9758443.39 5136457.14 181.69
-9758389.61 5136458.30 180.72
-9758442.28 5136377.52 186.52
-9758433.46 5136336.42 183.66
-9758415.74 5136326.73 186.91
-9758442.94 5136301.23 183.81
-9758415.51 5137354.90 185.48
-9758417.81 5136269.92 186.11
-9758442.01 5137249.43 183.65
-9758389.62 5136194.82 179.59
-9758363.09 5137196.44 186.43
-9758363.18 5137170.10 186.41
-9758389.60 5136141.78 179.50
-9758363.39 5136142.26 179.13
-9758415.69 5136115.57 179.82
-9758443.47 5137065.70 192.90
-9758440.90 5136090.10 183.67
-9758416.12 5136089.23 179.72
-9758389.33 5136089.67 179.33
-9758363.07 5136089.26 184.57
-9758441.30 5136065.55 182.94
-9758416.67 5136037.64 182.16
-9758363.05 5136036.82 179.14
-9758361.37 5136508.03 188.73
-9758362.38 5136353.54 183.38
-9758362.97 5136273.96 186.60
-9758363.26 5136115.61 184.58
-9758363.25 5136326.05 181.09
-9758357.50 5137326.49 183.30
-9757861.51 5136009.97 188.89
-9758336.94 5137012.17 185.25
-9758284.24 5137039.20 182.84
-9758257.32 5137011.37 181.04
-9758204.52 5137011.21 184.34
-9758152.54 5137038.10 185.83
-9758150.55 5137011.16 184.26
-9758046.32 5137038.64 185.76
-9758048.29 5137011.59 184.04
-9758020.33 5137011.55 186.01
-9757809.53 5137038.67 184.05
-9757785.45 5137038.25 187.05
-9757677.83 5137011.96 186.70
-9757598.59 5137011.26 186.38
-9757598.43 5137037.41 186.47
-9757518.44 5137012.96 186.16
-9757412.69 5137037.15 187.09
-9757994.13 5136985.94 186.36
-9757915.20 5136985.79 187.04
-9757888.89 5136985.62 181.86
-9757651.47 5136985.30 186.53
-9757440.08 5136985.40 186.55
-9758152.51 5136986.40 183.22
-9758284.50 5136960.15 183.82
-9758232.00 5136962.31 183.64
-9757809.49 5136959.14 186.41
-9757785.27 5136954.95 185.82
-9757732.00 5136959.31 187.11
-9757597.85 5136960.69 187.35
-9757547.27 5136960.35 186.57
-9758339.18 5136930.74 185.82
-9758257.81 5136933.24 186.85
-9758230.38 5136931.40 184.15
-9757940.70 5136934.75 186.50
-9757914.14 5136931.88 185.16
-9757833.79 5136931.86 190.11
-9757784.86 5136931.69 187.25
-9757650.13 5136930.43 186.46
-9757942.02 5136906.87 186.33
-9757915.61 5136906.49 185.75
-9757862.49 5136906.78 185.96
-9757624.91 5136906.66 186.51
-9757438.83 5136904.35 186.03
-9757967.56 5136879.48 187.16
-9757704.96 5136882.02 187.47
-9758258.25 5136853.40 185.96
-9758231.72 5136854.62 185.45
-9758178.94 5136854.06 185.92
-9757993.41 5136854.59 183.90
-9757888.52 5136853.63 185.77
-9757809.31 5136854.26 183.88
-9757756.67 5136853.50 185.61
-9757624.61 5136854.57 179.99
-9757410.84 5136850.82 187.04
-9758046.95 5136827.59 186.64
-9757968.28 5136828.45 187.70
-9757888.90 5136828.00 187.98
-9757861.91 5136827.05 186.38
-9757784.03 5136828.75 185.05
-9757677.52 5136828.18 185.90
-9757468.21 5136825.80 186.25
-9758337.17 5136827.30 185.82
-9758151.34 5136825.64 185.39
-9758309.85 5136800.43 186.21
-9758050.51 5136802.91 187.91
-9757941.37 5136801.13 187.24
-9757703.91 5136800.93 186.82
-9757677.73 5136801.15 186.35
-9758284.60 5136775.67 183.54
-9758072.29 5136775.72 183.16
-9757677.75 5136774.76 186.76
-9757651.55 5136774.86 186.65
-9757598.75 5136773.63 183.84
-9757418.20 5136776.31 188.65
-9757389.00 5136776.78 186.57
-9757361.75 5136775.10 186.53
-9758072.77 5136748.53 187.22
-9757994.10 5136748.39 187.05
-9757783.54 5136745.89 182.91
-9757756.93 5136748.64 180.32
-9757704.70 5136746.00 185.17
-9757650.50 5136749.49 181.26
-9757592.59 5136772.18 204.72
-9757550.12 5136765.14 199.99
-9757387.86 5136748.35 186.80
-9758310.42 5136748.59 188.01
-9758156.88 5136746.45 186.61
-9757757.93 5136718.29 187.57
-9758230.84 5136695.78 187.60
-9758126.67 5136696.12 183.12
-9758073.13 5136695.71 189.74
-9757915.06 5136695.47 189.08
-9757862.59 5136695.70 186.07
-9757673.85 5136697.45 186.78
-9757545.79 5136695.84 186.47
-9757472.32 5136694.25 185.43
-9758155.26 5136669.61 185.46
-9758125.70 5136669.06 182.41
-9757995.04 5136669.23 182.12
-9757545.59 5136668.62 187.18
-9757493.69 5136668.88 186.54
-9757412.72 5136669.78 186.76
-9758339.06 5136642.81 192.93
-9757941.92 5136639.71 186.82
-9757862.65 5136640.22 189.46
-9757519.61 5136642.70 180.35
-9757493.35 5136642.32 186.46
-9758310.90 5136613.88 188.52
-9758179.33 5136616.99 186.77
-9757861.97 5136611.82 191.86
-9757783.43 5136617.58 186.41
-9757730.93 5136616.71 186.37
-9757651.36 5136617.29 188.51
-9757544.43 5136616.75 181.65
-9757467.27 5136617.53 187.23
-9757361.23 5136620.25 186.57
-9758153.20 5136589.71 185.82
-9757940.23 5136587.52 181.51
-9757835.08 5136590.31 187.93
-9757755.30 5136590.99 185.66
-9757675.75 5136590.32 186.33
-9757598.38 5136586.36 184.65
-9757493.66 5136587.45 181.88
-9757465.93 5136592.04 186.32
-9757414.77 5136591.26 186.34
-9758282.49 5136591.03 185.79
-9757851.35 5136583.37 199.85
-9758257.59 5136563.93 187.07
-9758047.28 5136563.99 185.54
-9757862.29 5136561.48 188.92
-9757783.18 5136562.78 185.15
-9757651.65 5136563.23 185.74
-9758283.20 5136535.68 184.16
-9758152.37 5136537.72 186.40
-9757938.85 5136538.54 186.43
-9757862.32 5136537.35 186.73
-9757837.21 5136537.38 186.89
-9757809.53 5136538.02 186.22
-9757627.08 5136537.09 185.33
-9757493.72 5136535.41 186.06
-9757439.90 5136536.55 187.23
-9757414.55 5136536.92 186.00
-9757387.71 5136538.13 186.67
-9757859.44 5136510.83 184.98
-9757835.85 5136511.12 186.16
-9757783.87 5136512.45 187.30
-9757677.86 5136511.55 186.58
-9757572.90 5136509.92 188.31
-9757548.08 5136510.19 181.94
-9757521.78 5136510.01 185.55
-9757493.08 5136509.00 186.59
-9757465.25 5136510.77 186.57
-9758336.91 5136511.23 186.61
-9758310.72 5136484.74 187.58
-9758258.00 5136484.85 187.57
-9758231.16 5136484.90 187.66
-9758125.92 5136484.20 184.70
-9757810.18 5136485.13 185.93
-9757783.10 5136483.97 186.58
-9757677.75 5136484.86 187.84
-9757651.49 5136485.04 186.75
-9757626.01 5136483.18 186.51
-9757572.67 5136487.23 186.90
-9757546.47 5136484.98 180.49
-9757493.76 5136484.80 186.33
-9758258.65 5136459.62 181.89
-9758151.20 5136457.46 184.76
-9758126.05 5136458.04 187.88
-9757914.89 5136458.66 180.20
-9757809.93 5136458.66 180.49
-9757781.97 5136455.11 181.94
-9757704.25 5136458.07 187.10
-9757677.83 5136453.22 185.78
-9757625.40 5136461.04 186.37
-9757598.91 5136458.37 186.23
-9757572.51 5136458.38 186.61
-9758125.94 5136432.26 186.93
-9758046.86 5136431.50 186.16
-9757809.71 5136430.29 190.24
-9757439.44 5136432.02 186.87
-9757362.18 5136432.16 187.30
-9758340.89 5136429.62 185.20
-9758283.96 5136432.75 186.63
-9758258.31 5136432.12 188.36
-9758176.42 5136407.42 187.22
-9757966.68 5136403.52 182.71
-9757914.30 5136408.06 184.41
-9757860.39 5136406.34 184.25
-9757704.68 5136408.34 185.86
-9757572.05 5136403.96 188.35
-9757492.89 5136404.12 187.39
-9758309.55 5136381.14 181.38
-9758179.13 5136376.43 186.18
-9758149.97 5136379.06 185.58
-9758075.82 5136377.23 185.84
-9758046.86 5136380.01 187.27
-9758020.15 5136379.57 187.52
-9757993.53 5136379.58 183.18
-9757969.67 5136379.39 186.72
-9757941.01 5136379.23 184.75
-9757729.00 5136380.55 184.78
-9757624.91 5136378.37 184.44
-9757598.66 5136381.91 185.57
-9757572.47 5136379.22 186.02
-9757541.41 5136381.38 184.11
-9757467.33 5136379.17 186.67
-9757445.20 5136378.42 200.35
-9757389.40 5136375.53 185.48
-9758074.06 5136350.85 185.91
-9757942.37 5136352.68 189.13
-9757914.34 5136353.04 185.46
-9757809.67 5136352.84 182.11
-9757730.41 5136350.83 184.98
-9757674.87 5136353.69 181.89
-9757496.89 5136353.18 187.06
-9757414.85 5136349.87 185.39
-9758354.22 5137367.23 199.89
-9758286.45 5136353.63 182.31
-9758204.99 5137354.89 187.16
-9758098.17 5136357.86 199.88
-9758125.97 5137354.79 187.15
-9757599.33 5137355.51 184.47
-9757572.52 5137354.64 186.96
-9757490.23 5136348.26 203.88
-9757414.15 5136321.07 187.21
-9757387.69 5136323.10 186.92
-9757360.73 5136323.80 187.08
-9757337.03 5136326.61 186.71
-9758334.81 5136328.18 181.44
-9758310.41 5136328.24 184.07
-9758283.05 5136326.09 183.82
-9758148.38 5136330.37 186.46
-9758094.97 5136334.02 200.48
-9758073.75 5136326.21 186.24
-9758046.91 5136327.14 186.74
-9757941.43 5137328.57 186.71
-9757914.67 5137328.77 185.66
-9757834.97 5137326.95 186.25
-9757857.90 5136326.97 200.46
-9757856.81 5136341.03 199.90
-9757809.55 5136326.58 180.55
-9757756.73 5136329.35 185.82
-9757728.67 5136330.64 188.49
-9757518.57 5137328.48 183.83
-9757490.90 5136324.66 186.23
-9757468.78 5136328.68 182.08
-9758284.38 5136300.11 186.90
-9758178.85 5136302.28 186.08
-9758152.60 5136300.30 186.64
-9758047.31 5136300.51 185.35
-9758018.46 5136301.14 186.08
-9757967.94 5136300.54 186.92
-9757546.58 5137302.84 184.14
-9757494.18 5137301.46 186.18
-9757361.43 5137301.53 184.75
-9757335.43 5137302.04 187.64
-9757835.92 5136300.01 188.46
-9757812.56 5136301.48 187.24
-9758124.81 5137302.98 186.39
-9758099.39 5137302.22 187.61
-9757941.41 5137302.56 186.67
-9757599.51 5136300.34 184.57
-9757572.08 5136302.30 189.50
-9757489.97 5136301.33 183.15
-9757678.04 5137302.21 187.46
-9757466.81 5136300.11 187.18
-9757651.74 5137301.44 182.18
-9757361.12 5136298.96 185.03
-9758258.39 5136274.67 186.47
-9758176.32 5136273.90 186.51
-9758336.91 5137275.48 184.09
-9758284.15 5137275.36 186.98
-9758046.86 5136274.56 187.62
-9758019.11 5136274.38 187.53
-9757966.11 5136272.07 182.71
-9757968.64 5137275.29 186.32
-9757885.44 5137277.21 186.93
-9757862.31 5136273.94 186.78
-9757837.24 5137274.59 189.24
-9757706.86 5137275.59 186.78
-9757730.61 5136271.88 186.83
-9757704.36 5136273.82 186.66
-9757651.59 5136273.81 187.10
-9757625.15 5136274.11 183.27
-9757598.61 5136271.32 185.19
-9757572.21 5136274.12 186.75
-9757541.74 5136276.09 185.98
-9757441.00 5136276.29 186.44
-9757412.59 5136273.34 181.02
-9757389.09 5136274.28 186.65
-9757411.56 5137274.71 187.28
-9757357.00 5136273.36 187.15
-9758255.64 5137279.49 228.45
-9757913.74 5137245.86 184.27
-9757758.86 5137248.09 181.93
-9757731.54 5137250.71 186.55
-9757545.49 5137246.46 186.38
-9757492.49 5137248.36 183.47
-9757414.20 5137248.24 187.44
-9757337.86 5137248.46 185.93
-9758231.34 5137249.33 187.09
-9758181.59 5137253.62 185.00
-9758072.60 5137247.50 185.79
-9758019.98 5137249.71 186.05
-9758126.07 5136246.39 185.22
-9758100.46 5136247.22 184.20
-9757994.26 5136250.93 186.88
-9757967.47 5136247.60 183.87
-9757914.90 5136247.02 183.36
-9757888.98 5136246.90 184.01
-9757862.17 5136248.02 186.70
-9757809.70 5136248.67 188.23
-9757731.49 5136247.50 184.11
-9757679.12 5136245.25 187.95
-9757625.40 5136249.99 182.23
-9758310.40 5137223.09 186.74
-9757572.63 5136244.43 187.51
-9757547.19 5136248.09 187.32
-9757519.60 5136245.05 187.69
-9758176.32 5136224.33 189.11
-9758123.46 5136220.80 186.81
-9758073.15 5136220.81 186.83
-9758310.51 5137196.78 186.63
-9757860.88 5136224.40 186.02
-9757810.28 5136221.57 188.14
-9757829.39 5136225.56 200.30
-9758178.96 5137196.33 180.52
-9757827.04 5136237.16 203.96
-9757756.54 5136222.60 182.86
-9757914.58 5137196.13 185.28
-9757730.00 5136223.05 183.98
-9757624.95 5136220.82 185.32
-9757598.66 5136220.49 183.22
-9757544.74 5136221.60 187.96
-9757653.05 5137195.79 187.62
-9757601.01 5137195.10 183.84
-9757519.71 5137196.49 180.50
-9757441.03 5136221.37 189.55
-9757412.33 5136221.90 181.87
-9758231.30 5136194.75 186.46
-9758206.58 5136196.91 184.86
-9758069.39 5136196.48 186.00
-9757993.28 5136195.13 186.55
-9757836.42 5136194.70 186.69
-9757806.43 5136195.27 184.91
-9757704.20 5136194.13 187.62
-9757627.52 5136195.58 182.79
-9757599.19 5136195.28 182.96
-9757572.41 5136194.05 188.05
-9757495.11 5136192.41 186.17
-9757440.45 5136193.94 186.60
-9757361.30 5136193.97 184.58
-9758202.51 5137168.84 181.32
-9758071.59 5137170.04 187.11
-9758044.18 5137172.14 186.71
-9757994.32 5137170.10 186.89
-9757757.00 5137173.04 186.34
-9757730.09 5137169.60 184.99
-9757519.84 5137170.09 187.51
-9758257.73 5137143.71 180.49
-9757441.91 5136168.50 186.52
-9757414.22 5136166.57 185.06
-9757388.21 5136168.46 186.49
-9757361.57 5136168.20 187.37
-9758046.84 5137143.71 186.41
-9758247.00 5136176.87 184.76
-9758230.38 5136170.24 184.65
-9757862.08 5137143.66 186.58
