-9753064.97 5136748.57 182.94
-9752774.01 5136748.24 184.82
-9753170.64 5136721.94 182.62
-9752960.35 5136723.91 184.50
-9752669.99 5136720.44 182.97
-9752564.17 5136722.01 186.42
-9752538.53 5136721.57 179.62
-9752511.77 5136722.82 186.15
-9752695.88 5136694.89 187.10
-9752432.21 5136695.66 181.90
-9752351.42 5136695.07 185.12
-9753091.25 5136695.70 183.11
-9753012.26 5136695.54 183.27
-9752986.56 5136694.00 184.46
-9753118.07 5136670.31 187.37
-9752985.84 5136669.33 183.32
-9752827.51 5136669.51 183.56
-9752669.46 5136669.03 186.98
-9752616.97 5136669.92 180.83
-9752409.15 5136669.67 184.87
-9752353.02 5136666.21 186.05
-9752959.97 5136644.51 186.10
-9752853.92 5136643.05 183.78
-9752695.42 5136642.79 187.40
-9752617.15 5136642.97 180.17
-9752563.57 5136645.73 184.22
-9752538.34 5136641.28 186.57
-9753170.59 5136642.86 183.51
-9753092.09 5136618.18 187.95
-9753064.50 5136617.39 187.05
-9752986.19 5136616.58 183.45
-9752801.61 5136616.36 183.91
-9752747.74 5136615.61 186.35
-9752718.19 5136616.58 186.74
-9752692.88 5136617.52 190.52
-9752644.48 5136615.82 185.80
-9752614.47 5136609.83 185.43
-9752566.27 5136620.45 182.20
-9752485.03 5136617.00 186.67
-9753138.18 5136609.57 200.31
-9753117.13 5136587.20 187.32
-9753038.54 5136590.57 183.61
-9752960.25 5136591.31 187.29
-9752799.17 5136589.79 186.64
-9752590.02 5136590.39 179.22
-9752458.56 5136590.12 180.71
-9753194.65 5136564.49 187.45
-9753198.36 5136567.23 212.50
-9753170.10 5136567.70 213.30
-9753144.20 5136563.87 239.86
-9753067.66 5136565.90 186.90
-9753009.66 5136579.21 201.12
-9752984.89 5136561.89 187.91
-9752997.57 5136579.05 200.69
-9752932.25 5136564.51 186.11
-9752906.94 5136563.94 184.04
-9752880.70 5136563.80 184.14
-9752827.58 5136564.07 184.36
-9752655.85 5136572.38 199.91
-9752616.75 5136563.95 179.33
-9752458.40 5136563.77 180.71
-9753220.45 5136539.05 186.27
-9753064.62 5136536.03 185.00
-9752934.16 5136536.09 187.57
-9752906.79 5136537.45 186.44
-9752880.19 5136537.73 185.95
-9752801.50 5136537.23 184.67
-9752774.91 5136537.94 186.23
-9752748.67 5136537.71 186.80
-9752692.43 5136538.57 186.66
-9752643.31 5136537.71 186.64
-9752590.65 5136537.68 179.67
-9752513.56 5136534.86 182.07
-9752809.50 5136534.65 199.85
-9753170.86 5136511.17 182.69
-9753147.01 5136509.36 185.99
-9753117.73 5136511.09 182.82
-9753098.74 5136520.73 199.85
-9752932.87 5136511.23 186.98
-9752750.42 5136511.05 188.09
-9752694.29 5136513.22 184.19
-9752564.30 5136511.18 179.93
-9753170.77 5136485.20 187.21
-9753144.79 5136484.93 187.12
-9752933.71 5136484.95 186.63
-9753117.68 5137328.47 182.66
-9752827.35 5136484.00 186.32
-9752959.59 5137327.98 179.65
-9752805.38 5136486.98 199.85
-9752642.55 5136483.84 185.65
-9752666.51 5137329.96 181.60
-9752643.21 5137328.12 179.68
-9752564.14 5136484.77 180.08
-9752489.21 5137327.55 179.21
-9752380.44 5137327.84 177.17
-9753223.14 5137301.87 182.79
-9753010.23 5137298.36 186.97
-9753025.60 5137321.35 201.09
-9752987.53 5137301.97 183.02
-9752796.01 5137302.86 183.00
-9752748.53 5137302.25 186.85
-9752675.14 5137303.42 185.63
-9752457.76 5137301.33 177.06
-9752380.16 5137302.03 177.00
-9753196.75 5137275.35 182.62
-9753170.19 5137275.50 182.93
-9753065.24 5137275.47 182.05
-9752669.79 5137275.75 186.72
-9753223.37 5136458.05 184.10
-9753196.31 5136470.79 201.10
-9752487.33 5137275.84 179.29
-9753118.04 5136458.60 183.97
-9753099.64 5136461.28 201.48
-9752250.17 5137274.30 177.32
-9753064.81 5136459.19 189.68
-9753062.34 5136462.19 200.17
-9752987.55 5136459.73 184.15
-9752960.66 5136460.37 186.98
-9752933.44 5136460.87 187.88
-9752853.96 5136458.24 183.84
-9752564.73 5137249.31 183.54
-9752775.20 5136458.49 186.14
-9752721.71 5136458.85 184.35
-9752696.12 5136458.38 186.91
-9752775.30 5137249.16 182.89
-9753145.40 5136432.15 188.69
-9753065.62 5136429.46 185.56
-9752984.76 5137224.51 189.35
-9752933.53 5136432.43 206.05
-9752906.54 5136433.01 184.46
-9752916.78 5136433.26 203.53
-9752880.28 5136432.33 184.12
-9752880.67 5137222.83 182.86
-9752853.22 5136432.57 184.87
-9752801.66 5137222.62 182.82
-9752801.29 5136432.45 183.73
-9752773.61 5136446.37 199.85
-9752748.81 5136431.98 186.34
-9752693.38 5136433.97 184.03
-9752669.52 5136435.45 184.76
-9752643.20 5136432.64 178.34
-9752910.36 5137196.08 184.98
-9753097.95 5136422.77 201.64
-9752563.85 5137196.80 179.57
-9752882.03 5136426.73 203.26
-9752273.89 5137196.24 177.20
-9752827.92 5137170.05 182.84
-9752775.76 5137170.87 182.72
-9752695.64 5137172.23 182.95
-9753223.39 5136405.99 184.36
-9753091.54 5137170.15 183.51
-9753071.71 5136414.66 199.90
-9752959.54 5136403.63 187.00
-9752950.61 5136406.21 212.17
-9752934.34 5136413.70 212.18
-9752933.46 5136405.71 184.04
-9752906.74 5136406.00 187.27
-9752906.78 5136406.96 221.15
-9752775.29 5136406.11 185.87
-9752722.72 5136405.52 185.46
-9753117.64 5137143.91 183.57
-9753012.34 5137143.91 182.31
-9752910.31 5137143.30 185.13
-9753223.22 5136379.32 183.34
-9753229.38 5136383.08 200.11
-9753238.65 5136383.62 200.77
-9753170.17 5136379.54 184.82
-9753144.26 5136379.44 184.42
-9753091.51 5136379.39 186.85
-9753038.64 5136379.94 186.23
-9752985.96 5136379.46 189.05
-9752433.33 5137142.01 178.22
-9752405.47 5137143.75 177.10
-9752950.19 5136387.63 212.87
-9753223.93 5137117.57 183.39
-9752827.85 5136379.59 183.89
-9752775.13 5136379.46 186.30
-9752748.54 5136379.31 186.28
-9752722.14 5136379.43 185.95
-9752722.47 5137118.01 186.02
-9752353.27 5137117.41 176.92
-9752882.69 5137090.65 184.71
-9752776.04 5136377.85 200.24
-9752379.89 5137090.33 176.94
-9752273.12 5137090.84 177.02
-9753222.10 5137091.86 183.69
-9753041.77 5137096.51 204.77
-9753220.85 5136352.55 188.77
-9753170.66 5136352.91 185.43
-9753090.60 5136353.08 190.05
-9752487.10 5137062.83 187.55
-9752406.59 5137064.10 177.72
-9753066.32 5137066.23 186.36
-9753038.67 5136353.12 186.56
-9753012.30 5136353.23 183.15
-9752958.32 5136352.83 187.62
-9753090.43 5137037.71 187.79
-9752896.01 5136357.45 200.10
-9753038.39 5137038.69 182.40
-9752801.48 5136353.06 183.75
-9752459.01 5137038.35 184.35
-9752407.06 5137038.26 178.83
-9753039.10 5136326.57 186.04
-9753196.69 5137011.59 186.45
-9752959.66 5136326.80 183.57
-9752933.51 5136327.69 187.14
-9752880.49 5136326.44 187.40
-9752854.10 5136326.76 183.82
-9753012.46 5137011.85 186.95
-9752828.13 5136327.26 186.89
-9752695.89 5137012.14 180.05
-9752432.58 5137012.22 180.99
-9752353.63 5137011.57 177.36
-9753094.22 5136325.33 200.35
-9753181.06 5137019.01 199.85
-9753056.86 5136330.39 199.87
-9752863.26 5136329.83 200.50
-9753091.07 5136301.33 182.50
-9753065.10 5136300.52 182.76
-9753038.29 5136300.07 183.25
-9752985.81 5136300.64 183.73
-9752933.30 5136300.28 184.10
-9752907.05 5136300.37 184.26
-9752880.77 5136302.25 186.81
-9753214.20 5136274.56 212.08
-9753213.39 5136294.48 212.28
-9753212.98 5136294.74 236.66
-9753196.72 5136274.00 239.64
-9753196.74 5136292.67 212.10
-9753117.99 5136273.83 239.64
-9753093.27 5136274.93 189.79
-9752986.18 5136275.26 187.60
-9752958.32 5136275.82 185.18
-9752933.21 5136274.23 183.97
-9752986.92 5136274.55 200.79
-9753147.13 5136244.59 186.41
-9753085.37 5136241.26 201.86
-9753064.58 5136247.52 182.61
-9753038.61 5136247.67 186.74
-9753194.97 5136220.85 182.96
-9753170.87 5136220.32 186.77
-9753187.86 5136220.05 202.58
-9753161.21 5136237.17 200.91
-9753151.13 5136224.86 201.02
-9753149.40 5136239.21 199.85
-9753091.51 5136221.34 182.58
-9753058.53 5136236.22 200.29
-9753051.65 5136234.75 200.27
-9752221.54 5137091.42 177.10
-9752117.40 5136986.92 177.15
-9752062.53 5137354.83 177.10
-9752115.94 5137328.32 176.96
-9751985.85 5137327.55 177.13
-9752088.86 5137301.88 177.09
-9752038.07 5137274.37 177.03
-9752063.89 5137250.50 177.27
-9752011.25 5137250.83 177.45
-9752193.47 5137196.89 177.28
-9752088.62 5137197.05 176.98
-9755064.08 5137014.02 192.71
-9755038.44 5136987.61 178.60
-9755019.19 5137012.44 173.13
-9755018.24 5136984.08 173.38
-9754827.30 5136987.28 187.79
-9754805.56 5136984.82 187.14
-9754725.22 5137011.43 186.11
-9754593.05 5136985.75 186.59
-9755042.37 5136958.52 178.37
-9754804.83 5136959.57 187.87
-9754778.48 5136959.71 185.86
-9754304.11 5136959.49 181.61
-9754277.60 5136959.34 181.69
-9754804.99 5136932.81 181.24
-9754619.77 5136931.63 186.58
-9754594.14 5136932.75 180.89
-9754382.81 5136933.04 186.59
-9754986.36 5136896.81 186.14
-9754857.57 5136906.43 182.08
-9754699.65 5136906.43 187.79
-9754356.10 5136905.73 184.78
-9754304.14 5136906.47 181.71
-9754672.95 5136878.77 186.52
-9754460.53 5136883.05 182.97
-9754329.95 5136879.97 181.72
-9755061.58 5136882.85 190.96
-9754986.64 5136880.21 176.26
-9755068.65 5136857.88 176.50
-9754962.65 5136854.15 179.41
-9754857.35 5136853.71 181.97
-9754804.53 5136853.76 181.41
-9754673.14 5136854.01 189.74
-9754647.71 5136854.21 189.74
-9754330.69 5136854.20 181.67
-9754700.66 5136828.53 188.12
-9754620.15 5136827.56 186.64
-9754510.89 5136825.12 185.14
-9754356.84 5136827.42 181.39
-9755042.29 5136827.86 175.39
-9754962.45 5136828.76 179.28
-9754857.52 5136827.38 181.87
-9754822.04 5136823.00 205.60
-9755042.02 5136797.76 184.29
-9755016.13 5136798.14 184.41
-9754990.16 5136798.74 184.15
-9754962.47 5136798.55 183.86
-9754937.90 5136800.72 186.14
-9754330.10 5136801.56 181.06
-9754540.82 5136774.32 180.74
-9754513.31 5136777.94 183.84
-9754407.95 5136774.26 188.10
-9754830.68 5136774.27 180.64
-9754699.31 5136775.06 186.52
-9755013.09 5136746.42 178.08
-9754962.86 5136747.99 175.36
-9754462.02 5136748.39 181.38
-9755011.48 5136696.22 177.47
-9754989.13 5136695.48 175.82
-9754963.59 5136699.26 177.45
-9754804.92 5136695.66 180.72
-9754752.22 5136695.83 189.13
-9754725.63 5136695.94 189.13
-9754620.34 5136695.74 181.15
-9754409.50 5136695.64 181.39
-9755063.82 5136669.33 177.37
-9754936.59 5136669.18 180.45
-9754912.79 5136670.12 188.88
-9754801.61 5136668.29 188.70
-9754593.75 5136669.38 189.79
-9754567.35 5136668.70 186.57
-9754540.73 5136670.45 186.75
-9754488.14 5136669.27 186.95
-9754461.91 5136669.33 181.46
-9754830.83 5136643.07 180.96
-9754672.57 5136643.04 180.82
-9754646.16 5136643.39 187.00
-9754620.14 5136642.86 189.79
-9754593.89 5136643.01 189.77
-9754487.77 5136643.17 186.71
-9755065.29 5136619.11 177.81
-9754936.62 5136616.20 180.40
-9754567.61 5136616.33 188.40
-9754487.48 5136616.77 186.46
-9755038.53 5136588.43 178.18
-9755017.22 5136588.29 177.25
-9754883.45 5136590.44 185.72
-9754620.18 5136590.18 189.77
-9754593.60 5136590.33 189.77
-9755067.43 5136564.04 178.11
-9755016.95 5136557.35 184.86
-9754963.43 5136561.93 178.42
-9754857.30 5136563.84 181.12
-9754725.81 5136563.08 180.64
-9754594.12 5136563.92 189.80
-9754511.66 5136564.31 182.41
-9754831.03 5136537.47 190.47
-9754622.77 5136536.59 185.75
-9755068.53 5136537.42 176.79
-9755042.03 5136537.33 177.00
-9755016.04 5136510.20 177.49
-9754962.88 5136512.22 177.95
-9754857.95 5136511.39 181.26
-9754595.05 5136511.04 187.60
-9754829.01 5136485.90 184.54
-9754801.85 5136484.63 182.55
-9754751.38 5136489.10 181.52
-9754620.24 5136484.76 189.68
-9755068.25 5136484.69 176.91
-9754883.20 5136485.03 185.07
-9754934.88 5136458.16 178.21
-9754699.02 5136458.55 182.71
-9754674.19 5136460.35 187.13
-9754699.30 5136432.09 186.44
-9754673.01 5136431.87 186.85
-9754646.83 5136432.12 186.35
-9755067.98 5136432.03 176.64
-9754989.62 5136432.41 176.92
-9754725.47 5136432.10 189.11
-9754883.67 5136405.97 184.58
-9754857.66 5136405.97 181.18
-9754831.12 5136405.58 180.91
-9754801.66 5136402.17 185.44
-9754778.84 5136404.92 186.41
-9754751.87 5136405.88 189.14
-9754646.92 5136405.08 185.96
-9755018.24 5136376.28 178.05
-9754966.99 5136378.37 177.57
-9754906.67 5136378.55 186.61
-9754883.24 5136379.38 184.60
-9754910.37 5137355.00 184.52
-9754989.15 5136352.84 176.40
-9754883.39 5136353.00 184.58
-9754828.81 5136351.25 182.56
-9754801.64 5136350.67 187.47
-9754488.73 5137355.02 187.03
-9754356.84 5137354.88 180.85
-9754988.46 5136326.74 177.32
-9754908.92 5136325.13 183.76
-9754831.07 5136326.54 186.04
-9754749.54 5137332.30 186.92
-9754884.14 5137302.11 184.42
-9754808.18 5137303.97 187.04
-9754699.24 5137302.16 205.94
-9754699.38 5137320.18 205.68
-9754567.47 5137301.97 186.20
-9754462.18 5137301.63 181.05
-9755068.20 5136300.01 175.54
-9755017.88 5136300.89 177.37
-9754962.95 5136300.84 175.64
-9754909.65 5136300.08 183.85
-9754804.76 5136298.56 186.33
-9754961.09 5137273.83 180.61
-9754803.26 5137274.35 186.50
-9754726.58 5137276.73 205.50
-9754671.62 5137277.23 188.09
-9755017.32 5136273.54 177.28
-9754356.81 5137275.67 189.60
-9755015.33 5137249.15 181.45
-9754986.12 5137249.71 180.06
-9754538.01 5137248.96 182.73
-9754855.97 5136248.66 184.23
-9754990.69 5137221.83 180.47
-9754462.14 5137222.83 185.22
-9754300.99 5137226.29 187.57
-9754700.72 5137198.67 186.02
-9754489.13 5137196.82 187.35
-9755041.96 5136222.67 184.73
-9754859.17 5136222.07 186.36
-9754988.86 5137196.41 178.99
-9755044.18 5136194.75 176.79
-9754989.21 5136194.69 176.24
-9755015.04 5137172.29 180.91
-9754988.98 5137170.05 178.86
-9754884.01 5137170.33 185.28
-9754803.76 5137171.34 186.73
-9754751.63 5137170.60 181.25
-9754721.52 5137169.77 207.79
-9754801.69 5137169.36 200.74
-9754488.48 5137143.93 187.03
-9754304.03 5137144.27 187.14
-9755064.84 5137143.16 180.07
-9755042.21 5137143.98 179.02
-9754931.68 5137144.10 186.92
-9755068.09 5136168.82 175.78
-9755043.94 5136165.51 179.29
-9754935.76 5136183.73 211.87
-9755042.91 5137114.62 180.30
-9754860.58 5137130.91 200.37
-9754830.65 5137114.76 187.84
-9754804.98 5137117.06 185.32
-9754782.51 5137115.23 186.31
-9754697.48 5137118.15 182.96
-9754650.33 5137120.06 185.64
-9754540.63 5137116.99 186.61
-9754409.10 5137116.14 187.91
-9754330.33 5137117.49 181.55
-9754301.62 5137111.72 206.16
-9754909.84 5137091.38 185.18
-9754857.62 5137089.84 184.84
-9754593.78 5137091.23 182.22
-9754488.56 5137091.17 187.42
-9754356.68 5137090.99 181.37
-9754857.58 5137064.99 185.09
-9754777.00 5137065.39 187.96
-9754646.42 5137064.08 186.57
-9754621.64 5137056.18 201.96
-9754541.16 5137064.77 186.74
-9754462.85 5137063.72 189.24
-9754330.32 5137064.78 181.44
-9755043.50 5137039.47 179.21
-9755019.51 5137038.17 178.78
-9754857.43 5137038.55 181.06
-9754778.81 5137038.23 186.85
-9754541.23 5137038.30 186.58
-9754435.21 5137035.10 187.19
-9754330.18 5137038.15 181.41
-9754225.28 5137330.15 185.73
-9754196.31 5137324.33 185.42
-9754197.95 5137302.10 181.35
-9754251.08 5137249.42 181.76
-9754225.14 5137249.63 186.93
-9754251.26 5137222.75 187.15
-9752240.07 5135106.22 200.74
-9752247.49 5135033.56 187.47
-9752221.97 5137144.47 177.28
-9752300.70 5134930.25 184.52
-9752659.67 5135955.91 203.19
-9752405.93 5135957.58 181.05
-9752827.73 5135931.30 182.92
-9752695.89 5135930.97 184.10
-9752643.47 5135931.40 184.16
-9752801.36 5135904.90 186.57
-9752748.84 5135905.05 183.76
-9752722.33 5135904.87 183.71
-9752668.90 5135905.28 186.75
-9752643.34 5135905.04 186.75
-9752616.54 5135901.64 187.63
-9752327.21 5135905.31 180.31
-9752302.11 5135902.32 180.81
-9752774.64 5135878.56 183.11
-9752748.73 5135878.39 183.94
-9752668.95 5135879.18 183.68
-9752642.93 5135878.63 183.31
-9752564.92 5135880.55 188.06
-9752511.41 5135878.59 186.54
-9752248.13 5135880.49 185.82
-9752485.09 5135852.31 187.11
-9752356.15 5135851.00 181.64
-9752274.26 5135852.45 186.64
-9752436.98 5135824.13 185.15
-9752694.46 5135829.06 204.60
-9752614.73 5135826.32 186.21
-9752562.46 5135824.09 187.69
-9752537.99 5135826.05 186.66
-9752511.73 5135826.00 183.74
-9752696.15 5135799.52 184.99
-9752643.39 5135799.55 184.69
-9752511.63 5135799.65 183.84
-9752405.67 5135801.46 185.17
-9752380.02 5135799.10 178.53
-9752327.09 5135799.89 181.43
-9752274.23 5135799.54 180.61
-9752775.69 5135775.11 184.89
-9752748.85 5135775.45 187.16
-9752669.52 5135773.10 183.35
-9752568.65 5135795.77 200.10
-9752457.86 5135772.96 184.95
-9752326.48 5135772.49 179.08
-9752247.93 5135773.01 187.22
-9752722.47 5135746.89 186.99
-9752589.17 5135746.34 185.20
-9752537.02 5135754.04 199.95
-9752277.49 5135769.25 200.63
-9752508.36 5136984.60 186.68
-9752406.62 5136985.05 188.26
-9752301.00 5136985.54 177.13
-9752248.11 5136985.89 177.07
-9752377.92 5135720.69 184.42
-9752357.56 5135718.65 184.60
-9752274.21 5135720.17 180.80
-9752433.12 5136958.03 187.50
-9752405.95 5136957.24 187.01
-9752748.83 5135720.53 183.40
-9752716.58 5135715.89 203.86
-9752684.65 5135716.50 204.03
-9752643.39 5135720.36 184.93
-9752642.24 5135717.80 200.46
-9752589.95 5136932.77 178.80
-9752379.45 5136933.17 181.16
-9752247.22 5136933.20 177.04
-9752669.67 5135692.53 184.51
-9752607.06 5135707.46 215.48
-9752588.26 5135707.94 215.42
-9752485.41 5135694.32 184.28
-9752478.56 5135693.31 200.50
-9752431.25 5135694.92 186.48
-9752406.74 5136905.80 181.28
-9752644.24 5135665.75 184.37
-9752592.09 5136878.81 180.90
-9752327.26 5136880.24 179.10
-9752300.42 5136880.65 178.83
-9752433.70 5135668.07 195.84
-9752328.15 5135669.78 187.42
-9752326.83 5136853.84 179.26
-9752300.90 5136854.05 178.74
-9752590.98 5135641.11 188.24
-9752643.32 5136854.07 183.78
-9752590.60 5136853.86 186.83
-9752514.45 5136853.76 191.27
-9752751.44 5135615.14 185.61
-9752695.11 5135626.65 215.30
-9752671.03 5135627.02 215.44
-9752669.62 5135614.68 183.79
-9752643.04 5135615.84 187.46
-9752616.81 5135614.93 183.75
-9752586.77 5135636.77 202.83
-9752576.83 5135634.17 202.44
-9752669.62 5136827.58 183.86
-9752379.74 5135615.29 183.29
-9752537.91 5136827.67 184.51
-9752774.48 5135614.48 188.21
-9752511.16 5136801.13 178.34
-9752457.03 5136800.52 188.81
-9752328.77 5136800.61 184.18
-9752669.85 5136801.38 186.68
-9752722.27 5135588.36 183.21
-9752698.34 5135589.84 187.12
-9752669.79 5135588.91 183.71
-9752510.79 5135587.97 186.98
-9752407.26 5135587.87 186.65
-9752327.57 5135588.21 186.53
-9752301.63 5135587.80 184.34
-9752693.08 5135562.33 203.63
-9752616.87 5135562.26 183.76
-9752666.18 5136792.73 199.96
-9752432.65 5135562.26 184.58
-9752511.80 5136774.89 185.64
-9752378.86 5135562.53 187.08
-9752353.01 5135562.44 182.97
-9752326.79 5136774.77 180.21
-9752274.23 5136774.81 178.16
-9752723.09 5135537.12 188.85
-9752696.05 5135535.82 183.27
-9752669.88 5135536.33 186.75
-9752642.96 5135535.51 187.24
-9752590.80 5135535.73 183.74
-9752669.58 5136748.56 182.66
-9752538.18 5135535.56 187.83
-9752511.23 5135535.58 183.48
-9752494.92 5135557.20 200.00
-9752481.69 5135535.28 200.27
-9752458.33 5135535.74 187.50
-9752433.15 5135535.63 189.06
-9752408.13 5135534.22 186.21
-9752379.76 5135535.69 186.85
-9752432.50 5136748.58 182.82
-9752327.28 5135536.48 184.10
-9752327.94 5136748.17 182.17
-9752246.10 5136746.38 177.04
-9752657.42 5135529.98 215.48
-9752684.08 5135533.24 201.37
-9752668.83 5135511.54 187.44
-9752616.92 5135509.53 215.42
-9752616.96 5135531.50 212.99
-9752547.95 5135527.29 199.86
-9752485.37 5135510.00 183.09
-9752379.82 5135509.55 186.74
-9752300.78 5135510.05 187.30
-9752484.01 5136721.60 183.61
-9752322.52 5135498.39 214.39
-9752274.31 5136722.09 178.17
-9752669.53 5135483.20 183.17
-9752643.33 5135483.04 183.12
-9752563.93 5135483.17 183.08
-9752459.95 5135482.47 184.75
-9752406.19 5135482.09 189.60
-9752590.27 5136695.76 180.79
-9752406.32 5136695.81 181.44
-9752278.61 5136694.62 180.63
-9752590.48 5135456.87 186.57
-9752405.62 5135460.37 204.33
-9752380.30 5135457.46 185.79
-9752272.49 5135457.32 186.52
-9752671.48 5135429.74 186.16
-9752643.19 5135429.94 187.10
-9752488.16 5135429.18 187.89
-9752431.65 5135430.67 187.59
-9752437.82 5135424.07 202.54
-9752403.82 5135431.35 207.20
-9752389.40 5135432.87 202.30
-9752324.28 5135431.62 184.13
-9752749.09 5136669.29 184.98
-9752643.23 5135404.61 183.20
-9752564.05 5136669.67 182.77
-9752537.64 5136669.29 186.50
-9752453.37 5135422.74 200.00
-9752278.17 5136669.73 179.35
-9752248.69 5136668.32 179.51
-9752451.81 5135405.67 203.36
-9752301.09 5135407.17 186.38
-9752751.87 5136642.96 184.18
-9752643.38 5136643.10 180.35
-9752486.91 5135377.75 187.02
-9752458.59 5135377.81 187.43
-9752486.41 5136638.20 189.20
-9752458.77 5136643.16 180.65
-9752407.35 5136643.69 186.21
-9752379.36 5135375.59 187.79
-9752353.66 5135377.64 189.97
-9752328.51 5135377.17 187.25
-9752248.88 5135376.19 186.93
-9752617.07 5135377.74 183.29
-9752564.37 5135377.89 186.71
-9752362.14 5135380.08 202.23
-9752670.35 5136617.44 186.62
-9752432.43 5136616.56 181.18
-9752246.92 5136614.40 176.96
-9752434.20 5135352.25 202.63
-9752407.10 5135350.77 200.88
-9752669.76 5136585.67 200.65
-9752378.68 5135359.23 200.08
-9752512.51 5136590.19 180.73
-9752300.57 5136590.42 185.57
-9752274.33 5136589.21 186.64
-9752616.87 5135325.42 183.18
-9752564.49 5135325.07 186.55
-9752485.11 5135324.89 183.39
-9752379.85 5135324.86 182.47
-9752356.36 5135321.94 187.89
-9752327.97 5135326.53 183.15
-9752564.02 5135299.30 185.16
-9752537.51 5135298.75 186.53
-9752352.91 5135298.08 182.12
-9752249.70 5135296.10 185.45
-9752801.39 5136564.16 184.27
-9752700.48 5136566.44 187.63
-9752564.61 5135297.49 212.70
-9752379.65 5135271.65 187.03
-9752353.61 5135272.31 182.28
-9752724.07 5136538.81 186.85
-9752616.96 5136537.54 186.43
-9752322.79 5135271.37 203.36
-9752313.53 5135267.25 201.07
-9752348.94 5136536.24 184.40
-9752381.01 5135247.65 186.95
-9752354.78 5135245.14 186.78
-9752274.19 5135245.80 182.12
-9752247.59 5135246.54 186.95
-9752248.97 5137353.78 177.28
-9752537.64 5135219.52 182.95
-9752437.70 5135232.02 200.01
-9752439.15 5135234.22 199.91
-9752801.72 5136511.36 186.59
-9752643.92 5136511.17 187.34
-9752538.08 5136511.46 180.42
-9752459.36 5136511.44 180.58
-9752485.35 5135193.43 185.43
-9752456.98 5135191.75 186.14
-9752432.67 5135193.34 190.68
-9752406.70 5135192.54 182.96
-9752304.73 5135213.65 202.10
-9752320.44 5135198.25 203.88
-9752274.26 5135193.38 181.91
-9752774.82 5136484.79 186.04
-9752724.62 5136485.32 186.89
-9752639.91 5136485.38 202.34
-9752590.41 5136484.94 179.96
-9752357.59 5136483.10 184.38
-9752458.49 5135166.89 190.71
-9752380.00 5135164.67 188.31
-9752357.05 5135165.37 189.10
-9752299.04 5137302.19 177.11
-9752274.52 5137301.77 177.05
-9752221.93 5137302.19 176.93
-9752380.58 5137249.37 177.19
-9752485.15 5135140.50 187.05
-9752275.08 5137249.08 177.06
-9752748.73 5136458.68 185.96
-9752326.78 5135140.39 182.21
-9752395.00 5136469.76 200.11
-9752392.88 5136470.67 199.85
-9752379.99 5135114.03 182.74
-9752274.17 5135114.71 184.96
-9752249.14 5135112.54 186.64
-9752722.56 5136431.93 184.12
-9752458.89 5135088.18 182.79
-9752432.64 5135087.71 182.66
-9752353.19 5137221.89 177.24
-9752327.88 5137222.76 177.03
-9752299.17 5135086.80 205.41
-9752275.93 5135090.76 185.92
-9752274.15 5135084.82 206.35
-9752379.76 5136429.94 184.24
-9752300.45 5135061.47 181.72
-9752353.09 5137195.88 177.20
-9752295.47 5135069.95 202.17
-9752601.54 5136426.63 200.53
-9752458.52 5136405.65 180.37
-9752433.19 5136405.84 179.99
-9752302.21 5137169.54 177.18
-9752702.74 5136403.60 184.44
-9752590.39 5136405.14 186.57
-9752405.15 5135035.56 185.77
-9752485.45 5137143.79 180.43
-9752274.65 5137144.46 177.03
-9752801.64 5136379.16 183.72
-9752696.34 5136379.85 187.40
-9752614.38 5136379.66 185.89
-9752381.27 5135009.72 185.35
-9752510.58 5136379.33 180.28
-9752459.00 5136379.56 180.48
-9752354.05 5136378.65 186.38
-9752434.66 5137117.16 181.00
-9752327.19 5136379.45 179.40
-9752378.79 5137116.90 177.03
-9752248.07 5137116.68 177.03
-9752696.70 5136382.53 199.90
-9752485.48 5137090.26 179.71
-9752407.04 5137091.02 177.29
-9752327.73 5137091.46 176.92
-9752246.37 5137091.89 177.19
-9752565.39 5136351.34 185.43
-9752326.09 5136352.68 187.34
-9752300.82 5136353.23 179.09
-9752249.51 5136352.29 179.55
-9752301.60 5137065.39 177.06
-9752275.07 5137063.72 177.22
-9752247.33 5137064.03 177.05
-9752327.86 5137038.38 177.11
-9752246.94 5137038.32 177.00
-9752801.28 5136325.90 188.02
-9752748.85 5136326.70 184.13
-9752564.41 5136326.63 186.35
-9752511.51 5136326.79 186.65
-9752299.87 5137012.16 177.14
-9752353.79 5136326.04 186.62
-9752300.96 5136326.87 179.26
-9752274.18 5136326.71 179.21
-9752696.02 5136300.59 184.00
-9752671.11 5136300.07 186.68
-9752614.88 5136297.89 186.48
-9752553.22 5136323.89 199.87
-9752827.82 5136300.26 183.80
-9752774.86 5136273.86 183.79
-9752642.15 5136273.23 184.43
-9752380.14 5136273.63 186.41
-9752275.30 5136271.73 189.56
-9752722.53 5136247.48 183.96
-9752697.46 5136247.91 184.48
-9752669.85 5136247.48 183.66
-9752616.32 5136249.16 184.11
-9752597.63 5136244.70 188.05
-9752537.69 5136248.16 186.96
-9752485.16 5136247.38 181.04
-9752459.33 5136247.92 185.15
-9752247.50 5136248.10 179.09
-9752854.20 5136221.21 186.48
-9752827.79 5136221.11 186.33
-9752775.26 5136221.30 185.47
-9752750.11 5136239.83 199.93
-9752753.56 5136226.15 200.15
-9752564.17 5136221.19 186.74
-9752512.80 5136220.54 186.80
-9752485.03 5136221.28 181.21
-9752432.84 5136221.01 180.57
-9752854.96 5136194.90 185.15
-9752775.33 5136194.80 183.80
-9752747.94 5136196.56 187.53
-9752722.29 5136194.76 184.18
-9752643.28 5136194.77 186.30
-9752484.93 5136194.95 181.12
-9752409.44 5136193.10 186.80
-9752380.56 5136194.75 180.39
-9752324.85 5136193.03 186.62
-9752773.42 5136195.76 202.07
-9752537.06 5136192.26 200.64
-9752564.66 5136168.02 178.64
-9752537.84 5136168.43 187.30
-9752300.58 5136170.49 188.28
-9752696.36 5136142.07 186.28
-9752670.10 5136141.01 205.73
-9752669.56 5136142.60 187.12
-9752567.86 5136142.01 188.95
-9752508.51 5136140.23 201.83
-9752458.74 5136142.09 180.60
-9752406.21 5136142.71 186.43
-9752250.57 5136141.47 185.40
-9752800.27 5136112.14 204.63
-9752748.41 5136113.12 203.77
-9752722.49 5136116.01 183.70
-9752510.33 5136127.48 201.81
-9752432.38 5136115.91 180.49
-9752721.78 5136090.12 187.02
-9752730.74 5136096.30 199.90
-9752561.96 5136088.86 184.98
-9752353.51 5136089.98 182.56
-9752274.80 5136089.80 185.24
-9752694.81 5136084.77 200.15
-9752856.05 5136063.18 184.09
-9752697.40 5136063.86 187.92
-9752691.92 5136061.90 200.52
-9752667.29 5136064.12 184.88
-9752644.73 5136061.57 188.26
-9752507.03 5136061.34 187.87
-9752486.24 5136067.92 200.68
-9752458.58 5136063.02 186.79
-9752379.65 5136063.22 186.58
-9752780.53 5136046.57 200.20
-9752747.84 5136037.89 186.21
-9752587.71 5136036.13 186.48
-9752560.21 5136038.85 185.50
-9752244.49 5136037.51 186.19
-9752435.68 5136010.40 185.41
-9752405.95 5136010.32 186.28
-9752696.07 5136010.27 186.83
-9752590.23 5136011.93 184.73
-9752774.88 5135985.58 185.35
-9752564.02 5135983.92 186.62
-9752224.38 5134928.71 187.24
-9752221.54 5134903.43 182.96
-9752168.82 5134903.07 183.20
-9752142.57 5134903.10 186.17
-9752116.14 5134929.43 183.15
-9752091.16 5134929.65 186.20
-9752062.91 5134902.71 184.31
-9752037.41 5134929.58 182.89
-9751984.33 5134929.48 182.94
-9751983.97 5134903.13 182.82
-9751958.07 5134929.44 186.22
-9751957.96 5134903.57 182.74
-9751937.04 5134907.59 184.22
-9751905.38 5134929.70 187.21
-9751878.94 5134902.98 179.47
-9751847.94 5134931.49 183.79
-9751826.42 5134929.70 188.71
-9751829.32 5134899.79 184.75
-9751744.81 5134903.19 189.43
-9752064.37 5134877.99 187.28
-9751825.83 5134877.54 184.84
-9751932.32 5134849.53 184.07
-9751826.78 5134849.03 181.34
-9751747.23 5134850.61 180.77
-9751721.93 5134851.84 186.43
-9752168.61 5134849.98 186.64
-9752115.15 5134849.41 184.75
-9752010.81 5134850.68 182.71
-9751984.55 5134850.48 182.83
-9751958.02 5134850.62 182.68
-9752037.90 5134824.24 187.43
-9752009.02 5134823.59 185.50
-9751958.24 5134824.27 182.62
-9751932.13 5134826.33 184.48
-9752117.28 5134797.77 188.02
-9751931.77 5134796.65 184.64
-9751878.89 5134798.09 186.84
-9751851.76 5134796.95 184.86
-9751773.57 5134797.80 185.77
-9752089.44 5134773.14 183.16
-9752036.94 5134771.41 182.96
-9751852.65 5134771.22 186.12
-9751768.51 5134763.13 199.90
-9751721.97 5134769.61 188.67
-9751797.84 5134743.90 185.94
-9752221.88 5137037.77 177.12
-9752221.46 5136959.31 177.01
-9752222.35 5136827.23 177.53
-9752222.16 5137275.58 177.23
-9752222.29 5137169.97 177.22
-9752173.61 5135929.74 186.02
-9752141.22 5135957.91 186.68
-9752116.43 5135931.54 187.73
-9752088.43 5135957.34 182.60
-9752010.44 5135931.10 182.63
-9751984.48 5135931.47 183.34
-9751905.39 5135957.40 176.97
-9751853.30 5135958.62 177.16
-9751798.32 5135957.61 177.07
-9751774.03 5135957.50 177.09
-9751746.76 5135957.16 176.95
-9751721.54 5135931.41 177.22
-9751956.62 5135905.37 182.26
-9751852.18 5135904.63 177.04
-9751826.26 5135904.50 177.13
-9751799.51 5135905.60 177.04
-9752169.35 5135904.76 186.43
-9752142.95 5135876.23 186.89
-9752034.89 5135877.91 183.16
-9751984.52 5135878.76 183.27
-9751878.02 5135877.77 177.04
-9751799.58 5135878.31 177.14
-9751773.29 5135878.20 176.97
-9752113.88 5135853.33 186.86
-9752067.63 5135850.83 187.37
-9752010.36 5135853.24 182.61
-9751853.63 5135851.54 177.20
-9751800.07 5135851.92 177.18
-9751746.67 5135851.86 177.14
-9752221.58 5135825.85 186.43
-9752166.73 5135824.13 185.21
-9752063.35 5135825.58 186.64
-9751931.79 5135826.19 180.52
-9751852.39 5135826.47 177.06
-9751825.38 5135825.71 177.18
-9751772.56 5135826.27 176.95
-9751719.90 5135826.17 177.09
-9752089.71 5135799.77 183.74
-9751985.41 5135799.54 181.97
-9751851.99 5135799.19 177.03
-9751773.65 5135799.95 177.13
-9751988.13 5135772.53 200.57
-9751986.42 5135787.85 200.05
-9751957.88 5135774.45 181.87
-9752011.32 5135746.41 186.25
-9751931.70 5135746.83 179.83
-9751879.33 5135745.71 177.14
-9751852.99 5135746.55 177.01
-9751826.12 5135747.15 177.05
-9751773.67 5135746.61 176.82
-9752195.43 5136986.66 177.05
-9752169.51 5136959.25 177.05
-9752142.92 5136985.49 177.07
-9752089.15 5136986.12 176.86
-9752010.68 5136985.90 177.16
-9751987.53 5136955.61 180.68
-9751957.46 5136986.20 176.97
-9751903.91 5136959.29 177.26
-9751905.54 5136984.39 177.22
-9751851.97 5136958.53 177.10
-9751852.05 5136986.19 177.26
-9751826.20 5136985.67 177.09
-9751801.00 5136959.00 177.15
-9751852.80 5135720.50 176.95
-9751826.25 5135720.26 176.96
-9751747.28 5135720.05 177.37
-9752142.06 5136933.54 177.19
-9752116.09 5136931.31 177.24
-9752089.37 5136932.02 179.06
-9752063.06 5136932.73 180.54
-9752037.09 5136932.86 181.55
-9752168.86 5135720.72 180.49
-9751931.77 5136933.74 177.08
-9751905.32 5136933.07 177.10
-9751853.11 5136932.51 177.11
-9751825.67 5136932.57 176.97
-9751798.66 5136933.40 177.25
-9751721.00 5136933.51 177.16
-9751983.17 5135721.00 187.58
-9751986.91 5135720.72 201.91
-9751931.24 5135720.78 179.84
-9751904.50 5135720.33 181.17
-9752142.76 5136906.28 177.27
-9752115.89 5136906.62 177.04
-9752038.20 5136907.16 185.79
-9751879.46 5136906.07 177.08
-9751853.03 5136907.23 177.25
-9752086.02 5135693.11 186.80
-9751720.66 5136907.74 177.13
-9752036.99 5135694.08 182.44
-9752002.34 5135701.93 200.15
-9751984.64 5135694.99 188.33
-9752168.34 5136881.47 177.11
-9752140.84 5136877.80 178.93
-9751878.92 5135693.91 178.13
-9751825.38 5135692.97 177.12
-9751801.10 5135693.68 177.14
-9751984.78 5136876.95 176.98
-9751962.13 5136886.75 177.01
-9751747.18 5135693.92 177.16
-9751721.41 5135693.86 177.15
-9751826.39 5136880.39 177.24
-9751800.12 5136880.44 177.08
-9751934.05 5136864.04 177.01
-9751800.20 5136853.43 177.05
-9751746.59 5136853.07 177.12
-9751720.71 5136853.24 177.15
-9752116.15 5135667.96 180.82
-9751901.39 5136828.29 176.98
-9751878.57 5136828.18 176.97
-9751829.72 5136825.34 179.22
-9752012.73 5135665.54 183.06
-9751799.79 5136827.60 177.04
-9751746.53 5136828.19 177.06
-9751852.53 5135667.44 176.96
-9751722.46 5136827.87 177.28
-9751800.60 5135668.28 177.16
-9751722.81 5135668.06 177.25
-9751910.04 5136803.17 178.32
-9751878.77 5136801.60 176.98
-9751853.21 5136801.21 176.96
-9752195.93 5135640.60 181.27
-9752011.06 5135641.29 181.09
-9752116.30 5136775.13 176.98
-9752090.84 5136774.18 180.50
-9751959.99 5136768.97 177.04
-9751852.75 5136775.54 177.02
-9751825.18 5136774.15 176.93
-9751800.15 5136774.15 181.47
-9751772.91 5136774.24 176.94
-9751800.73 5135641.47 177.04
-9751746.92 5136775.16 177.07
-9751747.77 5135642.33 177.18
-9751720.45 5135642.71 177.27
-9752167.63 5136751.29 179.57
-9752070.73 5136752.31 178.95
-9752168.63 5135615.36 180.41
-9752037.19 5136737.90 177.53
-9752140.47 5135611.38 183.59
-9751853.06 5136747.40 176.99
-9751826.64 5136748.31 177.02
-9751776.46 5136747.47 178.19
-9752089.91 5135615.13 180.09
-9751960.37 5135613.80 185.32
-9751881.62 5135616.43 182.07
-9752092.02 5136720.71 177.60
-9752064.46 5136720.40 179.86
-9751984.51 5136722.02 177.60
-9751746.06 5135614.57 177.19
-9751825.76 5136723.27 176.97
-9751800.01 5136722.16 176.99
-9751720.61 5135615.57 176.96
-9752221.94 5136690.21 176.98
-9751852.84 5136694.44 178.81
-9751830.49 5136701.99 179.34
-9751799.18 5136695.31 176.97
-9751878.73 5135588.72 178.87
-9751852.78 5135588.92 178.59
-9751799.98 5135589.83 177.11
-9751773.76 5135588.38 177.06
-9752169.08 5136669.35 177.58
-9752059.87 5136668.04 177.00
-9752038.18 5136667.89 179.60
-9752011.08 5136673.33 187.75
-9751884.42 5136672.12 177.02
-9751770.08 5136672.06 178.18
-9752063.18 5135562.31 179.77
-9752222.54 5136643.42 177.49
-9751988.94 5135561.06 185.13
-9751960.88 5135559.85 181.44
-9751853.85 5136643.44 178.58
-9751773.96 5136643.01 176.96
-9751720.44 5136643.50 177.21
-9751825.20 5135563.82 178.61
-9751773.77 5135561.84 176.96
-9751719.55 5135562.65 177.32
-9752092.51 5136620.68 179.01
-9751984.25 5136616.70 177.58
-9751929.86 5136615.21 179.06
-9751725.07 5136616.06 178.74
-9752197.66 5135560.07 189.74
-9752220.50 5135560.59 200.44
-9752091.54 5136587.27 179.83
-9752059.18 5136592.27 177.64
-9751962.52 5136589.37 179.31
-9751929.85 5136591.03 177.01
-9751903.89 5136590.52 176.97
-9751824.80 5136589.71 179.48
-9751798.81 5136590.02 176.95
-9752146.95 5135559.73 186.74
-9751775.19 5136591.49 176.98
-9751746.85 5136589.98 176.99
-9752223.19 5136550.89 177.58
-9752144.92 5136562.65 177.60
-9751931.89 5135560.69 202.32
-9751904.93 5136564.12 177.57
-9751745.97 5136563.49 176.96
-9752194.99 5136559.82 177.60
-9751979.65 5136536.65 180.01
-9751931.11 5136537.63 177.57
-9751911.63 5136535.65 177.58
-9751878.57 5136537.59 177.61
-9751802.20 5136533.79 176.96
-9751747.71 5136537.99 176.97
-9752169.15 5135535.96 180.73
-9751880.08 5135536.30 180.72
-9751827.81 5135539.10 180.53
-9751798.96 5135534.46 179.74
-9751988.84 5136509.25 177.62
-9751903.51 5136512.30 176.93
-9751873.86 5136503.46 179.60
-9751825.70 5136511.78 176.97
-9751800.74 5136510.66 177.82
-9751779.81 5136509.72 178.61
-9752221.52 5135509.73 178.89
-9752190.46 5135507.44 201.52
-9752116.83 5135508.63 181.85
-9752088.27 5135513.06 186.54
-9752140.73 5136502.19 177.53
-9752087.17 5136485.92 177.61
-9752035.97 5136487.16 177.59
-9751987.51 5135512.75 184.44
-9752144.59 5136458.06 177.56
-9752037.21 5136459.88 176.97
-9751884.07 5136456.43 177.55
-9751837.53 5136468.20 177.48
-9751771.81 5136459.20 176.98
-9751798.56 5136459.95 176.91
-9751745.78 5136458.86 177.00
-9751720.41 5136457.65 176.96
-9751799.61 5135509.80 178.93
-9751773.11 5135509.86 180.74
-9752198.15 5136430.26 177.93
-9752138.35 5136429.96 177.02
-9752012.78 5136432.33 177.47
-9751961.92 5136431.50 177.54
-9751932.36 5136440.21 177.52
-9751799.12 5136432.50 177.53
-9751747.71 5136432.96 176.98
-9751720.14 5136431.57 176.98
-9752142.39 5135483.67 181.04
-9752090.16 5135483.07 180.74
-9752061.63 5135485.12 183.19
-9752221.52 5136405.80 185.25
-9751958.92 5135482.63 186.71
-9751905.03 5135483.48 179.53
-9752117.05 5136405.78 178.56
-9752090.71 5136405.83 178.93
-9752003.33 5136406.00 176.99
-9751994.97 5136403.69 176.96
-9751932.16 5136405.51 177.58
-9751746.24 5136404.77 176.91
-9751720.91 5136406.31 176.90
-9752012.91 5136378.28 177.52
-9751958.93 5136383.97 180.09
-9751770.70 5136379.91 176.96
-9751720.00 5136381.11 176.95
-9752221.77 5136353.04 178.31
-9752169.06 5136353.11 183.46
-9751987.73 5136353.16 177.59
-9751770.94 5136351.35 176.94
-9752037.28 5135456.10 179.89
-9751982.15 5135458.52 186.81
-9751958.84 5135456.24 186.04
-9751908.11 5135455.93 185.74
-9752118.77 5136326.48 179.99
-9751904.36 5136328.11 178.75
-9751798.82 5136328.67 177.84
-9751748.03 5136327.48 176.99
-9751852.43 5135457.09 179.81
-9751799.98 5135456.77 179.09
-9751746.94 5135457.28 180.72
-9752011.77 5137354.87 177.04
-9751853.34 5137353.05 177.30
-9751826.51 5137354.67 177.16
-9752116.02 5135430.43 186.18
-9752010.64 5135430.77 179.85
-9751984.37 5135430.40 186.84
-9751905.35 5136299.28 178.69
-9751823.36 5136297.30 179.41
-9751773.63 5136302.13 176.95
-9751904.47 5135431.41 185.13
-9752142.21 5137328.23 177.07
-9751878.95 5135430.60 186.31
-9751825.28 5135431.14 184.04
-9752090.49 5137328.18 177.38
-9751773.01 5135430.85 179.23
-9751958.13 5137327.60 177.08
-9751798.70 5137328.79 177.21
-9751773.27 5137327.69 176.95
-9752145.13 5136275.79 181.54
-9752119.25 5136275.75 183.79
-9752035.23 5136288.93 177.47
-9751925.62 5136274.86 177.53
-9751851.58 5136274.07 176.92
-9751825.61 5136277.39 176.96
-9751747.28 5136276.68 177.00
-9752168.86 5137302.03 177.05
-9752195.43 5135400.99 184.75
-9752011.07 5137302.30 177.28
-9751984.12 5137303.84 177.24
-9752171.80 5135402.99 187.63
-9752141.07 5135403.99 186.91
-9751878.57 5137301.69 177.06
-9751746.90 5137301.46 177.55
-9752063.55 5135404.40 180.36
-9752009.92 5135404.36 180.42
-9751957.55 5135403.71 186.71
-9752004.64 5136249.03 183.36
-9751954.50 5136245.44 177.00
-9751931.18 5136246.48 176.98
-9751799.80 5136248.20 176.91
-9751772.90 5136247.44 177.00
-9751746.02 5136247.43 176.96
-9751902.47 5135408.18 181.69
-9752064.07 5137274.62 177.25
-9751983.61 5137274.02 177.21
-9751906.32 5137276.00 177.05
-9751878.01 5137275.24 177.03
-9751826.21 5137276.15 177.21
-9751720.14 5135404.43 180.66
-9751773.05 5137275.51 176.95
-9751720.64 5137275.58 177.17
-9751905.39 5137248.49 177.26
-9751825.31 5137250.03 177.05
-9751800.43 5137248.23 177.13
-9751772.51 5137248.49 177.36
-9752132.07 5135407.88 200.79
-9752168.37 5137249.09 177.03
-9751906.65 5135378.67 186.81
-9751983.39 5137249.48 177.01
-9751773.78 5136220.35 176.95
-9752142.57 5137223.36 177.23
-9752036.42 5137222.65 177.05
-9752009.20 5137223.96 177.16
-9752221.13 5135379.09 187.35
-9751878.92 5137222.65 177.12
-9751826.77 5137221.76 177.18
-9751720.16 5137223.42 177.09
-9752192.14 5136195.35 184.22
-9752088.20 5136196.31 177.60
-9751983.62 5136196.75 178.27
-9752168.86 5137197.59 177.14
-9752116.11 5137196.68 177.18
-9752036.87 5137197.13 177.12
-9752116.38 5135377.22 186.37
-9751931.34 5137195.43 177.38
-9751800.78 5137196.23 177.25
-9752063.47 5135377.49 180.82
-9752036.92 5135377.65 180.23
-9752167.97 5137170.40 177.20
-9752142.73 5137170.57 177.17
-9752116.98 5137169.94 176.89
-9752009.95 5137171.22 177.33
-9751984.83 5137170.71 177.13
-9751905.14 5137170.50 177.12
-9751825.96 5137169.83 177.11
-9751799.45 5137170.80 176.91
-9751747.03 5137169.30 177.15
-9751931.36 5136168.36 177.55
-9751905.38 5136168.41 176.93
-9752089.10 5137143.56 177.03
-9751956.96 5137143.40 177.23
-9751879.52 5137144.96 177.18
-9751721.32 5137144.88 177.37
-9752089.86 5137117.48 176.94
-9751958.02 5137117.71 176.85
-9752194.78 5135351.39 187.20
-9751905.57 5137117.12 177.50
-9751852.23 5137117.78 177.02
-9751826.28 5137116.99 177.17
-9752144.78 5135352.51 187.88
-9752087.07 5135353.25 188.55
-9752167.78 5137117.07 177.03
-9752009.63 5135351.70 180.49
-9751931.62 5135351.39 186.88
-9752169.04 5136116.09 180.12
-9751877.49 5135347.95 186.25
-9752142.89 5137090.64 177.00
-9752063.51 5137092.66 177.13
-9752011.48 5137090.27 177.15
-9751984.70 5137092.95 177.22
-9751931.98 5137091.45 176.88
-9751879.81 5137091.49 177.31
-9751852.90 5137091.20 177.12
-9751800.44 5137090.90 177.06
-9751746.18 5137090.55 177.34
-9751773.84 5135351.24 179.44
-9751722.05 5136089.09 177.13
-9751799.51 5137064.60 177.12
-9752171.43 5135323.31 186.38
-9752195.11 5137064.38 177.30
-9752141.76 5137063.35 177.15
-9752115.52 5137065.18 177.02
-9752037.64 5137064.48 177.12
-9752141.22 5135323.15 187.05
-9752195.47 5137038.02 176.84
-9752169.61 5137039.34 176.96
-9752115.67 5137038.00 176.97
-9752089.73 5137038.30 177.19
-9751984.22 5135324.92 180.62
-9751905.16 5137039.40 177.16
-9751931.65 5135326.20 185.07
-9751852.80 5137039.22 176.91
-9751826.23 5137038.96 177.00
-9751772.81 5137038.99 177.22
-9751746.49 5137038.87 177.02
-9751879.97 5135325.56 185.67
-9751747.10 5135325.01 179.23
-9752196.07 5135299.26 184.58
-9752169.58 5137012.13 177.09
-9752116.06 5137011.74 177.28
-9752011.19 5137011.71 177.01
-9751931.38 5137011.78 177.00
-9751877.92 5137012.69 177.08
-9752142.34 5135296.97 185.68
-9751851.72 5137011.75 177.13
-9751799.24 5137011.85 177.16
-9752114.97 5135299.55 187.64
-9751747.23 5137012.18 177.07
-9752061.29 5135300.20 202.79
-9752035.96 5136085.71 176.93
-9751933.10 5136090.03 178.88
-9751852.66 5136062.50 176.99
-9751826.02 5136062.82 176.93
-9752038.57 5135296.14 187.00
-9751770.45 5136062.45 178.03
-9752009.97 5135298.97 180.13
-9751720.85 5136062.74 177.15
-9751958.02 5135298.61 186.54
-9751747.64 5135298.66 179.40
-9751720.80 5135298.50 179.65
-9752224.69 5136063.41 186.90
-9752197.47 5135274.73 187.15
-9752169.14 5135272.44 187.32
-9751956.75 5136060.76 176.94
-9751826.13 5136036.43 176.95
-9751746.41 5136037.21 177.29
-9752062.70 5135270.18 185.93
-9752009.09 5135274.63 184.63
-9751957.99 5135272.64 180.70
-9751799.40 5135271.90 186.23
-9752063.10 5136036.79 176.95
-9752036.53 5136037.05 176.98
-9751984.61 5136036.22 176.97
-9751931.74 5136010.30 176.96
-9751906.34 5136036.72 176.97
-9751853.02 5136010.78 176.99
-9751826.23 5136010.38 176.97
-9752142.99 5135246.94 185.43
-9751799.82 5136011.39 177.02
-9752117.86 5135244.81 187.68
-9751746.60 5136010.62 177.09
-9752055.50 5135256.19 201.11
-9751988.93 5135248.35 184.23
-9751879.14 5135245.78 180.43
-9752195.43 5136010.40 186.61
-9751825.90 5135246.03 186.63
-9751799.49 5135245.96 179.84
-9751771.61 5135245.91 184.25
-9752009.57 5136010.97 176.95
-9751983.54 5136009.59 176.98
-9751931.06 5135983.68 176.93
-9751852.94 5135984.68 177.04
-9751771.99 5135984.40 177.06
-9752142.57 5135219.63 185.71
-9751745.73 5135983.90 177.07
-9751720.27 5135983.86 177.04
-9752066.04 5135214.16 188.19
-9752032.14 5135221.79 201.52
-9752010.01 5135218.48 186.01
-9752013.08 5135220.91 203.82
-9751984.21 5135217.39 187.05
-9751798.56 5135218.91 182.08
-9751747.22 5135219.27 179.80
-9752224.27 5135219.46 189.86
-9752239.73 5135210.97 200.33
-9751995.24 5135211.12 200.89
-9752089.51 5135194.19 188.03
-9752027.86 5135205.79 201.05
-9752009.48 5135192.80 204.38
-9751990.58 5135194.33 204.20
-9751957.28 5135192.92 186.65
-9751799.91 5135193.24 179.80
-9752168.65 5135167.22 183.85
-9751901.33 5135170.83 183.83
-9751800.06 5135166.88 180.45
-9752221.53 5135140.62 182.66
-9752060.01 5135141.22 187.81
-9752000.05 5135161.37 199.86
-9751982.08 5135140.88 187.41
-9751958.55 5135140.26 186.98
-9751947.61 5135154.25 200.71
-9751931.54 5135140.62 186.79
-9751903.79 5135140.03 184.97
-9751799.62 5135140.83 180.41
-9751773.13 5135140.57 180.77
-9752194.98 5135115.13 186.81
-9752115.39 5135113.82 185.83
-9752062.28 5135113.44 184.97
-9751981.22 5135136.79 200.59
-9751979.82 5135110.76 201.56
-9751928.59 5135115.23 205.55
-9751904.36 5135114.44 186.28
-9751857.65 5135116.58 183.40
-9751799.47 5135114.07 180.73
-9751720.81 5135114.27 180.33
-9752142.85 5135086.34 186.22
-9752089.46 5135087.72 182.53
-9751926.92 5135087.74 203.19
-9751905.49 5135087.11 186.88
-9751905.49 5135088.45 205.60
-9751878.48 5135087.97 186.20
-9751880.11 5135090.23 202.38
-9751879.50 5135109.77 199.99
-9751773.43 5135087.61 180.88
-9751982.64 5135062.52 187.56
-9751934.39 5135063.38 184.82
-9751931.79 5135059.75 203.77
-9751905.69 5135062.22 187.53
-9751852.13 5135060.64 185.93
-9751826.64 5135062.45 186.12
-9751745.93 5135062.23 181.81
-9751958.66 5135031.37 186.91
-9751906.59 5135035.30 185.84
-9751878.87 5135037.03 183.80
-9751855.20 5135035.67 182.05
-9751774.27 5135032.12 188.71
-9752221.28 5135034.99 186.61
-9752195.09 5135035.00 182.73
-9752168.81 5135035.17 182.65
-9752055.73 5135032.42 199.86
-9752239.53 5135003.40 202.72
-9752116.23 5135008.50 182.42
-9752063.30 5135006.73 187.64
-9752035.42 5135007.24 184.64
-9752010.51 5135008.92 186.70
-9751906.28 5135007.98 200.81
-9751881.07 5135006.39 185.96
-9751852.46 5135008.30 184.29
-9751747.39 5135008.70 180.95
-9751720.87 5135008.86 180.41
-9752226.26 5134992.25 201.92
-9752238.31 5134992.32 201.55
-9752168.91 5134982.14 183.08
-9752116.34 5134982.18 182.47
-9751904.62 5134982.23 188.24
-9751881.96 5134982.76 201.04
-9751853.96 5134978.93 183.35
-9751773.85 5134982.36 183.56
-9751721.61 5134981.32 187.43
-9752169.03 5134956.06 183.28
-9752142.48 5134955.96 183.19
-9752089.71 5134955.95 182.67
-9752063.49 5134956.04 182.73
-9752036.93 5134955.89 182.90
-9751983.59 5134956.88 185.89
-9751932.60 5134960.78 185.42
-9751773.71 5134956.15 181.14
-9752247.75 5135140.49 182.46
-9752220.12 5137117.50 177.17
-9752248.59 5134824.92 186.10
-9752247.74 5134745.71 187.19
-9752248.14 5134718.74 191.01
-9752249.56 5134935.39 186.25
-9753249.63 5135984.22 188.99
-9753248.19 5136219.96 189.15
-9753249.46 5136142.07 182.50
-9753249.35 5136115.68 182.38
-9753249.56 5136036.92 182.23
-9753249.50 5136432.10 185.68
-9754277.68 5135931.44 181.80
-9754277.21 5135773.32 188.39
-9754278.34 5135694.08 186.71
-9754277.64 5135799.46 185.46
-9754277.14 5135434.02 186.82
-9754277.57 5136141.96 182.10
-9754277.25 5136590.38 186.34
-9754514.75 5134955.98 186.70
-9754488.49 5134955.85 181.83
-9754458.65 5134956.35 187.48
-9754435.06 5134930.34 181.84
-9754409.62 5134954.41 185.87
-9754380.43 5134929.75 187.52
-9754357.40 5134955.96 188.05
-9754330.30 5134929.58 186.84
-9754514.92 5134904.97 186.22
-9754487.95 5134903.76 181.58
-9754409.28 5134903.26 186.70
-9754383.02 5134903.15 186.51
-9754488.11 5134877.10 181.31
-9754459.72 5134876.72 188.01
-9754330.40 5134876.75 181.39
-9754300.33 5134899.25 200.11
-9754435.86 5134850.34 189.44
-9754407.47 5134851.70 183.67
-9754331.22 5134851.46 187.21
-9754379.65 5134824.66 187.30
-9754359.03 5134824.19 182.58
-9754302.98 5134821.10 186.09
-9754331.21 5134798.57 187.80
-9754331.42 5134772.45 186.11
-9754335.55 5134782.12 200.11
-9754989.33 5135983.77 177.58
-9754883.97 5135957.67 184.68
-9754699.11 5135957.63 187.05
-9754674.76 5135982.24 185.01
-9754645.85 5135984.25 186.67
-9754646.09 5135957.35 186.42
-9754642.24 5135964.64 199.85
-9754595.82 5135984.85 185.39
-9754596.08 5135974.13 200.45
-9754571.60 5135962.76 199.99
-9754571.15 5135979.76 201.53
-9754541.58 5135957.28 186.75
-9754514.57 5135957.35 186.98
-9754488.46 5135985.04 185.73
-9754356.52 5135957.35 181.77
-9755040.61 5135931.37 178.27
-9754831.09 5135931.20 186.11
-9754698.81 5135931.25 186.86
-9754646.62 5135931.40 190.44
-9754620.32 5135931.27 190.44
-9754541.80 5135930.54 187.22
-9754409.70 5135931.35 181.29
-9754383.18 5135931.58 185.11
-9754830.12 5135905.09 187.35
-9754725.71 5135905.02 188.95
-9754699.17 5135903.68 184.94
-9754593.87 5135905.20 181.35
-9754564.91 5135907.61 185.91
-9754438.29 5135904.70 182.45
-9754409.03 5135904.65 181.38
-9755039.91 5135880.37 178.30
-9754958.09 5135878.43 178.69
-9754830.87 5135878.74 188.72
-9754725.66 5135878.90 188.90
-9754636.82 5135903.38 204.31
-9754644.46 5135873.69 202.22
-9754598.51 5135884.07 184.86
-9754567.43 5135878.39 186.66
-9754515.42 5135877.94 185.95
-9754461.78 5135878.37 187.52
-9754409.18 5135878.36 181.45
-9754883.10 5135853.12 185.78
-9754844.76 5135878.16 200.11
-9754826.90 5135852.85 187.59
-9754831.40 5135855.23 200.88
-9754672.15 5135850.05 188.31
-9754619.80 5135874.12 202.16
-9754594.84 5135874.36 202.19
-9754567.23 5135852.58 186.41
-9754489.63 5135856.09 187.55
-9754462.14 5135852.52 187.37
-9754356.62 5135852.56 181.36
-9755038.68 5135825.73 177.91
-9754996.07 5135825.15 182.00
-9754804.49 5135826.76 186.54
-9754593.84 5135825.28 186.78
-9754540.69 5135825.95 186.69
-9754568.86 5135822.34 201.23
-9754460.88 5135827.22 187.58
-9754435.20 5135825.79 181.61
-9754303.91 5135825.90 181.44
-9755008.25 5135799.88 182.03
-9754933.56 5135814.77 212.66
-9754831.34 5135790.87 211.72
-9754699.27 5135799.11 185.68
-9754620.08 5135799.24 195.88
-9754541.62 5135799.48 186.99
-9754330.35 5135799.49 185.43
-9754991.30 5135769.99 185.81
-9754857.05 5135772.55 186.50
