-9756522.01 5135830.86 189.31
-9756458.65 5135845.51 180.64
-9756445.42 5135845.40 180.64
-9756446.16 5135845.49 192.92
-9756458.48 5135832.28 180.61
-9756435.14 5135844.37 180.87
-9756419.22 5135842.36 179.99
-9756379.38 5135845.67 180.36
-9756386.49 5135849.45 188.28
-9756393.80 5135832.03 180.64
-9756383.07 5135832.50 189.24
-9756354.58 5135844.56 180.00
-9756340.27 5135845.76 191.68
-9756353.34 5135832.46 193.46
-9756748.50 5135827.77 180.74
-9756709.20 5135819.42 180.65
-9756616.07 5135828.61 190.76
-9756617.87 5135803.84 180.00
-9756590.67 5135819.06 180.42
-9756577.36 5135819.20 180.52
-9756578.29 5135819.11 189.69
-9756563.50 5135818.59 192.05
-9756537.59 5135819.08 179.85
-9756524.38 5135805.41 180.04
-9756484.60 5135819.51 189.51
-9756485.30 5135805.07 180.95
-9756471.93 5135805.24 180.66
-9756458.43 5135819.37 193.25
-9756459.22 5135820.96 201.38
-9756458.64 5135806.42 180.63
-9756435.76 5135820.58 200.80
-9756437.88 5135826.05 199.87
-9756433.59 5135805.85 181.56
-9756405.59 5135820.56 188.34
-9756406.02 5135806.09 193.44
-9756379.87 5135819.29 180.32
-9756393.17 5135806.07 180.04
-9756379.56 5135805.95 180.34
-9756366.31 5135819.23 180.88
-9756383.09 5135806.76 190.88
-9756351.93 5135819.00 188.66
-9756340.13 5135819.58 188.75
-9756339.84 5135806.05 180.61
-9756327.13 5135806.00 180.62
-9756748.72 5135792.94 199.67
-9756695.47 5135809.76 189.81
-9756683.52 5135810.15 189.52
-9756669.51 5135796.68 186.61
-9756655.23 5135792.63 190.98
-9756630.07 5135793.24 180.10
-9756630.03 5135807.06 190.40
-9756564.67 5135793.78 190.90
-9756537.98 5135793.05 179.84
-9756519.78 5135795.14 190.13
-9756498.51 5135792.58 180.21
-9756485.36 5135790.56 190.30
-9756458.58 5135793.10 193.43
-9756445.76 5135793.04 180.73
-9756379.69 5135792.99 180.14
-9756353.17 5135793.11 179.77
-9756353.36 5135790.28 188.88
-9756326.67 5135792.95 180.67
-9756762.02 5135780.29 199.54
-9756728.56 5135782.33 188.53
-9756709.19 5135766.40 180.59
-9756709.09 5135779.74 180.60
-9756696.11 5135779.66 180.66
-9756643.36 5135779.93 179.91
-9756628.03 5135771.30 188.29
-9756603.13 5135771.04 188.78
-9756603.90 5135777.65 190.28
-9756603.81 5135789.70 187.37
-9756577.16 5135766.51 180.50
-9756537.87 5135766.33 180.19
-9756544.37 5135783.88 188.56
-9756498.08 5135766.39 180.09
-9756500.01 5135777.71 189.79
-9756471.69 5135764.85 190.27
-9756470.95 5135782.76 190.49
-9756458.65 5135766.73 180.56
-9756445.33 5135766.67 180.62
-9756417.34 5135779.99 189.19
-9756379.59 5135766.61 180.04
-9756392.75 5135780.01 180.05
-9756396.75 5135778.39 188.63
-9756379.52 5135779.70 180.12
-9756381.82 5135767.20 189.61
-9756351.99 5135768.03 190.77
-9756350.60 5135780.80 190.29
-9756339.89 5135766.47 190.27
-9756326.82 5135766.55 180.66
-9756763.55 5135751.85 200.71
-9756767.08 5135767.55 201.07
-9756738.12 5135755.28 201.25
-9756708.98 5135753.41 180.57
-9756707.79 5135753.21 190.78
-9756696.07 5135766.47 194.75
-9756670.47 5135766.83 194.38
-9756643.49 5135751.45 180.91
-9756590.75 5135753.35 180.45
-9756564.57 5135752.17 179.92
-9756445.66 5135753.63 180.61
-9756432.75 5135753.75 189.48
-9756432.87 5135753.03 180.30
-9756406.27 5135753.35 188.37
-9756353.12 5135753.39 180.25
-9756349.87 5135754.33 190.07
-9756327.09 5135753.26 180.71
-9756734.68 5135736.99 193.27
-9756683.32 5135728.68 183.72
-9756689.36 5135738.38 186.67
-9756677.83 5135733.40 186.83
-9756656.34 5135727.32 180.67
-9756654.71 5135727.72 192.19
-9756643.29 5135740.17 180.71
-9756602.05 5135738.29 190.75
-9756590.82 5135740.24 180.48
-9756564.09 5135739.07 189.74
-9756566.56 5135727.05 180.76
-9756551.07 5135740.65 180.38
-9756537.67 5135739.96 180.33
-9756511.34 5135739.84 190.55
-9756499.19 5135727.31 180.41
-9756471.94 5135739.56 192.34
-9756458.73 5135740.40 180.55
-9756419.31 5135741.28 188.11
-9756392.90 5135740.30 180.30
-9756381.43 5135732.16 190.91
-9756366.39 5135727.10 180.23
-9756353.35 5135740.21 191.14
-9756352.93 5135739.33 180.29
-9756340.52 5135739.77 180.60
-9756737.43 5135713.79 201.28
-9756708.94 5135713.71 180.51
-9756695.99 5135713.98 185.88
-9756643.53 5135713.60 186.78
-9756617.77 5135712.94 180.89
-9756620.79 5135715.02 188.56
-9756604.01 5135713.79 184.18
-9756565.68 5135701.17 180.71
-9756485.15 5135713.96 179.86
-9756498.52 5135697.94 179.68
-9756482.56 5135700.68 191.41
-9756445.30 5135700.60 193.55
-9756434.65 5135699.74 190.77
-9756435.04 5135700.04 180.72
-9756406.15 5135713.76 180.10
-9756404.23 5135698.66 190.21
-9756394.48 5135701.21 182.96
-9756394.20 5135699.35 188.73
-9756379.83 5135699.81 189.20
-9756366.41 5135714.02 180.34
-9756365.09 5135700.29 180.06
-9756761.73 5135687.34 199.57
-9756748.43 5135687.52 199.64
-9756737.10 5135701.11 201.31
-9756682.78 5135700.82 186.03
-9756682.94 5135684.03 188.68
-9756669.23 5135700.52 185.62
-9756647.21 5135687.18 180.70
-9756647.34 5135700.60 180.76
-9756654.69 5135686.41 191.72
-9756618.09 5135701.46 183.69
-9756591.25 5135688.70 187.75
-9756565.55 5135688.19 180.90
-9756552.00 5135687.52 189.31
-9756538.06 5135700.51 188.45
-9756539.30 5135687.41 189.19
-9756527.92 5135688.37 179.69
-9756498.43 5135686.75 189.59
-9756498.89 5135687.37 183.84
-9756484.92 5135687.27 180.10
-9756445.49 5135687.61 180.66
-9756435.06 5135686.88 180.79
-9756405.75 5135687.48 179.99
-9756393.81 5135687.12 188.98
-9756394.17 5135689.36 182.81
-9756367.06 5135686.01 180.05
-9756340.24 5135687.36 179.88
-9756695.77 5135684.16 189.06
-9756767.86 5136239.62 186.82
-9756761.98 5136227.76 186.45
-9756748.11 5136227.69 186.25
-9756735.40 5136227.92 180.41
-9756697.11 5136221.73 180.52
-9756741.76 5136214.30 192.38
-9756721.06 5136219.53 186.74
-9756709.57 5136218.74 188.58
-9756696.11 5136218.98 188.63
-9756695.95 5136214.62 180.48
-9756682.72 5136214.57 180.51
-9756353.41 5136214.81 180.67
-9756340.41 5136214.69 180.68
-9756326.83 5136214.55 180.84
-9756761.88 5136188.00 188.59
-9756760.40 5136197.57 185.04
-9756761.94 5136188.31 180.72
-9756749.56 5136188.18 190.15
-9756735.63 5136188.27 180.42
-9756722.27 5136201.50 180.51
-9756709.28 5136201.40 180.45
-9756670.40 5136200.00 187.64
-9756664.57 5136189.97 190.87
-9756657.18 5136188.89 180.65
-9756660.81 5136201.48 190.88
-9756643.17 5136188.26 193.04
-9756630.47 5136183.49 180.78
-9756632.87 5136188.72 188.56
-9756617.42 5136183.45 180.69
-9756603.83 5136188.35 180.60
-9756590.54 5136188.28 180.62
-9756578.60 5136188.53 180.73
-9756563.70 5136183.67 179.97
-9756366.42 5136188.20 180.02
-9756364.40 5136184.60 189.27
-9756748.99 5136175.02 185.18
-9756758.70 5136178.22 187.08
-9756735.47 5136162.21 180.34
-9756738.39 5136176.27 188.20
-9756710.95 5136175.07 180.65
-9756696.11 5136161.88 193.35
-9756695.99 5136161.88 180.86
-9756656.98 5136174.98 180.76
-9756660.43 5136161.50 189.88
-9756616.88 5136175.09 180.71
-9756590.63 5136175.25 180.63
-9756578.99 5136159.49 190.15
-9756538.24 5136161.95 180.10
-9756524.64 5136161.85 180.38
-9756525.62 5136162.55 189.59
-9756379.49 5136174.97 179.97
-9756366.56 5136175.13 180.20
-9756353.02 5136185.24 189.51
-9756326.72 5136175.59 180.50
-9756762.40 5136145.15 180.60
-9756720.32 5136156.61 189.81
-9756710.59 5136148.74 180.76
-9756656.53 5136148.96 180.72
-9756616.74 5136147.78 180.90
-9756577.48 5136148.82 180.66
-9756564.03 5136148.37 189.17
-9756553.96 5136161.36 187.79
-9756537.73 5136148.59 180.66
-9756533.58 5136158.32 187.08
-9756524.74 5136148.81 180.25
-9756498.24 5136147.76 181.58
-9756498.28 5136149.47 188.49
-9756339.96 5136148.85 189.58
-9756327.86 5136148.85 180.47
-9756761.94 5136122.62 180.42
-9756696.06 5136123.74 192.54
-9756656.37 5136122.32 180.56
-9756656.32 5136135.62 180.60
-9756615.25 5136121.78 193.49
-9756617.66 5136121.69 201.12
-9756603.63 5136122.36 180.66
-9756564.09 5136134.71 189.07
-9756551.24 5136122.24 188.35
-9756537.82 5136135.60 180.47
-9756537.81 5136122.34 180.32
-9756539.03 5136136.73 186.68
-9756524.83 5136135.51 180.16
-9756524.62 5136122.15 180.13
-9756511.38 5136122.42 179.91
-9756525.01 5136122.62 190.04
-9756498.07 5136134.09 187.31
-9756486.91 5136137.63 187.50
-9756500.93 5136122.61 180.21
-9756498.07 5136127.34 186.79
-9756480.18 5136122.44 187.86
-9756469.29 5136117.09 191.96
-9756458.47 5136135.68 180.74
-9756445.51 5136135.34 180.68
-9756445.71 5136122.56 193.27
-9756432.38 5136137.68 192.35
-9756432.68 5136122.99 189.32
-9756419.41 5136123.24 188.92
-9756406.35 5136122.41 180.21
-9756394.07 5136122.29 192.92
-9756343.92 5136137.69 187.57
-9756339.85 5136122.71 192.09
-9756326.92 5136122.68 194.22
-9756749.31 5136109.48 193.65
-9756709.15 5136095.98 191.74
-9756696.14 5136095.94 192.35
-9756695.29 5136095.18 185.91
-9756669.60 5136109.43 193.27
-9756669.72 5136109.38 180.55
-9756671.59 5136095.79 180.53
-9756656.46 5136108.97 180.51
-9756659.71 5136097.21 191.74
-9756641.19 5136121.61 199.90
-9756643.51 5136109.18 180.73
-9756643.56 5136096.14 180.70
-9756616.69 5136108.59 189.55
-9756620.99 5136115.34 200.08
-9756603.46 5136095.96 180.65
-9756590.48 5136095.92 180.60
-9756574.96 5136109.02 193.43
-9756563.94 5136109.01 179.92
-9756537.75 5136095.96 180.04
-9756524.76 5136096.11 180.02
-9756484.60 5136107.44 192.60
-9756472.18 5136109.14 180.68
-9756473.82 5136098.83 192.90
-9756458.67 5136109.31 180.85
-9756445.41 5136108.97 180.73
-9756431.95 5136096.05 191.45
-9756432.74 5136106.93 189.79
-9756432.50 5136096.14 180.53
-9756412.46 5136106.01 188.92
-9756392.89 5136109.27 180.54
-9756391.15 5136108.55 190.60
-9756379.55 5136108.54 180.06
-9756366.67 5136108.77 179.95
-9756352.96 5136093.84 189.00
-9756340.23 5136110.56 190.44
-9756764.72 5136095.13 180.45
-9756761.98 5136084.16 180.15
-9756709.26 5136083.24 192.12
-9756684.95 5136084.35 193.74
-9756659.40 5136082.69 190.95
-9756643.33 5136083.16 180.27
-9756630.07 5136096.16 180.76
-9756616.31 5136084.79 189.29
-9756603.59 5136082.84 193.49
-9756603.65 5136083.02 180.59
-9756590.69 5136083.14 180.60
-9756537.80 5136083.14 179.87
-9756536.36 5136082.53 186.77
-9756525.58 5136082.51 190.94
-9756498.29 5136082.88 182.03
-9756485.10 5136082.74 188.75
-9756476.00 5136082.59 188.54
-9756445.24 5136083.00 180.71
-9756432.63 5136083.13 192.96
-9756419.39 5136083.06 192.76
-9756405.99 5136082.76 180.25
-9756412.46 5136083.89 193.21
-9756392.78 5136082.36 180.26
-9756390.28 5136083.33 191.05
-9756366.49 5136083.09 180.19
-9756373.88 5136089.77 190.51
-9756354.18 5136080.34 180.22
-9756353.03 5136083.06 190.65
-9756340.27 5136079.53 181.93
-9756340.10 5136083.31 190.64
-9756327.00 5136083.14 180.61
-9756748.65 5136065.10 180.70
-9756683.37 5136069.23 179.81
-9756696.07 5136054.87 191.93
-9756671.58 5136069.49 191.76
-9756670.25 5136068.85 180.59
-9756658.96 5136069.78 190.74
-9756656.45 5136056.33 180.35
-9756639.71 5136065.09 186.87
-9756617.06 5136069.67 193.20
-9756618.37 5136068.52 180.02
-9756616.99 5136061.37 186.81
-9756603.63 5136069.57 180.68
-9756594.58 5136073.54 189.92
-9756590.40 5136069.80 180.57
-9756577.49 5136056.71 180.60
-9756564.14 5136069.41 179.77
-9756537.60 5136069.52 179.86
-9756525.55 5136068.98 190.48
-9756525.03 5136054.83 190.28
-9756498.07 5136069.93 179.68
-9756498.48 5136056.64 179.66
-9756495.55 5136058.84 189.06
-9756485.47 5136068.30 189.51
-9756473.35 5136068.14 189.79
-9756445.66 5136056.49 180.65
-9756431.64 5136069.38 193.58
-9756432.75 5136055.47 180.87
-9756433.09 5136055.72 189.67
-9756419.29 5136056.00 189.18
-9756406.05 5136069.70 180.25
-9756390.96 5136067.21 191.96
-9756380.79 5136062.45 186.81
-9756354.00 5136069.69 179.87
-9756326.97 5136069.26 192.17
-9756762.13 5136043.51 180.50
-9756735.91 5136043.46 180.52
-9756722.31 5136043.37 180.46
-9756631.19 5136043.19 180.32
-9756550.45 5136044.92 188.06
-9756553.61 5136028.91 189.42
-9756537.74 5136043.16 180.45
-9756537.81 5136029.85 179.91
-9756524.62 5136043.49 190.34
-9756524.58 5136030.12 179.80
-9756511.60 5136029.97 179.92
-9756499.99 5136043.86 179.69
-9756472.01 5136043.03 180.84
-9756458.54 5136043.57 180.80
-9756445.79 5136043.20 180.69
-9756445.85 5136030.23 180.69
-9756379.77 5136030.16 179.97
-9756366.52 5136030.07 179.93
-9756362.79 5136026.27 191.28
-9756341.55 5136039.31 190.46
-9756326.70 5136043.41 180.52
-9756762.61 5136017.74 180.02
-9756748.41 5136030.10 188.07
-9756748.03 5136013.75 195.51
-9756722.42 5136029.97 180.48
-9756735.47 5136016.77 180.52
-9756682.63 5136029.89 184.80
-9756695.55 5136015.95 180.96
-9756683.04 5136026.30 191.21
-9756669.41 5136027.82 180.85
-9756658.21 5136030.38 189.95
-9756670.53 5136016.90 180.72
-9756643.08 5136030.22 179.95
-9756629.89 5136030.10 191.50
-9756631.28 5136030.20 180.39
-9756628.42 5136036.94 191.74
-9756590.59 5136030.45 180.64
-9756603.93 5136016.92 180.67
-9756590.66 5136016.85 180.66
-9756574.61 5136029.41 189.15
-9756511.40 5136018.23 179.74
-9756498.39 5136016.93 179.72
-9756471.37 5136019.98 191.73
-9756381.41 5136016.94 180.40
-9756388.86 5136017.66 191.44
-9756366.57 5136016.76 180.11
-9756362.79 5136016.83 191.23
-9756339.51 5136016.06 180.36
-9756326.05 5135912.99 190.35
-9756326.96 5135739.95 180.68
-9756327.04 5135779.64 180.68
-9756314.09 5135977.41 180.62
-9756300.56 5135977.26 180.64
-9756313.85 5136003.98 180.52
-9756302.73 5136002.77 180.62
-9756313.88 5135964.34 180.64
-9756299.79 5135964.19 188.40
-9756287.69 5135988.98 181.39
-9756286.79 5136002.09 180.09
-9756274.20 5136001.53 180.03
-9756287.44 5136004.07 188.60
-9756274.78 5136004.01 187.98
-9756260.97 5135977.11 179.95
-9756261.24 5135990.67 180.66
-9756276.46 5135963.79 188.25
-9756247.74 5135977.27 180.64
-9756247.93 5135990.59 180.69
-9756250.54 5135991.18 191.77
-9756234.88 5136003.57 180.19
-9756221.74 5135989.83 180.71
-9756221.77 5135991.80 189.41
-9756234.68 5136003.86 191.27
-9756208.83 5135989.84 180.95
-9756206.60 5135983.77 189.42
-9756208.43 5136003.70 192.53
-9756195.28 5135977.58 180.74
-9756195.07 5136003.91 180.73
-9756196.17 5136003.97 193.26
-9756186.38 5135978.53 190.08
-9756181.93 5135990.81 180.83
-9756182.11 5136003.85 180.84
-9756195.33 5135964.22 180.69
-9756181.76 5135964.43 180.85
-9756169.02 5135977.36 180.89
-9756168.93 5135990.71 180.98
-9756168.28 5135995.48 193.14
-9756168.67 5136003.77 193.26
-9756155.73 5135977.29 181.37
-9756138.89 5135978.87 188.72
-9756142.40 5135990.60 180.65
-9756156.05 5135995.67 193.21
-9756155.66 5136003.67 192.84
-9756153.93 5135999.26 180.87
-9756146.19 5135998.82 180.94
-9756155.81 5135964.29 181.31
-9756143.08 5135996.07 192.27
-9756129.51 5135977.22 180.38
-9756116.22 5135977.42 180.21
-9756116.42 5135990.77 180.28
-9756135.78 5135996.58 191.89
-9756116.11 5136004.09 180.31
-9756143.23 5135964.21 187.31
-9756129.28 5135964.13 180.38
-9756116.06 5135964.39 180.17
-9756103.17 5135990.64 180.43
-9756092.23 5135990.70 180.43
-9756102.97 5136003.72 180.08
-9756102.74 5135964.30 180.40
-9756113.93 5135961.35 188.55
-9756089.14 5135959.97 180.49
-9756076.81 5135983.90 187.89
-9756050.27 5135964.28 180.69
-9756037.03 5135964.24 180.62
-9756049.94 5135977.61 180.67
-9756036.66 5135977.42 189.95
-9756024.50 5135974.06 181.34
-9756031.11 5135965.61 188.29
-9756023.84 5135966.70 189.35
-9756010.19 5135966.91 189.48
-9756022.75 5135984.81 188.19
-9755997.22 5135964.29 180.19
-9755970.82 5135989.75 180.97
-9755976.88 5135989.11 187.14
-9755957.85 5135990.73 181.19
-9755918.39 5135990.41 180.56
-9755891.86 5135977.30 180.82
-9755852.41 5135964.34 181.00
-9755865.86 5135990.73 181.12
-9755812.97 5135964.11 181.00
-9755720.43 5135964.26 185.02
-9755694.47 5135964.10 185.04
-9755695.29 5135964.38 186.76
-9755695.58 5135990.47 186.82
-9755680.51 5135977.66 186.81
-9755667.61 5135964.28 185.06
-9755680.88 5135991.59 186.93
-9755654.96 5135964.48 185.20
-9755641.87 5135978.63 187.01
-9755641.40 5135964.56 186.87
-9755641.86 5135990.66 186.86
-9755615.32 5135977.14 182.27
-9755615.11 5135964.39 182.27
-9755602.29 5135990.39 182.26
-9755588.69 5135990.60 182.20
-9755522.45 5135990.53 181.82
-9755496.41 5135990.39 180.80
-9755483.50 5135990.35 180.93
-9755430.88 5135963.97 193.41
-9756300.66 5135951.25 179.83
-9756301.39 5135936.32 192.59
-9756300.45 5135937.69 179.80
-9756287.49 5135937.65 190.17
-9756263.32 5135937.74 180.02
-9756247.64 5135938.16 180.66
-9756221.14 5135950.70 192.72
-9756207.62 5135949.83 192.22
-9756223.53 5135938.29 183.11
-9756230.02 5135931.39 191.76
-9756195.51 5135950.07 191.16
-9756184.84 5135961.76 187.78
-9756129.37 5135950.83 180.47
-9756116.07 5135951.07 180.12
-9756129.13 5135937.80 180.24
-9756134.67 5135937.10 188.60
-9756116.17 5135937.80 180.08
-9756102.81 5135951.38 184.52
-9756103.15 5135937.95 180.19
-9756114.63 5135932.51 190.48
-9756063.40 5135938.03 180.66
-9756076.35 5135949.03 187.65
-9756063.40 5135949.18 187.89
-9756036.84 5135937.82 180.63
-9756050.34 5135951.23 180.71
-9756011.02 5135951.47 189.88
-9755997.57 5135951.29 180.74
-9756001.76 5135960.14 187.49
-9755971.13 5135937.72 181.18
-9755971.73 5135948.96 181.17
-9755958.03 5135938.29 181.12
-9755918.18 5135934.25 189.54
-9755878.85 5135937.84 180.94
-9755852.54 5135951.32 180.98
-9755761.29 5135939.57 182.95
-9755760.24 5135951.09 180.98
-9755707.79 5135951.14 185.11
-9755680.95 5135951.25 186.72
-9755641.23 5135937.82 185.16
-9755641.12 5135950.94 186.87
-9755588.76 5135937.90 182.12
-9755562.71 5135951.02 182.15
-9755549.43 5135950.71 182.06
-9755522.66 5135937.87 181.72
-9755510.51 5135938.56 189.71
-9755509.95 5135951.08 180.66
-9755484.01 5135937.91 181.17
-9755483.40 5135951.21 180.91
-9755443.93 5135938.26 181.39
-9755443.87 5135951.02 181.04
-9755404.41 5135951.35 181.19
-9755391.21 5135937.97 181.51
-9756301.33 5135923.78 192.50
-9756300.51 5135911.51 180.96
-9756273.89 5135925.36 187.54
-9756263.38 5135911.91 188.90
-9756247.85 5135911.55 180.55
-9756234.55 5135911.49 180.98
-9756221.35 5135924.73 193.15
-9756223.04 5135922.61 181.37
-9756208.36 5135924.62 192.45
-9756208.19 5135924.56 180.84
-9756210.12 5135911.58 187.27
-9756207.67 5135908.20 181.12
-9756186.91 5135925.72 189.68
-9756195.33 5135911.52 180.81
-9756181.81 5135911.72 180.86
-9756158.22 5135924.83 189.53
-9756156.67 5135924.29 180.68
-9756155.66 5135909.74 188.07
-9756142.10 5135910.01 188.07
-9756145.22 5135928.02 189.90
-9756169.69 5135910.12 192.13
-9756116.04 5135911.67 180.22
-9756111.78 5135925.98 187.45
-9756090.00 5135924.56 180.74
-9756090.13 5135925.03 190.36
-9756096.85 5135925.39 188.51
-9756089.84 5135909.13 187.21
-9756062.99 5135912.78 180.60
-9756053.05 5135909.37 191.73
-9756050.26 5135911.84 180.64
-9756036.99 5135911.50 180.65
-9756052.09 5135923.59 190.45
-9756036.99 5135923.45 191.35
-9756026.01 5135908.59 192.88
-9756010.87 5135926.33 191.50
-9756010.86 5135911.23 189.82
-9756023.47 5135936.43 191.56
-9756002.42 5135926.68 190.07
-9756002.71 5135936.29 190.11
-9755999.97 5135911.31 188.74
-9755980.94 5135926.90 192.55
-9755946.27 5135911.51 189.01
-9755945.03 5135923.62 189.35
-9755918.18 5135911.42 180.68
-9755918.57 5135911.43 193.08
-9755918.43 5135924.43 180.72
-9755865.64 5135924.99 181.07
-9755839.18 5135911.54 180.86
-9755786.74 5135911.83 181.37
-9755774.32 5135924.39 183.18
-9755760.47 5135911.52 184.81
-9755733.90 5135924.96 185.09
-9755749.63 5135910.44 193.30
-9755705.58 5135911.59 187.01
-9755680.33 5135911.55 184.98
-9755680.86 5135924.69 185.00
-9755657.28 5135911.30 186.87
-9755640.30 5135925.01 184.97
-9755656.89 5135898.70 187.07
-9755615.36 5135924.71 182.24
-9755588.87 5135911.56 182.13
-9755588.82 5135924.84 182.12
-9755601.92 5135898.63 182.19
-9755588.97 5135898.47 182.10
-9755562.44 5135898.32 182.10
-9755536.38 5135911.56 182.11
-9755523.03 5135924.79 181.49
-9755536.16 5135898.44 182.05
-9755509.89 5135911.46 180.70
-9755510.48 5135924.45 189.89
-9755509.97 5135909.61 190.36
-9755496.52 5135924.69 180.53
-9755457.35 5135911.65 181.14
-9755457.33 5135924.71 181.23
-9755443.76 5135924.93 181.27
-9755430.44 5135924.86 181.27
-9755404.28 5135911.46 181.15
-9755404.36 5135898.62 181.16
-9755391.11 5135898.31 181.18
-9755338.71 5135898.31 181.14
-9756301.12 5135897.57 191.72
-9756287.62 5135897.87 191.31
-9756274.24 5135897.52 190.42
-9756263.89 5135897.65 189.49
-9756247.55 5135898.49 180.55
-9756247.64 5135885.17 180.52
-9756234.44 5135885.11 180.80
-9756194.81 5135898.45 180.81
-9756194.87 5135885.14 180.83
-9756181.85 5135898.40 180.83
-9756181.95 5135885.08 180.83
-9756185.05 5135885.62 190.21
-9756168.86 5135898.29 180.78
-9756129.38 5135898.42 180.49
-9756103.20 5135884.95 180.61
-9756090.30 5135899.66 180.29
-9756087.21 5135897.94 189.65
-9756076.74 5135885.86 189.28
-9756065.77 5135884.68 187.97
-9756073.57 5135898.01 182.76
-9756076.50 5135871.82 189.97
-9756037.16 5135885.41 180.61
-9756048.03 5135895.98 194.22
-9756050.39 5135898.27 180.56
-9756036.99 5135898.35 193.62
-9756037.12 5135898.19 180.65
-9756023.83 5135898.10 180.40
-9756023.75 5135885.09 193.28
-9756050.49 5135871.90 180.59
-9756010.57 5135896.85 180.22
-9756009.10 5135899.99 188.47
-9756011.28 5135880.72 181.01
-9755997.35 5135885.21 180.87
-9755997.03 5135897.13 180.29
-9756010.77 5135873.23 190.74
-9755997.50 5135871.92 180.13
-9755984.58 5135897.35 180.48
-9755971.13 5135885.38 180.93
-9755978.93 5135871.99 190.65
-9755957.40 5135884.64 181.04
-9755956.97 5135896.19 189.35
-9755945.86 5135884.34 192.36
-9755957.65 5135871.94 181.00
-9755945.02 5135872.95 190.15
-9755952.45 5135871.75 190.52
-9755918.28 5135898.04 180.93
-9755905.29 5135898.33 180.82
-9755905.17 5135872.26 180.67
-9755865.81 5135898.29 181.03
-9755852.64 5135871.93 181.02
-9755839.65 5135885.20 181.03
-9755826.03 5135885.08 181.06
-9755839.44 5135872.13 180.95
-9755813.20 5135871.96 180.99
-9755786.87 5135885.17 181.81
-9755774.55 5135885.04 183.07
-9755760.57 5135898.45 184.75
-9755760.47 5135871.79 184.62
-9755747.07 5135885.34 185.03
-9755720.58 5135885.00 184.98
-9755720.97 5135897.60 186.82
-9755707.85 5135885.23 185.03
-9755707.08 5135898.13 184.97
-9755693.84 5135884.99 186.74
-9755694.42 5135871.99 184.98
-9755680.83 5135872.00 185.00
-9755668.08 5135885.19 185.08
-9755654.80 5135885.06 185.24
-9755641.60 5135872.45 187.09
-9755615.67 5135871.99 182.29
-9755602.12 5135871.93 182.25
-9755575.49 5135885.11 182.20
-9755562.25 5135885.35 182.19
-9755575.58 5135871.81 182.16
-9755535.96 5135885.15 182.06
-9755549.34 5135871.87 182.20
-9755541.26 5135874.55 193.76
-9755509.80 5135885.19 190.35
-9755496.77 5135885.33 180.66
-9755470.23 5135884.85 181.24
-9755483.30 5135872.12 181.44
-9755444.03 5135885.02 181.28
-9755430.82 5135871.85 181.18
-9755391.25 5135872.19 181.19
-9755378.01 5135872.17 181.14
-9755351.80 5135871.96 181.23
-9755338.47 5135884.97 181.24
-9755325.30 5135872.14 181.10
-9756301.56 5135871.60 192.87
-9756313.95 5135845.90 180.70
-9756301.01 5135845.71 181.57
-9756300.66 5135858.15 180.96
-9756275.91 5135868.99 187.80
-9756260.96 5135872.24 180.76
-9756276.68 5135846.59 190.98
-9756275.38 5135858.13 188.91
-9756262.23 5135859.24 180.05
-9756248.18 5135872.00 190.36
-9756260.93 5135845.56 180.19
-9756247.91 5135845.82 180.35
-9756248.00 5135858.64 189.99
-9756223.55 5135858.90 181.73
-9756220.20 5135858.85 189.04
-9756208.63 5135870.62 190.17
-9756221.70 5135845.68 180.01
-9756195.37 5135859.10 180.78
-9756196.39 5135843.99 192.79
-9756154.46 5135846.45 189.06
-9756143.89 5135859.00 187.77
-9756129.58 5135872.06 180.70
-9756142.14 5135845.43 188.25
-9756113.37 5135859.89 191.76
-9756089.82 5135858.82 180.74
-9756102.72 5135871.91 180.52
-9756089.77 5135873.57 188.16
-9756111.87 5135848.73 190.81
-9756037.05 5135859.12 180.68
-9756036.86 5135845.66 193.24
-9756048.70 5135844.56 192.34
-9756023.51 5135845.22 180.23
-9756010.65 5135845.57 188.32
-9755997.59 5135845.56 180.02
-9756000.76 5135847.27 187.91
-9755984.02 5135856.64 180.83
-9755970.50 5135859.65 193.38
-9755971.11 5135858.69 180.92
-9755978.44 5135856.36 190.55
-9755984.69 5135845.31 180.65
-9755944.61 5135853.55 193.85
-9755931.76 5135859.06 180.96
-9755933.26 5135845.35 193.14
-9755918.31 5135845.40 180.71
-9755892.06 5135845.51 181.08
-9755839.18 5135858.80 180.85
-9755839.25 5135845.81 180.98
-9755826.38 5135845.70 181.02
-9755787.01 5135858.81 181.71
-9755742.82 5135866.34 186.68
-9755747.34 5135845.37 185.02
-9755704.56 5135858.75 186.71
-9755720.45 5135846.11 184.93
-9755719.67 5135845.42 186.96
-9755694.46 5135858.24 186.79
-9755680.61 5135859.40 187.03
-9755682.43 5135845.68 186.83
-9755668.23 5135859.10 185.07
-9755656.39 5135858.67 186.85
-9755654.95 5135858.72 185.25
-9755668.32 5135845.50 185.07
-9755641.53 5135845.72 185.18
-9755642.96 5135858.72 186.88
-9755642.19 5135846.76 187.11
-9755602.01 5135845.58 182.08
-9755496.54 5135858.96 180.78
-9755510.01 5135845.70 180.77
-9755510.13 5135845.38 191.69
-9755483.45 5135845.56 181.38
-9755470.42 5135845.74 181.25
-9755444.12 5135858.90 181.23
-9755430.55 5135858.90 181.18
-9755377.82 5135858.86 181.13
-9755378.19 5135845.55 181.20
-9755351.64 5135858.65 181.21
-9755338.41 5135845.86 181.19
-9755312.07 5135858.74 181.22
-9756274.89 5135832.92 188.78
-9756274.25 5135832.52 180.14
-9756247.37 5135832.28 191.53
-9756262.56 5135819.42 179.99
-9756218.90 5135834.25 191.10
-9756208.33 5135819.44 188.57
-9756196.15 5135834.35 192.75
-9756168.68 5135832.29 180.81
-9756156.08 5135834.17 190.58
-9756142.47 5135830.98 180.26
-9756129.46 5135832.44 180.00
-9756132.20 5135839.73 187.24
-9756115.99 5135818.98 180.59
-9756089.69 5135832.79 180.49
-9756106.18 5135838.70 187.34
-9756111.31 5135833.80 191.23
-9756111.75 5135819.60 192.35
-9756109.08 5135819.69 192.29
-9756089.51 5135820.85 187.56
-9756089.45 5135830.07 187.60
-9756063.19 5135834.32 188.28
-9756063.48 5135832.60 180.83
-9756076.10 5135832.00 180.69
-9756050.16 5135832.25 180.37
-9756049.97 5135819.15 180.72
-9756023.67 5135833.42 189.99
-9756010.77 5135833.36 189.90
-9756010.71 5135818.98 180.62
-9755973.18 5135832.62 180.75
-9755970.91 5135832.55 189.15
-9755978.19 5135831.53 190.95
-9755984.24 5135819.41 180.85
-9755972.87 5135819.87 181.00
-9755956.80 5135832.31 192.35
-9755957.35 5135815.71 181.01
-9755957.11 5135831.10 184.76
-9755946.23 5135819.51 184.47
-9755946.80 5135830.84 184.82
-9755921.96 5135842.55 190.53
-9755931.81 5135819.23 190.43
-9755918.48 5135819.62 180.71
-9755921.38 5135819.22 188.21
-9755905.19 5135819.26 180.74
-9755826.07 5135832.51 181.03
-9755813.09 5135832.26 181.01
-9755799.44 5135832.53 180.89
-9755812.71 5135819.29 181.01
-9755774.01 5135818.95 183.51
-9755746.82 5135832.66 185.06
-9755748.51 5135835.24 201.06
-9755733.89 5135832.63 185.00
-9755737.84 5135836.71 186.77
-9755742.41 5135820.17 186.75
-9755708.34 5135819.47 184.97
-9755681.81 5135820.12 186.83
-9755671.91 5135832.05 186.71
-9755655.24 5135819.36 185.13
-9755602.06 5135832.53 182.03
-9755562.57 5135832.63 181.93
-9755536.02 5135832.51 181.70
-9755523.06 5135832.71 181.66
-9755523.36 5135819.12 181.62
-9755496.55 5135819.52 180.72
-9755470.35 5135819.38 181.15
-9755443.77 5135819.21 181.20
-9755404.50 5135832.35 181.16
-9755417.59 5135819.39 181.13
-9755391.36 5135819.19 181.18
-9755351.53 5135819.02 181.20
-9755338.55 5135819.24 181.11
-9756300.71 5135792.89 179.82
-9756289.19 5135792.64 179.70
-9756274.14 5135792.97 179.91
-9756276.28 5135792.74 190.57
-9756261.09 5135805.97 179.97
-9756247.97 5135806.32 190.02
-9756221.64 5135806.31 180.09
-9756208.02 5135803.98 180.72
-9756221.62 5135792.95 179.86
-9756207.97 5135793.39 189.32
-9756194.85 5135805.65 190.13
-9756181.78 5135806.03 180.82
-9756196.98 5135793.76 189.98
-9756155.39 5135792.85 179.94
-9756129.04 5135806.04 180.20
-9756142.15 5135793.56 188.92
-9756129.48 5135793.77 188.76
-9756130.49 5135790.78 180.21
-9756116.14 5135793.22 180.68
-9756103.17 5135790.19 180.87
-9756089.49 5135811.37 186.69
-9756076.38 5135793.70 190.16
-9756077.57 5135791.17 181.44
-9756063.37 5135806.17 188.63
-9756050.64 5135806.18 180.73
-9756038.29 5135794.32 187.25
-9756023.90 5135804.04 189.84
-9756024.10 5135792.88 180.97
-9756023.59 5135794.04 189.01
-9756009.75 5135803.09 190.84
-9755971.38 5135805.57 180.80
-9755945.98 5135806.09 181.50
-9755918.71 5135792.97 180.80
-9755892.27 5135806.11 180.96
-9755878.78 5135806.04 180.93
-9755900.44 5135803.05 190.76
-9755905.06 5135792.88 180.77
-9755900.43 5135792.22 190.43
-9755879.10 5135793.01 180.97
-9755885.34 5135797.01 187.05
-9755852.46 5135805.97 181.03
-9755813.00 5135805.94 181.03
-9755813.07 5135793.28 181.01
-9755786.48 5135806.09 181.52
-9755737.54 5135810.50 186.71
-9755707.90 5135802.67 186.73
-9755681.76 5135806.85 187.03
-9755693.78 5135792.90 186.73
-9755693.28 5135776.88 186.69
-9755681.40 5135793.21 185.07
-9755681.30 5135792.33 186.79
-9755681.11 5135780.17 187.04
-9755655.30 5135806.00 186.96
-9755671.67 5135793.57 186.75
-9755640.56 5135794.72 187.45
-9755615.33 5135779.93 182.05
-9755601.78 5135779.54 181.91
-9755562.39 5135805.96 181.87
-9755562.18 5135792.98 181.80
-9755523.24 5135806.05 181.56
-9755497.28 5135812.11 187.50
-9755509.95 5135793.02 180.91
-9755509.85 5135793.36 190.86
-9755496.54 5135779.87 180.81
-9755456.97 5135779.95 181.10
-9755443.95 5135793.15 181.19
-9755443.97 5135779.89 181.15
-9755417.34 5135806.38 181.22
-9755430.67 5135793.07 181.18
-9755377.85 5135792.82 181.10
-9755349.40 5135805.90 192.64
-9755364.73 5135779.68 181.34
-9755338.58 5135806.18 181.21
-9755338.42 5135792.90 181.11
-9755325.49 5135779.78 181.31
-9756300.89 5135766.83 180.74
-9756274.38 5135766.78 188.54
-9756221.46 5135779.96 180.09
-9756182.05 5135766.35 180.85
-9756155.49 5135779.81 192.62
-9756142.68 5135779.12 192.43
-9756116.19 5135779.54 180.71
-9756143.49 5135769.50 188.08
-9756142.55 5135779.07 180.54
-9756135.20 5135764.62 186.69
-9756103.01 5135779.76 180.84
-9756108.37 5135788.74 192.10
-9756114.94 5135784.32 186.92
-9756111.43 5135772.61 191.07
-9756076.79 5135780.48 189.53
-9756063.50 5135766.24 181.05
-9756064.45 5135768.79 188.72
-9756050.18 5135779.50 180.60
-9756049.95 5135766.52 180.61
-9756037.27 5135766.42 180.69
-9756036.77 5135753.34 180.64
-9756010.62 5135776.51 181.21
-9756023.25 5135754.01 180.85
-9755971.07 5135779.62 181.05
-9755975.42 5135780.06 192.45
-9755997.62 5135753.91 189.82
-9755988.12 5135767.40 181.15
-9755983.92 5135750.56 181.14
-9755971.32 5135753.56 181.07
-9755977.76 5135755.67 188.03
-9755957.77 5135753.18 181.11
-9755944.50 5135766.71 187.80
-9755931.38 5135778.76 187.94
-9755931.70 5135751.51 181.06
-9755918.56 5135766.66 193.19
-9755919.03 5135753.63 191.15
-9755905.13 5135779.56 180.77
-9755892.18 5135779.77 181.03
-9755900.48 5135781.58 190.05
-9755891.95 5135766.40 181.05
-9755894.82 5135753.63 189.11
-9755878.76 5135766.66 180.85
-9755865.88 5135779.87 180.94
-9755852.40 5135779.53 181.00
-9755865.77 5135766.66 180.89
-9755865.53 5135753.54 180.94
-9755852.40 5135766.50 181.02
-9755826.22 5135766.73 180.99
-9755812.86 5135779.97 181.01
-9755813.22 5135766.57 181.03
-9755786.78 5135753.38 181.39
-9755773.53 5135753.46 184.49
-9755760.50 5135766.70 184.85
-9755760.57 5135753.37 184.80
-9755747.15 5135779.89 185.10
-9755736.97 5135779.06 186.80
-9755749.17 5135752.43 197.29
-9755733.97 5135766.53 184.93
-9755736.33 5135753.42 186.81
-9755694.25 5135752.59 186.89
-9755681.79 5135766.79 185.04
-9755671.34 5135775.92 186.72
-9755628.41 5135766.79 185.14
-9755575.59 5135766.64 181.64
-9755562.64 5135766.62 181.63
-9755536.07 5135766.78 181.40
-9755509.55 5135766.64 180.91
-9755509.32 5135754.06 191.02
-9755483.62 5135766.41 181.30
-9755443.82 5135766.53 181.19
-9755430.77 5135766.50 181.16
-9755417.54 5135766.34 181.32
-9755417.39 5135753.31 181.49
-9755399.34 5135775.51 186.67
-9755378.03 5135766.46 181.45
-9755375.04 5135780.38 186.67
-9755365.17 5135753.61 181.57
-9755351.54 5135766.29 181.46
-9755338.32 5135753.48 181.63
-9755312.03 5135766.66 181.48
-9755312.10 5135753.33 181.64
-9756300.42 5135740.35 180.66
-9756274.25 5135753.13 189.43
-9756274.29 5135726.92 180.60
-9756287.18 5135740.39 180.63
-9756274.25 5135740.45 190.58
-9756274.16 5135740.19 180.58
-9756260.81 5135753.24 180.59
-9756247.58 5135753.04 189.58
-9756231.43 5135753.85 188.56
-9756207.93 5135752.07 190.06
-9756220.62 5135751.82 180.67
-9756208.30 5135727.08 187.99
-9756208.65 5135752.03 180.89
-9756195.29 5135753.62 179.82
-9756184.20 5135753.40 188.40
-9756168.80 5135753.53 180.78
-9756169.03 5135740.20 180.81
-9756155.04 5135737.20 181.05
-9756142.53 5135737.36 181.11
-9756116.26 5135727.15 181.11
-9756087.97 5135725.96 190.28
-9756106.29 5135741.76 180.90
-9756103.15 5135752.43 189.74
-9756063.17 5135727.14 181.11
-9756082.77 5135740.67 189.73
-9756050.12 5135727.32 180.52
-9756036.81 5135740.38 180.62
-9756010.82 5135726.87 180.71
-9756023.98 5135741.91 189.44
-9756010.47 5135739.95 181.17
-9755984.37 5135727.28 180.92
-9755974.16 5135739.43 192.72
-9755959.03 5135740.61 189.20
-9755944.83 5135740.40 181.10
-9755931.37 5135726.98 181.11
-9755918.33 5135740.28 180.76
-9755918.49 5135726.43 189.63
-9755905.45 5135726.86 180.80
-9755905.20 5135738.96 190.78
-9755892.09 5135740.12 181.02
-9755878.81 5135740.00 180.98
-9755826.14 5135727.02 180.86
-9755839.32 5135740.15 180.93
-9755813.10 5135726.89 181.02
-9755799.80 5135740.19 180.99
-9755773.06 5135726.95 188.64
-9755768.33 5135738.63 187.96
-9755766.23 5135736.07 187.55
-9755747.08 5135740.22 185.05
-9755735.94 5135727.40 186.86
-9755733.89 5135726.84 184.95
-9755721.17 5135742.57 187.28
-9755705.33 5135727.72 187.28
-9755694.36 5135740.26 185.01
-9755681.90 5135739.89 186.89
-9755670.34 5135727.34 186.78
-9755670.50 5135741.59 186.86
-9755670.91 5135753.87 186.67
-9755641.91 5135726.32 184.90
-9755654.51 5135740.26 187.13
-9755641.82 5135740.24 185.03
-9755639.84 5135725.83 187.26
-9755619.78 5135727.57 187.68
-9755602.11 5135726.88 181.32
-9755562.89 5135726.88 181.37
-9755581.76 5135740.62 188.54
-9755549.21 5135726.89 181.33
-9755509.83 5135727.28 180.98
-9755508.94 5135726.71 190.63
-9755509.74 5135739.98 180.99
-9755496.81 5135726.87 180.79
-9755496.77 5135740.55 180.80
-9755483.57 5135727.15 181.01
-9755483.75 5135740.44 181.01
-9755443.68 5135740.18 181.47
-9755444.72 5135727.71 181.52
-9755438.22 5135736.31 202.84
-9755429.81 5135729.33 205.51
-9755418.91 5135725.41 206.06
-9755404.44 5135740.19 181.68
-9755390.93 5135740.15 181.68
-9755378.10 5135727.03 193.74
-9755381.09 5135740.39 181.67
-9755388.53 5135724.39 204.65
-9755338.52 5135740.06 181.89
-9755328.20 5135747.12 195.29
-9756300.58 5135714.01 180.67
-9756287.30 5135713.96 180.53
-9756261.99 5135713.86 186.29
-9756221.68 5135701.01 184.84
-9756221.69 5135714.03 184.86
-9756229.00 5135713.97 186.63
-9756207.58 5135699.12 188.98
-9756206.94 5135715.72 188.99
-9756219.55 5135713.53 186.98
-9756168.87 5135700.53 180.73
-9756155.51 5135713.83 180.12
-9756141.74 5135725.98 188.82
-9756129.30 5135713.97 180.66
-9756133.89 5135716.54 189.13
-9756102.94 5135700.64 189.19
-9756106.49 5135701.12 180.89
-9756106.94 5135714.76 181.04
-9756102.85 5135713.69 189.18
-9756050.00 5135713.84 180.70
-9756037.89 5135726.61 187.41
-9756010.60 5135700.86 180.68
-9756010.45 5135713.82 180.70
-9755971.00 5135713.94 181.10
-9755974.23 5135716.95 192.43
-9755944.76 5135700.74 181.16
-9755931.54 5135700.70 181.12
-9755931.45 5135713.90 181.11
-9755931.70 5135700.58 188.57
-9755910.95 5135724.16 187.31
-9755892.03 5135700.68 181.01
-9755852.75 5135713.86 180.94
-9755865.39 5135697.27 188.11
-9755839.47 5135714.04 180.90
-9755799.99 5135713.81 180.89
-9755801.91 5135699.10 190.28
-9755790.49 5135699.28 188.91
-9755773.53 5135700.47 184.98
-9755760.33 5135700.60 185.06
-9755760.45 5135713.97 184.96
-9755766.49 5135719.69 186.98
-9755746.72 5135700.56 185.17
-9755735.76 5135702.88 186.76
-9755707.51 5135700.61 184.96
-9755695.37 5135701.06 186.85
-9755695.46 5135713.34 186.79
-9755681.13 5135701.39 186.78
-9755681.30 5135713.71 186.79
-9755667.97 5135713.74 185.08
-9755670.34 5135714.32 186.73
-9755654.75 5135700.60 185.03
-9755641.73 5135700.83 184.94
-9755628.19 5135700.47 185.10
-9755621.44 5135699.71 189.12
-9755602.25 5135700.90 180.65
-9755598.04 5135702.64 188.07
-9755575.44 5135700.42 181.23
-9755562.59 5135700.55 181.32
-9755575.91 5135714.01 181.35
-9755549.10 5135700.28 181.29
-9755536.18 5135701.14 181.24
-9755483.35 5135713.75 181.04
-9755468.17 5135713.52 190.12
-9755444.51 5135713.37 194.75
-9755442.38 5135711.51 205.58
-9755434.72 5135708.13 194.34
-9755429.12 5135704.03 194.12
-9755436.22 5135708.56 183.51
-9755404.67 5135699.39 181.08
-9755405.18 5135712.04 199.75
-9755404.54 5135700.47 192.96
-9755415.75 5135713.69 199.34
-9755377.64 5135721.94 207.45
-9755351.48 5135701.50 188.68
-9755333.81 5135710.52 186.44
-9755312.18 5135713.96 193.94
-9755312.19 5135687.58 181.24
-9756261.64 5135683.05 180.80
-9756247.74 5135683.30 180.84
-9756233.57 5135683.61 180.97
-9756218.21 5135689.89 187.22
-9756195.44 5135683.43 180.83
-9756183.47 5135684.49 190.15
-9756142.07 5135684.67 180.89
-9756105.20 5135688.89 181.02
-9756076.40 5135687.30 180.95
-9756053.15 5135687.00 188.17
-9756036.85 5135687.64 180.78
-9755984.12 5135687.32 180.95
-9755971.36 5135687.57 180.79
-9755957.85 5135687.21 180.87
-9755931.52 5135685.13 189.15
-9755897.31 5135690.32 190.84
-9755878.83 5135687.31 180.84
-9755865.54 5135687.51 180.83
-9755853.38 5135684.90 191.25
-9755839.63 5135687.38 180.82
-9755825.82 5135687.61 180.77
-9755813.09 5135687.52 180.65
-9755799.80 5135687.21 180.42
-9755776.50 5135696.79 186.87
-9755764.63 5135690.17 186.82
-9755720.56 5135687.07 184.95
-9755720.70 5135689.80 187.12
-9755707.61 5135687.29 185.01
-9755695.13 5135687.06 186.74
-9755669.91 5135688.05 186.74
-9755654.89 5135686.99 185.09
-9755589.04 5135687.52 180.31
-9755564.56 5135687.53 191.99
-9755482.68 5135687.19 191.89
-9755443.72 5135687.49 180.99
-9755417.76 5135687.62 180.99
-9756299.87 5136236.92 192.16
-9756254.31 5136241.32 191.11
-9756221.52 5136240.91 194.40
-9756208.26 5136241.07 194.58
-9756195.44 5136241.09 180.74
-9756181.92 5136241.07 180.74
-9756170.54 5136240.92 180.91
-9756037.14 5136241.07 180.79
-9756023.22 5136238.21 180.92
-9756300.65 5136214.79 180.69
-9756260.98 5136227.52 180.78
-9756232.30 5136228.97 194.00
-9756247.82 5136214.44 180.74
-9756253.99 5136215.26 189.98
-9756221.42 5136227.86 180.80
-9756207.91 5136227.89 193.60
-9756208.47 5136227.83 180.86
-9756200.09 5136227.91 192.56
-9756182.01 5136227.96 180.74
-9756143.92 5136227.37 189.38
-9756151.09 5136225.05 189.09
-9756142.51 5136227.75 180.81
-9756142.54 5136214.72 180.73
-9756145.86 5136221.01 187.84
-9756128.91 5136227.99 180.81
-9756116.22 5136227.93 180.80
-9756102.95 5136227.82 180.80
-9756119.02 5136219.11 187.31
-9756064.03 5136227.57 191.36
-9756063.23 5136214.89 180.76
-9756066.33 5136221.15 188.30
-9756050.17 5136227.84 180.79
-9756037.00 5136227.75 190.33
-9756036.69 5136214.69 180.78
-9756023.80 5136227.27 189.84
-9756010.45 5136227.16 190.16
-9756012.18 5136238.78 181.05
-9756023.74 5136214.37 180.74
-9756010.44 5136214.60 180.71
-9755998.34 5136227.32 192.00
-9755985.05 5136227.21 186.67
-9755971.14 5136227.60 180.77
-9755957.90 5136227.88 180.70
-9755962.96 5136227.90 187.18
-9755944.68 5136214.82 180.67
-9755931.44 5136214.73 180.67
-9755905.48 5136214.55 180.73
-9756313.83 5136201.46 193.41
-9756285.93 5136199.81 191.38
-9756256.71 5136202.68 190.53
-9756233.97 5136210.82 190.27
-9756143.28 5136201.30 193.63
-9756116.34 5136201.55 180.75
-9756103.27 5136200.96 190.45
-9756102.53 5136211.83 187.89
-9756088.20 5136202.93 192.06
-9756078.44 5136202.70 189.58
-9756046.53 5136208.74 187.45
-9756034.09 5136210.58 188.42
-9756021.15 5136201.27 186.97
-9756022.98 5136208.96 187.80
-9755997.56 5136201.48 180.85
-9755984.31 5136201.38 180.80
-9755969.62 5136201.77 189.69
-9755943.99 5136201.51 191.30
-9755931.62 5136201.52 190.31
-9755905.00 5136201.52 180.88
-9755880.98 5136200.65 191.12
-9755878.72 5136201.69 180.94
-9755839.30 5136188.45 180.92
-9756314.00 5136188.52 180.52
-9756300.96 5136188.40 189.97
-9756249.44 5136187.52 180.60
-9756208.46 5136188.16 180.84
-9756194.95 5136175.34 180.66
-9756194.96 5136188.12 180.68
-9756181.97 5136175.31 180.77
-9756168.83 5136190.89 193.39
-9756155.91 5136190.95 194.11
-9756142.38 5136188.43 180.27
-9756130.52 5136185.15 203.02
-9756090.21 5136175.59 180.21
-9756038.80 5136185.13 191.80
-9756021.13 5136172.52 187.99
-9756009.85 5136185.12 181.91
-9756010.69 5136188.43 189.26
-9755997.98 5136174.07 181.08
-9755984.18 5136175.04 181.04
-9755970.92 5136192.44 188.59
-9755958.03 5136174.12 189.30
-9755944.75 5136174.12 189.35
-9755931.37 5136175.06 180.45
-9755933.45 5136177.59 188.71
-9755931.91 5136188.39 180.89
-9755918.42 5136175.27 180.66
-9755905.41 5136175.17 180.80
-9755852.70 5136174.91 180.75
-9755839.14 5136175.08 180.84
-9756313.82 5136161.75 180.35
-9756287.43 5136144.85 187.96
-9756274.15 5136152.68 187.48
-9756272.45 5136164.47 188.27
-9756261.12 5136160.92 179.79
-9756262.30 5136164.38 189.50
-9756234.90 5136148.66 180.09
-9756234.89 5136160.50 180.32
-9756235.80 5136164.55 190.45
-9756232.01 5136149.91 188.59
-9756221.70 5136150.32 190.04
-9756181.80 5136161.95 180.76
-9756142.56 5136162.04 180.79
-9756114.69 5136149.80 192.41
-9756103.18 5136161.70 180.21
-9756050.40 5136148.82 180.69
-9756039.00 5136149.06 191.92
-9756037.03 5136161.73 180.73
-9756023.88 5136147.87 189.41
-9755984.32 5136148.95 181.23
-9755984.55 5136162.08 192.91
-9755959.78 5136144.93 181.23
-9755964.56 5136154.46 187.73
-9755931.82 5136148.69 180.38
-9755931.77 5136161.68 181.03
-9755934.27 5136154.61 187.71
-9755918.57 5136148.58 180.72
-9755918.46 5136161.91 180.68
-9755905.29 5136148.83 180.77
-9755878.82 5136148.66 180.98
-9755891.93 5136162.06 181.13
-9755878.63 5136161.75 180.99
-9755865.79 5136148.88 181.03
-9755865.73 5136162.17 180.94
-9755852.44 5136162.13 180.81
-9755760.25 5136148.87 180.83
-9756312.60 5136134.01 192.44
-9756107.41 5136146.11 186.67
-9756115.86 5136135.56 180.88
-9756114.56 5136137.02 188.79
-9756102.96 5136135.73 180.10
-9756053.97 5136147.71 191.12
-9756010.26 5136133.64 181.12
-9755971.21 5136134.57 181.24
-9755959.06 5136135.64 180.08
-9755944.52 5136122.03 188.57
-9755891.87 5136122.43 181.05
-9755878.56 5136135.38 180.96
-9755865.86 5136135.61 181.03
-9755839.39 5136122.34 180.91
-9755812.88 5136122.20 180.99
-9755773.59 5136135.59 181.43
-9755760.61 5136135.50 182.08
-9755760.43 5136122.75 182.03
-9755694.41 5136122.25 185.16
-9756312.96 5136122.50 192.40
-9756313.53 5136122.18 180.55
-9756287.34 5136119.07 191.59
-9756287.40 5136110.21 191.98
-9756247.84 5136122.52 180.42
-9756248.20 5136108.82 180.45
-9756221.31 5136122.47 188.45
-9756219.82 5136108.77 189.95
-9756181.97 5136122.29 180.83
-9756168.76 5136122.51 180.90
-9756155.53 5136109.38 181.05
-9756102.79 5136109.35 180.27
-9756023.79 5136123.48 190.70
-9756011.17 5136108.80 188.98
-9755945.61 5136111.71 187.84
-9755905.23 5136109.42 180.78
-9755825.91 5136109.00 181.06
-9755786.45 5136109.03 181.06
-9755765.92 5136108.09 188.21
-9755767.02 5136107.75 188.07
-9755747.23 5136108.94 184.31
-9755720.69 5136109.66 184.70
-9755707.46 5136108.97 185.16
-9755682.79 5136109.56 186.80
-9755654.06 5136109.28 184.88
-9756312.80 5136095.56 192.33
-9756314.30 5136083.02 180.70
-9756302.81 5136083.05 180.17
-9756287.53 5136096.90 190.48
-9756260.74 5136080.94 180.46
-9756247.96 5136096.03 180.57
-9756234.65 5136095.92 180.72
-9756247.97 5136082.97 180.52
-9756234.73 5136083.17 180.83
-9756208.17 5136096.00 188.45
-9756167.10 5136094.09 190.67
-9756156.58 5136094.54 181.19
-9756141.82 5136095.93 188.60
-9756076.73 5136084.19 189.97
-9756077.58 5136090.27 188.21
-9756063.41 5136082.81 180.68
-9755997.66 5136082.71 181.18
-9755984.09 5136082.92 181.12
-9755971.17 5136082.84 181.23
-9755918.59 5136096.26 180.63
-9755912.44 5136084.71 186.79
-9755852.57 5136095.87 180.99
-9755865.55 5136082.91 181.07
-9755839.35 5136082.74 180.85
-9755826.05 5136082.65 181.09
-9755760.25 5136095.85 180.92
-9755734.13 5136082.80 184.80
-9755720.81 5136096.06 184.92
-9755707.20 5136095.94 185.13
-9755693.95 5136095.88 185.13
-9755694.02 5136082.88 186.82
-9755682.70 5136096.12 186.81
-9755682.49 5136083.81 186.98
-9755654.15 5136096.29 184.93
-9755654.24 5136082.90 184.97
-9755643.89 5136098.51 187.11
-9755641.90 5136083.12 185.05
-9755643.00 5136083.02 186.85
-9755628.20 5136096.22 182.61
-9756313.82 5136069.71 180.63
-9756301.19 5136069.82 194.40
-9756287.67 5136071.76 190.73
-9756274.26 5136069.58 179.93
-9756252.04 5136069.91 191.21
-9756234.74 5136070.15 180.74
-9756208.34 5136071.19 187.97
-9756195.29 5136069.72 180.71
-9756169.05 5136069.80 180.81
-9756076.34 5136056.59 191.42
-9756063.29 5136056.07 180.79
-9756010.79 5136068.47 188.52
-9755958.04 5136056.46 181.15
-9755918.43 5136069.55 180.62
-9755905.20 5136056.40 180.85
-9755879.00 5136056.55 181.09
-9755865.45 5136056.49 181.08
-9755852.43 5136056.80 180.98
-9755812.57 5136069.76 181.08
-9755748.72 5136057.20 183.85
-9755764.61 5136072.43 192.50
-9755734.19 5136069.75 184.98
-9755733.69 5136056.45 185.16
-9755720.94 5136069.72 185.15
-9755720.69 5136079.76 201.24
-9755707.48 5136056.55 185.20
-9755703.22 5136070.22 186.92
-9755694.07 5136070.05 186.95
-9755668.17 5136069.70 185.00
-9755642.58 5136056.39 186.81
-9755641.60 5136070.11 185.05
-9755615.49 5136056.47 182.40
-9755602.20 5136056.37 182.48
-9756313.05 5136043.28 192.48
-9756313.70 5136043.36 180.60
-9756301.33 5136043.17 180.88
-9756313.56 5136056.41 180.59
-9756302.75 5136055.82 180.05
-9756287.81 5136043.12 188.73
-9756288.03 5136055.01 188.06
-9756290.14 5136039.98 180.77
-9756274.83 5136043.08 188.50
-9756276.28 5136055.27 188.01
-9756274.36 5136056.21 180.25
-9756263.36 5136042.79 180.89
-9756259.26 5136040.17 190.84
-9756261.34 5136059.41 180.03
-9756247.65 5136043.29 180.51
-9756251.80 5136042.77 190.44
-9756248.11 5136056.62 180.49
-9756251.72 5136055.89 190.44
-9756228.70 5136043.08 187.58
-9756222.27 5136055.96 190.52
-9756222.13 5136059.88 180.84
-9756208.50 5136044.46 188.42
-9756195.09 5136056.34 180.77
-9756182.10 5136056.83 180.83
-9756155.38 5136056.61 194.60
-9756129.40 5136043.26 179.99
-9756050.13 5136043.62 180.74
-9755970.56 5136041.46 181.18
-9755959.51 5136042.61 181.21
-9755957.28 5136043.94 188.84
-9755944.93 5136044.77 189.12
-9755931.57 5136043.53 181.18
-9755891.61 5136041.42 187.44
-9755852.25 5136043.37 180.95
-9755799.56 5136043.41 180.92
-9755773.24 5136043.57 181.00
-9755702.50 5136043.01 187.16
-9755694.23 5136043.50 185.13
-9755641.51 5136043.45 185.07
-9755615.55 5136043.19 182.39
-9755602.29 5136043.33 182.43
-9755589.01 5136043.61 182.37
-9755536.02 5136030.28 182.04
-9755522.60 5136043.27 181.72
-9755522.96 5136030.19 181.73
-9755509.73 5136030.21 180.62
-9755511.06 5136030.08 190.67
-9756313.84 5136029.98 193.27
-9756300.60 5136030.26 193.32
-9756301.40 5136017.52 180.83
-9756287.69 5136015.56 189.40
-9756287.31 5136030.24 192.21
-9756273.77 5136016.08 189.39
-9756274.36 5136030.18 191.76
-9756261.34 5136030.39 191.16
-9756262.69 5136022.78 191.26
-9756264.25 5136017.04 181.02
-9756248.12 5136016.64 180.57
-9756234.77 5136030.18 181.06
-9756221.64 5136016.46 188.25
-9756228.20 5136029.13 188.67
-9756232.99 5136011.68 191.53
-9756194.92 5136029.97 180.76
-9756195.04 5136017.25 180.76
-9756182.04 5136016.86 180.83
-9756181.96 5136029.90 180.84
-9756185.61 5136031.54 190.02
-9756168.69 5136029.81 180.37
-9756089.32 5136028.53 179.83
-9756076.43 5136028.33 180.76
-9756076.47 5136031.80 189.81
-9756063.46 5136030.46 180.74
-9756027.28 5136029.76 182.28
-9756010.69 5136030.52 189.60
-9755958.89 5136031.18 189.06
-9755865.64 5136030.10 181.09
-9755826.21 5136017.17 181.01
-9755826.12 5136029.88 181.04
-9755812.99 5136016.83 181.01
-9755786.54 5136030.19 180.96
-9755773.13 5136016.86 180.97
-9755760.36 5136030.45 180.89
-9755707.12 5136017.16 185.14
-9755715.29 5136026.93 187.23
-9755693.64 5136030.37 185.00
-9755692.59 5136028.61 186.67
-9755702.38 5136030.05 186.89
-9755641.91 5136030.27 186.85
-9755641.79 5136016.96 186.98
-9755628.01 5136031.00 182.54
-9755615.05 5136030.09 182.38
-9755562.59 5136016.82 182.31
-9755536.37 5136016.94 181.98
-9755522.83 5136016.80 181.78
-9756300.75 5136003.82 188.95
-9756186.13 5136002.68 187.99
-9756104.92 5136016.69 187.14
-9756104.88 5136006.46 187.07
-9756043.91 5135998.85 187.42
