-9756247.88 5135199.70 180.64
-9756237.01 5135205.19 190.02
-9756234.58 5135212.95 180.55
-9756208.35 5135213.14 181.08
-9756208.24 5135207.02 188.94
-9756168.52 5135199.83 180.70
-9756155.74 5135200.82 190.64
-9756116.40 5135213.05 180.66
-9756103.12 5135199.79 180.65
-9756089.35 5135197.96 180.78
-9756122.37 5135196.32 186.93
-9756037.07 5135199.99 193.63
-9756023.83 5135199.90 180.59
-9756023.91 5135213.00 180.74
-9756011.70 5135212.76 181.04
-9755984.33 5135199.95 180.94
-9755997.66 5135201.17 188.14
-9755984.20 5135213.32 180.87
-9755990.58 5135212.64 186.93
-9755958.05 5135199.82 180.78
-9755944.78 5135199.75 180.68
-9755918.73 5135211.60 180.70
-9755931.21 5135183.67 188.60
-9755921.65 5135183.15 191.10
-9755905.23 5135213.19 193.71
-9755905.40 5135186.83 180.43
-9755892.15 5135186.66 180.40
-9755877.88 5135212.62 188.03
-9755853.36 5135214.83 188.06
-9755879.13 5135186.63 180.88
-9755865.70 5135187.84 189.21
-9755865.66 5135185.59 181.04
-9755839.33 5135199.75 181.03
-9755839.94 5135212.76 180.98
-9755826.10 5135186.93 180.62
-9755801.38 5135198.21 189.85
-9755815.41 5135210.26 181.22
-9755813.11 5135212.95 191.88
-9755801.81 5135213.16 191.85
-9755786.86 5135199.70 180.87
-9755773.27 5135213.30 191.92
-9755773.17 5135185.83 190.98
-9755783.22 5135186.18 189.28
-9755765.19 5135199.38 189.35
-9755747.00 5135199.73 181.31
-9755747.24 5135213.05 181.44
-9755721.72 5135198.57 183.25
-9755724.67 5135203.51 187.07
-9755730.49 5135215.51 187.32
-9755707.75 5135213.52 185.80
-9755707.58 5135186.61 185.73
-9755715.07 5135192.75 187.10
-9755681.03 5135200.01 185.61
-9755680.94 5135212.81 185.57
-9755694.38 5135186.73 185.94
-9755680.78 5135187.03 185.65
-9755675.19 5135199.58 188.23
-9755675.48 5135213.57 189.75
-9755660.07 5135200.48 186.95
-9755659.87 5135187.07 187.09
-9755641.80 5135199.82 185.72
-9755644.15 5135199.11 187.32
-9755641.44 5135212.88 185.69
-9755644.50 5135212.24 187.24
-9755627.57 5135212.96 187.08
-9755644.25 5135186.22 187.27
-9755588.90 5135213.10 181.14
-9755575.67 5135212.98 180.97
-9755549.39 5135213.11 181.08
-9755536.02 5135186.63 181.07
-9755522.81 5135186.67 181.04
-9755496.69 5135199.77 181.16
-9755483.41 5135200.03 181.06
-9755417.93 5135192.77 192.69
-9755378.40 5135186.31 181.14
-9755378.26 5135200.01 181.34
-9755351.67 5135199.83 181.01
-9755341.02 5135185.90 189.16
-9756300.28 5135173.63 192.24
-9756300.86 5135160.60 180.49
-9756239.19 5135175.05 186.94
-9756238.41 5135189.19 188.75
-9756241.84 5135187.50 187.92
-9756221.35 5135160.17 180.77
-9756208.63 5135160.39 180.59
-9756191.10 5135189.42 190.70
-9756195.04 5135160.34 180.74
-9756181.49 5135169.32 193.03
-9756190.93 5135160.42 193.44
-9756168.97 5135173.53 180.69
-9756142.40 5135186.55 180.67
-9756142.18 5135188.64 188.33
-9756153.13 5135185.01 190.63
-9756129.15 5135186.52 180.79
-9756142.60 5135160.58 192.65
-9756103.00 5135173.72 180.66
-9756089.90 5135173.33 180.71
-9756089.68 5135186.63 180.77
-9756117.84 5135160.71 187.37
-9756076.92 5135187.51 187.94
-9756050.13 5135186.73 180.57
-9756038.02 5135159.29 193.43
-9756010.72 5135173.71 181.23
-9756010.68 5135186.49 180.63
-9756010.99 5135169.92 187.49
-9755997.69 5135186.69 180.72
-9755970.93 5135173.27 180.82
-9755996.47 5135159.40 188.06
-9755966.87 5135183.62 187.01
-9755956.55 5135160.65 189.37
-9755939.98 5135160.00 187.72
-9755918.35 5135162.34 191.10
-9755919.13 5135160.14 180.80
-9755905.45 5135173.45 180.64
-9755909.74 5135170.42 189.35
-9755891.88 5135173.42 180.35
-9755909.46 5135160.73 189.36
-9755879.00 5135173.65 180.79
-9755866.07 5135174.45 181.01
-9755799.13 5135173.89 190.64
-9755816.64 5135160.06 183.22
-9755765.59 5135173.65 190.47
-9755760.13 5135173.50 181.14
-9755760.24 5135160.48 181.00
-9755717.96 5135176.00 187.75
-9755707.31 5135174.55 187.41
-9755720.41 5135160.53 181.05
-9755707.81 5135158.95 182.62
-9755667.93 5135173.34 185.47
-9755659.46 5135174.71 187.31
-9755654.45 5135160.56 185.45
-9755659.36 5135159.90 187.15
-9755642.94 5135159.84 185.59
-9755643.83 5135173.77 187.26
-9755643.50 5135160.31 187.34
-9755627.78 5135175.07 187.28
-9755630.11 5135160.66 186.93
-9755588.76 5135173.74 181.15
-9755562.41 5135160.56 181.07
-9755549.30 5135173.39 181.05
-9755483.23 5135173.38 180.97
-9755470.71 5135160.29 181.06
-9755457.10 5135173.50 181.08
-9755457.18 5135160.04 180.93
-9755444.11 5135173.66 181.01
-9755430.68 5135160.61 181.17
-9755391.16 5135160.37 181.06
-9755377.90 5135160.57 181.23
-9755338.27 5135173.37 181.26
-9755340.47 5135176.62 188.46
-9756313.72 5135133.75 180.27
-9756287.94 5135147.14 180.68
-9756274.44 5135133.78 180.67
-9756239.56 5135147.48 180.68
-9756195.20 5135146.16 180.69
-9756181.98 5135147.24 192.61
-9756168.67 5135134.14 180.66
-9756153.70 5135138.29 192.48
-9756129.24 5135138.82 193.69
-9756117.34 5135146.82 187.40
-9756116.20 5135144.98 180.58
-9756116.19 5135134.10 180.56
-9756061.93 5135145.95 189.83
-9756076.70 5135133.92 180.34
-9756076.11 5135133.43 193.28
-9756062.82 5135133.55 193.43
-9756050.09 5135147.09 180.87
-9756037.19 5135147.15 180.45
-9756037.18 5135133.98 180.56
-9756011.17 5135147.01 180.93
-9756011.76 5135147.41 187.98
-9756023.93 5135133.91 180.55
-9756010.66 5135134.10 180.46
-9755999.69 5135146.19 180.68
-9755997.71 5135133.17 180.50
-9755957.02 5135147.05 189.13
-9755958.25 5135134.14 180.34
-9755957.32 5135134.57 193.42
-9755937.81 5135157.94 180.77
-9755917.19 5135148.50 190.36
-9755892.09 5135147.34 180.70
-9755905.11 5135134.12 180.55
-9755880.27 5135144.97 180.73
-9755878.34 5135147.38 190.16
-9755865.61 5135147.88 190.27
-9755852.36 5135144.32 180.56
-9755878.57 5135133.93 180.56
-9755826.06 5135147.25 180.45
-9755828.56 5135160.76 188.95
-9755826.45 5135133.93 180.52
-9755825.80 5135137.95 189.67
-9755800.50 5135149.16 189.88
-9755814.48 5135135.84 188.31
-9755799.87 5135134.12 180.63
-9755773.70 5135147.27 180.91
-9755785.78 5135139.04 190.01
-9755773.65 5135133.90 180.72
-9755760.64 5135146.88 180.86
-9755760.38 5135146.37 189.47
-9755747.87 5135139.63 189.43
-9755733.65 5135139.65 188.17
-9755711.66 5135143.43 190.81
-9755695.80 5135152.15 193.48
-9755686.94 5135141.58 186.75
-9755697.77 5135129.50 187.18
-9755668.22 5135147.28 187.36
-9755659.04 5135133.86 187.22
-9755643.72 5135133.92 187.99
-9755642.50 5135134.10 185.76
-9755588.80 5135133.99 180.53
-9755549.59 5135134.12 180.87
-9755536.28 5135147.31 180.99
-9755536.00 5135134.04 180.88
-9755522.73 5135133.94 180.97
-9755482.93 5135156.83 187.07
-9755470.26 5135147.02 181.04
-9755457.08 5135133.82 180.94
-9755443.95 5135147.05 180.98
-9755430.68 5135147.36 180.98
-9755391.27 5135133.76 181.01
-9755364.77 5135133.86 181.09
-9755364.94 5135146.98 181.01
-9755338.25 5135133.78 181.04
-9755325.47 5135147.30 180.99
-9756300.52 5135120.65 180.52
-9756319.80 5135116.76 188.89
-9756287.26 5135120.81 180.43
-9756288.00 5135107.60 180.59
-9756247.77 5135120.97 180.55
-9756234.83 5135120.88 180.56
-9756237.41 5135107.39 189.93
-9756208.40 5135107.88 188.82
-9756195.02 5135120.64 180.50
-9756182.02 5135120.85 180.41
-9756168.79 5135120.76 180.63
-9756168.80 5135107.77 180.64
-9756089.91 5135107.77 189.50
-9756050.10 5135107.55 189.03
-9756023.76 5135107.25 180.38
-9755997.23 5135120.75 180.38
-9755971.24 5135120.81 193.00
-9755985.12 5135107.18 181.18
-9755944.77 5135107.66 180.69
-9755919.46 5135120.60 192.44
-9755905.27 5135107.44 180.65
-9755826.20 5135120.86 180.70
-9755812.91 5135120.82 180.60
-9755786.45 5135120.95 180.69
-9755774.70 5135107.78 188.65
-9755748.51 5135106.87 183.63
-9755745.76 5135107.64 189.53
-9755691.76 5135119.91 190.08
-9755642.38 5135107.62 187.69
-9755642.89 5135121.56 187.48
-9755629.47 5135120.64 187.27
-9755628.49 5135107.92 187.20
-9755575.66 5135107.59 181.15
-9755579.25 5135104.79 189.19
-9755576.00 5135120.82 181.04
-9755549.40 5135121.03 181.21
-9755540.68 5135113.92 186.87
-9755522.97 5135107.35 181.18
-9755496.61 5135107.76 181.15
-9755483.51 5135094.38 181.12
-9755457.25 5135107.41 181.13
-9755443.97 5135107.41 181.17
-9755443.86 5135120.72 181.46
-9755391.38 5135120.70 181.12
-9755378.19 5135107.58 181.62
-9755391.53 5135094.39 181.19
-9755364.79 5135120.84 181.13
-9755351.55 5135120.79 181.03
-9755351.72 5135094.45 181.08
-9755338.82 5135120.79 193.65
-9755339.14 5135094.16 192.89
-9755325.74 5135093.11 186.73
-9755312.12 5135120.82 181.61
-9756273.38 5135090.89 180.00
-9756276.50 5135080.89 180.29
-9756262.57 5135090.40 189.74
-9756246.90 5135099.24 189.42
-9756261.17 5135082.06 190.13
-9756208.22 5135094.58 188.53
-9756221.41 5135083.86 187.49
-9756208.48 5135081.07 180.58
-9756198.68 5135076.92 187.14
-9756155.35 5135094.35 180.60
-9756168.95 5135081.37 180.68
-9756141.92 5135094.90 185.06
-9756132.36 5135094.78 185.31
-9756142.52 5135081.11 185.09
-9756103.76 5135092.35 180.62
-9756091.38 5135092.45 181.62
-9756082.95 5135081.58 187.92
-9756067.34 5135080.80 186.72
-9756052.28 5135094.40 180.54
-9756023.90 5135094.46 180.35
-9755984.94 5135094.03 181.10
-9756001.93 5135080.78 192.72
-9755970.88 5135081.16 180.98
-9755970.96 5135068.12 180.78
-9755957.91 5135081.10 180.83
-9755927.26 5135095.56 188.09
-9755931.14 5135065.73 180.54
-9755919.15 5135065.92 180.66
-9755892.10 5135094.46 193.16
-9755904.69 5135068.70 180.68
-9755881.60 5135094.12 180.83
-9755878.70 5135066.60 180.63
-9755865.65 5135081.46 180.72
-9755865.73 5135066.61 180.82
-9755840.38 5135095.41 182.06
-9755826.10 5135081.54 180.73
-9755826.21 5135067.52 180.84
-9755827.18 5135085.94 187.97
-9755814.35 5135094.10 188.54
-9755799.68 5135068.36 180.83
-9755798.50 5135086.43 187.88
-9755789.39 5135094.23 182.31
-9755773.45 5135068.12 180.85
-9755760.38 5135081.46 180.84
-9755747.05 5135092.97 181.51
-9755734.32 5135092.35 182.48
-9755720.30 5135093.10 180.20
-9755721.83 5135094.40 189.18
-9755720.71 5135068.15 181.12
-9755707.70 5135068.07 181.20
-9755697.21 5135094.34 181.54
-9755686.93 5135081.52 181.60
-9755667.91 5135081.49 185.73
-9755667.52 5135094.73 187.60
-9755667.62 5135069.02 187.89
-9755641.90 5135081.09 185.79
-9755642.04 5135080.64 187.71
-9755628.98 5135081.02 185.58
-9755628.65 5135081.83 187.28
-9755629.20 5135094.01 187.31
-9755642.15 5135068.06 187.50
-9755628.45 5135068.29 187.37
-9755588.80 5135081.01 181.40
-9755602.18 5135068.34 181.14
-9755562.60 5135081.49 181.10
-9755470.08 5135067.83 181.13
-9755457.09 5135067.85 181.10
-9755444.10 5135067.79 181.14
-9755417.54 5135081.44 181.13
-9755377.17 5135093.36 188.96
-9755351.48 5135081.13 181.09
-9755378.41 5135068.20 181.59
-9755351.86 5135068.06 181.10
-9756284.10 5135068.62 188.00
-9756261.13 5135069.81 180.05
-9756208.56 5135066.26 180.75
-9756235.36 5135041.25 187.44
-9756195.21 5135066.47 180.76
-9756208.11 5135041.66 180.20
-9756195.49 5135052.84 180.05
-9756155.65 5135052.63 188.88
-9756155.40 5135047.28 187.66
-9756142.50 5135068.20 180.52
-9756142.67 5135054.92 180.68
-9756142.39 5135056.28 188.42
-9756129.32 5135055.11 180.66
-9756116.02 5135068.07 180.56
-9756129.08 5135043.24 180.72
-9756050.23 5135068.27 180.48
-9756023.96 5135068.13 180.33
-9756010.76 5135068.07 180.53
-9756010.29 5135068.72 189.74
-9756011.56 5135052.73 180.44
-9756010.65 5135041.77 180.43
-9755997.14 5135068.92 190.78
-9755999.01 5135056.78 188.58
-9755962.50 5135041.58 192.13
-9755892.10 5135054.79 193.94
-9755879.83 5135057.65 190.08
-9755883.82 5135041.42 189.24
-9755865.80 5135054.80 180.76
-9755849.41 5135040.65 191.34
-9755799.75 5135041.69 180.48
-9755758.88 5135057.22 188.74
-9755719.35 5135060.48 192.14
-9755696.20 5135054.65 181.57
-9755707.19 5135061.87 187.58
-9755686.33 5135054.82 181.42
-9755694.32 5135041.09 181.31
-9755641.77 5135054.75 185.84
-9755641.85 5135041.66 187.56
-9755628.58 5135041.61 187.39
-9755589.03 5135041.63 181.37
-9755576.00 5135054.92 181.05
-9755575.76 5135041.56 181.08
-9755523.28 5135054.93 181.14
-9755523.02 5135041.79 181.13
-9755470.47 5135054.85 181.10
-9755457.27 5135054.83 181.05
-9755443.65 5135054.78 181.13
-9755444.00 5135041.70 181.17
-9755417.43 5135041.66 181.10
-9755365.04 5135055.77 191.47
-9755351.74 5135041.74 181.03
-9755338.41 5135054.98 181.32
-9755338.49 5135054.81 193.13
-9756273.80 5135012.08 180.27
-9756274.16 5135014.96 189.04
-9756248.01 5135028.60 180.09
-9756235.13 5135015.89 189.64
-9756195.14 5135042.10 180.32
-9756210.08 5135015.05 180.35
-9756207.78 5135014.93 188.02
-9756195.12 5135015.46 188.36
-9756195.43 5135023.44 188.12
-9756169.00 5135028.45 180.63
-9756168.80 5135015.68 180.63
-9756155.86 5135015.37 180.48
-9756145.01 5135028.75 180.87
-9756142.53 5135028.77 188.85
-9756129.01 5135015.21 180.20
-9756101.03 5135016.20 191.71
-9756062.82 5135040.54 186.98
-9756090.77 5135026.43 181.03
-9756063.42 5135026.70 180.34
-9756063.65 5135013.83 188.26
-9756049.97 5135027.12 180.35
-9756037.00 5135015.54 180.37
-9756036.96 5135028.58 180.34
-9756050.66 5135013.51 188.45
-9755971.28 5135012.94 180.87
-9755958.02 5135015.33 180.87
-9755962.33 5135012.55 191.23
-9755944.72 5135015.25 180.99
-9755931.38 5135013.65 180.97
-9755930.02 5135031.72 181.06
-9755918.97 5135014.13 180.94
-9755905.20 5135015.61 180.61
-9755891.94 5135015.22 180.62
-9755879.21 5135028.30 180.84
-9755865.20 5135013.53 180.94
-9755849.25 5135016.20 191.34
-9755773.74 5135028.33 190.22
-9755787.83 5135015.24 181.49
-9755761.39 5135015.31 189.75
-9755760.23 5135015.03 181.69
-9755746.97 5135015.60 181.60
-9755736.83 5135028.30 184.11
-9755733.16 5135015.68 190.05
-9755721.00 5135015.17 181.70
-9755707.74 5135015.33 181.68
-9755682.34 5135026.80 191.51
-9755681.93 5135018.06 191.63
-9755685.45 5135014.03 181.51
-9755657.04 5135028.92 187.25
-9755667.69 5135015.85 185.76
-9755661.75 5135015.51 187.11
-9755641.37 5135028.86 187.62
-9755628.99 5135028.38 185.57
-9755627.94 5135028.57 187.58
-9755602.13 5135028.70 181.13
-9755575.86 5135028.56 181.09
-9755562.61 5135028.40 181.14
-9755562.40 5135015.52 181.16
-9755549.12 5135015.32 181.13
-9755523.21 5135015.42 181.08
-9755509.60 5135015.19 181.09
-9755483.34 5135028.61 181.16
-9755470.32 5135028.48 181.10
-9755456.87 5135015.16 181.13
-9755444.11 5135015.34 181.13
-9755417.46 5135028.46 181.16
-9755378.04 5135028.55 181.53
-9755325.56 5135028.21 181.63
-9755325.13 5135015.54 181.48
-9755325.45 5135015.20 193.54
-9756313.95 5135002.34 180.27
-9756277.15 5135002.79 189.78
-9756274.10 5135002.35 180.20
-9756262.28 5135002.37 188.09
-9756247.96 5134988.91 180.86
-9756247.60 5134998.52 186.68
-9756235.56 5135002.33 188.71
-9756195.74 5135002.94 180.23
-9756194.22 5135002.44 188.55
-9756142.73 5135000.67 189.17
-9756129.29 5134985.50 180.23
-9756120.64 5135005.54 186.78
-9756100.35 5135001.68 190.63
-9756099.96 5134987.64 190.76
-9756062.89 5134987.04 180.11
-9756076.01 5135002.37 187.53
-9756062.82 5135005.89 180.24
-9756051.68 5134989.10 188.53
-9756037.00 5134988.60 180.51
-9756024.98 5134990.31 187.15
-9756024.06 5135002.16 180.52
-9756010.60 5135002.19 180.56
-9756011.98 5134990.57 180.55
-9755997.39 5135001.72 189.81
-9755984.36 5134989.20 180.19
-9755997.59 5135001.97 180.53
-9755958.12 5134988.97 180.77
-9755941.30 5135007.91 186.73
-9755905.22 5135002.06 180.63
-9755905.31 5134989.00 180.66
-9755879.00 5135001.87 193.34
-9755865.60 5134989.09 180.72
-9755813.13 5134988.76 180.75
-9755773.29 5135001.83 180.95
-9755760.57 5135002.06 181.05
-9755747.10 5134988.96 181.20
-9755736.79 5135003.89 188.58
-9755667.15 5135002.21 185.83
-9755628.90 5134988.68 185.63
-9755588.90 5134975.64 181.16
-9755575.72 5135002.17 181.10
-9755582.09 5135011.07 192.69
-9755510.05 5135002.16 181.10
-9755509.91 5134976.04 181.13
-9755457.24 5135002.08 181.05
-9755443.90 5135002.33 181.15
-9755431.14 5134975.65 181.11
-9755391.40 5135002.08 181.26
-9755364.68 5135002.17 181.40
-9755351.74 5135002.33 181.08
-9755378.42 5134975.86 181.39
-9755365.79 5134990.55 187.41
-9755351.74 5134988.72 181.06
-9755338.73 5134975.76 193.59
-9755338.63 5134975.96 181.30
-9755325.37 5134975.71 190.29
-9756142.53 5134975.59 180.33
-9755997.19 5134975.82 189.04
-9755814.21 5134982.46 190.13
-9755656.15 5134975.34 187.60
-9755628.40 5134975.91 185.70
-9755602.17 5134975.67 181.15
-9755312.05 5134830.98 181.16
-9755315.09 5134380.57 191.95
-9755309.67 5135315.64 186.77
-9755312.08 5134527.84 181.22
-9755312.27 5134646.53 181.38
-9755311.93 5134448.76 180.97
-9755312.44 5134291.04 197.99
-9755311.95 5134751.82 190.99
-9755312.50 5134756.00 182.65
-9755312.22 5134593.56 181.19
-9755299.22 5134949.54 182.83
-9755285.09 5134949.73 190.77
-9755299.44 5134962.40 182.82
-9755286.01 5134934.33 181.41
-9755273.78 5134935.18 191.21
-9755273.30 5134962.27 192.87
-9755273.80 5134959.49 200.07
-9755262.01 5134962.74 181.69
-9755206.99 5134949.20 192.72
-9755180.25 5134936.16 181.71
-9755179.74 5134947.72 181.81
-9755193.62 5134962.87 181.69
-9755192.45 5134964.04 195.01
-9755180.36 5134962.85 181.70
-9755153.95 5134948.34 181.99
-9755154.09 5134962.71 181.73
-9755152.70 5134956.95 186.91
-9755140.71 5134936.21 181.71
-9755140.39 5134957.00 186.95
-9755101.19 5134936.39 181.60
-9755087.69 5134936.01 181.22
-9755259.34 5134910.00 181.38
-9755246.28 5134922.96 181.39
-9755233.16 5134923.33 181.40
-9755219.81 5134923.14 181.49
-9755206.57 5134923.02 181.58
-9755193.29 5134923.01 181.66
-9755167.02 5134923.37 181.85
-9755153.87 5134909.67 182.19
-9755150.90 5134913.86 206.90
-9755144.18 5134909.85 182.41
-9755127.61 5134909.66 185.64
-9755101.26 5134923.04 181.89
-9755298.95 5134896.32 181.27
-9755220.03 5134883.43 181.52
-9755193.68 5134896.90 181.85
-9755153.99 5134883.62 182.23
-9755141.58 5134901.12 187.13
-9755116.81 5134896.51 186.79
-9755087.90 5134896.65 181.40
-9755087.94 5134883.57 181.42
-9755091.89 5134878.87 189.41
-9755272.38 5134857.10 181.40
-9755219.89 5134857.08 181.63
-9755154.15 5134857.00 182.19
-9755272.53 5134831.07 181.37
-9755259.51 5134831.03 181.33
-9755246.26 5134830.90 181.45
-9755206.53 5134830.66 181.62
-9755180.24 5134830.82 181.84
-9755127.98 5134844.10 182.15
-9755127.45 5134830.78 181.13
-9755101.47 5134843.96 181.86
-9755087.91 5134843.90 181.41
-9755298.82 5134817.60 181.39
-9755272.62 5134817.76 181.42
-9755193.33 5134817.55 181.61
-9755154.21 5134804.56 181.80
-9755088.06 5134817.81 181.41
-9755299.21 5134805.39 181.36
-9755247.40 5134802.90 190.63
-9755221.64 5134791.80 182.73
-9755206.74 5134791.01 181.59
-9755180.14 5134791.42 181.91
-9755141.01 5134791.21 181.76
-9755101.20 5134791.53 181.35
-9755088.25 5134778.11 181.48
-9755095.90 5134796.91 187.49
-9755286.02 5134764.99 190.46
-9755259.29 5134777.98 181.57
-9755259.37 5134764.89 181.61
-9755233.14 5134764.75 182.80
-9755221.75 5134778.50 182.81
-9755180.10 5134763.95 181.78
-9755153.89 5134764.65 187.14
-9755140.60 5134764.44 181.82
-9755114.00 5134765.31 182.45
-9755088.38 5134765.08 181.42
-9755272.72 5134751.39 181.38
-9755246.25 5134738.57 181.32
-9755234.16 5134751.89 191.19
-9755220.19 5134743.96 190.64
-9755193.41 5134751.53 181.46
-9755194.87 5134737.94 181.48
-9755167.26 5134736.21 181.79
-9755167.15 5134751.66 181.60
-9755154.05 5134736.17 181.76
-9755140.47 5134737.93 187.14
-9755127.68 5134751.69 181.76
-9755127.32 5134737.91 193.08
-9755132.81 5134745.48 186.84
-9755233.09 5134725.44 181.32
-9755167.11 5134712.00 181.69
-9755140.92 5134711.90 187.08
-9755114.60 5134725.67 181.56
-9755298.98 5134698.89 181.50
-9755285.79 5134686.02 181.50
-9755233.30 5134686.02 181.60
-9755233.23 5134698.77 181.53
-9755206.75 5134685.88 181.65
-9755196.27 5134682.86 192.32
-9755170.71 5134681.49 186.72
-9755155.21 5134688.02 187.85
-9755299.24 5134659.16 181.38
-9755246.17 5134659.82 181.37
-9755193.69 5134659.48 182.39
-9755167.14 5134659.32 181.62
-9755154.13 5134672.83 181.46
-9755140.03 5134661.35 181.84
-9755141.00 5134672.46 181.55
-9755127.56 5134672.95 181.41
-9755114.83 5134661.70 181.74
-9755113.77 5134663.12 190.01
-9755205.62 5134631.73 193.84
-9755140.72 5134646.38 181.64
-9755153.78 5134632.94 186.89
-9755103.92 5134645.46 192.98
-9755299.09 5134606.50 193.19
-9755298.62 5134606.82 181.04
-9755272.49 5134607.39 191.57
-9755222.33 5134620.36 181.79
-9755206.84 5134619.86 181.43
-9755219.96 5134606.92 181.02
-9755193.31 5134619.78 181.49
-9755180.44 5134606.73 181.15
-9755127.86 5134620.01 181.56
-9755206.44 5134593.52 181.29
-9755302.57 5134558.57 187.56
-9755269.01 5134567.34 187.24
-9755232.93 5134553.99 181.28
-9755193.42 5134554.07 181.23
-9755206.56 5134567.14 181.32
-9755180.38 5134554.27 181.04
-9755140.66 5134553.74 181.34
-9755140.15 5134553.11 191.60
-9755101.45 5134553.54 181.88
-9755101.33 5134567.23 185.54
-9755285.83 5134527.70 180.95
-9755259.31 5134527.81 181.31
-9755258.89 5134545.31 181.46
-9755208.03 5134528.21 191.80
-9755193.76 5134540.97 181.25
-9755194.03 5134530.15 191.52
-9755180.19 5134540.97 181.47
-9755127.52 5134527.93 181.69
-9755128.03 5134540.93 181.80
-9755114.83 5134540.56 181.87
-9755087.88 5134541.09 193.29
-9755299.21 5134514.72 181.15
-9755298.98 5134501.41 181.12
-9755272.25 5134501.39 192.48
-9755272.38 5134513.59 201.08
-9755219.91 5134514.26 181.01
-9755207.09 5134497.49 190.81
-9755212.93 5134508.24 187.77
-9755193.66 5134514.39 181.28
-9755167.13 5134514.22 181.45
-9755138.72 5134501.26 188.17
-9755127.63 5134514.59 181.62
-9755114.40 5134501.21 181.69
-9755089.43 5134514.43 191.89
-9755088.15 5134501.62 181.55
-9755299.05 5134488.06 181.11
-9755285.78 5134487.99 180.91
-9755272.82 5134488.28 181.03
-9755259.73 5134488.36 193.55
-9755246.34 5134489.74 190.51
-9755246.97 5134495.64 188.96
-9755247.04 5134476.68 191.27
-9755246.29 5134475.09 180.48
-9755228.50 5134476.91 193.10
-9755219.81 5134474.21 192.91
-9755194.08 5134488.35 181.19
-9755193.48 5134497.11 193.02
-9755180.51 5134488.25 181.26
-9755180.67 5134474.97 181.11
-9755167.23 5134475.05 189.75
-9755171.43 5134482.11 191.58
-9755140.74 5134488.03 181.38
-9755154.18 5134476.19 181.10
-9755140.79 5134475.04 181.24
-9755139.72 5134483.94 191.98
-9755127.46 5134488.21 181.66
-9755114.23 5134488.18 181.56
-9755127.59 5134474.94 181.48
-9755114.33 5134474.82 181.61
-9755088.45 5134487.24 187.87
-9755298.92 5134461.76 181.09
-9755285.90 5134461.66 180.81
-9755271.37 5134460.52 196.21
-9755259.48 5134461.78 180.98
-9755246.84 5134464.44 180.69
-9755246.45 5134448.67 180.89
-9755233.02 5134461.14 191.57
-9755234.88 5134453.89 197.49
-9755206.68 5134461.79 181.09
-9755193.41 5134461.70 181.07
-9755188.10 5134473.85 189.80
-9755187.86 5134466.68 189.43
-9755167.00 5134448.81 193.18
-9755156.93 5134448.54 191.42
-9755141.05 5134448.65 181.26
-9755115.95 5134459.09 190.57
-9755101.15 5134461.76 181.56
-9755088.04 5134461.65 193.04
-9755100.62 5134456.58 189.01
-9755087.95 5134448.59 189.49
-9755299.08 5134435.35 181.05
-9755285.86 5134422.27 180.79
-9755299.49 5134424.24 189.75
-9755255.52 5134440.75 201.91
-9755246.33 5134435.36 180.67
-9755246.06 5134422.05 180.87
-9755219.85 5134422.57 180.96
-9755233.67 5134437.45 198.82
-9755180.27 5134436.00 181.32
-9755180.41 5134435.58 192.89
-9755166.74 5134436.36 181.34
-9755154.14 5134422.09 180.96
-9755137.45 5134437.24 187.95
-9755114.52 5134435.77 181.03
-9755114.66 5134434.57 187.29
-9755088.14 5134422.33 181.43
-9755272.68 5134409.19 180.93
-9755272.45 5134395.86 181.00
-9755273.32 5134395.12 190.28
-9755272.58 5134409.03 190.22
-9755259.54 5134396.05 180.77
-9755246.17 5134409.03 180.81
-9755232.98 5134395.61 181.09
-9755219.99 5134396.15 181.11
-9755193.45 5134395.64 181.13
-9755210.37 5134393.70 194.95
-9755180.21 5134395.93 180.90
-9755167.28 5134408.00 192.68
-9755153.93 5134409.01 181.15
-9755127.69 5134408.88 181.07
-9755114.47 5134396.05 181.11
-9755114.14 5134409.15 186.53
-9755113.09 5134400.86 187.16
-9755100.85 5134396.40 181.05
-9755106.59 5134408.88 187.17
-9755298.86 5134369.59 180.98
-9755287.22 5134368.30 191.30
-9755282.92 5134380.87 189.92
-9755272.77 5134382.56 180.82
-9755272.00 5134383.11 193.52
-9755262.16 5134395.80 189.56
-9755260.22 5134382.61 191.77
-9755262.15 5134369.31 192.10
-9755233.20 5134369.37 180.65
-9755233.06 5134382.60 180.91
-9755220.59 5134382.36 193.58
-9755193.37 5134369.65 181.16
-9755179.43 5134394.40 189.02
-9755180.11 5134379.88 191.63
-9755167.79 5134380.43 191.63
-9755166.91 5134369.71 181.57
-9755154.01 5134382.68 180.93
-9755149.90 5134383.43 189.44
-9755130.76 5134374.52 189.58
-9755114.28 5134382.74 181.43
-9755272.53 5134343.14 180.76
-9755272.91 5134343.10 194.40
-9755271.77 5134343.21 206.69
-9755271.53 5134353.07 200.12
-9755259.47 5134343.37 206.59
-9755259.41 5134356.06 180.87
-9755246.23 5134343.27 180.98
-9755246.17 5134356.61 180.86
-9755219.46 5134356.38 193.16
-9755233.04 5134343.22 181.04
-9755193.44 5134356.41 181.25
-9755193.20 5134342.95 181.49
-9755180.75 5134356.55 181.62
-9755153.97 5134356.31 181.75
-9755140.95 5134357.12 181.67
-9755127.99 5134356.51 181.17
-9755114.39 5134356.49 181.20
-9755127.47 5134344.69 181.22
-9755115.78 5134347.21 181.37
-9755113.95 5134356.16 193.34
-9755123.64 5134353.17 195.74
-9755272.69 5134329.63 184.58
-9755272.26 5134316.85 193.28
-9755246.48 5134325.85 193.65
-9755246.37 5134330.35 184.83
-9755246.16 5134316.68 180.65
-9755229.73 5134342.24 190.63
-9755232.16 5134325.34 193.84
-9755212.01 5134335.43 193.01
-9755193.61 5134330.02 185.37
-9755193.37 5134316.98 193.18
-9755191.56 5134325.71 194.88
-9755171.91 5134326.09 192.87
-9755155.36 5134319.80 191.83
-9755140.05 5134324.24 193.73
-9755128.04 5134317.22 194.50
-9755125.61 5134325.75 193.33
-9755113.57 5134314.80 182.41
-9755101.07 5134330.36 186.32
-9755085.20 5134324.03 186.68
-9755286.05 5134290.57 180.39
-9755220.08 5134290.45 180.84
-9755207.42 5134303.38 191.98
-9755196.70 5134300.75 187.17
-9755193.50 5134290.28 181.15
-9755101.31 5134290.60 182.33
-9755088.01 5134291.43 182.37
-9755285.71 5134264.14 180.73
-9755234.02 5134263.91 181.48
-9755206.61 5134263.98 181.10
-9755193.64 5134264.21 181.04
-9755180.44 5134263.81 181.28
-9755140.87 5134264.16 181.40
-9755087.87 5134263.54 182.26
-9755312.03 5134239.95 190.18
-9755272.75 5134251.08 180.89
-9755233.14 5134237.85 186.37
-9755232.87 5134234.11 187.81
-9755217.27 5134262.91 186.70
-9755206.70 5134250.67 181.06
-9755179.49 5134264.06 191.35
-9755176.06 5134249.24 182.14
-9755189.59 5134263.27 187.82
-9755170.14 5134265.63 197.12
-9755141.91 5134250.33 181.87
-9755127.78 5134237.79 181.51
-9755113.83 5134253.03 182.51
-9755312.00 5134224.58 190.42
-9755286.00 5134234.90 190.56
-9755259.71 5134224.72 186.40
-9755209.98 5134210.95 192.29
-9755194.28 5134208.49 188.85
-9755167.15 5134224.11 186.82
-9755167.22 5134211.37 187.52
-9755153.93 5134211.61 181.33
-9755140.84 5134224.79 181.37
-9755140.89 5134211.52 181.23
-9755127.58 5134224.68 181.47
-9755101.17 5134211.31 181.06
-9755262.72 5134213.09 188.47
-9755220.03 5134198.32 180.76
-9755238.45 5134200.57 187.33
-9755193.76 5134198.51 180.88
-9755154.30 5134199.17 181.40
-9755126.38 5134199.30 188.75
-9755121.63 5134189.82 193.42
-9755088.32 5134185.13 181.15
-9755294.37 5134172.73 186.79
-9755312.44 5134186.69 189.60
-9755272.69 5134171.73 180.99
-9755258.56 5134173.11 187.57
-9755246.21 5134172.38 188.33
-9755247.46 5134185.41 181.37
-9755219.00 5134180.91 187.29
-9755209.29 5134183.59 190.82
-9755193.53 5134185.18 180.65
-9755180.41 5134171.80 180.79
-9755167.16 5134171.71 181.00
-9755177.33 5134167.36 190.06
-9755154.17 5134171.91 181.18
-9755312.49 5134158.61 181.56
-9755293.43 5134142.46 187.67
-9755285.95 5134158.48 180.98
-9755272.73 5134158.38 180.91
-9755259.52 5134158.58 187.09
-9755246.26 5134158.87 186.91
-9755206.66 5134145.31 191.97
-9755166.94 5134145.37 181.44
-9755180.10 5134144.31 186.83
-9755167.64 5134143.95 186.71
-9755139.90 5134143.16 186.82
-9755129.64 5134144.53 181.35
-9755115.92 5134150.88 182.03
-9755312.11 5134119.23 181.59
-9755272.67 5134119.32 180.89
-9755271.94 5134132.96 187.93
-9755264.69 5134133.00 181.20
-9755233.14 5134132.46 187.00
-9755193.32 5134119.15 181.05
-9755140.65 5134119.09 181.24
-9755130.47 5134118.16 182.34
-9755128.65 5134131.88 181.37
-9755097.72 5134118.85 189.17
-9755102.33 5134125.25 181.30
-9755101.33 5134132.57 180.12
-9755105.49 5134133.15 186.96
-9755088.22 5134119.01 189.49
-9755086.59 5134125.07 181.21
-9755312.25 5134105.91 181.61
-9755312.30 5134092.62 181.56
-9755272.49 5134106.01 180.84
-9755271.10 5134104.08 190.01
-9755272.47 5134092.98 180.94
-9755285.35 5134101.98 190.52
-9755263.89 5134105.75 181.34
-9755220.02 5134105.67 187.18
-9755206.39 5134105.87 181.17
-9755199.13 5134103.26 190.31
-9755180.43 5134106.03 181.02
-9755167.41 5134105.70 181.39
-9755167.28 5134092.62 181.10
-9755176.37 5134099.72 187.42
-9755140.70 5134106.12 181.34
-9755127.51 5134092.41 187.20
-9755114.19 5134103.84 186.29
-9755087.79 5134092.70 188.80
-9755311.56 5134066.28 181.25
-9755272.70 5134066.31 181.28
-9755246.16 5134066.45 181.48
-9755206.57 5134079.57 181.01
-9755193.68 5134066.18 180.85
-9755176.32 5134085.35 187.60
-9755153.81 5134078.65 188.64
-9755153.95 5134066.45 188.67
-9755141.04 5134066.38 188.98
-9755127.86 5134078.98 188.56
-9755116.33 5134080.75 188.54
-9755303.54 5134053.26 190.57
-9755272.80 5134040.30 181.26
-9755259.51 5134053.21 181.51
-9755246.54 5134053.38 181.51
-9755206.81 5134039.94 180.91
-9755180.30 5134039.75 180.99
-9755166.99 5134053.28 180.97
-9755166.77 5134039.53 180.92
-9755180.97 5134039.48 192.88
-9755168.24 5134039.17 192.20
-9755114.34 5134039.86 189.52
-9755114.49 5134053.24 187.96
-9755087.84 5134039.97 189.53
-9755307.76 5134026.64 191.89
-9755285.70 5134014.00 181.09
-9755272.71 5134013.62 181.33
-9755272.61 5134026.98 181.32
-9755246.39 5134027.11 181.51
-9755244.94 5134034.01 191.61
-9755206.90 5134026.87 180.91
-9755193.73 5134013.83 180.85
-9755193.32 5134027.11 180.92
-9755166.68 5134026.57 192.62
-9755166.84 5134013.61 180.91
-9755140.64 5134026.95 189.90
-9755101.26 5134013.98 190.06
-9755088.17 5134026.61 189.94
-9755311.99 5134000.54 181.42
-9755299.02 5134000.47 180.98
-9755309.18 5134002.26 191.91
-9755272.47 5134000.60 181.30
-9755233.26 5134000.67 181.29
-9755191.65 5134004.70 190.63
-9755180.27 5134000.39 181.04
-9755140.82 5134000.59 189.63
-9755285.48 5135674.42 181.08
-9755298.92 5135668.90 207.05
-9755246.27 5135674.49 181.24
-9755221.93 5135663.12 181.51
-9755215.79 5135669.16 204.95
-9755221.77 5135659.87 205.03
-9755180.48 5135674.40 181.18
-9755154.08 5135660.87 181.58
-9755285.71 5135648.01 220.80
-9755298.07 5135650.28 232.61
-9755298.82 5135661.06 220.62
-9755299.54 5135644.22 207.95
-9755286.56 5135643.53 208.49
-9755259.72 5135657.73 220.77
-9755272.67 5135634.91 205.68
-9755274.80 5135642.00 208.54
-9755246.15 5135647.99 220.63
-9755235.90 5135655.48 207.18
-9755246.77 5135634.08 208.14
-9755224.70 5135641.38 220.83
-9755198.63 5135655.57 205.40
-9755202.24 5135642.66 198.68
-9755195.73 5135634.13 199.26
-9755180.37 5135647.74 181.53
-9755167.23 5135633.50 192.07
-9755127.60 5135647.67 181.36
-9755114.14 5135634.62 181.44
-9755298.80 5135620.71 185.41
-9755285.83 5135607.99 183.36
-9755272.90 5135631.50 197.92
-9755272.56 5135624.39 196.05
-9755262.57 5135629.84 196.38
-9755233.03 5135621.66 207.43
-9755239.65 5135615.32 198.00
-9755221.84 5135607.06 208.57
-9755193.43 5135621.61 203.48
-9755178.17 5135620.50 207.01
-9755166.97 5135621.30 181.45
-9755183.06 5135614.74 204.36
-9755088.08 5135608.42 181.30
-9755285.63 5135595.35 181.26
-9755285.74 5135582.28 181.34
-9755258.58 5135606.92 193.72
-9755272.65 5135594.94 181.23
-9755260.55 5135582.29 181.26
-9755247.68 5135582.10 182.39
-9755249.73 5135594.06 182.44
-9755236.76 5135594.56 186.66
-9755239.47 5135603.73 186.66
-9755219.84 5135581.79 196.28
-9755220.68 5135601.20 218.88
-9755207.83 5135581.61 196.34
-9755114.70 5135581.87 181.42
-9755101.16 5135582.17 181.32
-9755088.13 5135595.38 181.31
-9755285.88 5135555.69 181.32
-9755259.63 5135555.53 181.22
-9755246.31 5135568.71 182.55
-9755233.95 5135568.43 186.43
-9755231.86 5135556.60 187.20
-9755206.63 5135568.71 196.29
-9755206.96 5135555.84 192.71
-9755219.51 5135562.17 199.89
-9755197.94 5135554.51 232.06
-9755178.93 5135552.02 188.12
-9755167.34 5135555.83 181.55
-9755154.10 5135555.75 181.31
-9755127.78 5135569.01 181.35
-9755259.14 5135542.51 181.24
-9755259.17 5135529.14 181.27
-9755234.81 5135542.43 185.55
-9755179.72 5135538.06 189.05
-9755167.15 5135542.54 181.57
-9755195.07 5135527.89 204.65
-9755180.47 5135529.88 188.91
-9755180.82 5135530.24 181.69
-9755133.04 5135538.70 188.17
-9755133.55 5135529.43 188.91
-9755285.61 5135502.94 181.28
-9755234.12 5135503.07 186.05
-9755180.06 5135515.64 181.58
-9755193.68 5135503.08 192.29
-9755154.03 5135516.13 181.32
-9755139.06 5135501.15 192.17
-9755147.88 5135509.20 189.94
-9755127.49 5135516.19 181.31
-9755114.52 5135516.20 181.24
-9755127.58 5135502.96 181.32
-9755101.36 5135503.06 181.43
-9755259.32 5135476.30 181.18
-9755256.75 5135473.01 190.66
-9755234.13 5135490.20 186.66
-9755232.21 5135486.29 190.45
-9755244.52 5135473.99 193.78
-9755202.95 5135489.23 205.55
-9755206.59 5135476.78 193.02
-9755206.22 5135475.54 207.02
-9755206.82 5135476.91 215.35
-9755181.89 5135490.25 187.44
-9755167.24 5135476.79 181.42
-9755140.66 5135489.67 181.47
-9755154.26 5135476.76 181.42
-9755140.70 5135476.37 181.50
-9755114.69 5135489.84 181.34
-9755138.68 5135476.44 192.16
-9755131.80 5135476.18 192.24
-9755114.45 5135476.55 181.28
-9755081.57 5135478.83 186.77
-9755272.83 5135463.26 181.16
-9755270.59 5135458.39 188.80
-9755260.17 5135463.89 191.66
-9755257.91 5135450.55 193.28
-9755246.14 5135463.36 193.29
-9755233.25 5135450.48 188.93
-9755212.86 5135462.47 220.66
-9755208.56 5135451.57 193.32
-9755194.18 5135463.45 190.39
-9755197.58 5135453.18 192.95
-9755180.11 5135450.49 181.59
-9755167.02 5135463.50 181.57
-9755154.05 5135463.41 181.45
-9755127.49 5135463.28 181.32
-9755289.24 5135430.26 186.58
-9755276.00 5135422.32 193.02
-9755259.29 5135423.98 188.96
-9755233.23 5135436.89 193.36
-9755246.18 5135422.40 208.58
-9755224.05 5135438.83 208.39
-9755219.91 5135437.03 193.27
-9755194.70 5135438.20 189.68
-9755167.17 5135437.14 181.39
-9755154.00 5135424.04 181.30
-9755122.51 5135430.64 187.97
-9755088.13 5135437.29 181.42
-9755094.17 5135434.04 187.10
-9755087.96 5135423.94 181.45
-9755285.93 5135410.81 189.02
-9755285.60 5135398.22 208.57
-9755285.98 5135398.42 219.26
-9755259.40 5135397.69 181.34
-9755250.56 5135414.08 203.56
-9755233.11 5135410.86 181.14
-9755206.57 5135410.45 181.44
-9755193.29 5135410.63 181.48
-9755192.43 5135413.67 186.68
-9755180.63 5135410.56 181.48
-9755193.64 5135397.65 181.39
-9755153.87 5135397.67 181.48
-9755141.00 5135397.30 181.31
-9755114.38 5135397.44 181.42
-9755101.13 5135397.36 181.40
-9755299.10 5135371.02 181.64
-9755285.52 5135371.48 181.63
-9755278.81 5135390.59 192.62
-9755238.76 5135371.75 187.99
-9755219.63 5135384.46 181.12
-9755206.77 5135371.04 181.40
-9755207.44 5135370.62 189.51
-9755206.83 5135357.95 181.57
-9755193.43 5135384.58 181.41
-9755200.95 5135366.19 205.39
-9755207.32 5135357.90 190.94
-9755180.56 5135355.18 207.28
-9755167.21 5135384.16 181.44
-9755167.24 5135371.36 212.45
-9755166.04 5135370.30 217.77
-9755167.07 5135358.02 212.36
-9755153.96 5135359.48 206.90
-9755141.29 5135359.77 206.07
-9755115.66 5135377.52 189.35
-9755140.53 5135357.88 181.71
-9755141.25 5135359.71 192.77
-9755114.31 5135357.75 181.63
-9755101.23 5135371.03 181.60
-9755088.24 5135371.23 181.44
-9755298.84 5135357.98 181.50
-9755298.89 5135344.91 181.28
-9755285.67 5135344.55 181.20
-9755259.64 5135357.68 182.34
-9755238.18 5135357.45 189.19
-9755245.89 5135344.37 182.48
-9755233.19 5135344.56 181.34
-9755206.60 5135344.98 181.55
-9755202.44 5135351.42 202.66
-9755194.30 5135356.97 213.97
-9755200.72 5135350.82 213.82
-9755194.29 5135350.94 213.66
-9755180.09 5135353.69 191.66
-9755153.78 5135359.49 193.91
-9755154.31 5135331.62 181.64
-9755140.93 5135342.97 181.63
-9755127.70 5135343.61 189.25
-9755114.72 5135344.35 189.16
-9755113.35 5135331.49 191.70
-9755100.91 5135331.66 181.62
-9755272.59 5135318.69 182.54
-9755260.55 5135308.18 188.79
-9755238.09 5135325.66 187.55
-9755246.61 5135306.21 181.47
-9755219.87 5135305.39 181.22
-9755180.39 5135305.49 181.14
-9755169.15 5135321.20 190.64
-9755127.83 5135318.16 181.49
-9755131.28 5135323.24 188.01
-9755140.90 5135305.47 181.46
-9755114.37 5135305.08 181.38
-9755101.26 5135318.68 181.73
-9755101.90 5135317.91 189.34
-9755116.11 5135322.38 190.79
-9755093.51 5135325.01 190.03
-9755284.69 5135293.17 180.05
-9755207.58 5135284.11 192.12
-9755180.44 5135292.09 181.62
-9755193.53 5135278.85 181.50
-9755167.11 5135292.02 181.69
-9755155.64 5135292.05 192.16
-9755167.27 5135278.95 181.77
-9755140.66 5135292.21 181.69
-9755114.50 5135292.04 181.62
-9755127.74 5135278.80 181.82
-9755101.17 5135292.24 181.53
-9755285.93 5135265.61 190.11
-9755284.83 5135260.84 181.67
-9755299.18 5135260.49 181.60
-9755271.99 5135260.81 181.68
-9755259.43 5135266.00 192.16
-9755272.63 5135252.33 181.57
-9755233.08 5135265.75 181.30
-9755206.92 5135252.33 181.39
-9755180.29 5135265.47 181.51
-9755153.81 5135265.86 181.97
-9755167.38 5135252.62 181.76
-9755153.85 5135252.36 181.90
-9755153.97 5135252.34 193.08
-9755114.62 5135252.63 181.89
-9755298.68 5135239.24 181.49
-9755259.56 5135239.33 192.14
-9755246.34 5135239.59 192.17
-9755246.10 5135226.23 192.24
-9755206.73 5135239.57 181.26
-9755127.37 5135239.33 181.91
-9755101.14 5135239.20 181.71
-9755101.25 5135226.21 181.59
-9755091.93 5135230.81 190.42
-9755087.95 5135226.10 181.42
-9755106.63 5135222.35 192.08
-9755272.59 5135199.89 181.59
-9755246.17 5135212.95 192.17
-9755246.50 5135199.91 192.21
-9755217.89 5135222.83 193.95
-9755219.89 5135199.70 181.16
-9755209.94 5135196.78 192.66
-9755194.24 5135209.26 190.82
-9755179.78 5135209.87 189.43
-9755154.23 5135199.83 181.62
-9755153.74 5135199.93 190.53
-9755100.94 5135199.75 193.19
-9755088.00 5135213.10 181.38
-9755285.55 5135173.38 181.34
-9755259.95 5135174.23 193.36
-9755246.12 5135173.57 192.11
-9755220.00 5135186.69 181.19
-9755206.73 5135186.55 181.37
-9755193.61 5135173.73 181.51
-9755154.29 5135186.58 181.55
-9755167.03 5135173.57 181.59
-9755154.03 5135173.54 181.50
-9755154.08 5135173.60 192.06
-9755147.26 5135185.66 181.57
-9755127.57 5135185.68 197.41
-9755259.14 5135146.91 181.05
-9755246.38 5135160.40 181.58
-9755246.19 5135147.01 181.16
-9755219.84 5135160.31 181.26
-9755206.67 5135146.89 181.26
-9755192.76 5135156.66 187.01
-9755146.59 5135148.19 192.02
-9755113.63 5135167.82 181.79
-9755115.27 5135165.04 192.94
-9755101.09 5135160.12 181.57
-9755301.21 5135119.63 191.58
-9755285.79 5135133.78 180.95
-9755276.19 5135132.40 195.20
-9755259.19 5135133.90 181.00
-9755232.59 5135120.42 181.44
-9755192.98 5135133.18 192.64
-9755196.02 5135121.18 192.34
-9755140.65 5135133.82 181.25
-9755140.78 5135120.37 187.48
-9755127.75 5135133.90 181.35
-9755114.47 5135134.19 181.39
-9755101.00 5135120.52 181.68
-9755302.53 5135095.76 181.81
-9755291.37 5135095.33 186.69
-9755259.66 5135094.22 181.22
-9755246.08 5135107.72 181.61
-9755232.84 5135107.62 181.61
-9755233.13 5135094.25 181.71
-9755193.78 5135107.74 193.15
-9755180.12 5135112.52 190.27
-9755184.54 5135095.62 187.91
-9755172.19 5135113.97 187.86
-9755154.13 5135107.47 181.77
-9755166.89 5135094.27 181.71
-9755154.03 5135095.43 181.77
-9755127.61 5135107.85 181.79
-9755114.63 5135107.76 181.71
-9755114.78 5135107.67 192.81
-9755101.39 5135098.70 192.36
-9755088.09 5135107.75 181.30
-9755302.26 5135080.68 181.83
-9755272.85 5135068.20 181.25
-9755246.32 5135068.06 181.61
-9755233.10 5135067.94 181.70
-9755206.76 5135081.45 181.69
-9755195.44 5135068.06 182.89
-9755167.29 5135080.92 181.68
-9755127.77 5135081.29 181.69
-9755101.49 5135081.14 181.68
-9755299.03 5135054.44 181.47
-9755233.24 5135054.75 181.73
-9755233.28 5135041.35 181.77
-9755222.25 5135054.62 186.74
-9755206.96 5135041.79 181.53
-9755195.42 5135055.30 182.49
-9755196.68 5135041.63 181.83
-9755166.91 5135041.54 181.69
-9755168.96 5135039.21 193.26
-9755153.73 5135040.67 186.84
-9755129.94 5135040.17 186.98
-9755101.49 5135041.44 181.58
-9755090.51 5135041.49 192.69
-9755298.25 5135027.45 188.56
-9755284.66 5135027.95 188.49
-9755300.44 5135011.53 188.61
-9755285.81 5135014.17 182.03
-9755257.68 5135028.79 191.64
-9755259.43 5135012.68 189.43
-9755246.54 5135029.54 181.78
-9755233.02 5135028.64 181.62
-9755235.26 5135028.03 187.10
-9755246.12 5135015.38 181.58
-9755235.46 5135019.32 186.82
-9755219.75 5135028.51 181.55
-9755219.87 5135015.54 181.34
-9755206.58 5135015.41 181.50
-9755193.57 5135015.35 181.72
-9755180.35 5135015.23 181.74
-9755154.01 5135028.45 181.88
-9755167.38 5135015.20 181.76
-9755140.69 5135028.38 181.73
-9755114.23 5135028.51 181.54
-9755088.26 5135028.57 181.31
-9755276.29 5134986.52 203.61
-9755233.39 5134989.07 191.19
-9755167.16 5135001.83 181.77
-9755154.25 5134989.02 181.71
-9755127.40 5134988.60 181.69
-9755285.91 5134975.62 190.66
-9755262.49 5134975.63 181.60
-9755246.32 5134975.92 182.86
-9755193.63 5134975.37 181.77
-9755167.14 5134975.88 181.87
-9755154.05 5134976.32 181.81
-9755141.05 5134975.66 181.84
-9756327.01 5135529.40 180.66
-9756327.44 5135530.59 187.44
-9756326.77 5135371.65 179.99
-9756327.23 5135306.56 190.77
-9756327.16 5135264.31 181.73
-9756326.98 5135214.43 180.00
-9756195.56 5134974.14 179.86
-9756182.25 5134976.08 180.04
-9756089.76 5134975.82 180.27
-9755905.20 5134975.68 180.63
-9756340.18 5134145.59 181.10
-9756761.56 5134975.82 180.32
-9756740.67 5134952.12 186.98
-9756748.73 5134962.37 180.39
-9756720.75 5134950.27 180.57
-9756709.25 5134949.44 180.54
-9756709.21 5134962.53 180.53
-9756693.62 5134948.89 190.24
-9756682.77 5134962.62 185.90
-9756682.60 5134975.99 185.96
-9756681.71 5134976.87 186.72
-9756669.85 5134949.44 189.12
-9756666.76 5134946.32 185.26
-9756656.21 5134946.80 185.09
-9756643.21 5134962.78 180.88
-9756643.22 5134949.79 180.87
-9756630.21 5134949.65 180.10
-9756629.81 5134975.93 180.23
-9756613.84 5134975.19 189.09
-9756603.89 5134976.46 179.95
-9756590.48 5134949.14 180.51
-9756577.30 5134962.49 193.12
-9756564.09 5134962.91 180.29
-9756551.13 5134949.39 193.29
-9756535.43 5134952.44 190.73
-9756511.52 5134949.19 180.90
-9756485.09 5134962.65 180.02
-9756471.99 5134949.46 179.99
-9756471.80 5134960.09 180.17
-9756471.69 5134963.76 188.80
-9756469.05 5134949.98 187.87
-9756432.34 5134962.65 180.41
-9756405.85 5134949.86 179.88
-9756405.63 5134947.61 188.46
-9756405.48 5134960.70 179.85
-9756406.11 5134979.83 189.67
-9756392.55 5134962.54 180.36
-9756390.42 5134974.82 180.27
-9756378.76 5134961.15 180.51
-9756365.49 5134964.11 190.74
-9756353.58 5134975.64 180.55
-9756339.50 5134961.61 180.49
-9756748.60 5134936.42 185.19
-9756733.10 5134936.67 180.49
-9756686.02 5134937.53 193.14
-9756692.61 5134927.37 188.49
-9756682.90 5134935.11 185.43
-9756686.73 5134928.89 186.71
-9756643.31 5134936.62 180.87
-9756642.50 5134922.71 180.80
-9756617.06 5134936.23 179.79
-9756564.33 5134922.93 180.45
-9756549.35 5134923.59 188.63
-9756524.80 5134936.85 179.81
-9756512.25 5134920.63 180.69
-9756485.25 5134936.03 180.56
-9756472.33 5134940.11 186.68
-9756458.74 5134921.03 180.46
-9756419.34 5134923.33 179.92
-9756406.08 5134935.21 189.01
-9756379.81 5134923.08 179.88
-9756373.13 5134924.21 191.13
-9756366.54 5134923.22 180.62
-9756365.20 5134922.82 189.81
-9756364.51 5134936.06 189.27
-9756352.85 5134936.13 180.21
-9756353.35 5134922.59 180.17
-9756359.33 5134938.65 186.74
-9756339.99 5134946.81 187.10
-9756761.74 5134896.46 180.43
-9756748.80 5134896.68 180.42
-9756656.09 5134896.60 180.94
-9756664.35 5134916.02 187.57
-9756642.27 5134909.50 180.77
-9756629.95 5134896.73 180.05
-9756642.98 5134896.63 181.01
-9756617.19 5134909.90 179.77
-9756604.20 5134897.59 179.66
-9756564.25 5134896.89 180.44
-9756524.75 5134896.93 180.12
-9756459.71 5134920.52 188.55
-9756472.04 5134895.55 190.18
-9756445.43 5134896.73 180.41
-9756445.61 5134909.77 180.42
-9756366.35 5134909.64 180.59
-9756340.19 5134896.49 180.39
-9756339.82 5134915.66 186.77
-9756748.83 5134884.72 190.06
-9756735.22 5134883.56 180.42
-9756734.21 5134885.39 191.02
-9756695.78 5134883.68 180.53
-9756614.76 5134893.52 187.32
-9756588.99 5134883.32 180.69
-9756538.03 5134880.07 180.50
-9756524.55 5134883.49 181.87
-9756524.56 5134870.23 180.43
-9756511.08 5134880.80 180.60
-9756511.30 5134870.47 180.48
-9756484.79 5134870.65 180.59
-9756471.86 5134871.21 191.30
-9756445.48 5134883.78 180.39
-9756458.85 5134870.79 180.53
-9756432.43 5134870.69 193.25
-9756403.80 5134885.69 191.74
-9756406.49 5134882.04 180.05
-9756406.61 5134871.17 180.52
-9756366.52 5134883.55 180.50
-9756364.81 5134870.46 188.92
-9756748.69 5134857.03 180.44
-9756735.67 5134857.34 180.50
-9756722.35 5134857.00 180.48
-9756682.88 5134870.51 180.65
-9756669.61 5134870.46 180.78
-9756550.89 5134857.41 180.42
-9756538.15 5134857.32 180.40
-9756482.29 5134860.83 190.11
-9756511.50 5134844.08 180.48
-9756485.01 5134844.01 193.62
-9756471.90 5134870.55 180.55
-9756392.81 5134857.40 180.45
-9756379.88 5134856.97 180.42
-9756353.12 5134857.42 180.50
-9756748.83 5134843.89 180.56
-9756709.27 5134843.75 180.50
-9756643.56 5134844.01 180.55
-9756629.94 5134843.89 180.53
-9756577.57 5134830.92 180.39
-9756564.00 5134830.84 180.38
-9756537.74 5134830.94 180.54
-9756524.82 5134830.55 180.59
-9756472.14 5134842.84 189.84
-9756419.68 5134830.71 189.76
-9756340.33 5134817.42 180.37
-9756761.33 5134799.95 180.20
-9756761.93 5134817.46 185.57
-9756735.77 5134816.72 185.23
-9756735.48 5134806.61 187.01
-9756682.93 5134817.83 180.64
-9756694.18 5134820.49 187.30
-9756669.65 5134817.44 180.62
-9756656.42 5134804.65 180.71
-9756643.38 5134817.91 180.60
-9756638.49 5134809.94 186.67
-9756639.98 5134821.54 190.75
-9756616.86 5134817.76 180.68
-9756616.41 5134820.30 188.71
-9756603.05 5134820.61 180.55
-9756603.77 5134803.46 180.51
-9756604.30 5134805.98 188.70
-9756588.50 5134816.01 180.62
-9756577.34 5134817.52 180.57
-9756537.09 5134813.61 190.09
-9756537.68 5134804.56 180.30
-9756511.37 5134804.49 180.30
-9756506.18 5134814.43 186.69
-9756485.14 5134804.65 180.14
-9756459.65 5134805.64 191.37
-9756458.92 5134805.02 180.04
-9756405.86 5134819.16 188.49
-9756392.75 5134815.81 180.69
-9756338.14 5134804.28 188.07
-9756760.88 5134795.36 181.23
-9756637.72 5134790.68 190.34
-9756614.14 5134790.67 188.32
-9756590.61 5134778.17 188.43
-9756590.46 5134778.21 180.67
-9756590.20 5134791.58 180.43
-9756577.53 5134791.22 180.48
-9756537.93 5134775.03 179.78
-9756533.16 5134793.79 180.23
-9756529.59 5134784.45 186.74
-9756511.79 5134793.47 180.21
-9756485.01 5134778.26 180.53
-9756483.97 5134791.01 180.05
-9756459.03 5134776.60 180.37
-9756445.74 5134791.05 180.47
-9756418.91 5134777.94 193.38
-9756419.59 5134778.23 180.75
-9756419.37 5134791.43 193.19
-9756406.34 5134791.33 188.18
-9756379.78 5134777.91 180.95
-9756351.25 5134778.19 180.06
-9756722.16 5134764.76 180.48
-9756682.89 5134764.84 180.57
-9756669.50 5134751.74 192.87
-9756652.64 5134752.43 190.40
-9756656.49 5134751.73 180.73
-9756663.31 5134751.60 181.09
-9756643.49 5134751.88 180.79
-9756643.09 5134764.90 180.97
-9756603.15 5134753.09 188.00
-9756614.33 5134764.09 188.21
-9756604.34 5134764.34 188.34
-9756577.28 5134751.82 193.35
-9756577.43 5134751.56 180.36
-9756551.14 5134765.03 179.84
-9756536.71 5134764.94 180.96
-9756528.32 5134755.31 186.90
-9756511.71 5134751.76 180.19
-9756508.12 5134764.97 187.64
-9756445.53 5134765.02 193.83
-9756445.25 5134764.67 180.50
-9756419.44 5134751.79 180.61
-9756392.97 5134751.90 188.12
-9756388.42 5134751.29 181.07
-9756392.89 5134764.94 188.14
-9756379.63 5134751.58 180.97
-9756366.69 5134752.10 180.80
-9756366.60 5134764.82 180.74
-9756362.65 5134764.86 191.41
-9756353.26 5134765.08 180.26
-9756349.60 5134751.43 192.29
-9756340.10 5134765.00 180.26
-9756761.85 5134725.37 180.48
-9756709.04 5134738.66 180.45
-9756683.57 5134741.57 193.38
-9756689.91 5134741.49 193.61
-9756669.04 5134741.78 192.85
-9756603.51 5134734.38 180.66
-9756577.48 5134738.53 180.48
-9756538.53 5134735.37 179.91
-9756537.55 5134725.25 181.19
-9756458.72 5134736.13 180.39
-9756445.51 5134725.61 180.51
-9756419.51 5134738.46 180.59
-9756418.83 5134738.02 189.90
