-9754745.14 5134145.56 181.59
-9754744.52 5134145.86 190.24
-9754719.20 5134145.34 181.74
-9754705.93 5134158.89 187.88
-9754679.54 5134145.29 191.00
-9754658.94 5134135.48 191.55
-9754640.17 5134145.47 181.59
-9754626.72 5134132.08 181.67
-9754629.24 5134128.21 186.81
-9754626.74 5134145.50 192.30
-9754600.53 5134132.26 181.54
-9754613.55 5134145.55 192.26
-9754587.08 5134131.78 191.84
-9754583.05 5134141.69 191.95
-9754574.14 5134132.42 193.15
-9754560.92 5134145.35 181.74
-9754567.70 5134152.59 186.68
-9754521.51 5134132.41 181.61
-9754501.26 5134134.84 191.36
-9754494.93 5134132.21 181.60
-9754481.93 5134132.26 192.61
-9754481.62 5134145.46 181.64
-9754469.79 5134135.12 203.71
-9754468.54 5134144.33 204.38
-9754455.61 5134132.30 192.77
-9754455.64 5134145.50 206.75
-9754455.67 5134145.56 181.60
-9754442.28 5134145.19 193.73
-9754428.95 5134132.14 181.44
-9754429.29 5134146.41 204.78
-9754405.30 5134132.07 192.65
-9754403.58 5134135.65 202.81
-9754402.05 5134145.96 193.44
-9754395.93 5134155.83 202.37
-9754362.85 5134144.89 191.68
-9754363.15 5134145.65 181.39
-9754349.98 5134145.58 192.97
-9754336.89 5134145.53 181.23
-9754342.84 5134146.59 189.75
-9754350.21 5134155.75 191.14
-9754314.22 5134142.16 192.13
-9754311.43 5134145.86 181.54
-9754296.35 5134141.17 192.50
-9755061.32 5134119.25 180.89
-9755035.94 5134119.08 176.16
-9755058.98 5134135.61 186.99
-9754956.32 5134119.18 176.31
-9754916.95 5134119.11 181.60
-9754916.61 5134105.95 175.86
-9754890.01 5134118.47 177.09
-9754865.29 5134119.90 187.43
-9754824.66 5134119.16 185.73
-9754814.59 5134118.48 181.65
-9754814.13 5134106.48 181.97
-9754798.13 5134105.88 181.55
-9754785.76 5134117.55 187.96
-9754758.69 5134105.94 181.34
-9754732.12 5134105.78 181.57
-9754735.76 5134124.00 190.55
-9754719.09 5134119.04 181.57
-9754707.42 5134107.17 188.99
-9754689.79 5134101.15 191.13
-9754679.31 5134119.09 181.46
-9754639.02 5134122.40 190.47
-9754626.78 5134119.38 181.65
-9754613.91 5134105.99 181.69
-9754613.00 5134119.96 192.41
-9754600.28 5134118.92 181.57
-9754587.19 5134106.11 193.16
-9754587.17 5134119.19 193.49
-9754587.38 5134118.91 181.54
-9754572.57 5134106.25 189.60
-9754561.95 5134103.40 191.07
-9754547.99 5134119.06 192.82
-9754538.43 5134118.54 190.19
-9754508.13 5134105.97 181.38
-9754508.06 5134119.33 181.39
-9754481.88 5134106.11 181.56
-9754468.78 5134119.04 181.72
-9754442.04 5134105.87 181.31
-9754443.05 5134111.59 192.85
-9754442.19 5134118.86 181.36
-9754428.44 5134119.47 192.66
-9754428.03 5134105.51 192.71
-9754393.50 5134106.58 181.41
-9754390.95 5134106.47 193.09
-9754391.68 5134118.55 192.90
-9754350.07 5134105.65 181.06
-9754323.47 5134119.04 181.30
-9754309.76 5134106.23 188.85
-9754310.90 5134113.85 188.62
-9754302.37 5134113.63 187.07
-9754995.92 5134106.09 176.21
-9754917.03 5134092.96 175.72
-9754864.24 5134093.01 181.40
-9754863.25 5134093.50 190.66
-9754863.53 5134080.32 188.64
-9754824.76 5134092.82 185.70
-9754785.08 5134079.46 181.66
-9754784.98 5134092.78 181.62
-9754772.12 5134079.37 181.48
-9754758.44 5134092.59 181.30
-9754708.17 5134094.87 181.74
-9754691.67 5134092.94 191.66
-9754666.71 5134079.39 192.62
-9754666.56 5134092.83 191.25
-9754653.34 5134092.46 191.92
-9754653.58 5134093.21 181.48
-9754626.73 5134079.47 181.30
-9754629.13 5134095.71 187.63
-9754613.79 5134079.33 181.41
-9754600.45 5134092.88 181.62
-9754598.59 5134084.87 188.80
-9754572.69 5134081.01 190.52
-9754560.57 5134079.16 190.35
-9754545.73 5134079.39 188.74
-9754547.96 5134092.84 181.58
-9754540.70 5134090.13 188.50
-9754501.47 5134105.58 188.53
-9754519.20 5134084.04 187.54
-9754508.27 5134079.61 181.30
-9754506.86 5134085.28 191.90
-9754479.93 5134084.79 188.47
-9754468.77 5134079.66 181.31
-9754481.68 5134093.09 181.44
-9754468.70 5134092.98 181.39
-9754457.13 5134079.51 188.62
-9754446.86 5134080.97 189.89
-9754429.12 5134092.76 181.32
-9754404.33 5134091.96 192.66
-9754391.01 5134093.85 193.66
-9754376.60 5134092.91 196.97
-9754376.94 5134087.18 181.40
-9754364.26 5134081.39 191.34
-9754355.50 5134104.80 187.39
-9754350.29 5134079.55 180.96
-9754323.47 5134079.43 180.99
-9755078.83 5134079.95 189.05
-9755074.84 5134079.70 180.69
-9755074.88 5134066.40 180.68
-9755048.83 5134079.65 178.13
-9755036.20 5134066.37 175.82
-9755021.99 5134079.95 175.56
-9754982.57 5134079.61 177.33
-9754969.32 5134066.27 176.00
-9754930.02 5134079.71 175.49
-9754929.80 5134066.36 175.35
-9754889.71 5134066.64 177.45
-9754877.10 5134066.52 178.63
-9754865.54 5134071.70 187.40
-9754851.41 5134069.76 187.47
-9754837.33 5134066.49 185.51
-9754824.73 5134053.18 185.69
-9754784.89 5134053.41 181.35
-9754758.68 5134053.24 181.18
-9754771.62 5134066.05 181.41
-9754758.66 5134066.24 181.23
-9754719.10 5134066.36 181.37
-9754705.85 5134066.32 181.41
-9754705.61 5134053.52 181.45
-9754679.28 5134066.44 181.43
-9754692.97 5134053.73 181.68
-9754679.33 5134053.63 181.62
-9754666.38 5134066.38 181.79
-9754666.40 5134053.57 181.66
-9754661.32 5134059.82 187.05
-9754640.08 5134066.47 181.37
-9754613.40 5134069.17 189.16
-9754572.72 5134064.33 191.06
-9754587.07 5134053.12 181.59
-9754561.01 5134053.45 189.78
-9754533.82 5134075.69 192.59
-9754521.06 5134066.63 181.57
-9754521.42 5134053.35 181.55
-9754481.79 5134066.41 181.31
-9754455.68 5134053.22 181.36
-9754416.15 5134053.37 181.46
-9754376.59 5134066.09 180.96
-9754376.35 5134053.40 181.17
-9754323.78 5134066.15 180.96
-9754336.85 5134053.43 181.13
-9754310.27 5134066.63 180.99
-9755073.80 5134050.57 190.24
-9755077.98 5134040.59 189.65
-9755058.82 5134055.14 186.78
-9754995.72 5134039.81 175.58
-9754970.08 5134054.33 176.22
-9754956.17 5134040.21 175.56
-9754945.01 5134038.57 177.35
-9754916.64 5134053.53 175.33
-9754890.17 5134039.97 177.77
-9754877.24 5134039.84 179.13
-9754863.97 5134053.14 180.10
-9754849.89 5134043.04 191.39
-9754837.79 5134040.22 185.36
-9754797.82 5134053.07 192.69
-9754762.74 5134039.52 187.92
-9754773.07 5134053.31 191.90
-9754763.06 5134029.75 187.76
-9754745.50 5134039.87 181.49
-9754733.41 5134038.30 188.69
-9754731.01 5134055.28 193.09
-9754744.97 5134026.40 188.22
-9754731.76 5134027.02 188.67
-9754717.25 5134042.34 188.79
-9754706.01 5134039.96 181.41
-9754679.24 5134026.71 181.66
-9754652.89 5134041.71 188.65
-9754652.50 5134026.47 188.64
-9754626.70 5134040.32 181.37
-9754639.38 5134045.20 186.84
-9754652.00 5134046.68 187.73
-9754613.72 5134039.97 181.45
-9754600.21 5134039.88 181.61
-9754606.99 5134048.83 186.72
-9754585.77 5134040.59 189.93
-9754571.70 5134026.58 190.67
-9754561.03 5134039.85 189.76
-9754560.85 5134026.53 189.76
-9754547.48 5134027.15 181.58
-9754535.04 5134041.30 189.00
-9754534.36 5134040.06 181.24
-9754534.24 5134027.03 181.46
-9754534.99 5134029.63 189.24
-9754495.25 5134040.18 181.42
-9754495.33 5134026.82 181.55
-9754481.81 5134027.03 181.58
-9754428.98 5134027.02 181.34
-9754389.50 5134026.56 181.42
-9754351.50 5134039.66 193.70
-9754358.37 5134052.06 191.41
-9754336.71 5134040.09 181.16
-9754323.71 5134040.09 181.15
-9754323.35 5134027.22 191.73
-9755077.63 5134026.15 190.06
-9755061.91 5134013.63 181.11
-9755036.28 5134013.72 175.58
-9755036.77 5134027.29 175.81
-9755022.36 5134026.93 175.14
-9754995.74 5134026.81 175.50
-9754956.54 5134026.89 175.48
-9754932.17 5134027.42 176.16
-9754890.28 5134026.64 177.79
-9754864.13 5134013.71 179.51
-9754850.83 5134027.02 184.08
-9754810.51 5134015.15 192.72
-9754798.13 5134014.07 181.22
-9754762.84 5134017.72 187.42
-9754766.68 5134018.04 187.85
-9754705.93 5134000.57 181.41
-9754679.44 5134000.42 181.65
-9754666.37 5134013.65 181.62
-9754666.15 5134000.61 181.55
-9754600.32 5134013.81 181.66
-9754587.61 5134014.04 181.54
-9754574.16 5134013.89 189.72
-9754584.88 5134000.60 189.92
-9754573.96 5134000.55 189.73
-9754566.44 5134014.70 185.66
-9754547.58 5134013.55 181.39
-9754547.66 5134000.19 181.47
-9754521.35 5134013.43 181.55
-9754508.09 5134013.56 181.18
-9754494.89 5134000.53 181.51
-9754468.61 5134013.67 181.57
-9754481.68 5134000.38 181.59
-9754468.36 5134000.35 181.52
-9754429.08 5134013.74 181.38
-9754415.81 5134013.62 181.63
-9754428.08 5134000.74 192.92
-9754389.58 5134013.78 181.58
-9754350.33 5134013.83 193.28
-9754336.63 5134000.78 181.13
-9754324.85 5134002.88 191.21
-9754309.43 5134000.73 191.36
-9754310.37 5134013.97 192.38
-9754310.69 5134000.56 181.17
-9755077.30 5134000.11 190.03
-9755049.18 5134000.26 178.42
-9755022.17 5134000.41 176.53
-9755009.20 5134000.27 175.02
-9754956.15 5134000.22 175.43
-9754931.69 5134001.31 176.10
-9754917.22 5134000.59 175.14
-9754902.80 5134000.48 175.18
-9754877.50 5134000.41 179.64
-9754863.92 5134000.37 179.67
-9754811.18 5134000.30 181.46
-9754774.23 5133999.38 188.48
-9754758.43 5134000.57 181.25
-9754718.87 5134000.33 181.55
-9754696.16 5134000.20 191.45
-9754627.72 5133999.97 188.49
-9754271.11 5134698.77 181.70
-9754284.66 5134716.68 187.28
-9754262.75 5134712.98 192.95
-9754258.05 5134699.26 181.91
-9754244.51 5134698.58 182.21
-9754231.51 5134698.80 182.36
-9754218.30 5134699.02 182.40
-9754265.65 5134688.15 193.51
-9754270.89 5134672.37 182.35
-9754244.68 5134672.54 181.98
-9754231.33 5134686.04 182.31
-9754205.16 5134672.57 181.94
-9754192.15 5134672.83 181.84
-9754178.90 5134672.46 181.92
-9754176.00 5134677.23 188.58
-9754165.43 5134673.36 190.99
-9754271.28 5134659.37 181.82
-9754270.77 5134661.91 190.82
-9754288.76 5134644.34 181.89
-9754257.81 5134646.25 181.89
-9754231.24 5134661.42 191.06
-9754218.01 5134646.28 181.92
-9754189.36 5134661.08 191.93
-9754178.67 5134659.43 181.76
-9754166.35 5134655.08 188.77
-9754152.18 5134659.61 181.61
-9754152.56 5134646.50 181.60
-9754140.13 5134664.26 193.51
-9754146.39 5134664.62 192.02
-9754282.45 5134629.85 181.41
-9754257.58 5134632.68 181.70
-9754244.88 5134633.16 181.80
-9754231.64 5134633.10 181.79
-9754204.94 5134633.27 192.92
-9754190.43 5134631.68 181.63
-9754046.65 5134630.81 181.75
-9754284.17 5134620.12 181.40
-9754284.63 5134626.13 193.94
-9754231.36 5134619.81 181.58
-9754178.76 5134606.73 181.66
-9754126.17 5134620.07 181.74
-9754139.23 5134606.75 181.58
-9754086.39 5134619.80 181.81
-9754099.69 5134606.86 181.64
-9754231.70 5134593.58 196.29
-9754232.34 5134580.68 196.32
-9754160.04 5134597.21 192.69
-9754152.56 5134593.87 181.71
-9754087.29 5134583.56 190.71
-9754257.71 5134567.19 181.58
-9754256.38 5134554.89 192.62
-9753999.63 5134555.43 187.82
-9754000.88 5134569.23 191.02
-9753941.37 5134567.40 182.15
-9753954.71 5134553.87 182.17
-9753941.48 5134554.06 182.26
-9753928.13 5134567.33 182.11
-9754240.89 5134540.13 192.60
-9754152.55 5134541.40 192.94
-9754126.20 5134527.39 181.76
-9754112.51 5134540.70 181.76
-9754112.69 5134527.53 181.80
-9754086.72 5134530.57 189.49
-9754073.36 5134527.95 181.80
-9754060.05 5134540.85 181.93
-9754056.09 5134537.70 190.65
-9754043.82 5134550.50 187.64
-9754061.42 5134526.86 190.14
-9754046.28 5134527.60 189.16
-9754046.75 5134541.11 181.98
-9754020.42 5134527.74 191.57
-9753994.29 5134541.06 181.92
-9754004.63 5134543.71 188.54
-9753976.21 5134539.24 194.28
-9753967.82 5134540.97 182.13
-9753968.10 5134541.28 193.17
-9753941.51 5134540.80 182.27
-9753928.05 5134527.67 182.29
-9753915.12 5134527.53 182.37
-9753915.30 5134540.90 182.33
-9754290.96 5134528.08 187.52
-9754284.69 5134516.49 189.13
-9754290.78 5134518.78 187.43
-9754277.44 5134518.26 187.57
-9754257.92 5134527.59 181.75
-9754244.66 5134527.46 181.86
-9754240.57 5134527.77 192.56
-9754240.32 5134514.51 192.57
-9754217.97 5134527.76 196.81
-9754205.32 5134527.75 196.04
-9754178.79 5134513.04 190.99
-9754165.16 5134514.51 181.89
-9753978.04 5134515.08 189.41
-9753963.19 5134514.28 192.77
-9753941.51 5134514.62 196.02
-9753915.11 5134511.84 182.26
-9753886.12 5134512.54 189.77
-9753862.25 5134514.47 191.69
-9754286.18 5134484.69 181.85
-9754264.85 5134504.02 193.36
-9754257.78 5134501.48 181.86
-9754255.33 5134501.03 193.80
-9754258.15 5134488.18 181.89
-9754264.68 5134491.00 192.51
-9754218.25 5134488.40 196.36
-9754178.21 5134488.68 193.53
-9754165.23 5134501.26 181.93
-9754152.38 5134500.88 192.45
-9754152.26 5134501.39 181.95
-9754165.59 5134488.16 181.99
-9754164.05 5134487.28 192.20
-9754099.51 5134501.42 181.80
-9754084.20 5134501.66 188.35
-9754074.81 5134500.14 193.42
-9754059.99 5134501.82 192.85
-9754073.37 5134488.25 182.07
-9754060.36 5134488.43 182.11
-9754033.87 5134488.01 182.20
-9754033.44 5134501.33 181.92
-9754007.14 5134488.34 192.80
-9754014.85 5134487.93 193.13
-9753994.07 5134488.09 181.98
-9753981.23 5134501.33 181.88
-9753981.11 5134486.36 191.29
-9753954.73 5134502.05 193.49
-9753941.00 5134502.10 193.74
-9753941.41 5134488.26 196.12
-9753928.48 5134502.47 193.45
-9753915.28 5134501.17 182.35
-9753901.99 5134501.12 182.47
-9753902.13 5134487.89 189.56
-9753888.71 5134501.06 182.45
-9753888.78 5134488.33 182.65
-9753875.23 5134488.23 182.54
-9753870.81 5134488.55 188.24
-9753862.55 5134485.10 182.62
-9753849.10 5134487.94 191.68
-9753849.82 5134483.97 182.58
-9753836.46 5134488.09 181.90
-9753822.57 5134487.89 202.14
-9754283.98 5134461.96 181.88
-9754283.01 5134477.39 187.89
-9754254.52 5134461.74 193.53
-9754264.81 5134476.50 193.02
-9754227.80 5134465.79 200.47
-9754218.34 5134473.90 197.47
-9754205.03 5134475.02 196.08
-9754205.10 5134461.67 196.05
-9754219.45 5134480.20 201.37
-9754164.23 5134475.23 193.47
-9754164.07 5134457.43 192.55
-9754047.24 5134475.07 182.14
-9754033.71 5134461.69 182.24
-9754007.49 5134461.78 182.08
-9753994.46 5134462.05 181.97
-9753980.99 5134461.69 193.67
-9753967.72 5134461.87 182.17
-9753969.11 5134476.00 191.64
-9753955.37 5134480.84 193.75
-9753941.54 5134461.72 193.27
-9753941.01 5134461.05 182.40
-9753942.84 5134485.60 182.28
-9753928.38 5134475.23 182.36
-9753928.30 5134461.57 182.40
-9753915.21 5134461.84 182.35
-9753914.31 5134474.43 204.59
-9753914.22 5134465.05 202.13
-9753902.70 5134466.22 200.34
-9753901.55 5134475.10 182.59
-9753875.73 5134474.84 193.23
-9753862.25 5134461.87 188.09
-9753862.33 5134472.22 188.18
-9753836.19 5134460.48 182.31
-9753834.21 5134475.60 194.80
-9753835.81 5134475.00 182.50
-9753835.19 5134476.91 202.53
-9753823.10 5134474.97 193.74
-9753809.92 5134461.77 182.39
-9753809.55 5134474.88 182.37
-9753796.95 5134462.04 182.23
-9753783.41 5134461.93 182.69
-9754271.07 5134448.54 182.12
-9754277.53 5134461.27 187.32
-9754238.09 5134465.63 200.43
-9754267.32 5134457.66 201.77
-9754263.83 5134457.56 228.36
-9754257.63 5134435.43 182.05
-9754254.09 5134435.54 192.08
-9754231.42 5134448.84 196.21
-9754218.16 5134448.46 196.34
-9754179.93 5134451.82 191.31
-9754165.31 5134448.50 182.07
-9754099.49 5134448.73 181.80
-9754086.55 5134448.67 181.91
-9754093.05 5134452.48 187.47
-9754099.66 5134434.60 187.10
-9754060.87 5134452.02 189.53
-9754061.49 5134435.60 192.86
-9754073.06 5134435.18 182.29
-9754073.06 5134436.21 192.96
-9754060.09 5134435.43 182.10
-9754020.30 5134435.21 182.31
-9754007.23 5134448.79 182.06
-9754007.35 5134435.74 182.07
-9753954.52 5134448.75 182.25
-9753956.33 5134448.61 200.23
-9753941.47 5134447.52 192.60
-9753901.75 5134448.44 182.57
-9753902.03 5134435.83 190.14
-9753902.00 5134449.24 189.65
-9753888.86 5134435.30 182.74
-9753885.77 5134448.98 192.16
-9753871.03 5134434.66 193.91
-9753862.44 5134435.48 193.10
-9753849.30 5134435.37 182.55
-9753863.04 5134459.66 182.40
-9753854.08 5134435.63 189.91
-9753823.17 5134435.57 182.50
-9753836.26 5134448.90 182.50
-9753822.98 5134448.62 182.39
-9753809.63 5134435.43 193.48
-9753809.49 5134448.48 182.41
-9753816.15 5134458.62 200.16
-9753796.83 5134435.68 182.33
-9753795.42 5134435.63 191.78
-9753783.20 5134448.63 182.69
-9753797.40 5134447.28 187.46
-9754271.27 5134422.25 182.31
-9754274.16 5134432.96 187.01
-9754259.01 5134422.52 191.15
-9754179.08 5134435.18 194.01
-9754179.56 5134423.34 200.61
-9754183.57 5134430.39 199.86
-9754186.95 5134426.71 200.51
-9754165.36 5134422.14 182.15
-9754127.80 5134435.44 189.55
-9754114.30 5134416.55 182.42
-9754084.23 5134421.11 193.51
-9754070.06 5134421.89 194.60
-9754060.47 5134423.84 201.66
-9754046.94 5134422.05 182.51
-9754006.91 5134420.24 190.54
-9753994.15 5134422.36 181.99
-9753941.85 5134419.63 182.04
-9753928.43 5134422.32 182.09
-9753901.93 5134424.41 189.59
-9753875.73 5134422.21 188.35
-9753883.23 5134422.12 188.34
-9753849.16 5134408.74 182.59
-9753822.99 5134408.90 182.47
-9753813.30 5134420.46 193.32
-9753796.65 5134422.05 182.43
-9753783.57 5134409.66 192.90
-9753756.87 5134422.33 183.12
-9753770.23 5134409.09 183.26
-9753743.93 5134409.27 183.34
-9753717.74 5134409.10 182.95
-9754258.51 5134410.60 190.76
-9754249.58 5134408.50 182.75
-9754231.36 5134409.12 196.31
-9754191.90 5134409.19 196.40
-9754178.76 5134395.76 193.23
-9754182.11 5134398.86 200.31
-9754152.57 5134409.08 182.13
-9754152.71 5134407.32 192.04
-9754138.18 5134409.63 187.31
-9754110.66 5134409.76 182.30
-9754110.54 5134397.43 190.54
-9754129.52 5134396.47 187.54
-9754086.29 5134408.23 190.35
-9754099.57 5134395.75 182.12
-9754070.33 5134408.64 193.67
-9754052.95 5134411.04 190.70
-9753968.15 5134407.74 191.11
-9753995.64 5134396.68 191.54
-9753994.34 5134396.01 182.00
-9753901.71 5134408.70 193.23
-9753957.68 5134399.15 183.93
-9753941.53 5134408.14 191.80
-9753941.25 5134395.69 182.18
-9753931.90 5134400.94 190.86
-9753875.42 5134395.71 192.29
-9753783.67 5134398.07 192.40
-9753783.57 5134395.89 182.97
-9753770.34 5134395.81 182.96
-9753774.15 5134401.08 190.91
-9753773.93 5134405.24 191.02
-9753704.29 5134395.70 182.98
-9754284.11 5134382.63 182.21
-9754284.02 5134369.29 182.20
-9754270.97 5134369.80 182.25
-9754244.45 5134369.63 181.59
-9754204.89 5134382.80 182.01
-9754189.50 5134384.29 189.35
-9754178.99 5134382.56 192.76
-9754186.87 5134369.60 192.49
-9754161.61 5134383.65 190.54
-9754139.24 5134369.63 182.43
-9754136.34 5134369.57 188.03
-9754128.56 5134373.57 190.30
-9754113.00 5134369.49 182.12
-9754073.17 5134382.07 190.47
-9754073.41 5134382.83 182.32
-9754060.12 5134382.73 182.40
-9754033.73 5134369.30 182.52
-9754007.39 5134382.78 182.24
-9753979.14 5134365.11 191.56
-9753969.39 5134368.65 190.59
-9753967.89 5134369.85 182.23
-9753957.15 5134383.41 186.95
-9753902.20 5134383.51 182.13
-9753909.96 5134377.64 189.37
-9753901.11 5134382.17 193.03
-9753888.86 5134382.60 182.78
-9753890.94 5134365.06 193.85
-9753863.01 5134375.23 188.20
-9753869.77 5134375.34 188.24
-9753848.25 5134375.54 188.30
-9753835.90 5134369.57 182.63
-9753809.86 5134382.68 182.66
-9753809.65 5134369.70 182.71
-9753813.78 5134369.46 188.07
-9753796.88 5134382.39 182.40
-9753796.96 5134369.41 182.44
-9753792.29 5134369.37 193.56
-9753756.82 5134382.39 182.80
-9753756.93 5134369.40 182.66
-9753776.20 5134369.75 192.26
-9753743.59 5134382.66 182.79
-9753730.58 5134369.75 191.67
-9753704.33 5134382.97 183.01
-9753704.41 5134369.38 182.93
-9753677.59 5134369.52 182.92
-9754244.86 5134356.61 182.14
-9754243.98 5134357.25 193.47
-9754257.29 5134343.36 192.85
-9754243.87 5134342.17 193.67
-9754245.43 5134348.98 200.15
-9754205.04 5134356.41 182.14
-9754205.77 5134342.58 193.97
-9754205.19 5134352.64 191.74
-9754179.74 5134357.64 190.68
-9754191.28 5134354.49 192.79
-9754178.77 5134355.86 181.72
-9754171.61 5134362.01 188.12
-9754165.66 5134343.15 187.89
-9754165.36 5134338.84 182.26
-9754152.05 5134339.26 182.16
-9754154.15 5134362.21 191.62
-9754137.89 5134351.34 190.18
-9754125.87 5134355.87 193.19
-9754113.12 5134356.43 182.11
-9754112.90 5134353.73 193.87
-9754125.53 5134343.18 194.27
-9754098.09 5134357.90 192.62
-9754087.82 5134357.57 191.77
-9754087.66 5134343.74 192.91
-9754047.75 5134354.57 192.82
-9754021.20 5134367.58 192.16
-9753994.27 5134356.58 182.30
-9753994.59 5134363.51 191.48
-9753981.30 5134356.58 182.29
-9753941.31 5134343.31 193.34
-9753917.99 5134353.11 190.42
-9753901.70 5134356.40 182.36
-9753915.22 5134343.55 192.44
-9753874.77 5134355.22 190.79
-9753887.08 5134341.97 203.50
-9753896.34 5134350.11 200.48
-9753863.31 5134354.85 194.99
-9753868.62 5134350.36 201.35
-9753833.17 5134354.86 192.66
-9753835.96 5134356.26 182.61
-9753840.49 5134350.68 199.97
-9753822.47 5134343.37 182.54
-9753782.46 5134356.32 190.98
-9753796.52 5134343.31 182.44
-9753740.99 5134353.39 204.94
-9753731.19 5134352.01 204.78
-9753690.36 5134344.54 203.50
-9753675.75 5134355.12 202.47
-9753668.62 5134344.82 203.10
-9753664.70 5134342.75 193.32
-9753654.65 5134345.84 192.59
-9754219.24 5134330.22 190.90
-9754204.46 5134330.02 194.57
-9754204.90 5134330.06 182.25
-9754191.91 5134329.96 182.23
-9754178.13 5134330.09 190.70
-9754165.38 5134329.80 182.22
-9754152.43 5134330.00 182.06
-9754164.97 5134331.58 190.72
-9754152.50 5134316.71 182.04
-9754139.52 5134317.43 190.62
-9754125.72 5134319.16 190.86
-9754125.97 5134316.81 182.25
-9754099.75 5134330.94 192.88
-9754099.23 5134316.77 192.90
-9754099.69 5134316.68 182.08
-9754086.49 5134316.89 182.13
-9754086.12 5134330.22 182.05
-9754073.31 5134316.89 192.77
-9754073.11 5134330.78 181.91
-9754073.47 5134316.58 182.10
-9754059.94 5134316.77 193.30
-9754060.21 5134316.78 182.10
-9754060.15 5134329.64 181.99
-9754047.70 5134330.34 194.19
-9754033.76 5134330.01 191.54
-9754047.17 5134316.36 192.65
-9754046.95 5134317.24 182.00
-9754033.45 5134316.47 192.64
-9754033.99 5134316.85 182.07
-9754033.63 5134329.68 181.83
-9754021.06 5134315.80 182.21
-9754007.11 5134316.76 192.51
-9754007.45 5134317.02 182.28
-9753993.89 5134316.64 182.21
-9753967.72 5134330.11 195.55
-9753972.76 5134328.67 182.17
-9753980.92 5134316.84 182.31
-9753967.98 5134315.65 192.31
-9753955.55 5134329.90 185.62
-9753954.54 5134315.95 193.27
-9753929.94 5134339.66 182.80
-9753928.16 5134330.72 190.12
-9753941.37 5134317.14 182.37
-9753928.82 5134322.61 190.07
-9753915.75 5134337.12 182.44
-9753915.15 5134316.76 182.47
-9753889.25 5134337.68 182.63
-9753875.73 5134329.38 190.09
-9753883.01 5134335.34 199.92
-9753876.46 5134338.13 182.60
-9753888.94 5134316.91 182.51
-9753875.69 5134317.07 182.60
-9753849.02 5134338.23 182.47
-9753849.21 5134329.57 190.10
-9753835.99 5134329.87 182.55
-9753836.08 5134338.70 182.58
-9753822.94 5134329.70 190.09
-9753822.82 5134329.62 182.49
-9753809.35 5134329.82 182.58
-9753797.29 5134316.59 188.28
-9753754.82 5134333.39 194.07
-9753756.15 5134340.02 182.79
-9753743.59 5134329.92 182.77
-9753741.88 5134332.52 202.56
-9753751.61 5134341.46 200.40
-9753730.57 5134329.57 182.88
-9753730.49 5134317.46 194.44
-9753739.49 5134320.75 201.96
-9753719.32 5134329.00 193.98
-9753721.44 5134319.20 196.27
-9753717.67 5134317.00 182.80
-9753676.39 5134330.06 193.19
-9753651.90 5134316.82 182.33
-9753625.61 5134316.78 193.60
-9754284.02 5134316.65 182.12
-9754271.10 5134316.94 191.23
-9754270.76 5134317.03 182.11
-9754271.07 5134303.81 182.12
-9754258.00 5134317.00 182.11
-9754244.48 5134316.65 182.07
-9754257.52 5134303.66 182.12
-9754231.50 5134316.84 182.10
-9754231.41 5134302.10 187.19
-9754236.79 5134311.07 200.53
-9754204.77 5134317.75 191.16
-9754205.32 5134316.98 182.20
-9754191.56 5134317.95 191.11
-9754178.76 5134316.52 182.06
-9754178.82 5134303.52 182.01
-9754159.74 5134303.95 191.27
-9754152.54 5134303.67 181.95
-9754140.16 5134311.32 204.28
-9754138.52 5134303.48 206.11
-9754138.98 5134303.69 192.74
-9754099.32 5134302.96 195.83
-9754047.03 5134303.63 182.19
-9754033.78 5134303.85 182.23
-9754020.47 5134303.77 181.95
-9753977.99 5134298.84 191.48
-9753954.41 5134316.65 182.25
-9753915.29 5134303.72 182.51
-9753899.93 5134305.23 193.65
-9753875.15 5134303.80 194.62
-9753862.35 5134315.67 203.94
-9753862.29 5134303.80 194.32
-9753862.29 5134303.72 182.82
-9753852.48 5134302.98 182.78
-9753812.94 5134301.37 192.54
-9753796.53 5134303.62 182.55
-9753783.60 5134290.44 182.91
-9753744.04 5134303.61 182.88
-9753744.20 5134302.43 190.06
-9753730.96 5134303.56 189.41
-9753731.03 5134290.14 189.70
-9753730.80 5134290.40 182.99
-9753717.30 5134290.40 183.02
-9753712.87 5134291.79 189.83
-9753691.29 5134303.79 183.11
-9753677.67 5134311.49 183.15
-9753678.36 5134294.37 193.65
-9753664.22 5134293.05 193.37
-9753664.51 5134290.05 182.94
-9753625.83 5134303.14 183.14
-9753625.67 5134291.16 193.14
-9754271.58 5134289.81 191.78
-9754284.20 5134289.03 182.43
-9754271.24 5134277.14 182.21
-9754219.78 5134288.59 182.60
-9754179.97 5134276.95 192.57
-9754186.29 5134276.40 190.89
-9754169.05 5134290.74 188.55
-9754161.17 5134272.05 193.35
-9754152.46 5134277.32 182.15
-9754139.92 5134290.75 193.95
-9754123.37 5134292.57 205.81
-9754112.82 5134291.01 206.01
-9754126.58 5134282.57 191.81
-9754099.41 5134277.28 181.67
-9754073.37 5134290.45 182.27
-9754073.48 5134277.15 182.32
-9754076.72 5134276.86 192.66
-9754047.49 5134290.66 193.52
-9754020.53 5134274.90 193.56
-9754034.09 5134280.56 200.00
-9754020.61 5134276.52 182.28
-9754004.47 5134290.25 191.23
-9754010.90 5134277.93 193.71
-9753994.13 5134277.54 182.07
-9753954.90 5134290.32 182.41
-9753941.76 5134292.77 182.42
-9753954.93 5134277.01 182.56
-9753941.95 5134281.19 193.70
-9753927.56 5134281.49 192.88
-9753919.39 5134277.69 188.22
-9753875.62 5134290.12 182.77
-9753849.36 5134290.26 182.94
-9753848.21 5134277.43 191.09
-9753809.95 5134277.30 182.76
-9753791.55 5134291.08 190.13
-9753782.80 5134291.00 191.04
-9753796.68 5134277.28 182.64
-9753783.68 5134277.21 182.81
-9753729.97 5134277.45 189.68
-9753691.51 5134277.35 192.64
-9753651.99 5134277.79 191.87
-9753639.55 5134281.02 189.17
-9753625.41 5134277.04 183.18
-9753625.33 5134276.51 193.13
-9753612.11 5134277.68 183.06
-9753598.90 5134277.54 183.06
-9754284.07 5134251.18 182.01
-9754271.14 5134251.08 182.06
-9754268.46 5134261.46 192.94
-9754244.81 5134263.62 182.39
-9754231.22 5134263.89 182.36
-9754226.92 5134258.49 191.20
-9754229.83 5134251.84 188.50
-9754218.37 5134250.75 182.12
-9754204.96 5134250.92 193.52
-9754177.76 5134263.55 192.98
-9754152.62 5134251.00 181.91
-9754152.63 5134264.10 193.37
-9754151.75 5134253.25 193.94
-9754141.45 5134265.48 181.89
-9754138.62 5134249.83 191.09
-9754125.97 5134262.52 182.21
-9754112.72 5134264.05 182.33
-9754086.66 5134263.19 182.28
-9754083.09 5134250.97 187.00
-9754073.39 5134250.74 182.38
-9754073.51 5134264.14 182.37
-9754060.05 5134250.98 182.34
-9754033.06 5134252.83 190.75
-9754005.24 5134261.65 195.19
-9754007.22 5134264.01 182.33
-9754006.26 5134249.51 202.66
-9754000.09 5134258.88 201.13
-9753980.98 5134264.16 182.24
-9753967.99 5134263.78 182.22
-9753979.93 5134249.52 191.72
-9753967.83 5134251.08 182.23
-9753965.10 5134266.83 191.50
-9753955.58 5134262.75 182.15
-9753955.50 5134264.38 192.04
-9753955.44 5134251.61 182.58
-9753941.29 5134264.10 190.81
-9753929.51 5134263.80 190.42
-9753914.94 5134264.32 182.65
-9753899.08 5134264.63 193.67
-9753875.69 5134264.41 182.70
-9753862.76 5134264.08 182.89
-9753862.72 5134252.42 194.71
-9753862.24 5134264.11 193.31
-9753836.14 5134251.04 191.07
-9753809.82 5134250.96 182.82
-9753730.70 5134264.10 183.14
-9753743.75 5134250.90 182.94
-9753730.49 5134250.81 183.15
-9753717.47 5134264.26 183.09
-9753717.47 5134264.07 189.23
-9753704.51 5134264.27 183.15
-9753691.22 5134263.87 183.28
-9753689.71 5134263.75 190.26
-9753704.90 5134251.07 193.01
-9753704.25 5134250.96 183.13
-9753682.45 5134260.01 183.32
-9753678.69 5134251.12 183.15
-9753678.39 5134251.18 193.46
-9753653.40 5134253.25 189.36
-9753651.50 5134250.92 182.49
-9753638.17 5134250.95 182.58
-9753638.72 5134251.67 200.28
-9753600.55 5134246.70 193.73
-9753585.42 5134264.15 183.11
-9754270.69 5134237.50 204.91
-9754281.13 5134226.21 191.77
-9754270.93 5134237.49 182.14
-9754280.63 5134227.45 199.87
-9754270.30 5134221.43 202.63
-9754259.76 5134239.27 190.54
-9754249.74 5134238.61 182.19
-9754179.05 5134237.79 193.19
-9754178.59 5134224.18 193.35
-9754171.68 5134229.08 190.03
-9754152.71 5134237.68 181.86
-9754139.48 5134224.54 182.13
-9754097.06 5134223.65 190.00
-9754099.38 5134224.83 182.40
-9754073.18 5134224.45 182.30
-9754059.88 5134237.95 182.39
-9754046.90 5134237.62 182.26
-9754035.32 5134237.96 182.27
-9754033.78 5134224.57 193.77
-9754020.44 5134237.70 190.05
-9753994.49 5134224.18 182.01
-9754006.57 5134242.54 201.36
-9753976.33 5134219.84 191.44
-9753981.11 5134237.82 182.26
-9753967.96 5134237.84 193.69
-9753954.31 5134237.66 182.46
-9753941.50 5134224.42 191.76
-9753902.19 5134224.55 182.46
-9753902.15 5134238.17 182.76
-9753888.65 5134224.19 182.83
-9753897.31 5134222.65 190.10
-9753849.90 5134239.35 191.01
-9753836.92 5134239.73 191.10
-9753782.91 5134237.72 193.14
-9753771.71 5134225.02 189.75
-9753770.19 5134224.92 182.89
-9753730.94 5134224.46 183.17
-9753716.11 5134237.49 191.37
-9753704.49 5134225.79 194.01
-9753704.13 5134224.89 183.15
-9753705.96 5134232.66 200.25
-9753691.32 5134224.07 193.97
-9753690.81 5134237.77 183.31
-9753690.63 5134235.63 192.37
-9753651.42 5134224.58 182.59
-9753651.51 5134237.93 182.53
-9753630.46 5134248.11 199.87
-9753638.98 5134224.19 189.41
-9753625.15 5134224.71 183.15
-9753598.51 5134237.56 183.30
-9753572.55 5134237.67 183.08
-9754264.15 5134217.79 201.34
-9754217.80 5134211.51 192.71
-9754218.31 5134211.70 182.19
-9754191.72 5134211.85 182.13
-9754178.63 5134211.20 193.19
-9754168.20 5134210.73 192.12
-9754152.30 5134211.34 181.76
-9754138.99 5134211.52 182.06
-9754144.97 5134214.07 189.20
-9754125.98 5134211.45 182.19
-9754112.98 5134224.45 182.33
-9754089.46 5134223.47 191.27
-9754094.48 5134216.61 186.86
-9754060.27 5134211.06 182.26
-9754045.85 5134211.50 189.38
-9754033.84 5134211.26 193.51
-9754007.28 5134211.62 182.36
-9753993.99 5134211.55 182.02
-9753980.70 5134211.21 182.25
-9753966.91 5134211.33 194.00
-9753977.95 5134211.76 199.89
-9753966.11 5134211.95 201.46
-9753968.73 5134199.61 193.46
-9753960.60 5134212.63 199.86
-9753941.58 5134211.55 193.20
-9753882.84 5134209.85 193.67
-9753875.73 5134211.40 182.93
-9753875.72 5134198.85 193.33
-9753883.89 5134201.16 192.67
-9753847.56 5134206.51 187.96
-9753823.04 5134211.37 182.85
-9753816.07 5134219.45 187.75
-9753796.51 5134211.23 182.85
-9753741.57 5134213.20 192.71
-9753743.83 5134197.80 183.34
-9753743.87 5134198.33 190.88
-9753734.67 5134214.26 195.40
-9753708.28 5134196.58 194.76
-9753691.15 5134198.37 192.94
-9753664.88 5134198.32 194.63
-9753651.54 5134211.37 193.78
-9753651.14 5134211.62 182.57
-9753651.64 5134198.31 193.44
-9753624.73 5134212.87 192.20
-9753625.33 5134198.02 183.17
-9753599.47 5134212.76 190.60
-9753598.66 5134211.50 183.65
-9753588.41 5134214.61 191.71
-9753572.46 5134211.30 183.03
-9753558.90 5134198.20 192.89
-9753546.27 5134198.14 183.16
-9753533.11 5134211.38 197.22
-9753539.48 5134204.99 183.17
-9753506.90 5134198.71 193.04
-9754270.92 5134185.02 181.80
-9754257.37 5134184.76 181.84
-9754245.88 5134184.96 181.87
-9754231.35 5134198.44 182.11
-9754205.11 5134197.99 182.06
-9754208.96 5134201.07 192.82
-9754177.57 5134185.11 192.77
-9754189.82 5134197.51 189.95
-9754166.29 5134197.29 191.74
-9754170.90 5134183.96 191.39
-9754127.26 5134192.90 190.98
-9754126.59 5134184.70 191.10
-9754112.16 5134193.19 190.04
-9754098.22 5134193.27 194.30
-9754099.90 5134198.22 182.32
-9754086.31 5134197.87 182.30
-9754059.84 5134184.96 182.34
-9754060.39 5134198.31 182.22
-9754052.18 5134191.48 187.01
-9754057.35 5134190.45 187.59
-9754046.92 5134184.88 182.53
-9754033.45 5134195.77 182.30
-9753954.67 5134185.03 192.20
-9753888.64 5134185.11 182.93
-9753895.01 5134180.72 187.58
-9753835.92 5134185.13 195.06
-9753821.99 5134178.58 193.50
-9753743.57 5134184.84 183.12
-9753678.02 5134198.02 183.25
-9753651.02 5134188.66 190.95
-9753636.25 5134189.07 188.54
-9753651.40 5134171.89 182.71
-9753623.37 5134187.34 191.16
-9753638.15 5134171.82 182.59
-9753605.40 5134193.14 187.80
-9753598.36 5134168.81 183.15
-9753597.95 5134178.66 195.17
-9753559.42 5134185.11 192.56
-9753547.43 5134185.06 193.61
-9753559.39 5134171.57 183.46
-9753560.77 5134178.46 183.80
-9753547.79 5134171.60 191.12
-9753532.86 5134171.73 183.18
-9753506.81 5134184.97 182.53
-9753521.48 5134183.64 200.22
-9753519.61 5134171.67 183.16
-9753506.59 5134171.66 192.63
-9753506.63 5134171.90 182.47
-9754270.64 5134171.39 181.69
-9754283.15 5134183.29 186.82
-9754258.02 5134171.94 181.87
-9754257.51 5134158.71 181.83
-9754251.79 5134158.84 192.14
-9754217.47 5134166.92 193.38
-9754204.88 5134171.81 203.23
-9754203.93 5134158.29 188.26
-9754192.75 5134167.61 193.45
-9754178.51 5134158.52 181.69
-9754165.58 5134158.66 181.68
-9754139.25 5134171.61 182.06
-9754125.08 5134154.30 182.14
-9754086.46 5134171.56 182.16
-9754086.20 5134172.46 190.10
-9754074.30 5134158.17 194.66
-9754018.09 5134173.89 187.25
-9754007.47 5134171.65 182.33
-9753993.93 5134158.57 181.82
-9753995.40 5134175.51 190.18
-9753981.03 5134158.78 182.22
-9753975.05 5134173.03 191.06
-9753941.74 5134171.54 182.22
-9753928.26 5134158.46 182.41
-9753929.50 5134153.80 190.70
-9753903.11 5134159.68 189.12
-9753901.98 5134171.60 182.50
-9753888.66 5134172.08 182.78
-9753877.71 5134157.94 191.66
-9753848.87 5134158.49 193.13
-9753864.73 5134169.78 182.81
-9753850.60 5134179.26 183.14
-9753783.55 5134158.45 182.85
-9753783.48 5134171.77 182.81
-9753786.70 5134172.09 191.26
-9753770.18 5134171.70 183.09
-9753757.21 5134171.90 182.94
-9753746.11 5134176.58 189.50
-9753730.37 5134172.04 183.09
-9753709.02 5134158.85 191.60
-9753704.15 5134171.77 183.24
-9753691.00 5134158.77 183.20
-9753692.48 5134172.21 193.63
-9753677.82 5134158.72 194.14
-9753681.58 5134155.05 183.21
-9753677.94 5134171.42 183.33
-9753664.54 5134158.66 194.54
-9753651.17 5134158.83 182.71
-9753634.48 5134160.82 188.79
-9753625.25 5134158.43 182.99
-9753612.25 5134158.64 182.96
-9753599.04 5134158.81 183.00
-9753585.52 5134158.69 193.10
-9753559.52 5134158.58 183.09
-9753506.70 5134158.60 182.42
-9753493.90 5134158.64 193.76
-9753480.21 5134158.69 182.33
-9754284.46 5134145.48 181.71
-9754287.29 5134140.68 193.38
-9754273.39 5134132.93 191.75
-9754270.90 5134132.40 181.65
-9754257.74 5134132.05 181.55
-9754244.63 5134145.23 182.02
-9754249.56 5134132.04 193.29
-9754218.27 5134146.21 190.51
-9754227.32 5134131.74 187.66
-9754189.79 5134134.61 191.79
-9754178.96 5134132.47 181.71
-9754152.29 5134145.49 193.55
-9754152.23 5134132.63 193.33
-9754086.42 5134132.53 181.95
-9754073.13 5134132.11 181.99
-9754007.48 5134132.03 182.15
-9754001.94 5134141.38 186.72
-9753954.96 5134132.37 181.28
-9753916.06 5134146.22 182.15
-9753912.92 5134147.80 190.09
-9753888.87 5134145.42 182.67
-9753888.10 5134144.39 193.71
-9753875.85 5134145.34 183.11
-9753888.93 5134132.11 182.69
-9753863.02 5134145.42 192.91
-9753851.08 5134133.79 193.37
-9753848.85 5134131.88 183.22
-9753823.12 5134146.26 190.22
-9753787.29 5134135.78 187.70
-9753730.57 5134145.74 182.94
-9753724.91 5134144.85 188.65
-9753691.08 5134146.33 183.16
-9753678.19 5134132.37 183.05
-9753664.34 5134131.97 182.94
-9753651.52 5134145.54 182.82
-9753641.27 5134138.10 193.97
-9753626.64 5134131.47 182.85
-9753626.70 5134131.98 192.56
-9753585.57 5134132.07 182.92
-9753545.90 5134133.24 192.35
-9753532.64 5134144.77 193.54
-9753532.94 5134144.68 182.76
-9753506.82 5134145.20 182.39
-9753506.60 5134145.78 192.90
-9753507.00 5134131.77 191.89
-9753493.96 5134145.52 193.26
-9753492.14 5134131.66 193.03
-9753482.81 5134133.47 191.72
-9753479.97 5134145.70 182.33
-9753479.80 5134132.40 182.28
-9754289.53 5134125.71 189.07
-9754257.74 5134118.99 181.60
-9754229.54 5134120.79 189.71
-9754205.62 5134120.37 189.92
-9754178.60 5134105.79 181.57
-9754165.53 5134119.36 181.54
-9754165.27 5134106.01 181.47
-9754149.97 5134123.58 190.13
-9754139.24 5134119.49 181.66
-9754086.77 5134119.16 181.86
-9754086.27 5134105.81 181.84
-9754084.94 5134122.54 186.99
-9754062.78 5134114.98 192.93
-9754073.37 5134105.76 194.67
-9754059.89 5134106.71 192.46
-9754046.76 5134106.17 181.89
-9754007.30 5134105.91 182.07
-9753967.99 5134119.33 182.08
-9753928.37 5134106.11 192.09
-9753915.60 5134115.41 191.29
-9753894.98 5134119.32 193.48
-9753871.32 5134122.64 193.46
-9753865.76 5134123.78 193.52
-9753862.52 5134119.25 183.02
-9753836.01 5134106.02 183.14
-9753823.06 5134105.68 182.98
-9753809.91 5134105.22 182.59
-9753813.14 5134105.74 187.30
-9753796.17 5134119.15 182.83
-9753708.28 5134105.95 191.61
-9753664.79 5134105.65 182.88
-9753651.49 5134105.83 182.77
-9753626.21 5134106.10 182.90
-9753612.11 5134105.98 194.21
-9753585.58 5134106.11 194.37
-9753533.09 5134118.72 193.40
-9753506.43 5134119.23 182.36
-9753506.33 5134118.85 189.73
-9753493.53 5134105.83 182.22
-9753479.96 5134106.02 182.28
-9754284.10 5134104.66 187.22
-9754270.91 5134104.87 187.23
-9754284.41 5134092.48 181.83
-9754270.62 5134098.40 186.67
-9754256.22 5134092.64 187.90
-9754244.59 5134105.86 181.60
-9754249.12 5134105.79 192.73
-9754231.42 5134092.97 181.29
-9754218.13 5134092.67 181.68
-9754176.84 5134107.11 190.78
-9754135.57 5134105.51 192.48
-9754126.18 5134091.79 193.49
-9754125.57 5134092.48 181.94
-9754112.57 5134091.76 181.64
-9754099.37 5134092.15 193.58
-9754099.99 5134092.18 181.74
-9754073.21 5134093.44 193.78
-9754033.87 5134092.43 181.81
-9754007.61 5134092.96 182.05
-9753980.89 5134092.81 182.17
-9753936.42 5134097.27 192.68
-9753928.46 5134092.45 193.44
-9753928.27 5134092.53 182.34
-9753902.10 5134092.83 182.50
-9753875.66 5134093.02 182.58
-9753875.14 5134093.09 191.94
-9753866.88 5134100.10 187.24
-9753836.41 5134092.46 182.88
-9753822.63 5134079.37 182.73
-9753783.03 5134093.02 182.73
-9753785.43 5134096.11 187.47
-9753757.10 5134092.29 182.76
-9753743.89 5134092.80 182.77
-9753738.51 5134100.37 189.08
-9753717.69 5134092.67 182.74
-9753691.39 5134092.80 182.73
-9753704.16 5134079.25 182.66
-9753707.29 5134078.38 194.42
-9753677.80 5134092.67 182.71
-9753625.42 5134079.64 182.60
-9753612.14 5134079.60 182.60
-9753586.15 5134101.29 183.41
-9753572.36 5134079.36 182.51
-9753533.08 5134093.03 182.43
-9753519.52 5134092.91 182.33
-9753519.94 5134079.64 182.34
-9753493.36 5134079.45 182.24
-9753480.13 5134079.99 182.17
-9754283.93 5134079.78 180.85
-9754290.70 5134085.35 187.92
-9754270.78 5134066.40 181.11
-9754269.46 5134078.64 189.94
-9754231.56 5134066.44 181.33
-9754205.03 5134066.58 181.41
-9754191.78 5134066.47 181.41
-9754138.94 5134079.82 181.34
-9754152.24 5134066.55 181.41
-9754138.41 5134066.64 191.90
-9754110.86 5134084.07 188.62
-9754122.96 5134066.22 191.67
-9754112.76 5134066.33 181.57
-9754072.92 5134079.67 181.67
-9754072.71 5134080.00 192.56
-9754060.00 5134066.58 181.82
-9754046.72 5134066.26 181.84
-9754022.09 5134080.83 190.70
-9754020.39 5134079.67 181.95
-9754033.77 5134066.69 181.95
-9754021.08 5134064.35 192.57
-9753928.64 5134066.11 191.53
-9753902.21 5134079.55 182.37
-9753914.98 5134066.29 182.44
-9753884.99 5134065.00 188.59
-9753875.53 5134065.51 188.55
-9753849.57 5134065.84 193.43
-9753836.09 5134066.14 193.95
-9753837.20 5134075.12 188.03
-9753809.82 5134064.79 188.14
-9753791.84 5134061.57 192.99
-9753744.03 5134066.15 182.78
-9753730.73 5134066.63 182.56
-9753717.25 5134066.62 182.75
-9753704.19 5134066.19 182.78
-9753665.03 5134066.59 182.72
-9753638.49 5134066.43 182.75
-9753625.22 5134066.65 182.88
-9753611.98 5134066.81 182.88
-9753599.02 5134066.73 182.83
-9753558.66 5134066.54 193.76
-9753519.60 5134066.49 206.18
-9753506.70 5134066.52 182.30
-9753517.77 5134070.15 213.52
-9753490.49 5134055.36 190.00
-9753484.98 5134068.02 187.77
-9753466.94 5134066.58 182.39
-9753466.70 5134053.29 182.39
-9753454.05 5134053.23 182.26
-9753454.68 5134066.32 191.88
-9753440.94 5134052.66 192.58
-9754284.14 5134039.85 181.28
-9754257.69 5134040.22 181.45
-9754231.40 5134040.37 181.77
-9754218.18 5134040.33 181.69
-9754178.88 5134053.40 181.50
-9754178.64 5134040.08 181.47
-9754183.09 5134051.83 189.71
-9754139.27 5134053.51 193.38
-9754152.40 5134040.24 181.35
-9754139.06 5134039.98 193.39
-9754112.65 5134053.26 194.37
-9754126.04 5134040.03 194.33
-9754112.72 5134039.93 194.56
-9754099.69 5134053.19 194.41
-9754038.95 5134039.67 182.31
-9754007.30 5134053.16 193.66
-9754011.90 5134062.11 192.70
-9754000.56 5134050.91 191.10
-9753993.89 5134040.12 182.05
-9753967.63 5134040.26 182.04
-9753953.91 5134039.05 181.58
-9753967.20 5134034.27 189.27
-9753910.93 5134062.21 186.79
-9753915.06 5134039.68 205.23
-9753918.13 5134047.46 192.57
-9753903.40 5134041.87 194.47
-9753903.08 5134038.11 200.20
-9753892.54 5134057.79 192.59
-9753871.24 5134054.32 192.55
-9753869.74 5134045.44 191.18
-9753862.08 5134053.35 192.05
-9753849.14 5134053.36 192.03
-9753861.44 5134042.55 191.28
-9753839.97 5134040.02 182.94
-9753827.57 5134053.31 193.39
-9753809.95 5134040.20 182.47
-9753796.55 5134053.12 182.88
-9753796.07 5134053.50 193.00
-9753783.01 5134053.02 182.77
-9753790.53 5134043.34 190.83
-9753785.07 5134044.12 191.56
-9753756.77 5134053.17 182.95
-9753769.82 5134039.98 182.87
-9753678.04 5134053.04 182.89
-9753665.58 5134041.06 190.24
-9753676.51 5134050.86 190.61
-9753664.47 5134051.04 190.26
-9753636.13 5134051.90 192.94
-9753598.64 5134053.35 203.52
-9753611.82 5134040.03 193.29
-9753559.38 5134053.11 196.53
-9753545.88 5134054.50 202.28
-9753558.83 5134040.51 194.13
-9753546.17 5134040.22 192.78
-9753531.29 5134036.80 193.96
-9753548.56 5134043.13 207.35
-9753506.46 5134053.46 182.30
-9753518.63 5134037.19 182.45
-9753486.17 5134055.97 189.98
-9753427.11 5134040.32 193.70
-9754283.57 5134013.28 190.17
-9754258.05 5134026.88 181.67
-9754244.51 5134013.55 181.63
-9754246.54 5134027.29 192.13
-9754231.29 5134013.72 181.72
-9754218.70 5134013.78 181.75
-9754217.07 5134027.14 192.89
-9754205.39 5134027.51 181.72
-9754204.89 5134027.27 193.05
-9754191.81 5134039.50 193.51
-9754192.84 5134026.20 181.70
-9754165.54 5134013.36 181.47
-9754152.20 5134026.85 181.40
-9754149.16 5134029.48 190.51
-9754139.36 5134013.83 181.50
-9754101.78 5134036.44 186.61
-9754099.65 5134013.50 194.56
-9754086.57 5134026.75 194.36
-9754086.37 5134013.75 194.36
-9754100.04 5134026.90 186.55
-9754047.04 5134027.10 181.95
-9754041.26 5134026.60 206.75
-9754039.63 5134013.53 193.51
-9754039.47 5134013.85 182.37
-9754040.11 5134026.82 193.52
-9754033.75 5134013.77 212.20
-9754039.67 5134026.48 182.36
-9753981.30 5134026.77 182.17
-9753954.42 5134027.29 193.14
-9753963.09 5134022.56 200.29
-9753940.33 5134024.86 192.80
-9753900.35 5134026.64 192.83
-9753893.02 5134037.81 200.02
-9753888.79 5134013.49 182.55
-9753854.34 5134011.67 182.78
-9753858.76 5134028.15 188.32
-9753848.88 5134026.82 182.65
-9753847.84 5134021.50 192.23
-9753835.85 5134029.54 192.68
-9753825.29 5134026.09 187.74
-9753784.82 5134024.13 188.44
-9753773.75 5134026.86 183.31
-9753745.46 5134026.27 189.34
-9753717.80 5134013.66 182.52
-9753717.27 5134013.97 188.49
-9753705.93 5134026.30 193.06
-9753677.77 5134013.93 182.82
-9753664.77 5134026.83 190.34
-9753651.69 5134027.12 182.55
-9753651.49 5134013.82 182.51
-9753638.17 5134027.02 182.44
-9753638.22 5134013.42 182.35
-9753627.15 5134016.59 191.23
-9753611.66 5134026.25 182.94
-9753611.40 5134026.72 192.13
-9753604.23 5134028.95 182.65
-9753611.47 5134013.62 193.27
-9753602.84 5134012.99 182.70
-9753586.46 5134026.69 202.58
-9753572.17 5134013.90 182.54
-9753545.57 5134028.79 192.74
-9753550.13 5134014.04 190.21
-9753533.10 5134027.39 193.83
-9753533.47 5134013.63 182.60
-9753532.87 5134013.78 191.53
-9753506.68 5134026.85 182.28
-9753493.43 5134027.42 192.07
-9753483.25 5134015.86 188.39
-9753479.94 5134013.72 182.27
-9753467.29 5134013.56 182.34
-9753440.67 5134026.81 182.21
-9753440.81 5134013.46 193.13
-9753440.70 5134013.77 182.08
-9753427.66 5134027.27 182.30
-9753414.40 5134026.70 182.62
-9753414.12 5134013.65 182.78
-9753400.87 5134026.83 182.56
-9753401.00 5134013.80 219.16
-9754271.22 5134000.65 181.47
-9754256.63 5134004.49 186.92
-9754244.61 5134000.47 181.66
-9754231.36 5134000.33 181.77
-9754218.69 5134000.31 181.80
-9754189.68 5134013.06 189.56
-9754179.61 5134001.18 190.28
-9754165.64 5134000.62 181.48
-9754152.06 5134000.51 181.45
-9754139.13 5134000.76 181.50
-9754125.90 5134000.38 193.48
-9754099.72 5134000.57 192.65
-9754087.13 5134001.88 192.96
-9754086.37 5134000.75 181.67
-9754060.08 5134000.55 182.01
-9754039.15 5134001.29 182.25
-9754039.34 5133999.74 206.75
-9754039.43 5133999.31 193.47
-9754033.61 5134000.75 217.43
-9754022.67 5133999.19 216.52
-9753968.13 5134000.36 181.86
-9753967.58 5134001.35 192.12
-9753952.40 5134000.75 193.99
-9753941.51 5134000.45 194.33
-9753928.18 5134000.38 193.91
-9753890.83 5133999.91 192.83
-9753825.07 5133999.53 193.54
-9753812.32 5134003.58 188.99
-9753796.30 5134000.44 182.61
-9753757.54 5133995.42 182.77
-9753745.07 5134001.65 188.30
-9753730.62 5134000.91 182.26
-9753693.36 5134011.15 190.92
-9753705.60 5134000.60 192.14
-9753677.51 5134001.33 193.66
-9753667.40 5134002.92 200.60
-9753672.57 5134002.74 200.32
-9753651.57 5134000.46 182.42
-9753609.89 5134002.70 192.79
-9753612.06 5134000.53 182.84
-9753599.02 5134002.69 193.57
-9753559.10 5134001.74 193.26
-9753559.35 5134000.60 182.48
-9753520.56 5134001.66 193.35
-9753493.26 5134000.50 182.13
-9753480.32 5134000.66 182.26
-9753467.36 5134000.61 182.33
-9753441.43 5134000.44 182.07
-9753429.17 5133998.23 189.36
-9753414.49 5134000.23 182.84
-9753414.08 5134000.67 193.11
-9753414.21 5134000.96 206.43
-9753403.13 5134000.46 182.86
-9754284.40 5135503.05 180.98
-9754284.21 5135476.96 192.72
-9754231.71 5134962.59 181.85
-9754177.26 5134962.00 192.74
-9754178.60 5134962.59 181.48
-9754284.06 5135331.45 190.21
-9754284.32 5135318.28 181.52
-9754284.26 5135292.18 181.67
-9754257.93 5134962.47 181.83
-9754165.60 5134962.55 181.33
-9754573.94 5134962.57 181.61
-9754560.83 5134936.13 181.69
-9754560.79 5134949.14 181.57
-9754560.68 5134962.78 181.49
-9754547.58 5134936.41 181.52
-9754548.25 5134962.05 190.37
-9754521.25 5134949.59 181.41
-9754538.11 5134963.53 187.44
-9754518.65 5134950.65 186.76
-9754495.31 5134949.38 181.77
-9754508.49 5134962.48 181.55
-9754453.52 5134935.92 189.13
-9754445.02 5134949.37 187.98
-9754454.00 5134963.58 189.10
-9754442.49 5134962.69 181.47
-9754428.97 5134949.60 181.58
-9754429.20 5134962.59 181.63
-9754416.09 5134936.19 181.90
-9754416.10 5134962.57 181.74
-9754389.34 5134935.58 191.33
-9754389.60 5134948.97 194.08
-9754389.54 5134962.47 192.85
-9754375.93 5134949.58 181.54
-9754376.61 5134936.54 181.52
-9754379.47 5134948.72 194.47
-9754363.27 5134949.55 181.07
-9754380.66 5134963.63 192.26
-9754364.54 5134952.63 191.97
-9754363.19 5134962.81 181.01
-9754350.07 5134936.38 181.34
-9754345.59 5134949.18 190.21
-9754337.09 5134936.34 181.39
-9754336.95 5134941.40 188.12
-9754349.93 5134962.48 181.29
-9754322.39 5134936.09 190.56
-9754323.73 5134949.56 181.48
-9754314.45 5134933.03 191.23
-9754310.85 5134949.97 188.37
-9754297.61 5134936.39 181.34
-9754293.54 5134940.29 187.27
-9754291.04 5134960.37 190.16
-9754512.35 5134919.48 189.50
-9754481.73 5134909.90 181.52
-9754468.73 5134909.88 181.34
-9754429.15 5134922.94 181.55
-9754429.23 5134910.20 181.39
-9754417.58 5134918.39 190.38
-9754402.47 5134923.48 181.74
-9754389.86 5134913.17 187.99
-9754376.69 5134909.59 190.95
-9754349.86 5134922.80 181.36
-9754321.98 5134925.86 181.45
-9754325.26 5134922.66 200.40
-9754310.87 5134922.47 200.61
-9754297.57 5134925.60 192.71
-9754297.60 5134907.82 190.42
-9754293.82 5134921.87 200.26
-9754481.87 5134883.57 181.42
-9754455.24 5134896.74 181.37
-9754452.87 5134896.75 189.18
-9754442.33 5134883.38 181.29
-9754441.82 5134881.03 193.41
-9754427.23 5134896.98 193.33
-9754415.82 5134896.58 193.54
-9754417.45 5134881.86 191.30
-9754402.48 5134896.70 181.37
-9754403.11 5134883.10 194.01
-9754390.03 5134883.10 193.26
-9754346.00 5134897.64 187.50
-9754337.83 5134896.87 190.19
-9754337.13 5134883.35 181.20
-9754326.54 5134899.06 200.37
-9754310.91 5134900.94 192.92
-9754310.67 5134898.17 200.20
-9754332.79 5134885.58 199.96
-9754299.23 5134898.49 200.14
-9754452.48 5134871.48 189.29
-9754442.52 5134857.29 181.22
-9754428.01 5134871.44 192.59
-9754429.85 5134856.92 181.37
-9754431.49 5134856.51 190.69
-9754415.69 5134857.11 181.78
-9754402.80 5134870.33 193.53
-9754389.53 5134870.43 193.57
-9754388.60 5134855.28 189.74
-9754389.92 5134870.64 181.52
-9754389.44 5134857.29 181.39
-9754376.18 5134870.42 189.89
-9754376.49 5134857.20 181.38
