-9753467.79 5137149.77 193.27
-9753466.94 5137163.25 182.30
-9753664.36 5136042.89 182.44
-9753440.72 5137163.75 182.35
-9753651.63 5136043.48 182.27
-9753651.84 5136056.54 181.91
-9753651.73 5136055.93 193.00
-9753638.35 5136043.41 182.27
-9753401.30 5137150.08 182.40
-9753585.81 5136056.69 182.04
-9753585.59 5136043.69 181.96
-9753505.03 5136053.23 189.03
-9753494.54 5136045.25 188.30
-9753440.80 5136056.45 181.60
-9753458.97 5136041.11 188.63
-9753440.50 5136043.11 181.71
-9754231.82 5136030.36 193.78
-9754191.31 5136030.16 180.69
-9754242.16 5137151.13 181.83
-9754218.33 5137150.62 181.38
-9754205.36 5137150.18 181.23
-9754204.87 5137137.49 181.27
-9754111.77 5136028.30 192.56
-9754086.53 5136029.94 193.90
-9754178.83 5137150.38 181.31
-9754178.91 5137137.05 181.33
-9754033.72 5136030.08 192.64
-9754007.36 5136030.21 193.31
-9754112.81 5137150.48 182.63
-9754113.27 5137150.69 193.12
-9753995.59 5136030.55 192.39
-9753994.03 5136029.90 181.33
-9754097.96 5137141.56 189.84
-9754002.65 5136038.23 189.46
-9754086.66 5137151.30 193.10
-9754085.48 5137137.46 192.41
-9754086.35 5137137.38 181.58
-9754073.78 5137140.00 193.10
-9754059.98 5137150.48 182.53
-9754059.69 5137136.87 181.46
-9754062.80 5137154.31 193.99
-9753941.36 5136017.11 181.85
-9754046.80 5137137.13 181.76
-9754007.51 5137150.56 181.54
-9753994.02 5137150.48 193.29
-9753897.60 5136031.45 181.78
-9753863.10 5136029.32 181.71
-9753981.26 5137150.32 182.04
-9753849.42 5136017.00 190.47
-9753849.00 5136014.21 181.53
-9753849.75 5136030.97 191.16
-9753928.50 5137150.31 182.18
-9753862.17 5137137.18 182.14
-9753862.32 5137124.18 182.16
-9753835.96 5137137.28 182.17
-9753836.07 5137124.32 182.18
-9753809.48 5137137.49 182.14
-9753809.82 5137124.11 182.23
-9753796.58 5137124.32 182.27
-9753783.52 5137137.00 182.15
-9753756.69 5137124.14 182.22
-9753743.49 5137124.04 182.31
-9753745.30 5137122.57 190.34
-9753770.07 5136028.63 191.14
-9753717.55 5137123.89 182.26
-9753691.24 5137137.07 182.16
-9753704.27 5137124.14 182.21
-9753718.15 5136021.66 181.59
-9753638.46 5137137.11 187.08
-9753651.46 5137123.79 182.39
-9753625.64 5137137.42 191.14
-9753612.04 5137124.03 190.70
-9753585.82 5137123.85 190.81
-9753559.37 5137137.19 182.09
-9753568.85 5137124.40 182.61
-9753532.87 5137136.98 182.07
-9753479.24 5137135.87 190.91
-9753493.42 5137123.99 182.12
-9753480.46 5137123.95 182.14
-9753453.92 5137137.16 193.05
-9753467.09 5137123.91 193.10
-9753427.33 5137136.94 182.05
-9753445.44 5137127.84 189.26
-9753440.93 5137124.05 181.75
-9753651.31 5136016.15 191.27
-9753651.56 5136015.39 182.10
-9753651.49 5136030.88 182.48
-9753412.90 5137139.68 191.68
-9753638.15 5136031.08 182.50
-9753612.15 5136030.25 181.68
-9753401.04 5137124.20 234.11
-9753585.67 5136030.07 181.94
-9753572.51 5136016.95 182.13
-9753559.12 5136030.52 182.10
-9753545.96 5136017.08 182.08
-9753493.20 5136016.78 181.80
-9753502.92 5136030.43 190.97
-9753493.40 5136030.14 181.82
-9753465.43 5136035.36 187.96
-9753453.66 5136017.15 181.89
-9753440.39 5136016.98 181.89
-9754257.76 5137126.62 192.49
-9754270.66 5136016.89 181.85
-9754271.26 5136007.61 181.06
-9754244.75 5136016.84 181.67
-9754242.19 5136019.10 191.17
-9754191.66 5137124.07 181.51
-9754218.33 5136003.73 191.96
-9754205.01 5137110.84 181.26
-9754233.68 5136016.71 200.43
-9754202.85 5136016.73 191.37
-9754178.71 5137124.02 181.35
-9754182.69 5137111.46 189.66
-9754139.15 5137124.07 181.39
-9754165.46 5136016.95 192.50
-9754165.80 5136003.96 181.24
-9754112.64 5137123.86 181.47
-9754141.13 5136013.70 191.81
-9754086.41 5137124.32 181.49
-9754073.42 5137123.93 181.50
-9754073.51 5137110.64 181.79
-9754033.87 5137124.29 181.39
-9753994.37 5137123.81 181.85
-9754150.60 5136001.75 192.88
-9754138.98 5136003.76 181.84
-9754139.46 5136017.07 181.81
-9753979.81 5137111.53 192.53
-9753967.86 5137123.87 182.13
-9753968.37 5137110.95 192.65
-9753954.67 5137110.79 182.17
-9753941.41 5137110.97 182.15
-9754060.05 5136018.00 191.24
-9754046.99 5136017.88 193.49
-9753875.31 5137123.94 182.20
-9754066.98 5136008.43 186.99
-9754033.57 5136018.02 193.34
-9754023.41 5136019.70 188.03
-9753848.86 5137123.61 190.26
-9753995.12 5136002.62 191.28
-9753835.33 5137112.49 192.01
-9753981.21 5136002.54 181.61
-9753801.64 5137110.36 200.57
-9753945.37 5136002.42 190.15
-9753783.04 5137110.95 182.21
-9753783.16 5137097.60 182.10
-9753770.36 5137110.90 182.20
-9753757.13 5137110.78 182.20
-9753748.05 5137116.25 189.23
-9753743.96 5137097.95 182.12
-9753651.56 5137110.73 182.42
-9753608.67 5137123.16 183.64
-9753598.19 5137124.28 183.40
-9753572.30 5137110.77 190.63
-9753554.55 5137121.78 188.27
-9753532.82 5137097.64 182.05
-9753505.27 5137098.44 194.47
-9753902.01 5136003.95 192.08
-9753401.07 5137109.69 234.16
-9753414.37 5137096.91 232.09
-9753401.49 5137100.23 233.93
-9753822.90 5136003.65 181.85
-9753401.24 5137100.28 220.68
-9753402.33 5137100.01 207.47
-9753809.99 5136003.68 191.61
-9753731.50 5136012.68 193.90
-9753730.64 5136003.74 181.72
-9753704.03 5136003.54 182.11
-9753664.89 5136004.47 182.30
-9753624.74 5136003.06 181.85
-9754244.04 5137097.70 182.05
-9754233.25 5137082.08 191.27
-9754205.07 5137097.80 181.26
-9754207.30 5137092.57 190.63
-9753573.93 5135990.81 194.19
-9753556.47 5135990.61 181.00
-9753533.05 5136003.98 181.73
-9753519.75 5136003.65 181.80
-9753492.72 5136004.17 191.55
-9753505.71 5136004.01 190.12
-9753480.35 5136003.94 181.77
-9753440.51 5136003.78 181.83
-9753414.32 5135990.53 182.15
-9753401.41 5135990.47 182.17
-9753400.98 5136003.77 182.17
-9754259.71 5135992.37 192.90
-9754271.11 5135990.27 181.77
-9754139.05 5135990.75 181.27
-9754083.05 5135989.20 190.60
-9754059.53 5135990.11 192.14
-9754152.37 5137084.41 181.54
-9754139.12 5137084.35 181.60
-9754086.27 5137097.64 181.53
-9753994.10 5135990.49 192.96
-9754000.21 5137100.15 189.69
-9753980.82 5135992.10 181.66
-9753967.58 5135990.42 181.74
-9753899.52 5135990.51 182.99
-9753875.52 5137084.25 182.27
-9753849.30 5137084.40 182.39
-9753862.34 5137071.46 182.22
-9753836.02 5137084.60 182.43
-9753799.85 5137101.39 186.67
-9753863.89 5135995.74 190.75
-9753770.23 5137084.51 181.98
-9753794.96 5137072.29 192.44
-9753783.31 5137071.37 181.86
-9753743.75 5137071.30 181.88
-9753848.95 5135994.45 186.71
-9753838.64 5135993.09 187.42
-9753799.52 5135992.24 189.25
-9753800.88 5135997.79 187.33
-9753691.22 5137084.66 182.07
-9753678.41 5137084.10 188.82
-9753664.79 5137071.52 182.33
-9753731.99 5135989.21 192.02
-9753638.47 5137084.56 182.62
-9753651.51 5137071.07 182.29
-9753611.98 5137084.35 190.52
-9753704.22 5135989.48 191.05
-9753568.00 5137070.87 182.61
-9753559.20 5137071.42 182.24
-9753532.93 5137084.27 182.09
-9753506.73 5137071.35 181.95
-9753480.15 5137071.35 193.58
-9753452.52 5137082.96 234.09
-9753466.89 5137070.87 182.58
-9753454.95 5137072.83 194.21
-9753454.23 5137073.12 207.47
-9753454.50 5137073.05 220.72
-9753454.17 5137073.03 233.92
-9753427.78 5137082.34 194.39
-9753439.47 5137078.85 218.09
-9753426.75 5137082.70 220.79
-9753426.92 5137082.45 207.57
-9753439.85 5137072.35 192.40
-9753413.36 5137097.25 205.77
-9753410.44 5137097.47 182.93
-9753414.02 5137097.17 194.33
-9753414.52 5137096.87 218.80
-9753415.47 5137085.51 233.92
-9753415.82 5137085.36 207.52
-9753415.52 5137085.51 220.75
-9753421.06 5137093.45 186.73
-9753421.42 5137094.81 207.70
-9753401.18 5137072.18 183.29
-9753625.15 5135991.36 182.12
-9753572.91 5135987.41 182.13
-9754257.73 5137071.51 181.60
-9753466.62 5135987.56 194.11
-9754231.27 5137057.94 181.64
-9754192.03 5137058.31 181.52
-9754178.51 5137058.28 181.40
-9754125.11 5137059.65 188.94
-9754099.78 5137058.26 250.22
-9754094.13 5137056.89 182.10
-9754078.06 5137057.90 256.05
-9754072.87 5137057.18 182.46
-9754046.64 5137071.38 181.64
-9754058.14 5137057.25 205.58
-9754058.47 5137057.26 192.50
-9754058.46 5137057.11 218.69
-9754058.48 5137057.03 231.79
-9754059.66 5137058.19 182.15
-9754033.72 5137058.27 181.40
-9754016.42 5137065.24 187.69
-9754020.46 5137058.16 181.53
-9754008.16 5137056.91 186.73
-9753994.19 5137058.30 181.77
-9753888.74 5137044.92 182.29
-9753875.79 5137044.90 182.22
-9753756.84 5137058.07 182.19
-9753743.67 5137045.02 182.41
-9753651.48 5137045.02 194.07
-9753625.22 5137044.85 194.13
-9753572.61 5137058.08 183.44
-9753565.84 5137061.53 191.18
-9753572.39 5137044.74 183.45
-9753519.58 5137044.85 182.20
-9753506.63 5137044.77 182.06
-9753493.23 5137058.51 182.16
-9753467.22 5137057.49 182.37
-9753466.79 5137045.37 182.70
-9753440.49 5137057.91 182.99
-9753433.11 5137053.07 189.49
-9753400.98 5137058.28 183.13
-9754231.34 5137045.24 181.62
-9754138.88 5137031.76 185.37
-9754112.85 5137044.77 182.12
-9754091.74 5137051.80 182.17
-9754086.61 5137044.97 182.18
-9754086.24 5137044.68 205.56
-9754086.15 5137044.81 231.80
-9754073.35 5137044.40 244.87
-9754073.34 5137044.84 182.16
-9754060.04 5137045.10 182.17
-9754086.44 5137030.58 189.00
-9754073.11 5137044.40 192.45
-9754073.33 5137044.48 218.65
-9754073.12 5137044.49 205.58
-9754073.18 5137044.43 231.74
-9754060.11 5137045.08 192.44
-9754060.26 5137044.84 205.57
-9754007.27 5137044.77 181.57
-9754007.36 5137032.06 181.54
-9754011.57 5137032.01 187.08
-9754013.63 5137044.38 189.42
-9753968.17 5137031.81 181.94
-9753901.78 5137031.71 182.34
-9753875.81 5137031.82 182.24
-9753888.60 5137018.61 182.26
-9753809.79 5137031.73 182.05
-9753796.22 5137031.99 181.97
-9753794.49 5137043.40 190.90
-9753793.97 5137032.87 188.26
-9753783.54 5137031.85 181.90
-9753793.09 5137021.35 188.88
-9753783.35 5137018.87 181.97
-9753757.00 5137032.01 182.26
-9753743.83 5137018.58 182.38
-9753730.33 5137034.59 192.63
-9753717.53 5137031.75 183.53
-9753717.94 5137034.13 192.89
-9753705.56 5137034.57 192.92
-9753699.21 5137029.09 182.55
-9753691.57 5137031.63 182.57
-9753678.11 5137031.86 194.21
-9753664.52 5137018.43 182.58
-9753651.40 5137029.83 182.62
-9753651.84 5137018.66 182.57
-9753638.94 5137036.05 194.44
-9753626.53 5137036.03 192.92
-9753610.82 5137039.59 182.54
-9753598.74 5137018.61 182.44
-9753586.02 5137039.82 183.58
-9753573.55 5137020.02 189.11
-9753454.22 5137018.64 182.71
-9753446.10 5137020.53 188.24
-9753400.80 5137017.94 182.64
-9754218.25 5137018.48 181.50
-9754158.14 5137020.41 190.72
-9753993.85 5137018.65 181.62
-9753967.93 5137018.47 181.91
-9753746.02 5137018.92 189.41
-9753698.03 5137011.93 182.46
-9753691.94 5137013.00 187.70
-9753665.79 5137013.22 187.83
-9754270.99 5136926.08 181.75
-9754271.13 5137295.41 181.89
-9754270.95 5136978.80 181.61
-9754271.78 5137097.43 191.99
-9754270.97 5137123.94 181.96
-9754271.25 5137097.21 181.95
-9755075.08 5135951.05 179.54
-9755074.90 5135871.95 180.06
-9755075.05 5135858.87 179.95
-9755074.76 5135845.57 179.85
-9755061.59 5135832.38 176.88
-9755074.65 5135819.53 179.83
-9755076.91 5135807.04 194.35
-9755077.03 5135806.80 204.59
-9755074.72 5135766.50 180.17
-9755076.74 5135770.31 186.67
-9755077.90 5135774.02 186.93
-9755048.38 5135766.51 176.51
-9755061.76 5135753.56 177.10
-9755075.13 5135741.65 187.28
-9755048.50 5135753.24 176.42
-9755048.85 5135740.16 176.34
-9755074.71 5135713.84 179.98
-9755063.30 5135713.47 180.27
-9755022.52 5135714.01 176.53
-9755074.79 5135700.70 181.35
-9755022.58 5135701.59 182.19
-9755060.94 5137005.73 177.93
-9755048.33 5137005.53 177.31
-9755048.71 5136992.44 177.15
-9755030.84 5137004.71 173.24
-9755030.44 5136992.91 173.39
-9755022.39 5137005.50 173.11
-9755022.30 5137018.59 172.94
-9755022.15 5136992.27 173.23
-9755019.70 5137005.97 177.93
-9755019.25 5136992.58 177.71
-9755020.12 5137019.11 178.11
-9754982.56 5137005.70 177.20
-9754969.63 5137005.60 177.39
-9754956.67 5136992.29 177.05
-9754917.35 5137018.75 181.60
-9754903.58 5137018.54 184.67
-9754890.38 5137005.34 185.41
-9754876.34 5137018.53 181.38
-9754837.64 5136992.25 180.85
-9754824.76 5137018.64 180.51
-9754798.31 5137005.34 180.93
-9754810.65 5137018.48 180.70
-9754444.52 5137004.45 181.45
-9754416.00 5137005.19 193.11
-9754402.74 5137005.40 193.16
-9754389.36 5137005.32 181.03
-9754376.40 5137005.52 181.12
-9754349.84 5137005.37 181.37
-9754336.64 5136992.56 181.56
-9755060.44 5136979.34 177.59
-9754969.77 5136979.31 177.05
-9754916.73 5136979.14 180.86
-9754875.50 5136978.78 181.14
-9754864.06 5136979.12 193.21
-9754809.77 5136981.42 192.33
-9754389.87 5136980.34 193.70
-9754376.26 5136979.44 181.20
-9754350.27 5136978.99 181.42
-9754995.47 5136966.12 176.75
-9754969.53 5136965.98 176.85
-9754956.26 5136965.88 176.65
-9754956.49 5136967.90 191.58
-9754930.04 5136966.20 179.71
-9754875.69 5136966.54 181.05
-9754851.04 5136965.99 180.52
-9754402.37 5136966.12 192.66
-9754402.58 5136966.04 181.05
-9754403.06 5136953.32 194.74
-9754310.26 5136965.77 181.59
-9755062.00 5136939.29 176.35
-9755048.43 5136939.78 176.43
-9755035.73 5136939.45 176.35
-9755008.90 5136939.89 176.35
-9754956.31 5136952.91 176.49
-9754956.46 5136939.23 176.31
-9754943.21 5136953.12 180.12
-9754941.06 5136951.06 186.72
-9754891.89 5136939.68 185.01
-9754875.43 5136952.54 181.46
-9754863.90 5136939.70 181.65
-9754376.47 5136939.48 181.18
-9754323.76 5136939.44 181.52
-9755075.02 5136926.68 176.33
-9755048.50 5136926.50 176.24
-9754995.72 5136926.46 176.19
-9754956.47 5136926.55 176.13
-9754917.30 5136926.39 181.33
-9754874.82 5136926.66 181.95
-9754874.66 5136928.18 187.23
-9754850.73 5136926.26 181.83
-9754349.73 5136926.30 181.46
-9754310.25 5136926.05 181.56
-9754376.41 5136900.11 181.17
-9754336.93 5136900.13 181.68
-9754297.28 5136913.26 181.69
-9754297.42 5136899.92 181.75
-9755074.94 5136900.02 175.96
-9755061.92 5136899.90 175.83
-9754943.24 5136886.85 180.25
-9754929.95 5136886.84 179.92
-9754917.33 5136886.72 181.16
-9754904.03 5136886.78 184.71
-9754363.24 5136887.01 181.35
-9755062.08 5136873.56 175.52
-9754969.20 5136873.64 175.67
-9754952.29 5136875.17 180.90
-9754864.00 5136873.60 182.10
-9755035.61 5136860.41 175.46
-9755022.05 5136860.65 174.82
-9755008.79 5136860.56 175.43
-9754890.97 5136860.58 184.97
-9754357.80 5136860.17 191.69
-9754336.88 5136860.16 181.71
-9754323.67 5136847.33 181.57
-9754297.06 5136860.49 181.73
-9755022.10 5136847.59 174.97
-9754942.81 5136847.49 178.44
-9754929.90 5136847.42 179.98
-9754904.57 5136847.04 184.51
-9754891.06 5136848.18 184.89
-9754348.61 5136848.80 191.60
-9754336.64 5136847.15 181.50
-9755022.27 5136834.32 175.07
-9754995.97 5136834.12 175.35
-9754959.50 5136819.84 176.53
-9754950.32 5136837.76 187.74
-9754323.55 5136820.98 181.44
-9755022.40 5136807.89 175.32
-9754996.09 5136807.75 175.34
-9754983.89 5136807.34 175.90
-9754956.29 5136807.88 175.01
-9754916.96 5136807.73 180.85
-9754310.35 5136807.90 181.34
-9755017.54 5136793.37 193.53
-9754982.75 5136794.39 181.63
-9754929.92 5136794.42 180.09
-9754310.43 5136794.56 181.19
-9754298.64 5136781.81 191.54
-9754284.21 5136794.37 181.32
-9755061.76 5136781.50 181.66
-9755048.56 5136781.38 181.93
-9755035.26 5136781.28 182.09
-9755035.36 5136768.32 181.97
-9754995.87 5136768.06 181.82
-9754969.48 5136781.29 181.37
-9754929.99 5136781.40 180.17
-9754271.19 5136768.24 181.60
-9755074.86 5136755.27 175.35
-9754955.79 5136755.70 176.06
-9754312.30 5136738.79 208.52
-9754270.93 5136741.89 181.86
-9755048.53 5136728.43 175.57
-9754983.08 5136728.60 176.26
-9754284.37 5136715.37 181.87
-9754270.87 5136714.03 180.41
-9754982.93 5136702.22 176.48
-9754969.62 5136702.45 175.78
-9754955.17 5136702.75 176.31
-9754995.71 5136689.28 175.96
-9754955.02 5136689.26 176.35
-9755022.66 5136676.74 176.51
-9755010.88 5136676.43 177.33
-9754996.04 5136676.24 176.07
-9755061.96 5136649.68 176.18
-9755035.46 5136649.48 176.22
-9754996.13 5136662.91 176.17
-9754995.91 5136649.26 176.28
-9754982.58 5136662.79 176.78
-9755074.72 5136636.42 176.07
-9755061.79 5136636.33 176.27
-9755048.51 5136583.80 176.60
-9755035.30 5136570.38 176.82
-9755023.78 5136571.67 178.37
-9755009.13 5136570.46 178.44
-9755061.92 5136557.57 176.64
-9755048.71 5136557.19 176.76
-9755009.45 5136557.26 178.61
-9755074.72 5136530.93 177.51
-9755049.93 5136504.17 177.67
-9755075.72 5136490.99 178.68
-9755048.59 5136425.67 177.45
-9755048.65 5136412.36 177.36
-9755050.41 5137360.80 179.65
-9754851.05 5137361.31 181.42
-9754824.46 5137361.17 181.59
-9754772.02 5137361.44 181.27
-9754757.55 5137360.31 190.94
-9754745.30 5137361.27 193.21
-9754732.22 5137360.94 181.17
-9755077.03 5136372.77 176.68
-9754669.77 5137363.19 181.51
-9754653.39 5137361.00 192.81
-9754654.83 5137362.19 201.92
-9754652.82 5137360.49 181.72
-9754600.39 5137361.37 181.04
-9754587.86 5137363.58 188.41
-9754508.08 5137361.15 181.01
-9754495.11 5137361.35 180.86
-9754496.88 5137361.54 189.76
-9754297.27 5137361.06 181.12
-9755061.61 5137348.15 179.08
-9754890.28 5137353.94 193.52
-9754850.82 5137348.00 181.21
-9754811.56 5137348.06 181.39
-9754785.06 5137347.93 181.20
-9754771.50 5137348.15 181.14
-9754758.50 5137348.07 181.20
-9754732.23 5137348.53 194.65
-9754719.02 5137348.15 180.88
-9755075.86 5136346.49 176.60
-9754707.88 5137349.97 192.84
-9754679.48 5137347.90 181.27
-9754677.27 5137350.82 192.81
-9754626.82 5137349.77 192.88
-9754636.55 5137351.53 199.86
-9754613.73 5137348.37 181.11
-9754600.45 5137348.30 180.96
-9754587.18 5137348.27 180.78
-9754587.25 5137348.43 189.21
-9754564.19 5137353.89 189.89
-9754534.78 5137348.35 191.79
-9754534.66 5137347.98 180.88
-9754521.13 5137347.88 180.85
-9754508.18 5137347.78 180.86
-9754494.88 5137347.98 180.82
-9754389.75 5137334.96 180.89
-9754310.60 5137348.37 181.02
-9754308.64 5137355.13 187.70
-9754297.33 5137348.01 180.91
-9755061.79 5136333.41 175.88
-9755008.94 5137335.00 180.97
-9754864.21 5137321.44 180.58
-9754837.75 5137334.83 193.17
-9754811.07 5137335.02 181.22
-9754798.10 5137334.97 181.16
-9754784.96 5137334.91 193.22
-9754771.85 5137335.10 181.10
-9754758.26 5137335.00 181.18
-9754745.10 5137321.62 181.19
-9754745.33 5137334.99 181.13
-9754732.32 5137334.61 180.86
-9754692.81 5137334.93 181.28
-9754679.67 5137321.52 181.22
-9754671.06 5137338.88 188.21
-9754626.78 5137335.39 181.37
-9754613.61 5137335.01 193.85
-9754600.60 5137321.69 181.07
-9754560.82 5137322.04 180.91
-9754534.31 5137322.32 190.77
-9754534.52 5137321.58 180.81
-9754442.19 5137334.97 180.81
-9754415.74 5137321.49 180.83
-9754297.17 5137321.68 181.01
-9754283.44 5137321.21 188.50
-9754284.20 5137321.91 181.15
-9755074.83 5137308.83 179.28
-9755022.36 5137308.79 180.49
-9754982.83 5137308.59 179.02
-9754918.24 5137321.33 183.18
-9754876.98 5137308.46 181.16
-9754824.03 5137308.15 192.62
-9754797.98 5137308.30 181.24
-9754745.47 5137308.86 181.21
-9754735.88 5137306.32 181.41
-9754734.09 5137313.46 203.45
-9754725.55 5137315.36 200.45
-9754705.90 5137308.68 205.25
-9754702.67 5137317.76 205.71
-9754692.92 5137308.66 205.68
-9754692.45 5137308.03 192.80
-9754692.63 5137308.22 181.33
-9754697.27 5137318.58 205.71
-9754679.44 5137308.46 181.17
-9754637.72 5137311.72 200.90
-9754629.81 5137307.49 192.91
-9754612.77 5137313.05 191.62
-9754613.39 5137308.67 181.33
-9754587.41 5137308.28 180.78
-9754585.65 5137316.36 191.98
-9754534.39 5137309.08 181.89
-9754495.09 5137308.60 180.79
-9754403.49 5137309.81 186.81
-9754389.42 5137308.60 192.56
-9755061.67 5137295.41 179.40
-9755035.11 5137295.57 180.04
-9755008.59 5137295.37 180.53
-9754969.09 5137296.04 179.98
-9754969.46 5137295.70 193.63
-9754942.82 5137295.29 179.82
-9754926.24 5137297.69 187.21
-9754864.06 5137295.67 180.89
-9754824.41 5137295.44 193.22
-9754811.27 5137295.35 181.08
-9754798.46 5137295.66 197.40
-9754784.92 5137295.32 197.32
-9754773.13 5137306.65 200.76
-9754773.15 5137295.77 193.89
-9754719.00 5137295.20 209.61
-9754731.08 5137293.35 205.65
-9754705.93 5137295.73 205.66
-9754692.46 5137295.20 181.32
-9754679.36 5137295.49 193.02
-9754679.26 5137295.48 181.25
-9754666.53 5137295.30 181.29
-9754654.53 5137307.04 190.91
-9754627.17 5137293.25 201.94
-9754603.37 5137294.67 193.47
-9754600.47 5137295.23 181.05
-9754603.32 5137292.90 200.99
-9754569.45 5137304.95 187.82
-9754567.28 5137305.16 187.25
-9754560.66 5137295.40 180.85
-9755061.47 5136293.77 175.58
-9754481.77 5137295.16 205.80
-9754481.60 5137295.44 181.10
-9754455.41 5137295.06 181.09
-9754363.25 5137295.52 191.52
-9754349.90 5137295.38 191.81
-9754310.66 5137295.35 181.23
-9755075.00 5137282.18 179.38
-9755061.78 5137282.36 179.46
-9755035.49 5137282.21 180.00
-9755008.97 5137282.05 180.42
-9754952.62 5137286.98 194.90
-9754946.01 5137287.51 193.38
-9754943.22 5137281.98 179.81
-9754903.43 5137282.41 184.15
-9754915.24 5137293.32 204.00
-9754850.80 5137283.46 193.26
-9754811.44 5137282.05 181.22
-9754810.88 5137287.89 187.35
-9754787.85 5137292.21 201.85
-9754758.62 5137282.00 181.32
-9754719.12 5137282.39 181.31
-9754720.09 5137283.55 193.24
-9754707.27 5137281.71 181.33
-9754714.68 5137288.92 193.02
-9754707.02 5137281.66 200.46
-9754714.70 5137289.21 183.76
-9754694.20 5137281.53 201.91
-9754692.55 5137282.20 181.26
-9754693.03 5137282.92 193.42
-9754681.22 5137286.46 191.95
-9754656.83 5137282.37 201.01
-9754639.26 5137279.15 193.10
-9754640.49 5137279.40 181.62
-9754613.85 5137282.04 181.30
-9754613.64 5137283.64 193.16
-9754616.82 5137290.20 200.01
-9754602.13 5137285.65 193.66
-9754617.26 5137268.14 192.99
-9754613.64 5137269.00 181.16
-9754600.35 5137269.22 181.00
-9754587.31 5137282.25 180.83
-9754587.49 5137269.09 180.83
-9754560.75 5137282.02 180.91
-9754548.63 5137284.25 189.99
-9754521.28 5137268.74 181.59
-9754504.86 5137281.91 188.11
-9754494.76 5137282.31 180.86
-9754483.87 5137283.23 191.29
-9754495.07 5137269.22 180.94
-9754479.85 5137288.34 200.35
-9754468.65 5137270.46 195.53
-9754455.14 5137270.66 195.49
-9754428.96 5137282.25 184.60
-9754380.27 5137279.58 180.98
-9754337.18 5137268.79 189.76
-9754297.42 5137282.27 181.26
-9755048.35 5137255.92 179.44
-9755035.33 5137255.84 179.91
-9755022.07 5137256.08 180.05
-9755009.06 5137268.99 180.29
-9754995.80 5137255.69 178.89
-9754969.31 5137256.08 179.24
-9754930.00 5137268.87 179.84
-9754903.82 5137269.11 184.14
-9754824.80 5137256.03 180.91
-9754801.64 5137265.48 200.70
-9754798.27 5137255.86 181.19
-9754762.40 5137272.47 194.01
-9754771.48 5137262.11 192.04
-9754758.46 5137255.94 181.10
-9754732.24 5137255.84 181.18
-9754718.91 5137269.09 181.22
-9754718.96 5137255.70 181.37
-9754732.13 5137273.37 193.59
-9754732.07 5137273.28 205.66
-9754705.90 5137268.94 181.23
-9754705.66 5137255.92 181.38
-9754702.46 5137275.04 194.01
-9754692.32 5137268.86 181.22
-9754702.06 5137274.90 201.60
-9754666.47 5137255.97 181.28
-9754666.48 5137269.67 192.13
-9754653.21 5137256.24 181.21
-9754657.63 5137270.80 190.72
-9754638.80 5137256.05 188.03
-9754630.60 5137268.51 192.91
-9754626.68 5137255.78 181.34
-9754628.78 5137261.98 193.61
-9754600.44 5137255.90 181.04
-9754573.91 5137255.76 180.85
-9754482.90 5137255.86 192.99
-9754468.72 5137255.05 194.66
-9754455.50 5137255.31 194.63
-9754389.32 5137255.86 180.68
-9754380.42 5137255.70 181.06
-9754363.28 5137257.52 190.90
-9754324.48 5137258.41 189.81
-9754314.22 5137255.07 185.77
-9755074.83 5137256.09 179.44
-9755074.92 5137242.48 179.44
-9755061.62 5137255.69 179.53
-9754929.87 5137242.52 179.91
-9754842.96 5137242.82 192.12
-9754810.18 5137243.80 187.30
-9754784.83 5137242.77 180.94
-9754758.84 5137242.92 180.89
-9754745.28 5137242.52 181.03
-9754732.34 5137242.63 181.27
-9754692.52 5137242.81 181.36
-9754667.91 5137245.76 192.43
-9754639.99 5137242.51 181.25
-9754643.86 5137241.22 189.50
-9754626.75 5137242.71 181.21
-9754610.20 5137244.74 187.72
-9754587.19 5137242.65 190.52
-9754495.03 5137242.54 189.04
-9754469.62 5137244.10 188.53
-9754468.39 5137251.61 181.28
-9754455.68 5137242.61 181.09
-9754363.46 5137242.51 185.13
-9754362.90 5137242.65 187.78
-9754349.95 5137242.51 189.63
-9754323.72 5137242.60 189.62
-9754284.11 5137242.80 181.50
-9755049.17 5137236.98 189.93
-9755035.52 5137229.51 179.77
-9754982.47 5137229.46 179.16
-9754943.21 5137229.54 180.06
-9754890.49 5137229.60 185.27
-9754837.39 5137229.44 180.78
-9754824.66 5137229.41 180.82
-9754739.49 5137241.55 187.66
-9754653.08 5137229.54 181.36
-9754640.09 5137229.81 181.49
-9754626.98 5137229.49 197.54
-9754619.34 5137231.15 193.77
-9754600.30 5137229.54 181.06
-9754508.30 5137229.58 181.12
-9754402.73 5137229.62 180.73
-9754385.98 5137234.00 189.73
-9754349.54 5137229.21 181.05
-9754356.77 5137233.18 186.67
-9754336.97 5137229.16 181.02
-9754337.10 5137216.17 180.70
-9754323.90 5137229.30 181.03
-9754283.69 5137230.75 187.77
-9754996.92 5137216.24 179.65
-9754969.22 5137216.39 179.25
-9754956.26 5137216.31 179.25
-9754930.02 5137216.42 179.98
-9754932.71 5137222.76 186.70
-9754890.28 5137216.24 185.28
-9754851.02 5137216.48 181.03
-9754837.43 5137216.44 180.68
-9754842.81 5137222.22 187.81
-9754811.20 5137216.26 181.02
-9754785.11 5137216.24 192.58
-9754798.16 5137203.25 197.32
-9754758.79 5137203.24 181.33
-9754745.41 5137216.46 181.01
-9754719.10 5137202.88 181.42
-9754679.51 5137203.08 181.16
-9754666.19 5137203.00 181.21
-9754655.46 5137216.74 201.05
-9754626.74 5137214.13 201.78
-9754627.06 5137205.34 203.63
-9754627.83 5137202.24 197.57
-9754587.12 5137203.12 180.82
-9754579.08 5137203.02 190.64
-9754521.38 5137203.07 193.16
-9754495.10 5137216.22 181.05
-9754455.43 5137212.38 181.14
-9754455.67 5137203.22 181.17
-9754429.60 5137212.79 181.09
-9754389.60 5137203.17 180.91
-9755035.42 5137189.80 179.41
-9755033.55 5137195.88 194.55
-9755022.16 5137189.99 180.19
-9755026.46 5137195.86 193.10
-9754982.68 5137190.12 179.06
-9754969.67 5137190.05 179.19
-9754942.84 5137189.84 180.26
-9754929.92 5137190.07 180.05
-9754903.33 5137203.04 184.25
-9754917.55 5137189.79 183.40
-9754890.43 5137189.60 185.28
-9754878.21 5137206.51 188.59
-9754876.85 5137189.97 181.37
-9754863.77 5137203.26 181.27
-9754858.80 5137209.55 186.72
-9754824.42 5137202.72 180.61
-9754785.00 5137190.00 201.56
-9754763.96 5137202.97 192.00
-9754730.63 5137191.73 200.54
-9754702.33 5137198.19 205.73
-9754692.71 5137203.17 205.31
-9754691.65 5137188.66 193.21
-9754691.95 5137188.67 181.40
-9754679.57 5137189.76 181.18
-9754683.69 5137195.35 192.86
-9754614.04 5137198.84 181.32
-9754609.25 5137196.37 193.69
-9754547.71 5137190.15 180.76
-9754519.19 5137194.80 191.41
-9754482.00 5137190.10 181.09
-9754389.41 5137189.83 180.91
-9754376.62 5137190.58 193.73
-9754379.67 5137189.76 180.91
-9754363.27 5137190.35 191.59
-9754336.73 5137190.19 191.46
-9754283.93 5137191.09 187.73
-9755074.74 5137176.74 179.12
-9755048.51 5137176.88 179.17
-9755048.21 5137188.28 189.63
-9754931.25 5137185.42 186.96
-9754877.20 5137176.94 181.34
-9754824.70 5137176.97 180.77
-9754811.42 5137176.86 181.19
-9754784.33 5137176.31 193.05
-9754791.76 5137187.73 201.62
-9754784.31 5137176.62 178.92
-9754719.30 5137177.28 206.08
-9754548.01 5137176.47 180.76
-9754508.31 5137177.16 181.16
-9754482.51 5137177.03 191.71
-9754337.61 5137173.48 181.26
-9754323.20 5137173.46 181.41
-9755021.99 5137163.59 179.74
-9754917.70 5137163.72 183.05
-9754902.67 5137163.65 184.25
-9754850.75 5137163.54 180.89
-9754836.33 5137166.05 187.79
-9754824.53 5137163.36 180.77
-9754797.98 5137163.75 181.14
-9754801.06 5137168.43 200.75
-9754758.49 5137163.85 181.15
-9754745.15 5137163.74 181.42
-9754732.18 5137163.66 181.34
-9754718.99 5137163.57 181.36
-9754718.90 5137163.63 205.71
-9754706.91 5137174.03 183.76
-9754707.51 5137174.42 193.10
-9754692.28 5137163.29 193.51
-9754692.62 5137163.46 181.46
-9754679.74 5137163.35 181.18
-9754685.52 5137169.02 201.67
-9754653.21 5137163.52 181.33
-9754574.30 5137163.71 193.54
-9754547.93 5137163.83 180.70
-9754502.31 5137164.49 187.15
-9754495.22 5137150.50 181.27
-9754439.77 5137160.69 190.70
-9754441.82 5137147.22 181.22
-9754389.64 5137150.13 180.89
-9754363.38 5137150.56 181.20
-9754310.83 5137163.83 181.44
-9754297.31 5137150.40 181.68
-9754284.26 5137163.41 193.75
-9755061.65 5137150.33 179.00
-9754995.86 5137150.55 178.62
-9754995.98 5137137.21 178.57
-9754943.12 5137150.73 180.41
-9754942.88 5137137.42 180.41
-9754917.82 5137149.94 183.69
-9754902.53 5137137.27 184.31
-9754890.08 5137150.22 185.31
-9754863.84 5137137.15 181.12
-9754837.59 5137150.38 180.91
-9754824.64 5137136.99 180.75
-9754798.34 5137150.15 181.12
-9754798.13 5137137.15 181.02
-9754732.23 5137150.61 181.39
-9754721.38 5137154.12 187.53
-9754732.35 5137137.03 181.34
-9754706.04 5137150.46 181.37
-9754547.78 5137137.15 180.70
-9754481.75 5137137.57 181.54
-9754428.33 5137144.74 181.27
-9754419.61 5137143.74 192.97
-9754403.00 5137137.23 180.83
-9754402.03 5137142.92 187.74
-9754297.33 5137136.82 181.64
-9754284.16 5137137.01 181.91
-9755074.99 5137137.06 178.88
-9755075.07 5137124.05 178.71
-9755035.17 5137137.13 178.84
-9755035.58 5137124.12 178.66
-9754929.66 5137124.05 179.99
-9754853.72 5137135.59 195.42
-9754850.96 5137124.41 180.90
-9754824.48 5137123.95 180.76
-9754745.41 5137124.08 181.10
-9754710.19 5137126.72 188.01
-9754554.56 5137128.09 190.94
-9754482.39 5137124.06 181.56
-9754442.36 5137123.79 181.16
-9754429.02 5137124.29 181.17
-9754369.81 5137128.21 191.26
-9754350.01 5137124.10 181.40
-9754291.50 5137121.02 200.07
-9755006.64 5137113.52 194.20
-9754995.83 5137110.85 178.49
-9754956.32 5137110.65 178.56
-9754943.04 5137111.08 180.29
-9754923.94 5137110.40 186.82
-9754890.59 5137110.53 185.33
-9754877.01 5137110.92 181.37
-9754864.17 5137116.11 195.39
-9754856.62 5137117.37 189.41
-9754837.78 5137111.01 180.83
-9754824.80 5137110.95 180.78
-9754824.31 5137113.84 187.75
-9754811.29 5137110.93 180.83
-9754772.95 5137122.71 200.11
-9754759.19 5137112.17 193.57
-9754765.08 5137108.95 201.77
-9754745.52 5137110.76 181.28
-9754751.55 5137117.17 193.35
-9754527.31 5137109.96 188.24
-9754508.12 5137110.83 181.31
-9754310.31 5137111.11 181.63
-9754297.69 5137097.50 192.86
-9754310.38 5137097.82 181.58
-9754286.00 5137112.82 203.32
-9754283.79 5137097.36 181.96
-9755009.05 5137097.57 179.96
-9754929.88 5137097.69 179.84
-9754809.91 5137100.88 193.50
-9754798.38 5137097.75 181.18
-9754790.38 5137094.07 200.74
-9754771.60 5137084.58 181.26
-9754771.91 5137097.70 193.09
-9754761.58 5137096.20 202.03
-9754758.67 5137084.65 193.15
-9754751.24 5137091.14 192.94
-9754471.50 5137098.80 189.46
-9754455.72 5137097.78 181.36
-9754402.71 5137084.47 181.01
-9754389.70 5137097.73 180.98
-9754376.30 5137084.37 193.46
-9754298.07 5137085.39 203.07
-9755075.60 5137084.67 179.15
-9755035.55 5137071.11 178.05
-9755033.53 5137084.19 172.66
-9754969.40 5137084.37 179.07
-9754969.53 5137071.38 178.92
-9754956.19 5137084.59 178.28
-9754917.88 5137084.52 181.85
-9754917.41 5137071.11 181.97
-9754876.95 5137071.22 181.18
-9754863.97 5137071.13 181.15
-9754837.77 5137071.32 181.14
-9754824.47 5137071.33 180.65
-9754773.28 5137073.10 193.68
-9754758.65 5137084.49 181.37
-9754763.35 5137076.25 193.60
-9754732.25 5137071.31 181.36
-9754481.82 5137071.30 181.12
-9754468.88 5137071.52 205.92
-9754444.34 5137069.82 193.83
-9755074.83 5137058.05 177.95
-9755008.75 5137058.05 179.65
-9754929.76 5137058.28 179.73
-9754895.30 5137051.64 188.34
-9754850.80 5137058.18 185.04
-9754771.78 5137058.18 181.32
-9754758.53 5137058.13 181.28
-9754455.93 5137058.52 206.93
-9755031.86 5137045.26 172.84
-9755021.80 5137045.26 172.72
-9755008.88 5137044.89 177.80
-9754956.68 5137044.84 179.23
-9755077.10 5136096.22 177.05
-9754956.45 5137054.47 193.12
-9754942.75 5137045.00 179.90
-9754929.84 5137045.25 179.70
-9754917.23 5137045.36 181.97
-9754890.39 5137045.04 185.38
-9754895.07 5137051.16 188.34
-9754879.37 5137052.22 188.18
-9754798.74 5137045.67 193.90
-9754771.70 5137044.95 197.41
-9754477.65 5137030.66 191.61
-9754468.51 5137031.99 192.98
-9754468.85 5137031.77 181.18
-9754455.86 5137033.25 192.75
-9754442.22 5137045.29 181.30
-9754415.95 5137044.81 181.13
-9754402.75 5137044.50 192.66
-9754403.50 5137035.82 190.75
-9754380.69 5137047.31 200.72
-9754349.70 5137031.73 181.37
-9754323.73 5137031.84 181.51
-9754995.67 5137031.53 177.64
-9754929.92 5137031.93 179.69
-9754917.31 5137031.71 181.82
-9754876.95 5137032.10 181.33
-9754837.69 5137031.67 180.85
-9754824.38 5137031.59 180.73
-9754798.69 5137022.11 194.37
-9754784.75 5137018.94 197.33
-9754771.53 5137018.73 202.06
-9754415.53 5137018.69 192.20
-9754376.45 5137018.35 193.23
-9754323.81 5137018.52 181.50
-9754297.32 5137018.69 181.56
-9754989.41 5137023.92 192.66
-9754270.93 5136939.47 181.74
-9754271.20 5136847.02 181.76
-9754272.96 5137137.03 181.94
-9754270.94 5137191.21 187.76
-9754272.49 5137163.91 199.96
-9754271.53 5137124.00 194.02
-9754112.87 5135977.57 181.09
-9754111.45 5135981.44 192.43
-9754041.86 5135975.18 190.78
-9754033.59 5135977.35 181.12
-9754020.32 5135977.32 181.11
-9753942.93 5135965.35 187.33
-9753902.13 5135964.20 181.95
-9753888.59 5135964.51 192.27
-9753872.09 5135961.53 189.15
-9753862.28 5135977.55 181.56
-9753849.12 5135964.17 181.54
-9753809.38 5135977.20 192.14
-9753783.71 5135964.67 181.77
-9753783.14 5135963.92 190.00
-9753783.52 5135977.40 181.67
-9753770.18 5135964.34 193.18
-9753770.62 5135974.45 190.18
-9753757.38 5135964.39 192.89
-9753743.75 5135977.42 181.59
-9753740.84 5135978.09 192.57
-9753704.30 5135977.36 190.87
-9753651.81 5135977.44 182.22
-9753638.56 5135965.11 182.14
-9753612.08 5135964.25 181.61
-9753599.31 5135977.48 181.74
-9753589.50 5135976.19 180.81
-9753572.50 5135965.34 182.17
-9753573.47 5135964.07 193.57
-9753533.95 5135963.52 191.74
-9753494.23 5135966.45 189.86
-9753494.75 5135976.00 190.38
-9753493.42 5135977.42 181.78
-9753480.26 5135964.35 181.76
-9753466.98 5135964.19 181.54
-9753445.43 5135965.91 189.19
-9753440.70 5135977.40 181.78
-9753414.43 5135977.25 182.09
-9753401.20 5135964.11 182.18
-9754139.09 5135951.16 191.99
-9754112.80 5135950.96 192.07
-9754047.11 5135951.09 181.95
-9754023.15 5135950.71 192.29
-9753954.67 5135952.67 181.25
-9753928.82 5135950.37 181.36
-9753915.27 5135952.08 188.74
-9753879.02 5135951.84 191.35
-9753864.96 5135948.94 190.08
-9753822.82 5135954.47 191.26
-9753783.59 5135951.10 190.96
-9753790.14 5135961.07 186.97
-9753775.41 5135951.83 181.46
-9753754.88 5135951.36 189.86
-9753702.72 5135951.62 192.30
-9753665.21 5135939.30 182.27
-9753637.46 5135955.40 189.91
-9753637.81 5135940.30 182.35
-9753597.91 5135950.64 193.49
-9753611.98 5135937.77 193.38
-9753598.82 5135937.44 192.75
-9753584.94 5135954.30 181.95
-9753599.90 5135941.67 199.97
-9753591.58 5135951.41 200.49
-9753533.14 5135955.94 189.79
-9753546.15 5135938.07 181.98
-9753519.83 5135951.19 181.80
-9753504.32 5135941.43 189.07
-9753493.58 5135951.07 181.82
-9753493.52 5135934.50 188.71
-9753458.45 5135940.78 187.76
-9753440.61 5135938.31 181.94
-9753427.26 5135951.22 182.19
-9753427.33 5135937.90 182.04
-9753417.07 5135938.22 182.30
-9753414.36 5135938.19 187.73
-9754086.59 5135938.00 181.65
-9754086.42 5135924.72 193.00
-9754074.09 5135937.78 193.28
-9754060.16 5135938.05 196.07
-9754066.21 5135943.85 182.00
-9754032.44 5135938.04 192.76
-9754033.67 5135924.58 192.77
-9753994.12 5135924.70 193.07
-9753967.77 5135937.88 181.62
-9753941.95 5135923.71 190.33
-9753928.32 5135924.63 181.71
-9753915.08 5135924.52 181.73
-9753914.61 5135934.67 190.49
-9753914.77 5135923.45 191.25
-9753902.40 5135934.91 191.13
-9753888.83 5135937.85 193.16
-9753874.35 5135937.72 191.52
-9753864.13 5135936.97 191.81
-9753848.53 5135935.35 190.56
-9753849.26 5135937.80 181.63
-9753796.16 5135938.07 181.82
-9753770.22 5135937.92 181.63
-9753757.05 5135924.80 181.70
-9753756.73 5135938.21 193.15
-9753746.41 5135924.30 191.03
-9753747.84 5135939.39 190.84
-9753717.77 5135926.30 182.14
-9753704.84 5135926.94 182.07
-9753690.11 5135938.21 192.63
-9753679.63 5135924.79 187.74
-9753638.70 5135925.43 192.06
-9753639.05 5135925.09 182.08
-9753612.59 5135924.62 192.05
-9753599.04 5135924.77 181.71
-9753572.36 5135926.47 181.98
-9753542.57 5135921.80 189.29
-9753493.65 5135925.66 193.43
-9753416.84 5135926.25 182.40
-9753402.69 5135925.95 188.78
-9754153.43 5135924.07 193.99
-9754139.14 5135924.96 182.55
-9754139.23 5135911.61 182.50
-9754126.30 5135924.70 191.99
-9754112.76 5135911.57 192.04
-9754073.48 5135911.33 179.96
-9754022.49 5135916.22 191.11
-9753980.94 5135909.57 188.87
-9753943.44 5135909.29 190.21
-9753928.39 5135911.92 181.76
-9753916.03 5135911.87 180.28
-9753915.95 5135911.40 189.39
-9753901.52 5135912.34 181.73
-9753873.59 5135911.98 192.80
-9753875.33 5135911.65 181.71
-9753863.33 5135912.44 192.90
-9753836.53 5135915.49 181.83
-9753793.66 5135911.67 191.82
-9753776.57 5135924.45 183.93
-9753756.81 5135911.40 181.73
-9753730.76 5135911.96 193.30
-9753717.45 5135911.56 194.04
-9753664.49 5135910.62 182.05
-9753638.39 5135911.37 194.12
-9753641.00 5135909.64 182.11
-9753633.95 5135915.51 200.51
-9753562.87 5135911.50 190.01
-9753533.42 5135908.30 190.49
-9753505.32 5135914.42 189.59
-9753496.36 5135913.16 189.10
-9753480.31 5135911.61 181.73
-9753454.32 5135911.47 181.84
-9753418.29 5135916.18 186.17
-9754131.90 5135911.02 182.68
-9754112.19 5135899.15 192.06
-9754074.16 5135898.83 193.47
-9754074.07 5135898.98 182.68
-9754046.86 5135898.31 196.08
-9754007.21 5135898.46 181.00
-9753941.77 5135898.38 181.57
-9753863.70 5135899.14 191.68
-9753836.48 5135900.04 181.70
-9753823.70 5135898.51 190.00
-9753721.56 5135898.52 181.69
-9753678.70 5135898.96 193.24
-9753677.65 5135898.56 182.05
-9753650.83 5135896.63 182.36
-9753545.86 5135898.35 181.99
-9753533.92 5135901.68 191.93
-9753506.59 5135898.72 181.74
-9753504.01 5135897.87 189.62
-9753467.09 5135898.21 181.66
-9753457.76 5135900.41 191.09
-9753401.69 5135896.23 190.66
-9754138.13 5135883.74 194.95
-9754021.53 5135884.52 190.91
-9753981.22 5135883.62 190.66
-9753981.82 5135882.50 181.19
-9753914.58 5135884.27 181.45
-9753902.09 5135883.67 181.67
-9753888.50 5135887.72 191.44
-9753863.80 5135886.33 190.13
-9753822.85 5135885.17 182.06
-9753783.55 5135884.99 181.91
-9753770.36 5135885.14 189.98
-9753757.03 5135885.12 181.80
-9753769.74 5135874.78 181.68
-9753730.71 5135885.54 181.63
-9753730.79 5135872.26 193.28
-9753706.06 5135883.83 191.42
-9753678.23 5135885.23 182.02
-9753659.04 5135871.58 193.07
-9753651.53 5135879.98 191.06
-9753639.60 5135881.41 192.76
-9753622.58 5135884.42 191.90
-9753612.08 5135885.23 193.28
-9753598.68 5135885.39 181.52
-9753604.39 5135888.85 189.44
-9753586.24 5135885.24 181.97
-9753533.09 5135885.41 192.26
-9753519.71 5135871.90 181.76
-9753495.36 5135885.01 191.09
-9753493.20 5135871.99 181.77
-9753466.84 5135885.46 181.70
-9753454.20 5135871.74 181.75
-9753450.35 5135884.12 192.69
-9754150.43 5135871.10 193.21
-9754073.34 5135872.10 180.16
-9754073.22 5135871.94 193.42
-9754047.02 5135871.98 196.07
-9754020.96 5135871.62 193.58
-9754020.71 5135858.91 180.95
-9753980.88 5135873.05 189.09
-9753980.80 5135871.68 181.46
-9753980.68 5135860.75 181.31
-9753968.15 5135857.43 190.03
-9753941.39 5135858.65 181.51
-9753915.12 5135871.84 181.68
-9753915.46 5135860.36 181.35
-9753914.37 5135857.85 189.64
-9753901.92 5135870.47 189.78
-9753902.08 5135872.11 181.75
-9753888.66 5135858.70 181.41
-9753888.19 5135870.31 191.85
-9753862.38 5135872.15 181.65
-9753860.63 5135872.00 190.71
-9753823.07 5135872.15 193.46
-9753808.24 5135859.98 193.11
-9753783.41 5135858.96 181.67
-9753730.65 5135858.91 181.62
-9753729.43 5135864.76 188.75
-9753720.90 5135858.17 182.18
-9753664.28 5135858.79 182.08
-9753651.39 5135859.16 191.02
-9753640.42 5135867.58 182.43
-9753625.09 5135858.55 181.99
-9753599.18 5135859.07 192.05
-9753583.15 5135855.94 193.55
-9753559.22 5135858.88 193.65
-9753558.80 5135870.28 194.02
-9753558.98 5135859.10 181.78
-9753506.90 5135858.50 181.55
-9753493.68 5135858.75 191.55
-9753454.74 5135857.84 189.95
-9753440.78 5135858.68 182.01
-9753430.92 5135860.94 187.85
-9753447.15 5135855.03 190.91
-9754150.86 5135842.48 192.53
-9754112.83 5135844.50 181.35
-9754085.16 5135846.94 192.71
-9754073.31 5135845.61 181.28
-9754060.08 5135845.24 181.33
-9754021.46 5135845.73 190.89
-9753981.38 5135846.25 191.53
-9753954.92 5135844.77 181.56
-9753902.23 5135845.94 181.60
-9753875.78 5135845.58 181.45
-9753823.11 5135845.79 182.15
-9753824.62 5135847.35 187.24
-9753770.19 5135845.83 181.67
-9753783.19 5135840.82 193.31
-9753745.01 5135845.88 190.16
-9753717.73 5135845.20 182.14
-9753691.81 5135844.88 191.18
-9753563.84 5135847.89 181.80
-9753467.09 5135845.78 181.52
-9753453.99 5135845.37 193.17
-9753427.29 5135845.51 181.83
-9754165.32 5135832.52 181.07
-9754127.72 5135842.59 193.71
-9754069.29 5135836.56 188.40
-9754033.86 5135832.88 181.18
-9753967.85 5135832.48 181.44
-9753941.58 5135832.32 181.38
-9753941.68 5135832.03 193.19
-9753901.82 5135832.44 181.45
-9753901.82 5135842.74 187.27
-9753790.90 5135832.14 189.03
-9753783.78 5135834.66 181.90
-9753743.61 5135831.94 193.95
-9753717.49 5135832.20 181.94
-9753717.89 5135831.74 192.08
-9753704.97 5135831.40 190.63
-9753651.58 5135832.16 190.62
-9753642.03 5135836.51 182.25
-9753599.17 5135829.22 191.63
-9753572.51 5135832.54 186.47
-9753533.11 5135832.10 192.68
-9753524.13 5135832.11 188.45
-9753519.69 5135832.80 181.75
-9753506.71 5135832.75 181.68
-9753494.35 5135834.75 187.51
-9753464.28 5135831.92 187.49
-9753440.38 5135832.59 181.81
-9754152.64 5135819.19 193.60
-9754098.92 5135820.42 191.97
-9754086.40 5135819.22 181.23
-9754032.19 5135817.00 189.36
-9753888.55 5135819.03 181.33
-9753888.68 5135819.52 193.13
-9753874.89 5135818.10 191.19
-9753862.19 5135819.45 192.58
-9753836.20 5135819.36 192.24
-9753822.62 5135819.38 182.09
-9753783.09 5135819.28 181.66
-9753743.87 5135805.97 181.65
-9753719.17 5135819.93 182.83
-9753717.44 5135806.01 191.64
-9753703.71 5135819.17 189.92
-9753691.00 5135819.31 181.91
-9753662.92 5135820.93 193.13
-9753651.52 5135819.29 182.02
-9753651.32 5135806.31 181.75
-9753637.54 5135819.78 193.53
-9753638.58 5135819.27 182.02
-9753612.10 5135806.12 181.51
-9753598.89 5135819.12 193.34
-9753589.98 5135819.62 191.64
-9753572.55 5135819.50 186.45
-9753546.88 5135819.04 186.90
-9753534.59 5135820.48 189.76
-9753480.02 5135806.20 181.66
-9753480.28 5135819.52 181.68
-9753467.01 5135819.21 181.50
-9753454.11 5135821.90 191.53
-9753462.80 5135819.30 188.83
-9753414.32 5135805.81 181.79
-9754152.74 5135794.10 191.45
-9754139.27 5135792.94 181.13
-9754086.49 5135792.98 181.20
-9754073.30 5135793.11 181.11
-9754060.24 5135805.83 180.99
-9754047.06 5135806.07 181.03
-9754033.69 5135808.77 187.75
-9754020.47 5135792.89 180.95
-9753994.23 5135805.98 181.17
-9753980.51 5135794.22 190.54
-9753967.78 5135805.40 190.63
-9753955.08 5135793.06 181.34
-9753915.47 5135807.09 180.29
-9753915.03 5135792.80 181.26
-9753900.70 5135803.71 190.88
-9753901.74 5135810.02 181.44
-9753888.95 5135806.25 181.31
-9753894.86 5135794.22 190.39
-9753872.15 5135807.38 192.51
-9753863.41 5135806.30 192.31
-9753864.20 5135792.19 191.16
-9753835.99 5135792.93 181.66
-9753796.47 5135792.94 181.97
-9753770.61 5135792.25 192.92
-9753738.40 5135806.14 190.59
-9753625.46 5135792.84 181.79
-9753585.69 5135793.14 181.82
-9753596.31 5135791.15 187.69
-9753572.17 5135793.08 181.90
-9753559.42 5135792.99 181.95
-9753545.90 5135792.97 181.91
-9753509.08 5135803.44 194.17
-9753453.84 5135792.99 181.77
-9753427.75 5135794.26 189.91
-9753401.36 5135792.71 181.81
-9753404.13 5135800.77 187.37
-9754165.71 5135779.80 193.12
-9754139.43 5135779.64 181.30
-9754099.37 5135779.94 181.39
-9754073.61 5135790.84 188.53
-9754033.88 5135779.55 181.09
-9754020.32 5135779.79 180.91
-9753967.83 5135779.72 181.21
-9753862.34 5135779.74 181.29
-9753823.28 5135790.95 187.06
-9753796.73 5135780.86 181.97
-9753745.74 5135783.08 190.62
-9753730.82 5135779.86 181.63
-9753620.72 5135792.29 188.63
-9753592.01 5135778.44 188.68
-9753532.30 5135782.08 188.31
-9753519.73 5135780.03 181.73
-9753506.45 5135779.94 181.62
-9753452.92 5135780.07 190.18
-9753427.76 5135780.14 181.77
-9754152.18 5135766.64 181.10
-9754139.22 5135766.60 181.14
-9754125.93 5135766.50 181.22
-9754099.72 5135766.68 181.25
-9754059.91 5135766.41 181.08
-9754062.48 5135764.64 191.51
-9754050.86 5135773.38 186.85
-9753981.18 5135766.49 181.28
-9753967.62 5135766.76 181.36
-9753966.60 5135769.59 189.21
-9753930.44 5135768.57 187.38
-9753807.30 5135766.67 193.60
-9753796.75 5135771.72 181.96
-9753783.38 5135772.14 181.97
-9753783.43 5135765.96 187.07
-9753677.76 5135766.46 181.80
-9753677.38 5135766.51 187.76
-9753652.15 5135766.91 182.04
-9753595.32 5135765.56 190.44
-9753533.14 5135766.56 181.89
-9753532.59 5135765.67 188.96
-9753519.89 5135753.46 181.69
-9753493.26 5135766.84 182.33
-9753480.04 5135766.54 181.63
-9753480.41 5135753.15 181.59
-9753466.86 5135753.45 181.53
-9753455.47 5135751.48 189.50
-9753462.96 5135754.98 191.47
-9753414.85 5135765.21 187.50
-9754257.71 5136979.03 181.69
-9754244.37 5136992.31 181.61
-9754222.38 5136981.23 188.91
-9754165.52 5135753.16 180.89
-9754205.00 5137005.41 192.89
-9754182.32 5136981.06 189.86
-9754157.17 5136978.71 181.75
-9754165.68 5136992.41 181.27
-9754085.33 5135754.13 191.94
-9754076.79 5135756.87 191.78
-9754047.03 5135753.67 180.78
-9754061.84 5135757.77 190.16
-9754033.47 5135753.52 180.96
-9754039.15 5135758.65 188.35
-9754007.25 5135753.41 180.87
-9753998.73 5135754.85 189.09
-9753928.30 5135739.95 185.79
-9753919.21 5135740.95 186.80
-9754086.57 5137005.27 182.02
-9753862.41 5135753.37 181.17
-9753851.28 5135761.67 191.82
-9753861.66 5135740.37 193.20
-9754075.94 5136992.25 181.83
-9754075.11 5136992.77 193.28
-9753836.20 5135751.27 192.61
-9753826.31 5135752.79 181.85
-9754060.22 5136999.47 201.07
-9753780.52 5135755.09 187.84
-9753796.54 5135740.34 186.28
-9754040.37 5136994.74 200.48
-9754034.60 5136993.98 200.77
-9753743.60 5135753.56 181.45
-9754041.42 5136999.08 200.46
-9753706.39 5135753.90 182.36
-9753707.42 5135741.23 181.67
-9753690.86 5135753.21 181.69
-9753690.87 5135752.40 186.87
-9753678.20 5135753.51 181.72
-9753651.68 5135753.66 182.05
-9753651.98 5135754.53 188.80
-9754026.60 5136993.50 191.88
-9753625.41 5135753.43 181.78
-9753625.19 5135740.13 181.76
-9754007.67 5137005.23 193.19
-9753598.64 5135740.30 181.53
-9753994.31 5136992.55 181.64
-9753993.75 5137005.09 193.32
-9753994.25 5137005.32 181.55
-9753980.99 5137005.52 181.70
-9753532.60 5135740.45 181.65
-9753506.34 5135740.04 181.56
-9753915.24 5137005.72 182.20
-9753467.16 5135740.12 181.61
-9753901.97 5137005.68 182.26
-9753888.48 5136992.24 182.21
-9753453.89 5135740.04 181.65
-9753456.58 5135746.34 187.69
-9753862.52 5136992.08 182.19
-9753848.97 5136992.27 182.23
-9753836.35 5136979.20 182.22
-9753836.18 5137005.54 182.21
-9753822.92 5137005.46 182.19
-9753809.66 5137005.39 182.14
-9753440.68 5135739.97 181.62
-9753796.49 5136992.56 182.06
-9753797.12 5137003.60 192.43
-9753398.22 5135739.49 190.72
-9753783.55 5136992.90 191.66
-9753783.09 5137005.22 182.01
-9754180.05 5135743.17 192.88
-9754165.33 5135740.12 180.82
-9753704.34 5136979.03 187.41
-9754152.62 5135740.35 180.96
-9753678.19 5137005.52 187.50
-9754163.55 5135732.04 188.47
-9753650.23 5136982.00 188.64
-9754086.94 5135739.71 181.12
-9754087.19 5135739.63 187.50
-9754047.17 5135742.88 181.02
-9754046.97 5135722.76 181.06
-9753638.77 5136992.28 187.41
-9754035.10 5135743.70 181.18
-9754036.67 5135736.09 186.92
-9753625.20 5136992.17 187.45
-9753627.31 5137004.84 189.24
-9754020.22 5135740.17 180.87
-9754007.38 5135727.03 180.84
-9753598.64 5136992.26 182.46
-9753998.54 5135740.77 189.28
-9753980.88 5135727.14 187.89
-9753954.99 5135726.98 188.22
-9753559.18 5136978.77 182.23
-9753555.66 5136988.78 188.86
-9753885.03 5135738.01 188.65
-9753879.50 5135737.71 187.91
-9753532.64 5136979.17 182.22
-9753544.53 5136980.13 194.55
-9753888.98 5135725.81 187.07
-9753519.40 5136979.25 182.34
-9753481.40 5136990.69 191.96
-9753493.27 5137005.25 182.23
-9753481.38 5137004.31 191.49
-9753467.50 5137004.69 193.46
-9753467.04 5137005.01 183.55
-9753454.46 5136997.93 189.23
-9753436.70 5136977.38 194.20
-9753691.46 5135725.74 192.99
-9753678.08 5135727.10 181.62
-9753675.52 5135724.58 192.77
-9753667.11 5135725.74 191.85
-9753598.76 5135727.21 181.65
-9753533.01 5135726.84 181.67
-9753528.93 5135726.35 193.95
-9753400.42 5137005.26 182.72
-9753483.29 5135738.44 193.96
-9753427.47 5135727.13 181.76
-9754139.92 5135718.31 187.88
