-9755190.21 5135980.97 181.13
-9755190.32 5135987.44 181.14
-9755170.74 5135974.31 181.25
-9755170.67 5135980.85 181.23
-9755183.49 5135961.07 181.27
-9755176.95 5135967.19 181.29
-9755163.55 5135980.46 181.28
-9755157.08 5135987.52 181.21
-9755143.88 5135981.01 181.16
-9755117.77 5135974.08 183.63
-9755124.16 5135974.38 181.28
-9755111.17 5135973.88 183.51
-9755112.22 5135966.87 182.72
-9755112.24 5135986.20 183.41
-9755104.41 5135974.21 180.90
-9755104.44 5135967.72 180.92
-9755105.27 5135989.21 189.84
-9755110.35 5135987.92 187.91
-9755097.86 5135987.26 181.06
-9755091.34 5135987.39 183.13
-9755295.89 5135947.79 181.07
-9755288.87 5135947.74 181.08
-9755289.21 5135934.70 181.51
-9755275.64 5135934.32 181.52
-9755249.02 5135947.19 181.12
-9755236.29 5135954.29 180.86
-9755229.85 5135954.18 180.84
-9755236.08 5135947.75 180.93
-9755229.69 5135939.14 182.50
-9755229.53 5135947.68 180.90
-9755203.30 5135954.39 181.23
-9755196.91 5135940.97 181.18
-9755177.09 5135954.49 181.20
-9755190.35 5135948.03 181.18
-9755183.86 5135948.02 181.19
-9755183.65 5135941.24 181.16
-9755150.83 5135948.11 181.18
-9755137.51 5135954.59 182.00
-9755130.75 5135955.11 182.00
-9755124.01 5135954.48 181.32
-9755137.86 5135940.89 181.89
-9755124.30 5135947.66 181.27
-9755086.80 5135954.53 180.68
-9755090.96 5135947.67 183.26
-9755084.74 5135954.67 179.74
-9755295.76 5135921.44 181.18
-9755295.51 5135914.64 181.17
-9755289.29 5135921.39 181.19
-9755295.69 5135928.26 181.29
-9755276.03 5135921.62 181.20
-9755262.77 5135921.52 181.21
-9755249.53 5135914.96 181.15
-9755269.27 5135908.51 181.19
-9755229.83 5135914.84 181.18
-9755216.07 5135915.17 184.13
-9755210.05 5135914.71 181.50
-9755210.23 5135928.03 181.50
-9755203.21 5135921.18 181.28
-9755196.70 5135914.92 181.24
-9755210.76 5135908.39 183.98
-9755190.28 5135921.63 181.24
-9755183.74 5135921.37 181.26
-9755170.22 5135914.47 181.22
-9755170.77 5135921.29 181.25
-9755183.62 5135928.13 181.23
-9755183.53 5135908.34 181.16
-9755170.54 5135907.90 181.21
-9755163.80 5135914.77 181.23
-9755157.59 5135915.00 181.25
-9755157.46 5135928.06 181.27
-9755151.02 5135921.43 181.27
-9755144.02 5135914.91 181.22
-9755144.23 5135921.44 181.26
-9755137.43 5135921.39 182.04
-9755131.25 5135921.40 181.29
-9755137.66 5135928.46 182.04
-9755124.13 5135927.84 181.26
-9755117.07 5135927.94 184.03
-9755137.46 5135907.38 181.91
-9755111.52 5135927.96 184.31
-9755104.54 5135927.96 189.75
-9755104.43 5135928.20 185.51
-9755097.89 5135928.31 181.13
-9755104.47 5135921.33 189.99
-9755110.12 5135915.02 189.10
-9755104.26 5135908.43 189.88
-9755099.82 5135908.92 187.58
-9755098.01 5135908.15 181.09
-9755091.82 5135908.40 181.30
-9755295.88 5135901.61 181.19
-9755282.58 5135901.49 181.16
-9755282.67 5135895.01 181.22
-9755302.68 5135888.55 181.26
-9755301.87 5135881.76 181.20
-9755288.92 5135888.22 181.26
-9755282.39 5135888.53 181.23
-9755275.70 5135881.67 181.17
-9755269.42 5135894.93 181.25
-9755256.20 5135888.35 181.25
-9755229.52 5135901.82 181.16
-9755236.43 5135888.51 181.21
-9755229.59 5135888.44 181.20
-9755223.16 5135888.72 181.39
-9755216.47 5135901.72 183.09
-9755211.02 5135902.51 183.27
-9755216.10 5135895.40 184.13
-9755210.50 5135894.99 188.95
-9755216.18 5135890.35 188.04
-9755203.35 5135888.25 181.30
-9755196.93 5135882.05 181.27
-9755190.35 5135901.85 181.13
-9755170.63 5135894.94 181.19
-9755183.59 5135888.23 181.23
-9755177.17 5135888.77 181.19
-9755170.16 5135881.87 181.26
-9755157.38 5135888.33 181.28
-9755157.19 5135882.13 181.28
-9755137.29 5135893.82 181.96
-9755124.30 5135894.93 181.23
-9755137.32 5135888.58 182.00
-9755137.08 5135881.36 182.05
-9755124.33 5135888.72 181.26
-9755115.41 5135894.51 186.91
-9755109.30 5135894.07 190.45
-9755109.42 5135901.61 189.77
-9755112.38 5135881.21 184.39
-9755104.81 5135881.08 190.19
-9755084.58 5135888.52 181.34
-9755084.60 5135881.99 181.35
-9755302.19 5135875.59 181.19
-9755302.32 5135855.43 181.21
-9755302.27 5135868.80 181.18
-9755275.78 5135862.35 181.14
-9755269.02 5135862.05 181.21
-9755262.55 5135862.01 181.27
-9755242.98 5135875.28 181.08
-9755236.19 5135875.17 181.08
-9755229.82 5135862.10 181.15
-9755230.09 5135855.60 181.17
-9755223.30 5135862.05 181.39
-9755223.04 5135855.31 181.40
-9755210.00 5135874.97 181.52
-9755203.47 5135875.32 181.27
-9755216.21 5135862.29 181.67
-9755210.09 5135862.30 181.56
-9755197.04 5135861.94 181.21
-9755203.00 5135855.40 181.26
-9755196.71 5135868.77 181.21
-9755170.15 5135875.15 181.24
-9755183.76 5135862.46 181.14
-9755183.43 5135868.89 181.17
-9755176.98 5135868.88 181.17
-9755163.94 5135875.39 181.27
-9755163.76 5135862.07 181.24
-9755163.99 5135868.85 181.25
-9755144.03 5135862.23 181.14
-9755137.19 5135875.47 181.98
-9755137.17 5135868.93 181.95
-9755137.15 5135855.52 181.95
-9755131.08 5135855.32 181.18
-9755111.28 5135875.27 189.62
-9755098.65 5135876.05 188.26
-9755091.46 5135875.54 181.26
-9755111.58 5135862.47 184.03
-9755111.61 5135869.27 183.90
-9755097.70 5135862.22 181.18
-9755098.74 5135854.90 185.31
-9755099.54 5135860.95 190.28
-9755099.40 5135868.68 189.45
-9755091.22 5135855.68 181.31
-9755302.07 5135848.61 181.27
-9755302.45 5135842.44 181.22
-9755295.60 5135842.71 181.21
-9755298.66 5135847.44 192.71
-9755289.38 5135848.83 181.23
-9755282.72 5135842.66 181.20
-9755282.38 5135836.05 181.12
-9755295.74 5135829.05 181.12
-9755288.91 5135829.29 181.08
-9755282.45 5135828.95 181.07
-9755269.10 5135849.02 181.22
-9755269.14 5135842.19 181.20
-9755256.13 5135848.98 181.23
-9755249.39 5135842.63 181.18
-9755262.66 5135835.70 181.24
-9755269.19 5135829.15 181.16
-9755256.20 5135829.07 181.19
-9755243.08 5135848.61 181.22
-9755229.53 5135849.05 181.22
-9755236.12 5135836.08 181.12
-9755223.09 5135848.77 181.40
-9755242.69 5135829.31 181.08
-9755216.49 5135835.73 187.29
-9755196.93 5135835.54 181.29
-9755203.47 5135829.08 181.30
-9755183.87 5135848.86 181.20
-9755183.58 5135842.58 181.26
-9755150.62 5135835.92 181.28
-9755150.65 5135829.08 181.27
-9755136.71 5135848.71 182.01
-9755130.92 5135841.89 182.07
-9755137.72 5135835.80 181.26
-9755116.59 5135848.64 182.86
-9755124.41 5135835.70 181.30
-9755117.94 5135835.69 181.32
-9755131.20 5135828.94 181.24
-9755104.91 5135849.52 188.66
-9755109.65 5135851.58 189.19
-9755111.14 5135835.65 181.18
-9755091.30 5135848.85 181.30
-9755104.70 5135829.40 180.96
-9755084.74 5135848.80 182.39
-9755084.87 5135842.28 182.40
-9755084.67 5135829.17 182.52
-9755295.75 5135822.46 181.14
-9755302.27 5135816.08 181.19
-9755282.50 5135822.48 181.09
-9755302.37 5135802.68 181.16
-9755256.00 5135822.61 181.20
-9755256.26 5135816.06 181.18
-9755249.49 5135822.55 181.12
-9755269.30 5135809.38 181.23
-9755249.37 5135802.98 181.18
-9755243.01 5135816.25 181.12
-9755223.24 5135822.68 181.39
-9755236.62 5135802.61 181.19
-9755229.77 5135809.45 181.19
-9755229.88 5135802.89 181.18
-9755223.30 5135809.65 181.37
-9755216.20 5135809.66 186.89
-9755203.29 5135802.74 181.29
-9755196.84 5135802.74 181.30
-9755170.17 5135822.70 181.23
-9755177.07 5135802.59 181.27
-9755150.70 5135822.61 181.25
-9755143.98 5135816.04 181.21
-9755164.45 5135801.60 188.23
-9755150.51 5135809.23 181.28
-9755137.26 5135802.69 181.26
-9755104.62 5135801.51 188.66
-9755111.68 5135796.01 187.71
-9755105.20 5135794.94 189.06
-9755098.97 5135807.59 190.39
-9755084.84 5135809.39 183.24
-9755282.67 5135789.60 181.10
-9755275.82 5135796.08 181.10
-9755269.37 5135796.33 181.11
-9755275.93 5135783.00 181.04
-9755249.43 5135789.39 181.11
-9755255.88 5135782.85 181.18
-9755255.98 5135776.44 181.21
-9755256.01 5135769.90 181.21
-9755229.56 5135796.06 181.16
-9755236.13 5135783.06 181.12
-9755229.69 5135783.35 181.17
-9755249.46 5135770.12 181.16
-9755243.02 5135770.09 181.18
-9755210.16 5135796.25 181.62
-9755203.36 5135796.53 181.30
-9755216.34 5135789.82 181.60
-9755215.52 5135783.20 184.22
-9755209.89 5135789.48 181.60
-9755210.26 5135776.42 181.62
-9755203.44 5135783.21 181.28
-9755203.49 5135776.41 181.29
-9755203.19 5135769.88 181.29
-9755190.37 5135796.43 181.28
-9755183.92 5135796.44 181.26
-9755164.11 5135796.30 181.29
-9755190.14 5135782.81 181.19
-9755183.64 5135789.61 181.21
-9755183.67 5135783.08 181.14
-9755176.84 5135789.84 181.21
-9755144.19 5135776.33 181.24
-9755163.72 5135769.98 181.29
-9755150.74 5135769.56 181.30
-9755143.96 5135770.16 181.26
-9755131.25 5135776.24 181.20
-9755116.81 5135776.33 184.81
-9755124.19 5135769.98 181.24
-9755105.01 5135785.60 187.77
-9755104.16 5135783.88 184.00
-9755115.09 5135774.97 186.78
-9755098.22 5135776.36 181.24
-9755097.77 5135769.73 185.48
-9755098.62 5135774.10 188.88
-9755098.02 5135770.05 189.31
-9755091.46 5135769.82 181.35
-9755085.22 5135788.84 183.34
-9755085.55 5135784.00 187.74
-9755088.12 5135793.77 188.08
-9755084.67 5135769.99 183.35
-9755289.33 5135769.76 181.35
-9755292.20 5135763.55 187.00
-9755289.11 5135756.71 181.52
-9755282.62 5135743.34 181.76
-9755262.80 5135763.13 181.22
-9755256.05 5135763.43 181.19
-9755262.58 5135756.58 181.36
-9755250.79 5135756.47 183.69
-9755256.13 5135750.32 181.46
-9755249.63 5135750.00 181.46
-9755237.30 5135744.52 183.59
-9755229.88 5135750.15 181.45
-9755229.91 5135743.64 181.52
-9755223.34 5135750.15 181.48
-9755197.07 5135763.32 181.30
-9755203.90 5135756.85 181.37
-9755210.05 5135756.56 181.51
-9755216.59 5135750.07 181.48
-9755215.67 5135742.78 184.10
-9755210.13 5135750.34 181.51
-9755210.16 5135743.26 181.59
-9755196.58 5135743.50 181.27
-9755190.27 5135762.99 181.29
-9755183.91 5135743.73 181.19
-9755157.26 5135763.35 181.31
-9755163.85 5135743.28 181.27
-9755144.14 5135743.75 181.21
-9755130.73 5135763.52 181.28
-9755115.39 5135763.76 188.60
-9755137.61 5135749.96 181.25
-9755130.85 5135750.51 181.22
-9755104.74 5135763.90 190.00
-9755111.32 5135763.02 183.47
-9755111.58 5135763.96 189.38
-9755104.84 5135756.86 181.31
-9755098.09 5135743.50 181.27
-9755085.01 5135756.51 182.93
-9755083.76 5135745.18 186.98
-9755285.16 5135742.80 194.07
-9755287.42 5135744.61 189.22
-9755302.04 5135736.96 193.93
-9755284.55 5135729.74 187.76
-9755282.70 5135736.83 181.78
-9755286.98 5135737.77 181.94
-9755286.68 5135738.87 187.70
-9755284.93 5135733.76 188.75
-9755282.81 5135722.58 182.88
-9755282.61 5135722.86 189.16
-9755291.81 5135717.06 190.11
-9755283.56 5135719.46 194.11
-9755276.22 5135736.82 181.67
-9755269.21 5135730.28 181.53
-9755249.50 5135730.65 189.99
-9755262.68 5135736.17 181.34
-9755255.76 5135736.82 190.15
-9755255.96 5135722.84 184.11
-9755256.44 5135722.65 188.66
-9755249.56 5135723.72 190.60
-9755275.45 5135716.95 181.85
-9755263.37 5135716.30 196.31
-9755243.30 5135730.51 190.46
-9755244.20 5135730.94 184.46
-9755229.82 5135728.45 188.64
-9755243.81 5135736.81 184.46
-9755238.23 5135735.68 187.90
-9755235.87 5135723.81 187.82
-9755228.61 5135724.33 184.62
-9755223.21 5135736.83 181.47
-9755229.06 5135722.39 193.56
-9755249.79 5135717.12 181.40
-9755233.90 5135717.69 190.13
-9755228.68 5135719.48 193.67
-9755211.29 5135737.29 183.41
-9755211.16 5135736.46 188.21
-9755215.72 5135722.78 188.81
-9755211.17 5135723.29 184.58
-9755203.74 5135730.18 182.25
-9755215.49 5135718.76 188.64
-9755189.81 5135741.31 192.79
-9755190.16 5135736.94 181.21
-9755190.23 5135723.88 181.30
-9755183.40 5135730.38 181.24
-9755170.45 5135730.29 181.25
-9755176.87 5135736.83 181.20
-9755176.97 5135723.83 181.29
-9755177.39 5135716.51 183.36
-9755163.60 5135736.76 181.27
-9755143.94 5135723.62 181.30
-9755124.51 5135716.98 181.61
-9755111.80 5135722.89 181.96
-9755107.58 5135723.75 200.25
-9755091.15 5135730.13 181.42
-9755098.26 5135717.16 181.32
-9755102.92 5135720.44 189.60
-9755289.41 5135703.96 183.11
-9755295.24 5135713.07 182.26
-9755292.08 5135711.43 189.17
-9755289.32 5135710.74 183.12
-9755279.45 5135703.13 197.50
-9755302.42 5135697.31 181.21
-9755288.85 5135697.56 181.07
-9755302.17 5135690.48 181.19
-9755295.64 5135690.72 181.16
-9755289.21 5135690.78 181.14
-9755279.87 5135696.69 192.61
-9755275.79 5135710.73 181.57
-9755268.72 5135710.83 195.93
-9755262.69 5135703.24 202.09
-9755262.55 5135703.89 181.12
-9755258.10 5135711.03 198.57
-9755260.95 5135704.95 192.60
-9755269.18 5135690.59 181.24
-9755262.71 5135697.17 196.69
-9755258.41 5135693.95 195.63
-9755258.65 5135693.60 190.65
-9755236.27 5135710.54 181.26
-9755249.73 5135697.80 183.55
-9755249.82 5135691.20 192.37
-9755245.01 5135697.46 183.97
-9755229.61 5135697.38 183.35
-9755236.42 5135690.69 181.26
-9755223.15 5135690.33 181.28
-9755210.04 5135710.36 181.28
-9755203.62 5135704.11 181.29
-9755196.39 5135711.20 189.77
-9755209.84 5135697.10 181.17
-9755203.44 5135690.51 181.34
-9755187.99 5135708.74 189.00
-9755189.31 5135703.32 189.41
-9755177.10 5135703.99 181.43
-9755170.32 5135703.78 190.17
-9755178.66 5135703.90 193.73
-9755181.05 5135703.58 193.26
-9755183.59 5135709.88 189.26
-9755183.33 5135714.70 186.77
-9755190.92 5135697.24 183.93
-9755187.30 5135699.59 187.98
-9755178.90 5135700.47 193.53
-9755176.92 5135690.96 181.40
-9755179.55 5135693.92 188.86
-9755172.08 5135693.37 192.38
-9755150.69 5135703.70 190.27
-9755150.23 5135704.57 184.63
-9755144.56 5135710.14 184.39
-9755143.83 5135707.82 189.17
-9755157.13 5135690.83 181.39
-9755150.63 5135690.54 181.42
-9755137.32 5135703.94 189.99
-9755137.10 5135704.20 185.05
-9755137.51 5135710.55 181.58
-9755131.28 5135703.92 189.86
-9755132.86 5135715.30 186.69
-9755125.47 5135709.59 184.03
-9755137.63 5135690.71 181.39
-9755124.86 5135697.16 189.13
-9755128.62 5135693.93 187.60
-9755104.57 5135703.88 181.34
-9755104.53 5135710.42 181.29
-9755091.28 5135704.06 181.39
-9755111.07 5135690.53 181.43
-9755113.56 5135691.38 187.92
-9755114.53 5135691.52 187.53
-9755084.78 5135710.52 181.51
-9755295.75 5135684.27 181.22
-9755289.21 5135684.46 181.19
-9755282.44 5135684.22 181.19
-9755269.48 5135684.35 181.24
-9755249.71 5135684.24 181.29
-9755150.59 5135683.97 181.41
-9755143.83 5135684.24 181.41
-9755091.39 5135684.21 181.43
-9755304.88 5136355.94 189.54
-9755302.14 5136250.95 189.35
-9755302.27 5136231.04 195.65
-9755299.16 5135993.23 191.24
-9755289.43 5135994.01 180.91
-9755296.23 5136521.03 183.23
-9755257.02 5136521.02 190.13
-9755257.17 5136520.99 183.47
-9755249.56 5136521.23 190.27
-9755230.88 5136523.34 194.15
-9755202.90 5136518.73 182.59
-9755199.75 5136519.95 187.00
-9755208.43 5136518.43 182.58
-9755183.79 5136520.60 183.87
-9755183.70 5136514.79 181.05
-9755157.42 5136521.12 181.18
-9755146.02 5136521.12 183.19
-9755137.69 5136514.56 181.17
-9755130.91 5136514.76 181.03
-9755117.91 5136520.97 180.79
-9755111.13 5136514.41 180.72
-9755097.41 5136521.66 179.85
-9755091.04 5136521.20 178.54
-9755084.62 5136520.87 178.59
-9755295.63 5136508.60 188.91
-9755295.32 5136505.39 182.79
-9755296.83 5136504.14 188.21
-9755289.77 5136506.96 181.80
-9755289.05 5136508.57 188.75
-9755282.34 5136508.80 188.85
-9755282.80 5136506.46 181.36
-9755295.77 5136513.96 188.64
-9755274.27 5136508.32 188.13
-9755276.14 5136500.53 182.44
-9755269.94 5136507.14 181.94
-9755276.31 5136515.99 188.92
-9755275.34 5136516.23 182.42
-9755274.41 5136516.54 180.00
-9755271.28 5136516.07 183.54
-9755262.52 5136507.18 180.98
-9755256.53 5136514.14 183.52
-9755236.35 5136501.36 190.03
-9755242.96 5136514.57 180.89
-9755230.50 5136501.78 189.42
-9755216.61 5136507.28 193.56
-9755222.80 5136506.61 183.40
-9755215.92 5136506.71 182.93
-9755202.15 5136501.16 190.01
-9755208.27 5136502.08 194.55
-9755202.89 5136507.92 189.85
-9755202.70 5136500.73 184.37
-9755197.56 5136507.77 181.30
-9755170.64 5136501.38 183.61
-9755172.15 5136501.18 189.85
-9755157.73 5136507.32 182.18
-9755158.12 5136502.83 182.59
-9755143.95 5136501.28 180.67
-9755137.77 5136503.31 181.72
-9755111.50 5136508.17 180.73
-9755097.89 5136507.53 183.66
-9755098.01 5136502.07 182.96
-9755091.53 5136501.31 178.45
-9755091.27 5136508.03 178.70
-9755295.92 5136489.04 182.92
-9755294.73 5136482.05 183.48
-9755276.07 5136494.91 180.84
-9755256.74 5136481.30 183.60
-9755256.35 5136494.83 180.80
-9755243.46 5136481.52 184.94
-9755223.37 5136488.04 190.03
-9755216.41 5136489.46 183.66
-9755216.48 5136494.56 180.82
-9755203.38 5136488.19 190.50
-9755203.46 5136481.34 188.97
-9755201.37 5136481.00 183.21
-9755196.90 5136480.68 182.40
-9755196.08 5136486.48 183.61
-9755210.13 5136494.73 185.69
-9755183.74 5136487.96 189.87
-9755190.97 5136494.02 181.81
-9755177.01 5136488.06 190.03
-9755177.87 5136481.20 183.94
-9755176.79 5136488.12 180.82
-9755170.16 5136481.49 182.90
-9755164.36 5136495.34 184.70
-9755150.40 5136480.88 190.59
-9755143.63 5136481.26 190.41
-9755149.26 5136492.30 189.05
-9755131.24 5136481.55 190.59
-9755130.84 5136488.20 180.72
-9755124.11 5136482.44 183.35
-9755110.98 5136494.89 180.71
-9755097.95 5136494.71 183.23
-9755097.46 5136488.31 179.93
-9755097.56 5136493.96 180.06
-9755096.68 5136480.78 179.95
-9755090.85 5136487.59 178.22
-9755084.84 5136481.79 177.39
-9755084.77 5136488.07 177.58
-9755295.72 5136474.89 183.64
-9755296.44 5136468.36 187.01
-9755261.35 5136467.76 182.46
-9755250.23 5136475.17 180.82
-9755243.83 5136474.76 190.07
-9755244.89 5136468.52 189.45
-9755236.47 5136468.89 182.37
-9755216.52 5136475.14 189.37
-9755203.70 5136474.80 183.34
-9755203.74 5136468.31 183.56
-9755190.08 5136474.83 189.02
-9755183.74 5136474.75 189.03
-9755177.69 5136475.06 183.45
-9755172.31 5136475.29 189.57
-9755170.12 5136475.33 182.49
-9755177.44 5136467.92 183.54
-9755144.14 5136474.90 181.08
-9755155.58 5136469.44 183.49
-9755150.84 5136468.29 189.38
-9755144.88 5136467.98 188.95
-9755137.66 5136475.51 196.00
-9755124.20 5136475.01 195.03
-9755117.91 5136475.02 180.82
-9755125.07 5136469.06 190.64
-9755112.56 5136469.11 191.98
-9755104.61 5136474.67 180.80
-9755096.40 5136468.76 180.07
-9755091.05 5136468.48 178.94
-9755269.83 5136466.31 182.55
-9755269.08 5136448.53 189.97
-9755249.54 5136461.81 190.09
-9755248.93 5136455.58 181.86
-9755262.88 5136448.76 190.03
-9755255.23 5136448.21 183.64
-9755250.72 5136448.95 184.22
-9755255.56 5136448.00 194.30
-9755235.65 5136461.89 182.47
-9755229.89 5136453.60 185.03
-9755235.98 5136448.73 181.92
-9755222.75 5136461.61 183.81
-9755216.52 5136455.39 189.17
-9755220.18 5136448.25 189.24
-9755210.11 5136455.05 188.95
-9755203.33 5136455.32 188.71
-9755197.07 5136461.62 187.30
-9755197.53 5136448.33 184.15
-9755183.52 5136448.31 183.86
-9755171.83 5136462.16 191.41
-9755177.93 5136448.85 183.20
-9755156.93 5136461.26 189.62
-9755157.35 5136455.26 184.94
-9755153.17 5136457.71 194.25
-9755157.29 5136448.52 213.94
-9755135.85 5136456.07 194.97
-9755137.07 5136455.04 184.67
-9755130.86 5136461.65 183.61
-9755131.25 5136462.43 189.60
-9755132.08 5136455.39 193.84
-9755130.83 5136448.51 189.80
-9755124.05 5136455.19 189.95
-9755124.32 5136462.05 182.50
-9755117.56 5136461.79 184.02
-9755117.71 5136455.17 183.72
-9755119.02 5136455.87 193.37
-9755112.42 5136462.73 181.95
-9755126.16 5136449.94 194.15
-9755118.63 5136447.45 183.88
-9755084.75 5136455.19 177.00
-9755090.90 5136448.64 178.84
-9755295.63 5136435.63 183.50
-9755275.93 5136435.90 188.69
-9755262.59 5136441.74 189.30
-9755250.09 5136435.38 189.47
-9755243.27 5136441.81 188.83
-9755242.84 5136435.46 180.98
-9755230.42 5136442.07 190.25
-9755209.72 5136446.69 182.53
-9755202.80 5136434.82 184.52
-9755196.30 5136436.27 184.11
-9755183.52 5136441.85 182.10
-9755189.50 5136429.55 182.29
-9755178.56 5136442.58 181.76
-9755157.34 5136441.98 213.92
-9755137.58 5136442.19 213.90
-9755135.82 5136435.57 203.38
-9755136.01 5136442.44 189.42
-9755129.90 5136434.35 184.60
-9755135.79 5136435.32 209.62
-9755136.11 5136435.14 190.70
-9755131.05 5136442.47 185.48
-9755135.83 5136442.43 209.71
-9755137.67 5136428.90 213.96
-9755135.70 5136428.53 209.40
-9755130.89 5136428.87 183.69
-9755123.99 5136442.32 184.12
-9755117.91 5136435.36 183.64
-9755117.82 5136442.25 183.99
-9755125.35 5136442.21 187.32
-9755112.32 5136435.32 182.27
-9755111.11 5136429.13 180.71
-9755295.51 5136415.43 184.44
-9755269.30 5136415.75 188.90
-9755275.96 5136425.82 182.90
-9755268.98 5136421.95 188.96
-9755250.46 5136416.33 193.56
-9755249.46 5136423.31 190.09
-9755249.27 5136422.67 195.74
-9755243.56 5136429.29 189.92
-9755242.89 5136428.66 180.97
-9755245.11 5136422.79 194.40
-9755229.36 5136422.07 180.86
-9755225.60 5136423.68 189.76
-9755197.09 5136415.50 184.73
-9755210.28 5136420.56 187.22
-9755203.43 5136429.54 188.60
-9755203.45 5136428.93 184.47
-9755196.94 5136422.30 184.85
-9755170.41 5136415.56 181.11
-9755150.72 5136415.48 216.73
-9755151.09 5136421.98 222.37
-9755150.46 5136419.97 216.79
-9755150.71 5136428.83 222.10
-9755145.07 5136428.75 222.10
-9755136.04 5136421.41 184.55
-9755135.50 5136416.03 190.09
-9755135.61 5136415.62 203.38
-9755135.46 5136416.04 209.20
-9755131.17 5136422.10 181.22
-9755135.60 5136422.74 209.21
-9755133.98 5136422.82 213.88
-9755117.90 5136421.94 183.51
-9755090.74 5136422.54 178.93
-9755281.73 5136403.74 189.62
-9755262.46 5136409.34 188.64
-9755261.13 5136409.58 181.80
-9755248.10 5136401.65 182.33
-9755249.85 5136409.10 189.69
-9755258.59 5136396.94 189.80
-9755242.28 5136396.32 190.33
-9755235.15 5136402.40 182.11
-9755209.83 5136402.03 189.08
-9755203.62 5136402.32 189.00
-9755210.10 5136409.04 190.88
-9755203.54 5136405.92 180.53
-9755209.10 5136405.92 180.56
-9755196.82 5136402.53 188.99
-9755197.85 5136414.80 187.24
-9755183.81 5136395.89 183.85
-9755176.79 5136402.37 183.74
-9755176.83 5136395.89 183.75
-9755171.21 5136404.14 189.33
-9755170.52 5136395.94 182.37
-9755163.82 5136396.07 184.59
-9755165.85 5136409.21 189.58
-9755157.23 5136409.14 213.93
-9755152.58 5136400.32 196.23
-9755156.40 5136398.99 213.99
-9755150.22 5136399.05 213.93
-9755147.87 5136398.79 190.31
-9755147.80 5136399.14 203.24
-9755137.83 5136402.09 181.55
-9755138.51 5136395.32 183.63
-9755144.78 5136398.98 195.48
-9755144.04 5136400.77 195.48
-9755138.20 5136400.84 191.10
-9755144.43 5136400.49 190.32
-9755144.35 5136400.06 208.40
-9755144.23 5136400.05 203.23
-9755144.46 5136398.99 203.23
-9755137.45 5136400.86 196.25
-9755135.11 5136402.09 209.59
-9755131.03 5136402.57 181.23
-9755135.49 5136409.01 196.23
-9755135.44 5136408.87 190.58
-9755135.51 5136409.65 209.31
-9755135.60 5136408.72 202.39
-9755124.27 5136402.54 181.07
-9755111.28 5136402.46 180.68
-9755104.51 5136402.43 180.81
-9755084.56 5136395.16 177.54
-9755289.88 5136389.47 183.42
-9755275.68 5136383.84 188.84
-9755269.08 5136384.02 188.81
-9755269.16 5136383.89 182.45
-9755276.16 5136393.91 180.86
-9755262.30 5136383.46 180.90
-9755262.67 5136389.19 192.05
-9755260.88 5136391.39 181.80
-9755249.84 5136383.29 195.89
-9755258.56 5136389.20 190.90
-9755242.60 5136382.80 180.86
-9755243.02 5136389.26 196.27
-9755236.46 5136389.40 190.10
-9755223.18 5136382.52 189.89
-9755229.83 5136389.55 180.85
-9755202.81 5136394.35 182.26
-9755210.27 5136382.67 189.44
-9755185.07 5136389.19 188.72
-9755170.30 5136389.41 182.38
-9755163.80 5136389.36 183.04
-9755158.06 5136383.08 189.58
-9755157.12 5136382.73 183.41
-9755160.42 5136386.50 191.38
-9755138.22 5136389.75 183.80
-9755098.17 5136382.18 181.65
-9755085.21 5136382.54 177.84
-9755279.30 5136369.27 187.41
-9755275.42 5136362.86 183.98
-9755249.09 5136375.13 181.29
-9755261.78 5136373.96 180.95
-9755258.30 5136369.05 183.69
-9755249.28 5136362.59 184.06
-9755256.73 5136363.50 184.38
-9755243.57 5136377.15 189.82
-9755216.75 5136376.05 189.27
-9755216.43 5136363.41 180.92
-9755216.49 5136369.46 189.95
-9755212.11 5136374.72 182.89
-9755198.44 5136375.44 188.71
-9755196.75 5136369.39 189.92
-9755196.43 5136363.18 182.93
-9755169.88 5136363.21 183.57
-9755170.27 5136369.41 189.73
-9755164.05 5136369.53 190.06
-9755157.96 5136363.32 195.06
-9755156.79 5136362.32 190.55
-9755151.04 5136363.01 180.89
-9755150.70 5136369.53 180.92
-9755090.08 5136370.10 178.84
-9755084.58 5136362.69 177.81
-9755084.59 5136369.54 177.85
-9755282.32 5136356.29 189.01
-9755294.65 5136351.69 188.41
-9755275.89 5136349.70 189.61
-9755269.44 5136349.94 190.56
-9755262.85 5136356.41 189.74
-9755243.01 5136356.72 180.83
-9755244.86 5136349.97 182.38
-9755228.91 5136356.09 183.61
-9755196.52 5136356.30 189.77
-9755196.85 5136349.62 187.99
-9755209.39 5136353.97 182.88
-9755176.19 5136356.17 183.53
-9755163.54 5136358.92 189.55
-9755170.26 5136356.46 186.81
-9755177.06 5136343.22 182.94
-9755163.13 5136343.65 182.85
-9755163.09 5136347.32 194.73
-9755124.38 5136356.45 189.78
-9755117.20 5136349.24 184.46
-9755111.03 5136350.06 181.61
-9755104.48 5136349.72 180.80
-9755098.26 5136349.73 181.88
-9755090.56 5136349.94 179.08
-9755289.19 5136336.51 188.83
-9755282.38 5136336.46 188.83
-9755296.63 5136341.48 187.52
-9755282.84 5136330.43 183.60
-9755275.88 5136336.71 188.13
-9755269.14 5136336.69 188.14
-9755279.80 5136333.60 186.65
-9755269.58 5136333.75 186.47
-9755275.95 5136329.04 188.37
-9755269.19 5136329.29 188.35
-9755260.29 5136337.09 179.78
-9755259.31 5136336.68 179.96
-9755257.59 5136343.06 183.36
-9755256.37 5136329.68 187.39
-9755243.15 5136336.61 180.84
-9755242.88 5136329.78 180.87
-9755234.90 5136330.17 184.34
-9755229.42 5136337.14 193.71
-9755224.92 5136336.69 183.58
-9755224.96 5136336.49 188.84
-9755228.23 5136343.16 184.23
-9755216.44 5136336.96 189.72
-9755204.85 5136336.76 189.54
-9755201.78 5136333.82 182.65
-9755196.94 5136336.63 187.34
-9755210.11 5136344.02 188.44
-9755209.94 5136329.43 189.09
-9755197.32 5136330.27 187.75
-9755117.60 5136336.55 190.24
-9755111.21 5136330.05 196.63
-9755295.72 5136323.46 183.71
-9755269.34 5136316.59 192.44
-9755269.31 5136309.74 189.10
-9755275.72 5136324.28 188.74
-9755262.74 5136324.21 188.49
-9755249.53 5136316.92 196.82
-9755256.17 5136310.47 196.50
-9755258.22 5136317.22 189.30
-9755256.20 5136310.11 189.99
-9755256.99 5136323.59 182.78
-9755258.65 5136321.52 193.27
-9755261.00 5136309.55 184.34
-9755269.59 5136312.07 182.63
-9755243.31 5136316.39 190.32
-9755243.08 5136316.78 196.51
-9755244.45 5136311.30 181.92
-9755236.49 5136316.97 190.11
-9755229.97 5136323.44 189.87
-9755216.46 5136324.25 188.43
-9755203.92 5136316.74 189.56
-9755203.43 5136313.87 180.96
-9755209.56 5136323.52 188.88
-9755204.48 5136322.78 183.39
-9755196.80 5136322.92 188.00
-9755183.70 5136316.84 184.12
-9755193.20 5136316.48 186.80
-9755164.35 5136316.17 183.51
-9755177.77 5136327.57 187.12
-9755137.66 5136310.40 201.52
-9755130.86 5136310.40 201.52
-9755124.50 5136316.91 181.17
-9755127.34 5136316.23 201.55
-9755112.53 5136310.65 196.69
-9755111.81 5136310.80 190.33
-9755110.80 5136323.57 195.76
-9755111.16 5136323.43 180.66
-9755104.37 5136316.83 180.78
-9755107.56 5136319.38 191.09
-9755090.88 5136315.39 183.04
-9755295.84 5136297.24 182.12
-9755289.08 5136297.19 180.68
-9755287.32 5136307.04 179.75
-9755261.30 5136303.81 182.50
-9755256.07 5136306.39 190.39
-9755243.21 5136303.65 190.38
-9755244.34 5136303.44 182.05
-9755229.12 5136301.93 183.87
-9755214.19 5136295.35 193.31
-9755209.91 5136303.19 188.96
-9755210.33 5136303.02 180.02
-9755210.36 5136303.12 182.83
-9755203.26 5136303.47 188.96
-9755203.48 5136303.27 182.89
-9755198.12 5136296.46 189.64
-9755196.82 5136297.66 183.65
-9755170.56 5136303.63 181.09
-9755131.02 5136296.76 201.54
-9755127.10 5136303.82 196.61
-9755124.17 5136296.97 183.83
-9755128.44 5136297.51 183.90
-9755117.58 5136297.54 190.55
-9755113.54 5136302.14 199.92
-9755111.04 5136297.06 180.64
-9755104.49 5136297.30 180.78
-9755107.30 5136307.17 193.38
-9755282.94 5136289.94 183.34
-9755288.88 5136283.84 180.89
-9755282.73 5136284.25 183.21
-9755268.88 5136291.43 193.54
-9755262.69 5136282.51 180.82
-9755264.04 5136283.31 193.44
-9755254.95 5136277.82 184.61
-9755254.98 5136284.21 182.47
-9755254.61 5136276.78 189.73
-9755254.81 5136284.51 189.10
-9755236.33 5136290.34 180.91
-9755243.54 5136276.79 182.44
-9755243.61 5136284.07 183.69
-9755231.27 5136278.10 182.43
-9755221.55 5136284.03 193.39
-9755218.49 5136291.17 193.31
-9755203.46 5136291.65 193.93
-9755210.11 5136279.38 193.29
-9755211.11 5136282.62 182.82
-9755209.88 5136282.22 189.62
-9755203.37 5136282.65 189.07
-9755196.77 5136277.39 192.55
-9755197.00 5136282.76 190.81
-9755212.26 5136291.80 185.75
-9755192.57 5136290.47 189.06
-9755188.09 5136277.88 184.74
-9755191.75 5136284.02 188.43
-9755177.73 5136290.10 183.60
-9755169.39 5136277.06 191.20
-9755169.35 5136282.69 190.92
-9755157.05 5136290.41 183.59
-9755158.93 5136277.69 184.04
-9755137.51 5136290.37 202.41
-9755135.74 5136290.64 207.60
-9755138.42 5136276.04 202.63
-9755127.05 5136289.97 190.08
-9755111.16 5136290.48 195.76
-9755126.66 5136276.28 196.53
-9755123.91 5136283.64 195.38
-9755126.57 5136283.84 201.43
-9755117.91 5136285.01 189.75
-9755110.77 5136284.04 180.66
-9755091.29 5136290.57 183.46
-9755282.85 5136270.61 190.41
-9755282.77 5136264.03 189.99
-9755290.74 5136267.04 193.40
-9755282.84 5136270.69 183.38
-9755269.32 5136270.77 191.72
-9755282.90 5136263.82 183.38
-9755262.51 5136269.84 189.32
-9755257.07 5136269.74 191.67
-9755249.62 5136271.18 188.96
-9755262.58 5136264.02 188.86
-9755262.35 5136269.10 181.87
-9755249.64 5136263.96 190.55
-9755241.61 5136271.35 190.52
-9755236.30 5136270.56 190.18
-9755230.46 5136264.27 193.89
-9755229.20 5136270.34 193.37
-9755214.65 5136270.89 182.61
-9755209.36 5136270.90 189.80
-9755210.32 5136271.24 193.70
-9755204.01 5136271.14 183.07
-9755209.61 5136271.10 183.60
-9755215.97 5136264.17 184.84
-9755209.90 5136259.63 185.01
-9755195.13 5136259.06 184.99
-9755163.94 5136270.67 181.24
-9755174.03 5136263.90 182.92
-9755126.44 5136266.79 201.59
-9755127.66 5136268.09 181.29
-9755118.04 5136257.26 190.63
-9755104.64 5136270.64 180.80
-9755104.50 5136264.49 191.53
-9755111.40 5136264.05 196.80
-9755111.80 5136257.66 180.77
-9755282.49 5136251.34 189.81
-9755289.21 5136244.28 196.57
-9755282.06 5136244.88 189.03
-9755276.22 5136244.25 183.84
-9755263.44 5136255.73 182.43
-9755254.04 5136250.36 184.13
-9755249.88 5136244.26 180.71
-9755243.52 5136257.40 195.60
-9755242.52 5136250.58 190.34
-9755236.10 5136257.02 189.46
-9755236.58 5136250.99 180.81
-9755229.76 5136257.44 189.87
-9755230.00 5136251.73 183.29
-9755216.33 5136250.93 191.74
-9755216.21 5136246.31 183.42
-9755195.10 5136252.45 194.51
-9755190.08 5136250.79 192.73
-9755190.17 5136244.02 183.67
-9755183.05 5136244.11 189.35
-9755173.67 5136251.02 189.60
-9755176.93 5136246.84 193.61
-9755157.30 5136250.78 181.05
-9755150.74 5136250.89 196.58
-9755149.96 5136257.39 191.86
-9755153.98 5136244.51 190.81
-9755143.73 5136257.30 196.09
-9755144.21 5136250.32 189.71
-9755144.38 5136251.01 181.12
-9755130.87 5136250.32 190.28
-9755129.96 5136244.62 191.21
-9755117.72 5136251.00 196.59
-9755124.25 5136244.37 180.73
-9755117.60 5136244.48 190.01
-9755098.02 5136243.97 180.86
-9755091.23 5136249.23 182.97
-9755086.11 5136245.00 183.56
-9755288.88 5136231.16 180.85
-9755296.28 5136224.70 197.73
-9755296.60 5136223.59 203.08
-9755289.89 5136224.82 182.63
-9755278.00 5136238.66 194.72
-9755275.60 5136238.36 184.03
-9755276.11 5136224.38 190.39
-9755256.21 5136231.25 180.82
-9755249.37 5136237.76 180.64
-9755242.94 5136231.14 180.87
-9755236.65 5136237.92 180.84
-9755216.60 5136237.54 180.69
-9755209.89 5136231.00 180.86
-9755203.39 5136237.53 180.76
-9755203.48 5136225.19 181.79
-9755183.60 5136231.13 180.93
-9755171.67 5136231.87 185.30
-9755150.65 5136224.92 183.95
-9755144.02 5136239.45 182.11
-9755137.33 5136240.98 190.08
-9755139.98 5136240.96 193.65
-9755130.85 5136231.10 180.79
-9755137.48 5136224.91 181.58
-9755146.71 5136224.62 187.67
-9755115.03 5136238.46 186.76
-9755084.86 5136231.16 180.98
-9755295.73 5136211.77 202.48
-9755297.08 5136208.72 190.21
-9755295.51 5136218.31 190.40
-9755295.47 5136217.92 180.82
-9755282.32 5136211.73 183.46
-9755276.38 5136210.48 194.89
-9755270.35 5136212.22 195.95
-9755268.13 5136223.63 194.42
-9755262.54 5136211.65 195.15
-9755256.24 5136218.19 189.86
-9755222.25 5136216.83 188.57
-9755210.19 5136212.31 183.47
-9755203.50 5136217.83 187.82
-9755195.94 5136212.15 182.90
-9755196.71 5136218.36 183.51
-9755197.38 5136217.25 187.25
-9755177.08 5136217.97 189.90
-9755158.47 5136211.92 184.73
-9755150.55 5136218.00 189.70
-9755144.31 5136216.58 183.12
-9755137.99 5136217.05 182.84
-9755122.54 5136212.10 182.92
-9755131.95 5136214.24 186.68
-9755118.37 5136217.95 183.45
-9755104.39 5136211.11 180.76
-9755111.02 5136209.06 187.79
-9755108.56 5136217.89 186.96
-9755095.15 5136211.22 179.95
-9755295.59 5136198.13 184.29
-9755296.29 5136204.13 190.33
-9755290.08 5136199.08 196.98
-9755285.15 5136206.92 195.68
-9755270.23 5136197.29 181.60
-9755269.32 5136205.14 190.12
-9755254.69 5136191.90 195.69
-9755255.30 5136199.51 189.96
-9755261.21 5136198.44 200.07
-9755248.42 5136203.52 189.46
-9755244.44 5136197.48 190.25
-9755244.30 5136204.47 190.01
-9755223.15 5136191.50 183.59
-9755203.36 5136191.88 181.23
-9755203.52 5136204.87 181.26
-9755144.00 5136204.83 181.23
-9755090.90 5136197.72 183.40
-9755084.47 5136198.11 178.03
-9755294.98 5136177.53 181.28
-9755295.68 5136183.40 189.77
-9755289.67 5136182.90 190.52
-9755273.67 5136189.62 187.12
-9755282.51 5136178.55 196.57
-9755282.96 5136184.91 180.90
-9755280.16 5136182.08 195.22
-9755254.61 5136179.33 194.61
-9755249.37 5136182.68 183.79
-9755246.02 5136177.81 189.70
-9755224.57 5136178.09 185.18
-9755216.20 5136171.88 183.58
-9755203.38 5136178.22 181.22
-9755210.21 5136171.78 181.28
-9755183.41 5136171.85 181.26
-9755196.89 5136184.70 181.19
-9755183.65 5136184.93 181.12
-9755170.67 5136178.32 181.27
-9755163.89 5136185.08 181.25
-9755157.40 5136178.86 181.22
-9755137.61 5136184.93 181.17
-9755117.88 5136184.98 183.54
-9755124.12 5136178.71 181.29
-9755104.42 5136172.01 180.83
-9755093.03 5136184.70 183.04
-9755090.44 5136185.04 179.48
-9755085.14 5136185.12 182.92
-9755092.35 5136172.53 182.88
-9755084.55 5136178.55 178.13
-9755295.57 5136171.78 196.41
-9755295.98 5136171.19 189.64
-9755295.78 5136158.64 180.87
-9755296.27 5136164.31 197.36
-9755295.23 5136157.94 189.89
-9755282.53 5136172.00 196.41
-9755275.90 5136171.93 196.70
-9755270.48 5136171.77 181.44
-9755282.66 5136158.76 196.38
-9755281.99 5136165.60 196.98
-9755275.93 5136158.60 196.75
-9755270.88 5136164.34 192.11
-9755270.99 5136158.39 195.26
-9755270.80 5136165.80 194.78
-9755269.24 5136165.27 180.90
-9755249.25 5136173.06 193.90
-9755249.67 5136165.16 183.73
-9755250.17 5136158.89 188.59
-9755248.75 5136158.58 183.56
-9755236.20 5136171.95 180.70
-9755236.27 5136158.60 180.69
-9755215.21 5136164.72 183.26
-9755216.53 5136158.66 183.55
-9755197.00 5136165.14 181.26
-9755189.94 5136165.37 181.25
-9755183.41 5136165.07 181.27
-9755170.45 5136165.04 181.28
-9755163.73 5136158.76 181.27
-9755156.94 5136165.14 181.26
-9755143.99 5136165.19 181.25
-9755130.97 5136165.09 181.27
-9755117.38 5136165.71 188.24
-9755111.33 5136165.51 188.69
-9755105.04 5136157.99 190.18
-9755085.63 5136165.93 182.26
-9755296.10 5136152.21 196.50
-9755295.76 5136145.39 196.41
-9755288.73 5136151.98 196.92
-9755288.89 5136151.45 199.99
-9755296.47 5136143.89 191.85
-9755294.88 5136140.52 195.09
-9755295.78 5136138.89 190.33
-9755276.67 5136146.54 195.03
-9755269.72 5136151.85 189.75
-9755269.76 5136145.94 189.92
-9755283.06 5136141.52 195.65
-9755270.61 5136139.32 189.77
-9755249.59 5136152.07 183.27
-9755223.36 5136151.74 183.57
-9755222.24 5136144.92 187.71
-9755209.81 5136151.88 181.29
-9755196.85 5136145.35 181.18
-9755183.64 5136138.68 181.19
-9755164.05 5136145.37 181.26
-9755176.86 5136138.69 181.23
-9755117.76 5136152.07 183.38
-9755098.04 5136152.19 180.92
-9755098.08 5136145.68 180.91
-9755104.60 5136139.15 180.83
-9755097.82 5136138.81 180.93
-9755287.37 5136133.87 183.89
-9755276.39 5136133.80 189.34
-9755263.02 5136125.53 180.90
-9755251.50 5136137.39 186.76
-9755266.02 5136124.46 193.27
-9755242.87 5136131.86 182.31
-9755236.42 5136132.52 180.77
-9755236.18 5136125.74 180.78
-9755229.69 5136125.69 180.62
-9755222.26 5136132.59 189.47
-9755210.22 5136125.84 181.38
-9755203.46 5136125.76 181.27
-9755190.13 5136125.73 181.24
-9755124.42 5136125.60 181.29
-9755092.02 5136126.56 183.58
-9755295.84 5136106.22 181.01
-9755282.27 5136106.15 180.84
-9755269.10 5136105.89 190.60
-9755262.82 5136112.40 190.68
-9755262.39 5136106.57 200.52
-9755249.67 5136105.86 189.92
-9755255.85 5136118.22 192.84
-9755243.00 5136119.15 182.39
-9755236.49 5136112.39 180.83
-9755236.52 5136119.17 180.84
-9755238.96 5136112.27 189.71
-9755225.64 5136112.99 189.64
-9755229.98 5136118.91 180.67
-9755225.60 5136119.63 189.78
-9755228.80 5136119.62 189.76
-9755209.93 5136119.03 181.27
-9755196.51 5136105.93 181.20
-9755177.33 5136105.83 181.21
-9755176.92 5136118.83 181.22
-9755157.46 5136119.29 181.20
-9755131.05 5136105.85 181.19
-9755097.94 5136118.97 180.98
-9755085.01 5136107.50 183.11
-9755091.51 5136119.08 183.42
-9755090.88 5136112.53 179.28
-9755275.83 5136099.59 180.93
-9755262.87 5136099.52 180.90
-9755265.03 5136099.66 191.16
-9755255.93 5136092.86 189.77
-9755248.25 5136098.47 194.82
-9755243.21 5136100.91 189.51
-9755244.68 5136092.05 193.85
-9755243.12 5136092.87 180.70
-9755217.92 5136091.07 183.59
-9755210.06 5136099.50 181.27
-9755183.74 5136099.37 181.19
-9755111.24 5136086.46 184.44
-9755111.33 5136099.49 181.03
-9755104.53 5136099.46 180.84
-9755107.25 5136086.71 189.13
-9755098.10 5136092.64 180.99
-9755085.15 5136094.74 181.35
-9755295.66 5136086.38 180.94
-9755289.20 5136079.54 180.87
-9755275.91 5136086.30 180.73
-9755255.68 5136086.67 195.97
-9755260.42 5136088.44 195.49
-9755262.71 5136072.88 180.75
-9755249.48 5136079.73 189.07
-9755255.45 5136082.87 193.26
-9755249.72 5136079.58 180.96
-9755222.86 5136073.36 183.88
-9755209.94 5136073.11 181.44
-9755216.77 5136085.34 194.25
-9755137.15 5136072.74 181.15
-9755124.12 5136079.75 181.23
-9755117.73 5136080.86 184.23
-9755275.76 5136059.65 180.69
-9755269.67 5136053.89 189.69
-9755269.97 5136054.45 184.82
-9755267.19 5136059.44 184.59
-9755263.70 5136072.30 187.52
-9755262.44 5136066.32 180.77
-9755256.66 5136060.18 190.12
-9755243.29 5136066.54 180.77
-9755246.02 5136070.48 189.84
-9755236.28 5136059.97 180.82
-9755239.09 5136058.96 190.84
-9755177.26 5136066.16 181.16
-9755170.50 5136059.85 181.24
-9755111.03 5136065.85 188.66
-9755289.11 5136046.39 180.83
-9755267.61 5136041.61 184.29
-9755262.26 5136040.50 189.58
-9755262.86 5136040.08 196.33
-9755236.39 5136040.14 180.74
-9755170.57 5136046.83 181.26
-9755109.92 5136039.92 188.22
-9755289.23 5136027.08 181.03
-9755264.54 5136034.16 184.29
-9755262.78 5136033.41 190.16
-9755249.78 5136033.88 189.66
-9755242.93 5136033.21 189.82
-9755249.79 5136020.13 180.96
-9755224.13 5136033.71 190.19
-9755203.10 5136033.43 181.26
-9755203.19 5136020.44 181.24
-9755196.74 5136026.58 192.70
-9755143.90 5136027.16 181.10
-9755116.85 5136028.05 188.41
-9755110.82 5136027.57 188.36
-9755111.01 5136019.48 189.12
-9755103.89 5136019.10 184.92
-9755109.88 5136034.66 187.58
-9755116.21 5136021.12 187.21
-9755249.30 5136000.55 181.01
-9755246.08 5136005.62 190.04
-9755222.64 5136007.51 183.73
-9755216.26 5136000.60 183.87
-9755218.13 5136012.70 188.07
-9755211.32 5136000.66 182.81
-9755211.52 5136006.96 183.25
-9755203.04 5136007.05 181.26
-9755203.34 5136000.58 181.25
-9755211.25 5136013.25 182.83
-9755190.32 5136007.29 181.26
-9755196.70 5136013.58 181.23
-9755190.25 5136013.88 181.20
-9755163.82 5136000.31 181.29
-9755157.30 5136007.07 181.28
-9755157.24 5136013.85 181.25
-9755144.25 5136013.57 181.22
-9755105.20 5136013.63 185.03
-9755110.90 5136015.09 188.19
-9755091.53 5136013.62 183.13
-9755288.83 5136000.76 180.83
-9755289.01 5135999.95 196.84
-9755282.17 5136000.18 194.46
-9755280.22 5135999.03 191.26
-9755275.97 5135998.49 196.42
-9755255.91 5135999.90 193.55
-9755222.18 5135995.08 187.00
-9755211.36 5135993.89 183.00
-9755203.37 5135993.76 181.23
-9755170.33 5135994.18 181.26
-9755144.09 5135993.97 181.16
-9755117.97 5135993.98 183.50
-9755110.56 5135994.27 189.90
-9755104.64 5135993.90 190.25
-9755110.25 5135993.02 184.82
-9755091.34 5135993.91 213.25
-9755302.03 5136152.61 185.41
-9755302.84 5136138.31 190.39
-9755296.52 5135992.98 183.55
-9755269.21 5135994.30 195.29
-9755242.66 5135994.14 190.30
-9755212.35 5135990.18 186.85
-9755302.13 5136244.56 180.89
-9755302.43 5136237.42 180.66
-9755300.90 5136297.64 182.37
-9755302.30 5136270.49 189.27
-9755301.67 5136210.16 182.91
-9755301.31 5136164.85 200.24
-9755302.13 5136218.09 195.13
-9755302.71 5136204.35 196.97
-9755302.65 5136159.17 202.39
-9755301.91 5136152.95 201.68
-9755302.44 5136132.01 180.81
-9755300.89 5135992.04 184.11
-9755302.39 5135947.83 181.11
-9755302.30 5135921.50 181.23
-9755302.34 5135908.46 181.23
-9755559.22 5135993.98 182.23
-9755546.26 5135993.92 182.15
-9755513.52 5135993.64 184.14
-9755499.92 5135993.66 180.68
-9755473.71 5135994.12 180.87
-9755909.41 5135972.50 184.45
-9755907.02 5135974.17 189.36
-9755901.89 5135993.64 189.56
-9755890.25 5135968.35 188.05
-9755887.89 5135972.67 183.19
-9755898.00 5135981.72 187.31
-9755889.47 5135988.13 183.99
-9755890.16 5135989.41 188.37
-9755862.56 5135987.18 181.06
-9755855.50 5135993.94 181.01
-9755849.29 5135993.66 180.94
-9755822.87 5135980.73 181.00
-9755829.32 5135987.30 180.98
-9755816.08 5135980.67 181.02
-9755816.30 5135994.03 181.04
-9755796.33 5135987.09 180.90
-9755796.23 5135993.89 180.91
-9755790.06 5135993.90 180.94
-9755770.05 5135987.02 181.01
-9755743.95 5135967.34 185.06
-9755756.29 5135973.50 182.82
-9755724.21 5135967.53 185.07
-9755723.90 5135974.05 185.10
-9755722.96 5135987.63 186.90
-9755718.60 5135987.59 186.89
-9755697.39 5135967.41 185.08
-9755690.80 5135980.56 186.96
-9755691.01 5135993.67 185.09
-9755680.55 5135973.20 186.89
-9755671.37 5135974.33 185.04
-9755662.20 5135990.71 186.97
-9755645.16 5135967.36 185.10
-9755645.19 5135974.17 185.11
-9755638.04 5135980.72 185.10
-9755611.73 5135987.13 182.26
-9755605.30 5135987.09 182.24
-9755598.87 5135967.85 182.16
-9755598.81 5135974.05 182.18
-9755565.92 5135960.86 182.12
-9755526.33 5135987.74 183.53
-9755532.87 5135960.94 182.00
-9755506.86 5135982.39 188.25
-9755499.99 5135987.19 180.69
-9755493.53 5135987.45 180.87
-9755465.50 5135967.78 184.10
-9755473.88 5135978.39 193.39
-9755486.89 5135960.73 180.80
-9755480.81 5135962.34 189.99
-9755453.96 5135968.09 190.59
-9755454.19 5135973.76 194.49
-9755446.52 5135968.09 184.41
-9755460.46 5135987.54 180.84
-9755434.12 5135967.61 183.25
-9755461.81 5135961.61 189.72
-9755427.12 5135967.88 196.93
-9755427.86 5135968.62 184.56
-9755426.44 5135973.85 190.63
-9755422.95 5135969.02 190.43
-9755414.35 5135967.14 181.07
-9755421.09 5135960.96 181.04
-9755407.60 5135961.16 181.09
-9755401.47 5135967.65 190.38
-9755393.97 5135967.79 196.85
-9755400.95 5135980.24 184.51
-9755400.78 5135974.33 189.62
-9755402.22 5135974.54 184.89
-9755400.86 5135974.34 196.53
-9755405.18 5135971.20 197.89
-9755387.89 5135967.67 196.17
-9755389.68 5135967.87 200.22
-9755375.54 5135968.13 188.12
-9755374.88 5135974.20 190.07
-9755375.08 5135980.09 184.90
-9755374.79 5135980.45 189.64
-9755381.24 5135987.75 185.08
-9755396.80 5135962.72 190.46
-9755394.59 5135960.76 181.12
-9755393.47 5135962.10 195.66
-9755384.14 5135963.04 196.02
-9755368.29 5135987.45 189.81
-9755374.28 5135983.51 193.30
-9755348.53 5135967.63 181.19
-9755355.79 5135969.44 188.92
-9755351.82 5135987.83 190.11
-9755340.74 5135966.51 184.17
-9755341.05 5135981.12 183.93
-9755329.10 5135974.93 183.96
-9755328.54 5135980.72 189.82
-9755321.91 5135980.66 184.67
-9755314.00 5135969.09 183.26
-9755314.28 5135981.57 184.83
-9755334.80 5135988.85 183.69
-9755328.55 5135982.95 193.32
-9755329.08 5135986.42 194.08
-9755315.47 5135987.51 183.36
-9755314.95 5135987.52 189.88
-9755340.97 5135961.01 187.62
-9755322.06 5135961.26 181.21
-9755315.11 5135973.88 196.05
-9755308.90 5135973.84 196.10
-9755308.43 5135973.81 189.89
-9755308.63 5135980.57 202.81
-9755302.93 5135974.91 201.99
-9755308.91 5135981.55 196.32
-9755308.70 5135987.53 189.65
-9755308.91 5135988.22 183.62
-9755308.80 5135960.93 181.19
-9755915.12 5135941.28 180.62
-9755920.93 5135947.59 184.11
-9755920.90 5135947.71 189.20
-9755916.93 5135947.41 188.61
-9755916.62 5135952.48 187.12
-9755908.79 5135953.95 185.00
-9755922.04 5135960.90 180.83
-9755902.52 5135941.12 189.98
-9755908.00 5135940.08 190.21
-9755882.06 5135941.42 180.95
-9755888.62 5135947.68 187.93
-9755898.10 5135945.18 189.53
-9755897.34 5135963.71 187.81
-9755907.29 5135933.06 189.08
-9755889.30 5135935.44 184.32
-9755889.29 5135941.09 188.04
-9755896.29 5135931.64 188.49
-9755889.56 5135932.95 188.15
-9755875.50 5135960.95 181.01
-9755855.74 5135960.80 181.04
-9755836.07 5135940.85 180.93
-9755842.74 5135947.71 180.89
-9755829.52 5135954.38 180.94
-9755822.96 5135960.86 181.01
-9755783.34 5135941.40 181.08
-9755769.70 5135942.45 183.34
-9755763.58 5135941.19 183.39
-9755744.36 5135959.44 189.93
-9755737.00 5135941.27 185.10
-9755737.31 5135934.41 185.04
-9755717.65 5135941.92 186.85
-9755723.52 5135941.09 186.72
-9755711.00 5135954.42 185.09
-9755704.26 5135954.40 185.06
-9755710.96 5135960.94 185.11
-9755727.32 5135936.44 186.67
-9755697.85 5135941.29 185.07
-9755697.47 5135954.36 185.06
-9755684.53 5135940.95 185.04
-9755678.13 5135942.89 186.72
-9755684.56 5135941.17 186.89
-9755685.20 5135948.04 186.94
-9755684.62 5135934.39 185.07
-9755674.48 5135939.86 186.83
-9755665.04 5135941.14 185.05
-9755644.92 5135960.86 185.11
-9755664.55 5135934.65 185.06
-9755658.32 5135934.83 185.16
-9755645.40 5135934.53 184.99
-9755631.81 5135941.25 185.16
-9755618.22 5135934.76 182.28
-9755585.43 5135941.41 182.13
-9755591.91 5135947.98 182.15
-9755605.52 5135934.73 182.16
-9755579.30 5135941.34 182.13
-9755566.05 5135940.98 182.12
-9755552.76 5135941.25 182.03
-9755572.50 5135934.55 182.12
-9755565.77 5135934.80 182.10
-9755545.98 5135934.33 182.04
-9755520.13 5135940.70 183.88
-9755506.49 5135941.06 180.67
-9755513.48 5135947.89 180.84
-9755513.51 5135940.94 189.64
-9755499.67 5135941.28 180.61
-9755524.06 5135937.95 187.10
-9755520.11 5135938.88 187.31
-9755506.49 5135934.49 180.67
-9755513.56 5135934.54 180.99
-9755499.96 5135934.47 180.60
-9755493.52 5135934.73 180.83
-9755479.88 5135947.67 180.92
-9755486.65 5135947.75 180.77
-9755480.41 5135954.52 180.99
-9755476.47 5135937.49 188.43
-9755447.16 5135941.44 183.25
-9755454.19 5135954.36 181.01
-9755433.81 5135954.53 181.07
-9755434.26 5135934.65 181.54
-9755427.40 5135947.94 181.05
-9755420.90 5135947.92 181.12
-9755414.47 5135941.08 181.15
-9755394.69 5135947.79 181.15
-9755387.85 5135954.20 181.26
-9755374.97 5135940.85 181.41
-9755361.71 5135941.33 181.45
-9755348.13 5135941.26 181.48
-9755361.60 5135954.43 181.28
-9755355.16 5135954.34 181.30
-9755348.10 5135954.27 181.32
-9755368.21 5135934.54 181.58
-9755354.95 5135934.76 181.63
-9755348.19 5135934.75 181.64
-9755322.18 5135941.09 181.48
-9755335.18 5135934.67 181.60
-9755321.95 5135934.88 181.56
-9755922.08 5135914.82 184.88
-9755916.69 5135919.33 188.22
-9755915.60 5135927.85 188.78
-9755908.49 5135928.03 190.38
-9755906.87 5135921.65 181.63
-9755907.86 5135921.37 188.71
-9755921.51 5135907.65 190.34
-9755920.32 5135907.73 184.26
-9755916.63 5135913.93 193.62
-9755919.57 5135912.62 193.30
-9755901.65 5135915.63 190.25
-9755907.45 5135914.25 189.43
-9755901.91 5135927.94 190.32
-9755901.71 5135921.29 189.85
-9755888.68 5135915.58 184.01
-9755882.41 5135914.72 180.92
-9755888.08 5135921.59 183.99
-9755889.46 5135920.22 188.78
-9755895.21 5135928.42 189.32
-9755888.91 5135928.66 188.07
-9755902.00 5135908.19 190.17
-9755901.56 5135908.12 185.21
-9755855.79 5135914.60 181.09
-9755868.84 5135921.51 181.01
-9755849.15 5135921.64 181.01
-9755862.23 5135908.13 181.09
-9755829.43 5135927.75 181.01
-9755835.98 5135908.25 180.82
-9755816.18 5135921.18 181.04
-9755763.69 5135914.78 184.78
-9755783.19 5135907.96 181.49
-9755757.23 5135914.76 184.87
-9755750.44 5135914.98 184.93
-9755757.28 5135908.27 184.85
-9755750.48 5135908.12 185.02
-9755744.04 5135908.15 185.12
-9755724.16 5135915.03 185.01
-9755716.81 5135915.35 186.91
-9755723.29 5135928.07 186.71
-9755717.40 5135927.72 186.72
-9755724.27 5135921.42 186.83
