-9755697.41 5135413.99 185.25
-9755697.37 5135420.79 185.20
-9755691.45 5135420.74 185.14
-9755676.85 5135407.18 186.76
-9755676.71 5135414.15 186.78
-9755704.31 5135400.70 185.16
-9755658.26 5135407.24 185.18
-9755664.78 5135413.69 186.75
-9755651.39 5135420.93 187.04
-9755671.54 5135400.96 186.97
-9755647.97 5135408.01 186.96
-9755631.99 5135407.60 185.21
-9755617.27 5135414.25 183.44
-9755618.41 5135420.61 184.72
-9755645.00 5135400.93 185.38
-9755624.73 5135400.78 185.19
-9755612.25 5135407.51 181.06
-9755603.84 5135412.90 182.94
-9755599.92 5135412.47 182.79
-9755605.15 5135401.20 181.09
-9755598.68 5135401.16 181.08
-9755589.04 5135405.48 188.99
-9755586.63 5135419.80 184.02
-9755559.19 5135407.53 181.09
-9755566.14 5135420.77 181.14
-9755552.95 5135407.67 181.08
-9755539.45 5135407.36 181.05
-9755532.90 5135414.26 181.05
-9755533.15 5135420.63 181.03
-9755545.92 5135400.84 181.08
-9755526.19 5135407.56 181.05
-9755513.20 5135407.79 181.05
-9755506.68 5135407.72 181.08
-9755519.70 5135400.82 181.03
-9755493.41 5135407.66 181.10
-9755480.13 5135407.53 181.43
-9755484.91 5135421.42 201.77
-9755473.64 5135414.02 181.55
-9755474.30 5135421.61 202.65
-9755481.71 5135399.59 186.68
-9755460.03 5135407.34 187.12
-9755466.98 5135413.91 189.97
-9755460.67 5135414.12 189.91
-9755460.56 5135420.49 181.63
-9755460.95 5135419.04 191.02
-9755465.99 5135409.79 189.18
-9755453.70 5135414.05 207.93
-9755441.12 5135413.68 209.89
-9755452.12 5135409.31 207.36
-9755447.66 5135422.33 202.57
-9755460.27 5135400.57 189.05
-9755447.52 5135399.84 182.77
-9755446.93 5135394.35 181.49
-9755427.49 5135414.21 220.84
-9755439.51 5135421.13 220.80
-9755420.98 5135407.34 220.72
-9755414.21 5135407.37 220.79
-9755414.86 5135420.43 207.40
-9755414.45 5135414.18 220.95
-9755420.90 5135413.87 220.81
-9755420.58 5135420.36 221.02
-9755419.56 5135421.30 208.52
-9755414.30 5135414.15 208.92
-9755414.21 5135420.10 218.91
-9755433.45 5135400.96 207.14
-9755406.96 5135407.33 208.55
-9755407.77 5135407.28 220.92
-9755402.35 5135406.70 207.95
-9755408.81 5135413.26 207.40
-9755406.45 5135414.62 205.16
-9755401.83 5135420.10 188.20
-9755403.06 5135419.43 203.91
-9755402.71 5135408.10 218.22
-9755403.42 5135418.76 196.03
-9755400.57 5135413.90 187.98
-9755408.75 5135413.64 218.88
-9755401.40 5135409.64 203.63
-9755405.85 5135416.95 187.53
-9755399.38 5135415.02 196.02
-9755395.83 5135405.64 206.82
-9755397.49 5135405.62 218.88
-9755390.21 5135404.90 206.60
-9755395.28 5135419.73 187.51
-9755394.04 5135421.01 186.45
-9755393.66 5135409.46 187.74
-9755386.79 5135408.79 196.03
-9755387.80 5135421.02 185.88
-9755395.35 5135412.80 196.03
-9755387.75 5135407.58 187.98
-9755388.58 5135419.32 198.12
-9755381.33 5135421.04 185.41
-9755381.73 5135407.88 196.01
-9755399.00 5135423.44 186.65
-9755407.80 5135401.04 220.84
-9755407.75 5135394.61 220.68
-9755398.54 5135402.83 208.55
-9755394.54 5135400.99 220.94
-9755394.71 5135400.77 208.54
-9755387.16 5135402.01 206.26
-9755388.12 5135400.19 207.90
-9755387.63 5135400.96 221.08
-9755387.98 5135394.16 220.82
-9755394.46 5135404.06 218.74
-9755381.35 5135401.96 203.63
-9755381.14 5135399.49 207.82
-9755381.25 5135394.42 220.89
-9755386.47 5135401.35 219.01
-9755374.10 5135407.25 188.65
-9755374.76 5135407.40 196.00
-9755374.60 5135420.69 185.36
-9755361.01 5135421.15 185.63
-9755361.60 5135416.40 186.63
-9755354.86 5135420.86 185.79
-9755374.67 5135394.33 209.67
-9755374.19 5135399.05 208.25
-9755374.38 5135400.15 221.15
-9755375.15 5135400.44 190.12
-9755375.98 5135400.26 218.61
-9755374.98 5135394.14 189.21
-9755378.46 5135399.88 217.60
-9755373.60 5135400.65 196.16
-9755373.69 5135394.04 196.68
-9755368.30 5135394.36 188.95
-9755348.65 5135420.80 186.02
-9755348.18 5135419.61 186.87
-9755341.59 5135407.63 189.49
-9755322.20 5135407.75 189.04
-9755334.62 5135413.48 188.56
-9755341.30 5135419.27 187.24
-9755335.96 5135420.94 186.16
-9755321.01 5135421.07 186.46
-9755348.23 5135394.31 189.02
-9755335.49 5135400.74 189.01
-9755321.98 5135394.14 189.03
-9755315.05 5135420.41 187.64
-9755309.96 5135423.52 186.65
-9755315.62 5135425.72 186.68
-9755915.52 5135381.27 188.13
-9755915.36 5135387.16 187.66
-9755908.37 5135381.03 180.83
-9755893.63 5135382.03 183.48
-9755887.65 5135381.05 182.61
-9755890.26 5135381.15 191.84
-9755890.12 5135387.87 191.95
-9755890.11 5135393.95 192.06
-9755908.68 5135374.53 180.80
-9755862.96 5135381.52 183.74
-9755855.52 5135394.54 183.36
-9755855.67 5135374.54 181.11
-9755849.05 5135394.22 182.84
-9755848.28 5135388.86 182.73
-9755829.62 5135387.62 182.93
-9755829.88 5135394.82 194.89
-9755828.35 5135394.63 188.04
-9755842.76 5135368.18 181.38
-9755829.37 5135374.64 181.49
-9755822.91 5135387.84 182.93
-9755822.69 5135395.86 189.14
-9755802.95 5135380.88 183.12
-9755797.30 5135381.09 183.12
-9755816.09 5135387.59 183.17
-9755809.48 5135394.30 183.77
-9755822.94 5135374.32 181.49
-9755822.97 5135368.08 181.51
-9755802.92 5135367.92 181.71
-9755796.40 5135374.73 181.80
-9755783.40 5135381.03 184.57
-9755776.87 5135381.32 183.26
-9755789.97 5135392.90 182.80
-9755784.51 5135387.34 182.69
-9755782.83 5135396.08 187.57
-9755773.55 5135384.23 191.76
-9755795.39 5135396.61 189.42
-9755768.74 5135391.53 192.15
-9755789.69 5135374.36 181.92
-9755789.96 5135368.08 182.76
-9755783.29 5135368.09 183.44
-9755769.18 5135366.18 193.49
-9755763.44 5135381.23 190.50
-9755763.36 5135386.88 194.36
-9755764.34 5135387.52 184.25
-9755756.83 5135394.13 185.76
-9755759.75 5135395.54 189.28
-9755759.94 5135384.36 191.13
-9755743.81 5135394.08 185.69
-9755737.42 5135381.01 185.82
-9755737.35 5135394.04 185.71
-9755744.03 5135388.48 198.11
-9755763.70 5135374.46 189.75
-9755763.69 5135367.96 184.33
-9755750.17 5135374.83 185.65
-9755737.45 5135374.51 185.80
-9755730.38 5135380.91 185.78
-9755730.90 5135387.75 185.73
-9755711.18 5135380.51 186.85
-9755711.08 5135393.78 186.76
-9755710.74 5135393.82 185.15
-9755730.43 5135367.63 185.82
-9755717.10 5135374.69 185.27
-9755710.65 5135368.15 185.21
-9755711.29 5135374.82 186.95
-9755691.38 5135387.59 185.23
-9755691.08 5135394.36 185.22
-9755676.32 5135394.09 186.86
-9755707.16 5135374.00 186.90
-9755704.15 5135374.37 185.15
-9755702.50 5135364.95 186.68
-9755671.10 5135380.97 185.15
-9755670.70 5135380.85 186.90
-9755664.52 5135387.44 185.04
-9755664.62 5135387.34 186.84
-9755664.60 5135374.69 185.01
-9755671.78 5135374.30 186.97
-9755664.16 5135368.07 186.97
-9755658.16 5135374.66 185.17
-9755650.30 5135367.86 187.33
-9755647.73 5135387.53 186.97
-9755625.11 5135381.24 185.23
-9755618.60 5135380.98 184.76
-9755618.61 5135387.74 184.74
-9755644.83 5135374.54 185.42
-9755638.10 5135374.57 184.87
-9755631.63 5135374.23 185.22
-9755605.05 5135381.08 181.07
-9755592.03 5135381.12 184.64
-9755590.64 5135380.97 186.89
-9755591.32 5135393.16 183.92
-9755591.59 5135386.90 184.68
-9755591.51 5135387.50 188.41
-9755591.53 5135373.86 189.53
-9755591.70 5135369.01 184.30
-9755591.54 5135366.13 187.66
-9755585.74 5135382.20 183.97
-9755585.73 5135396.45 189.98
-9755559.32 5135380.77 181.07
-9755572.27 5135387.97 180.98
-9755559.17 5135394.15 181.04
-9755585.29 5135368.49 187.39
-9755572.64 5135374.57 181.08
-9755572.39 5135367.91 181.07
-9755565.63 5135367.76 181.07
-9755552.77 5135381.11 181.09
-9755546.26 5135387.80 181.05
-9755539.53 5135387.79 181.08
-9755546.15 5135367.61 181.14
-9755519.80 5135381.04 181.06
-9755506.54 5135381.09 181.10
-9755520.15 5135394.35 181.81
-9755519.46 5135387.68 181.03
-9755519.61 5135394.34 192.52
-9755513.24 5135394.40 181.04
-9755500.05 5135394.11 181.05
-9755500.06 5135387.49 181.08
-9755526.39 5135374.36 181.11
-9755519.81 5135374.33 181.09
-9755513.14 5135374.64 181.09
-9755506.32 5135374.58 181.12
-9755500.35 5135374.58 181.07
-9755486.40 5135394.23 181.04
-9755479.99 5135387.70 181.06
-9755479.32 5135395.91 184.04
-9755493.61 5135374.53 180.98
-9755493.40 5135368.05 180.97
-9755468.04 5135387.38 183.67
-9755465.31 5135389.41 189.21
-9755460.55 5135387.95 188.94
-9755447.01 5135381.01 181.38
-9755446.99 5135387.80 181.43
-9755440.47 5135387.74 181.45
-9755466.84 5135368.06 180.96
-9755459.37 5135374.35 183.93
-9755455.23 5135374.26 183.72
-9755453.87 5135367.81 181.04
-9755447.31 5135374.50 181.29
-9755440.64 5135367.76 184.45
-9755427.72 5135381.11 201.44
-9755431.23 5135384.72 201.38
-9755414.19 5135381.03 201.22
-9755412.55 5135382.91 207.13
-9755427.46 5135374.55 201.45
-9755427.18 5135367.80 201.50
-9755437.92 5135373.78 202.40
-9755420.58 5135374.81 202.44
-9755414.21 5135374.52 201.09
-9755407.52 5135387.43 220.64
-9755400.73 5135387.76 220.66
-9755381.39 5135381.20 220.61
-9755387.78 5135387.61 220.70
-9755407.73 5135374.48 200.85
-9755394.74 5135375.36 207.14
-9755384.01 5135373.86 207.24
-9755374.48 5135381.11 220.61
-9755374.64 5135381.00 192.30
-9755378.66 5135382.29 193.05
-9755374.17 5135382.12 215.41
-9755373.88 5135388.34 218.05
-9755373.89 5135381.86 207.95
-9755368.10 5135380.93 192.37
-9755355.28 5135380.86 192.27
-9755361.79 5135387.51 189.05
-9755362.75 5135382.19 214.56
-9755362.49 5135383.22 211.50
-9755361.63 5135382.14 198.26
-9755361.14 5135384.88 208.49
-9755361.04 5135385.66 203.91
-9755354.84 5135387.90 190.24
-9755354.35 5135386.21 203.00
-9755355.63 5135385.56 208.48
-9755360.74 5135386.15 198.23
-9755355.38 5135381.95 203.58
-9755356.43 5135383.56 214.33
-9755374.65 5135368.07 183.19
-9755374.97 5135367.71 196.20
-9755380.16 5135375.91 193.17
-9755368.18 5135374.34 193.33
-9755348.35 5135380.78 192.34
-9755348.21 5135387.13 203.05
-9755341.57 5135381.07 192.33
-9755341.89 5135374.65 183.62
-9755341.66 5135377.45 193.33
-9755348.43 5135376.56 193.32
-9755335.35 5135374.27 183.77
-9755328.30 5135374.44 183.24
-9755341.97 5135387.61 203.05
-9755342.47 5135387.75 195.88
-9755336.48 5135388.31 195.41
-9755334.91 5135388.04 208.50
-9755321.83 5135381.44 193.38
-9755329.05 5135387.97 189.01
-9755329.06 5135388.75 208.49
-9755348.42 5135374.08 183.80
-9755348.66 5135367.90 183.75
-9755322.10 5135367.77 182.35
-9755322.17 5135391.26 198.07
-9755315.61 5135374.44 186.26
-9755315.11 5135382.62 195.16
-9755318.68 5135389.20 225.65
-9755312.10 5135386.32 196.60
-9755313.24 5135372.53 187.66
-9755311.12 5135371.79 188.11
-9755914.59 5135361.21 183.72
-9755915.37 5135361.45 188.21
-9755921.66 5135341.07 183.21
-9755921.57 5135348.13 183.41
-9755914.81 5135348.05 183.38
-9755914.43 5135367.93 183.16
-9755888.57 5135354.41 184.15
-9755894.53 5135353.60 187.04
-9755895.20 5135361.42 180.74
-9755903.83 5135361.67 181.80
-9755901.98 5135367.97 180.83
-9755886.88 5135360.98 182.80
-9755915.01 5135346.12 187.16
-9755888.82 5135343.06 188.12
-9755895.28 5135348.56 188.42
-9755888.81 5135348.11 188.72
-9755855.76 5135354.46 183.21
-9755882.24 5135348.87 183.50
-9755868.49 5135348.58 184.03
-9755851.07 5135354.17 182.84
-9755842.47 5135354.52 181.35
-9755829.22 5135354.45 182.44
-9755835.88 5135341.39 183.34
-9755842.82 5135348.10 181.36
-9755816.20 5135354.65 182.52
-9755809.78 5135354.40 181.59
-9755816.51 5135361.23 181.56
-9755822.81 5135348.35 183.47
-9755816.59 5135341.60 182.99
-9755803.15 5135341.60 181.61
-9755816.86 5135348.13 183.49
-9755809.54 5135347.84 181.58
-9755796.25 5135348.03 181.77
-9755789.97 5135360.88 182.68
-9755783.08 5135361.22 183.44
-9755773.81 5135360.52 190.24
-9755769.09 5135360.47 196.72
-9755778.22 5135340.21 200.49
-9755776.41 5135348.10 183.20
-9755766.06 5135354.26 197.72
-9755757.04 5135354.78 185.45
-9755750.21 5135354.75 185.64
-9755743.77 5135354.67 185.68
-9755764.19 5135360.30 195.15
-9755750.47 5135361.22 185.64
-9755742.89 5135374.45 199.27
-9755763.26 5135342.24 189.85
-9755754.77 5135341.39 187.11
-9755762.41 5135347.57 188.53
-9755763.51 5135348.01 184.11
-9755751.00 5135347.79 187.76
-9755737.11 5135341.58 185.81
-9755730.52 5135354.93 185.80
-9755717.54 5135354.86 185.49
-9755710.71 5135361.03 185.23
-9755724.08 5135341.23 185.72
-9755723.78 5135348.38 185.71
-9755717.53 5135348.05 185.54
-9755710.81 5135347.74 185.28
-9755697.78 5135354.72 185.25
-9755691.07 5135348.22 185.26
-9755684.62 5135341.28 185.26
-9755678.09 5135348.28 186.86
-9755664.77 5135354.85 185.09
-9755671.21 5135361.68 185.17
-9755651.47 5135354.39 186.95
-9755651.75 5135361.10 186.98
-9755664.53 5135341.58 185.09
-9755665.05 5135342.31 186.85
-9755671.32 5135348.33 186.74
-9755664.51 5135348.07 185.07
-9755647.33 5135360.86 186.99
-9755631.73 5135361.13 185.23
-9755645.13 5135341.66 185.46
-9755631.89 5135341.31 185.24
-9755631.53 5135348.13 185.22
-9755598.67 5135354.53 181.08
-9755595.88 5135361.64 188.87
-9755612.31 5135348.24 181.20
-9755592.25 5135341.61 181.11
-9755598.78 5135348.13 181.06
-9755585.56 5135354.77 190.38
-9755565.63 5135361.56 181.04
-9755585.68 5135348.13 181.12
-9755578.91 5135348.02 181.15
-9755587.28 5135351.22 187.27
-9755552.49 5135354.98 181.08
-9755552.29 5135361.19 181.11
-9755552.76 5135341.32 181.09
-9755545.99 5135341.63 181.08
-9755546.23 5135348.38 181.06
-9755539.53 5135348.10 181.03
-9755532.98 5135348.11 180.99
-9755526.17 5135354.52 180.97
-9755519.72 5135355.00 181.00
-9755506.65 5135361.20 181.13
-9755499.67 5135354.69 181.09
-9755499.72 5135341.68 181.11
-9755486.74 5135341.57 181.09
-9755473.52 5135341.52 181.08
-9755460.43 5135361.27 180.98
-9755447.05 5135354.67 181.08
-9755446.14 5135366.08 188.75
-9755444.92 5135357.98 188.44
-9755460.23 5135341.47 181.07
-9755453.72 5135334.84 181.03
-9755431.32 5135353.54 188.01
-9755414.27 5135361.49 202.19
-9755420.82 5135361.26 201.95
-9755433.91 5135341.63 181.07
-9755433.94 5135348.36 181.13
-9755420.71 5135335.00 181.06
-9755414.25 5135341.44 181.14
-9755413.57 5135346.92 182.04
-9755401.03 5135354.83 202.88
-9755401.07 5135361.07 202.81
-9755402.22 5135365.93 198.94
-9755407.60 5135367.52 198.70
-9755394.29 5135354.80 203.13
-9755397.22 5135353.43 206.46
-9755388.08 5135361.27 203.44
-9755393.59 5135363.02 199.40
-9755399.04 5135364.32 199.14
-9755399.54 5135353.72 206.56
-9755407.77 5135335.16 181.08
-9755399.81 5135340.45 189.06
-9755407.71 5135348.51 181.40
-9755396.08 5135340.95 188.14
-9755394.46 5135341.20 184.29
-9755396.64 5135338.05 188.40
-9755380.89 5135340.44 184.31
-9755376.41 5135355.06 183.49
-9755381.72 5135351.74 181.59
-9755376.28 5135354.86 188.85
-9755376.28 5135355.11 196.18
-9755375.95 5135355.27 203.45
-9755376.90 5135349.79 202.58
-9755376.83 5135350.15 188.85
-9755375.17 5135361.43 203.18
-9755375.43 5135361.30 196.83
-9755375.40 5135361.46 190.19
-9755375.27 5135361.83 183.40
-9755367.56 5135348.96 182.23
-9755355.21 5135355.30 183.67
-9755356.15 5135348.08 183.89
-9755381.59 5135334.80 188.53
-9755361.51 5135334.91 181.33
-9755348.68 5135361.45 181.63
-9755335.16 5135347.79 181.56
-9755328.96 5135354.82 181.66
-9755341.89 5135361.13 181.68
-9755334.82 5135361.12 181.75
-9755347.71 5135334.92 184.10
-9755348.46 5135341.65 181.40
-9755335.05 5135335.58 183.72
-9755321.95 5135334.42 184.71
-9755309.64 5135334.81 189.08
-9755310.32 5135338.32 187.64
-9755920.87 5135327.26 182.87
-9755920.38 5135335.31 181.05
-9755912.65 5135326.91 188.79
-9755901.87 5135328.30 180.75
-9755895.12 5135331.45 189.44
-9755888.25 5135334.25 183.83
-9755914.20 5135314.77 189.97
-9755908.43 5135321.75 183.33
-9755908.98 5135320.51 194.06
-9755901.96 5135314.87 189.69
-9755901.88 5135321.51 184.54
-9755875.77 5135331.01 188.42
-9755869.24 5135328.74 187.30
-9755868.93 5135334.96 186.79
-9755875.55 5135339.57 187.09
-9755862.12 5135334.94 186.83
-9755882.09 5135308.62 186.87
-9755875.52 5135308.85 186.87
-9755855.53 5135308.54 186.91
-9755875.51 5135321.64 186.83
-9755842.38 5135328.53 181.21
-9755842.87 5135335.05 181.36
-9755853.70 5135315.65 183.69
-9755854.22 5135321.34 183.02
-9755828.93 5135314.65 183.34
-9755836.21 5135321.99 181.31
-9755816.70 5135334.87 182.32
-9755796.58 5135334.74 181.66
-9755814.58 5135315.80 188.29
-9755818.42 5135310.75 187.48
-9755823.50 5135309.58 189.23
-9755822.17 5135312.00 187.60
-9755802.96 5135308.72 181.49
-9755802.50 5135321.74 183.39
-9755796.44 5135321.61 183.41
-9755799.96 5135322.11 187.35
-9755797.75 5135316.37 187.07
-9755781.98 5135328.47 188.21
-9755776.48 5135328.39 195.58
-9755782.07 5135329.10 194.22
-9755788.49 5135326.80 188.78
-9755789.91 5135335.17 184.26
-9755776.89 5135335.04 196.21
-9755770.15 5135335.24 196.77
-9755777.07 5135315.08 183.41
-9755782.23 5135308.90 189.95
-9755788.52 5135318.77 193.29
-9755776.59 5135322.05 190.04
-9755783.41 5135321.94 183.64
-9755758.05 5135332.21 186.72
-9755743.64 5135334.85 185.71
-9755763.48 5135315.52 189.78
-9755762.56 5135308.90 189.76
-9755757.86 5135316.72 189.13
-9755744.59 5135310.11 187.29
-9755756.69 5135321.57 185.88
-9755750.78 5135322.06 186.91
-9755737.25 5135321.74 185.79
-9755730.66 5135335.07 185.82
-9755710.86 5135334.71 185.40
-9755730.39 5135314.91 185.78
-9755724.20 5135322.01 185.88
-9755703.86 5135328.40 185.30
-9755697.90 5135328.14 185.28
-9755683.99 5135335.34 185.12
-9755678.13 5135334.78 185.16
-9755704.27 5135315.41 185.36
-9755703.91 5135321.92 185.33
-9755690.97 5135321.50 185.30
-9755684.52 5135308.49 185.29
-9755677.59 5135315.44 187.10
-9755677.66 5135308.95 186.95
-9755684.43 5135321.79 185.26
-9755671.12 5135335.31 185.19
-9755671.63 5135308.83 186.97
-9755671.36 5135314.23 187.20
-9755664.39 5135315.16 185.15
-9755672.03 5135321.35 186.96
-9755658.02 5135308.58 185.26
-9755651.48 5135308.59 185.25
-9755638.33 5135328.39 184.98
-9755645.17 5135334.84 185.47
-9755618.19 5135335.07 184.96
-9755645.03 5135308.51 185.51
-9755638.48 5135315.00 185.06
-9755645.24 5135321.85 185.47
-9755646.63 5135321.47 186.97
-9755617.83 5135308.41 185.05
-9755618.13 5135314.88 185.06
-9755605.41 5135328.31 181.08
-9755591.99 5135328.24 184.43
-9755591.81 5135329.44 189.69
-9755596.23 5135333.92 186.71
-9755611.88 5135315.25 182.92
-9755605.14 5135308.57 181.12
-9755592.37 5135321.74 181.11
-9755567.19 5135329.17 187.68
-9755578.69 5135335.23 184.60
-9755577.05 5135334.43 188.51
-9755571.75 5135335.88 184.76
-9755559.20 5135308.50 180.98
-9755552.71 5135328.13 189.15
-9755546.11 5135328.24 189.66
-9755539.68 5135328.41 184.11
-9755532.84 5135327.72 188.10
-9755551.55 5135333.79 184.69
-9755553.38 5135333.85 188.48
-9755546.46 5135333.12 188.91
-9755546.22 5135308.78 180.99
-9755539.72 5135315.24 180.99
-9755532.60 5135308.34 180.97
-9755545.88 5135321.85 181.08
-9755532.82 5135321.74 181.00
-9755532.52 5135324.25 186.70
-9755506.59 5135328.38 181.14
-9755527.80 5135333.67 188.05
-9755506.84 5135334.60 181.19
-9755526.18 5135308.61 181.00
-9755519.84 5135315.18 181.05
-9755526.19 5135321.68 181.00
-9755500.20 5135315.31 181.09
-9755473.57 5135328.42 181.05
-9755493.66 5135315.01 181.05
-9755480.00 5135321.65 180.96
-9755473.63 5135321.66 181.00
-9755453.83 5135328.69 181.00
-9755440.80 5135328.20 180.99
-9755440.55 5135315.28 180.95
-9755447.46 5135308.50 181.00
-9755447.41 5135321.81 180.97
-9755420.77 5135328.45 181.05
-9755414.04 5135321.62 181.09
-9755434.07 5135315.45 180.99
-9755427.65 5135314.85 181.01
-9755420.96 5135308.54 181.11
-9755414.41 5135308.26 181.08
-9755414.37 5135315.02 181.08
-9755407.53 5135328.65 181.03
-9755401.11 5135328.64 181.04
-9755394.23 5135328.32 181.06
-9755394.25 5135321.78 181.01
-9755387.83 5135321.77 181.03
-9755401.11 5135308.57 180.98
-9755401.47 5135315.02 181.00
-9755407.86 5135321.58 181.02
-9755388.14 5135308.71 181.04
-9755368.30 5135328.46 181.15
-9755368.06 5135321.66 181.12
-9755361.56 5135328.38 181.15
-9755361.32 5135321.62 181.12
-9755374.64 5135308.39 181.26
-9755355.21 5135308.55 181.05
-9755355.12 5135315.40 181.09
-9755348.31 5135322.09 181.26
-9755347.71 5135330.15 186.67
-9755342.82 5135320.13 184.37
-9755335.31 5135328.28 181.22
-9755328.71 5135328.43 183.35
-9755329.05 5135320.75 183.66
-9755321.81 5135321.34 181.98
-9755329.52 5135330.29 189.13
-9755329.19 5135333.71 188.81
-9755332.28 5135334.20 188.29
-9755349.01 5135308.62 184.28
-9755341.74 5135315.19 183.34
-9755342.02 5135308.35 184.20
-9755328.69 5135315.06 190.03
-9755321.57 5135308.88 188.89
-9755332.74 5135314.81 189.59
-9755331.92 5135319.04 188.77
-9755315.56 5135321.30 182.26
-9755309.73 5135329.41 183.49
-9755314.56 5135330.64 187.31
-9755315.34 5135309.11 181.88
-9755308.89 5135308.37 183.53
-9755315.43 5135308.63 187.03
-9755315.31 5135315.34 182.58
-9755922.25 5135305.27 187.70
-9755913.95 5135308.43 184.97
-9755908.96 5135302.10 184.63
-9755907.92 5135309.03 183.48
-9755894.81 5135302.02 189.35
-9755901.56 5135308.59 189.87
-9755908.12 5135287.99 195.18
-9755908.49 5135282.40 189.90
-9755908.20 5135282.54 195.34
-9755908.39 5135282.31 184.86
-9755914.59 5135295.92 189.55
-9755908.57 5135295.42 194.17
-9755894.85 5135289.10 182.30
-9755889.71 5135281.93 183.34
-9755904.37 5135294.45 193.39
-9755875.33 5135301.95 189.69
-9755868.86 5135301.90 189.76
-9755862.38 5135301.87 189.80
-9755855.80 5135302.09 182.49
-9755881.18 5135288.31 182.28
-9755875.07 5135284.06 184.16
-9755868.28 5135284.18 184.04
-9755862.41 5135288.89 190.06
-9755862.48 5135284.22 183.71
-9755875.71 5135294.92 188.83
-9755878.93 5135296.14 188.62
-9755855.54 5135294.44 183.53
-9755857.13 5135294.91 188.79
-9755849.27 5135281.33 182.83
-9755831.43 5135288.69 184.59
-9755849.68 5135294.48 181.36
-9755835.91 5135295.51 183.58
-9755803.18 5135288.80 189.86
-9755802.92 5135282.27 190.21
-9755803.08 5135282.17 183.19
-9755816.06 5135294.46 189.78
-9755803.00 5135295.62 184.29
-9755810.16 5135294.40 189.77
-9755798.14 5135295.41 187.53
-9755796.64 5135282.37 181.32
-9755799.71 5135282.53 187.54
-9755769.75 5135302.21 190.95
-9755768.74 5135301.23 181.94
-9755789.85 5135282.31 181.32
-9755770.15 5135289.36 191.91
-9755790.04 5135295.38 181.41
-9755776.61 5135295.12 189.78
-9755776.66 5135294.87 182.91
-9755770.10 5135295.16 189.81
-9755770.47 5135294.82 183.41
-9755757.39 5135301.87 184.89
-9755744.06 5135301.97 185.60
-9755763.30 5135283.09 183.35
-9755766.76 5135282.41 189.78
-9755757.55 5135288.72 190.26
-9755755.34 5135281.76 188.11
-9755761.83 5135293.93 189.82
-9755750.30 5135295.48 185.50
-9755752.80 5135295.40 187.81
-9755730.26 5135301.88 185.64
-9755710.77 5135302.11 185.69
-9755724.52 5135286.13 187.07
-9755717.67 5135282.28 185.79
-9755717.34 5135288.77 185.78
-9755704.02 5135301.77 185.44
-9755697.52 5135301.76 185.35
-9755684.63 5135288.60 185.32
-9755677.89 5135282.39 185.22
-9755691.95 5135293.89 187.61
-9755671.30 5135301.93 185.24
-9755671.30 5135302.40 186.93
-9755658.32 5135301.85 185.25
-9755650.05 5135302.97 187.18
-9755677.29 5135289.13 187.02
-9755671.38 5135295.31 186.94
-9755671.33 5135295.14 185.24
-9755658.11 5135288.75 185.27
-9755651.60 5135288.72 185.32
-9755646.42 5135282.38 187.26
-9755638.07 5135282.42 185.08
-9755638.36 5135288.64 185.07
-9755645.89 5135295.43 186.82
-9755625.32 5135288.92 185.33
-9755618.33 5135282.34 185.29
-9755605.70 5135302.01 181.12
-9755598.79 5135288.66 181.10
-9755585.96 5135301.90 181.04
-9755578.98 5135301.93 181.02
-9755559.21 5135301.72 181.03
-9755565.52 5135289.02 181.06
-9755572.17 5135295.68 181.06
-9755559.26 5135295.24 181.05
-9755546.03 5135301.94 181.06
-9755533.03 5135282.25 180.98
-9755545.75 5135295.35 181.12
-9755499.98 5135301.71 181.13
-9755519.88 5135282.23 181.01
-9755513.28 5135288.76 181.06
-9755506.27 5135288.70 181.14
-9755528.33 5135294.46 192.67
-9755493.47 5135301.68 181.05
-9755486.76 5135301.86 181.01
-9755480.17 5135301.82 181.01
-9755473.68 5135301.84 181.05
-9755493.32 5135282.36 181.08
-9755487.10 5135282.31 181.03
-9755480.25 5135289.10 181.10
-9755493.59 5135275.51 181.09
-9755480.28 5135295.31 181.05
-9755473.80 5135288.81 181.12
-9755467.20 5135301.77 181.07
-9755454.00 5135295.47 181.09
-9755467.08 5135282.54 181.09
-9755460.28 5135288.99 181.12
-9755453.74 5135288.71 181.09
-9755453.71 5135275.71 181.07
-9755466.94 5135295.49 181.11
-9755447.58 5135282.36 181.04
-9755447.36 5135275.94 181.03
-9755434.00 5135301.91 181.07
-9755427.76 5135301.94 181.05
-9755419.73 5135296.21 181.94
-9755414.45 5135302.04 181.09
-9755427.56 5135282.42 181.06
-9755427.55 5135288.85 181.06
-9755427.31 5135275.81 181.04
-9755420.62 5135275.52 181.07
-9755407.64 5135302.26 181.06
-9755407.44 5135295.19 181.09
-9755400.89 5135301.92 181.03
-9755401.22 5135295.26 181.08
-9755407.81 5135288.64 181.05
-9755387.73 5135282.32 181.04
-9755381.33 5135275.87 181.27
-9755374.94 5135302.14 181.25
-9755368.24 5135295.52 182.95
-9755374.79 5135281.74 181.62
-9755374.86 5135275.43 181.89
-9755368.29 5135288.69 182.98
-9755368.48 5135281.79 189.48
-9755374.31 5135275.82 188.05
-9755354.77 5135275.98 181.02
-9755348.30 5135302.02 183.01
-9755335.01 5135295.02 183.02
-9755335.16 5135302.11 183.12
-9755321.93 5135302.07 183.33
-9755348.21 5135282.14 181.22
-9755352.11 5135285.06 190.72
-9755351.77 5135285.53 190.65
-9755341.74 5135282.40 181.38
-9755328.88 5135282.22 190.06
-9755322.08 5135282.17 190.03
-9755322.09 5135288.95 190.15
-9755321.89 5135289.32 183.46
-9755315.58 5135288.94 190.12
-9755921.62 5135275.47 190.14
-9755922.53 5135280.02 189.06
-9755921.49 5135255.54 188.53
-9755915.63 5135262.58 187.92
-9755915.09 5135255.70 183.62
-9755916.08 5135268.26 183.35
-9755908.46 5135275.49 190.24
-9755895.43 5135275.64 190.24
-9755888.71 5135276.45 184.70
-9755907.87 5135260.31 188.30
-9755907.80 5135271.34 194.36
-9755901.89 5135249.05 189.97
-9755894.90 5135256.22 182.07
-9755894.15 5135254.45 188.28
-9755888.62 5135249.33 189.74
-9755889.04 5135249.88 184.44
-9755902.17 5135268.89 190.13
-9755904.91 5135274.97 193.58
-9755888.57 5135268.86 190.03
-9755875.74 5135274.36 183.47
-9755875.43 5135275.90 187.88
-9755856.01 5135276.43 187.93
-9755881.25 5135262.10 181.99
-9755881.48 5135248.71 182.52
-9755879.72 5135269.39 189.50
-9755875.59 5135262.03 188.90
-9755869.08 5135256.36 188.30
-9755875.67 5135263.80 183.47
-9755862.30 5135256.61 188.34
-9755856.11 5135256.24 188.17
-9755856.39 5135262.49 188.44
-9755862.63 5135249.49 189.06
-9755856.68 5135249.21 187.89
-9755862.21 5135264.04 183.17
-9755862.26 5135269.40 189.36
-9755856.46 5135269.15 187.89
-9755841.67 5135248.74 182.44
-9755831.52 5135262.65 183.20
-9755831.30 5135249.02 183.36
-9755849.23 5135269.18 183.15
-9755831.28 5135268.46 184.43
-9755802.99 5135275.43 190.00
-9755808.87 5135275.77 191.78
-9755814.77 5135278.63 194.29
-9755814.31 5135279.55 194.30
-9755809.13 5135278.55 184.54
-9755823.03 5135262.55 183.63
-9755822.59 5135248.98 183.78
-9755816.20 5135249.06 184.14
-9755816.30 5135249.12 189.65
-9755809.57 5135262.75 190.20
-9755803.30 5135262.55 183.55
-9755803.06 5135249.19 189.74
-9755809.58 5135249.29 183.00
-9755816.59 5135268.94 190.56
-9755819.67 5135270.15 189.66
-9755810.02 5135263.71 182.97
-9755803.35 5135268.89 189.79
-9755776.71 5135275.61 190.61
-9755776.26 5135261.94 188.30
-9755782.99 5135249.13 189.52
-9755776.52 5135249.48 189.23
-9755783.00 5135260.16 188.15
-9755776.19 5135269.17 188.35
-9755770.28 5135269.04 190.03
-9755770.03 5135255.70 189.88
-9755770.38 5135249.49 183.10
-9755756.77 5135276.06 183.55
-9755762.00 5135255.85 183.00
-9755750.52 5135255.96 183.02
-9755756.76 5135256.06 182.12
-9755744.07 5135255.51 184.06
-9755744.08 5135249.33 183.79
-9755756.70 5135269.03 182.67
-9755746.79 5135265.15 187.50
-9755737.13 5135249.16 185.21
-9755726.01 5135275.36 188.29
-9755730.28 5135275.35 188.19
-9755724.19 5135275.79 185.75
-9755717.70 5135275.51 185.81
-9755728.52 5135256.17 187.59
-9755730.84 5135249.18 185.40
-9755717.80 5135255.65 185.80
-9755717.61 5135249.16 185.74
-9755723.98 5135268.97 185.77
-9755730.74 5135269.08 185.57
-9755724.00 5135269.13 188.54
-9755717.78 5135268.97 185.82
-9755677.92 5135275.55 185.21
-9755697.49 5135255.80 185.59
-9755697.45 5135268.84 185.47
-9755681.57 5135262.99 186.67
-9755684.17 5135269.13 185.34
-9755683.03 5135268.83 186.71
-9755665.32 5135275.79 186.95
-9755651.34 5135275.69 185.32
-9755671.01 5135255.92 187.21
-9755671.34 5135262.94 187.05
-9755663.84 5135256.13 187.09
-9755664.68 5135269.25 185.25
-9755661.23 5135256.51 186.95
-9755651.53 5135249.37 185.35
-9755657.85 5135268.92 185.31
-9755651.73 5135269.19 185.32
-9755631.65 5135275.87 185.31
-9755645.06 5135249.55 185.42
-9755649.81 5135249.06 187.12
-9755638.23 5135256.10 185.15
-9755645.28 5135269.16 185.41
-9755631.74 5135262.59 185.29
-9755625.25 5135262.25 185.38
-9755624.97 5135249.21 185.39
-9755605.27 5135275.65 181.11
-9755592.07 5135275.58 181.26
-9755613.75 5135255.55 184.38
-9755613.60 5135249.01 183.91
-9755605.21 5135249.56 181.12
-9755595.76 5135256.88 187.75
-9755597.67 5135261.51 183.53
-9755595.71 5135259.64 186.74
-9755591.10 5135248.00 187.52
-9755578.87 5135275.53 181.02
-9755586.31 5135256.45 184.74
-9755585.82 5135248.38 183.97
-9755587.54 5135255.70 186.89
-9755565.64 5135255.91 181.00
-9755565.93 5135262.31 180.94
-9755565.86 5135269.19 180.94
-9755552.56 5135275.65 181.08
-9755552.68 5135262.27 181.05
-9755539.51 5135249.22 181.05
-9755539.43 5135269.38 181.01
-9755526.11 5135262.73 180.96
-9755519.45 5135249.04 181.06
-9755519.94 5135262.68 181.01
-9755506.42 5135256.14 181.09
-9755500.20 5135262.31 181.11
-9755493.14 5135255.77 181.05
-9755480.39 5135255.72 181.02
-9755473.69 5135255.99 181.01
-9755473.65 5135262.47 181.01
-9755466.79 5135269.22 181.09
-9755460.67 5135269.11 181.10
-9755447.36 5135269.16 181.02
-9755447.24 5135249.48 181.07
-9755440.76 5135249.30 181.06
-9755427.40 5135255.98 181.04
-9755414.43 5135262.38 181.09
-9755414.10 5135255.58 181.13
-9755407.54 5135269.14 181.05
-9755394.70 5135269.18 181.06
-9755387.56 5135268.81 182.13
-9755381.26 5135270.77 183.74
-9755394.49 5135249.28 181.12
-9755380.19 5135249.15 183.07
-9755374.67 5135255.88 183.22
-9755372.42 5135253.42 188.42
-9755369.65 5135254.18 188.90
-9755368.15 5135249.26 189.44
-9755361.37 5135249.32 181.02
-9755368.12 5135262.36 182.85
-9755361.27 5135262.46 180.98
-9755364.09 5135248.25 186.92
-9755335.07 5135268.91 190.11
-9755321.87 5135269.14 190.11
-9755348.04 5135262.31 187.72
-9755341.63 5135256.07 181.39
-9755341.69 5135249.54 181.33
-9755334.86 5135249.48 181.62
-9755324.57 5135257.06 189.86
-9755335.21 5135262.41 190.11
-9755344.95 5135262.97 187.77
-9755315.33 5135269.11 190.09
-9755315.36 5135255.88 181.61
-9755317.04 5135259.16 190.66
-9755315.42 5135262.59 190.10
-9755921.71 5135228.89 187.56
-9755915.32 5135228.63 191.16
-9755915.25 5135229.04 183.58
-9755921.35 5135241.13 185.43
-9755912.95 5135240.79 189.36
-9755904.74 5135250.42 193.69
-9755913.62 5135221.02 195.51
-9755908.61 5135223.02 196.55
-9755908.57 5135229.62 195.87
-9755908.60 5135236.10 190.07
-9755896.17 5135223.39 196.09
-9755901.48 5135222.65 189.70
-9755890.90 5135222.36 190.55
-9755901.37 5135229.54 190.24
-9755895.71 5135229.67 180.70
-9755893.99 5135235.83 182.28
-9755903.52 5135236.48 193.30
-9755890.30 5135238.25 188.20
-9755862.25 5135222.53 188.61
-9755855.73 5135222.86 188.55
-9755868.73 5135229.73 188.92
-9755875.37 5135235.04 187.66
-9755879.74 5135230.51 187.68
-9755879.45 5135234.81 187.65
-9755855.97 5135224.27 184.16
-9755868.88 5135242.46 188.70
-9755868.84 5135243.51 183.33
-9755862.33 5135243.97 183.26
-9755856.01 5135243.82 183.54
-9755855.88 5135242.61 188.74
-9755835.91 5135222.99 183.87
-9755830.85 5135229.15 183.67
-9755836.20 5135229.11 184.82
-9755841.71 5135243.30 184.02
-9755809.21 5135222.95 192.08
-9755823.10 5135229.55 183.63
-9755824.05 5135233.91 187.08
-9755802.65 5135236.58 183.30
-9755796.17 5135223.13 182.47
-9755789.67 5135222.79 181.06
-9755783.14 5135222.99 189.56
-9755789.00 5135235.73 182.80
-9755776.73 5135230.03 191.36
-9755783.42 5135242.79 189.57
-9755763.46 5135229.74 183.08
-9755763.69 5135236.42 183.26
-9755757.16 5135229.46 181.40
-9755765.94 5135242.15 189.55
-9755763.66 5135242.71 183.70
-9755749.98 5135242.65 182.89
-9755757.10 5135242.75 181.53
-9755737.65 5135242.44 184.42
-9755737.72 5135242.31 188.85
-9755743.44 5135242.94 187.64
-9755737.96 5135238.52 186.68
-9755742.07 5135239.13 186.96
-9755717.50 5135222.78 185.57
-9755730.63 5135235.94 185.39
-9755724.09 5135242.69 185.40
-9755717.30 5135242.58 185.65
-9755711.21 5135223.60 196.72
-9755710.93 5135222.89 189.58
-9755711.21 5135229.22 185.72
-9755697.88 5135236.32 185.71
-9755691.18 5135222.66 185.59
-9755697.26 5135242.77 185.64
-9755690.77 5135242.72 185.51
-9755684.60 5135236.25 185.52
-9755679.03 5135235.84 186.71
-9755677.59 5135229.65 185.36
-9755681.75 5135232.33 186.69
-9755684.30 5135243.01 185.48
-9755670.57 5135229.30 187.30
-9755671.37 5135236.21 185.39
-9755665.78 5135223.26 187.32
-9755658.16 5135229.84 185.34
-9755658.15 5135236.08 185.35
-9755651.62 5135236.06 185.34
-9755651.43 5135229.51 185.36
-9755658.08 5135242.61 185.32
-9755644.81 5135236.27 185.47
-9755645.09 5135242.76 185.46
-9755618.38 5135222.78 185.39
-9755631.88 5135236.17 185.30
-9755624.76 5135236.18 185.40
-9755618.84 5135236.17 185.36
-9755631.50 5135242.73 185.33
-9755613.13 5135222.70 183.13
-9755613.34 5135229.12 183.00
-9755613.52 5135242.78 183.29
-9755588.21 5135248.22 187.62
-9755587.09 5135230.30 183.57
-9755587.78 5135230.84 187.40
-9755588.64 5135233.13 186.96
-9755586.04 5135243.85 183.54
-9755572.32 5135223.06 180.93
-9755566.06 5135229.56 181.00
-9755579.27 5135242.35 181.12
-9755566.11 5135242.87 181.09
-9755552.78 5135242.73 181.11
-9755546.04 5135235.91 181.09
-9755532.85 5135236.44 181.05
-9755519.51 5135242.55 181.06
-9755500.07 5135243.01 181.14
-9755526.07 5135236.08 181.05
-9755513.16 5135216.26 181.08
-9755493.61 5135242.78 181.09
-9755500.17 5135216.43 181.17
-9755487.06 5135216.60 181.02
-9755493.65 5135229.40 181.10
-9755493.53 5135235.89 181.11
-9755480.24 5135236.22 181.09
-9755473.32 5135229.60 181.06
-9755460.10 5135216.44 181.11
-9755453.76 5135222.92 181.05
-9755453.61 5135216.43 181.07
-9755466.97 5135236.37 181.12
-9755453.68 5135236.38 181.08
-9755459.36 5135241.98 189.43
-9755447.07 5135216.39 180.99
-9755440.56 5135216.40 181.00
-9755447.31 5135229.76 181.02
-9755440.49 5135229.76 181.03
-9755434.04 5135222.90 181.02
-9755414.42 5135216.31 181.14
-9755414.54 5135236.09 181.11
-9755400.94 5135242.86 181.13
-9755407.58 5135222.80 181.08
-9755407.62 5135216.20 181.07
-9755400.91 5135229.47 181.03
-9755407.75 5135236.30 181.07
-9755394.60 5135216.04 181.01
-9755387.84 5135223.11 181.04
-9755381.31 5135216.23 181.94
-9755380.40 5135230.41 183.16
-9755374.06 5135242.51 184.18
-9755374.55 5135242.52 189.78
-9755368.14 5135243.43 188.76
-9755374.86 5135223.08 183.73
-9755378.08 5135236.67 188.38
-9755374.63 5135236.26 189.67
-9755378.61 5135242.34 187.75
-9755368.41 5135223.00 189.64
-9755363.66 5135222.13 187.81
-9755367.70 5135235.78 183.93
-9755371.46 5135232.06 186.67
-9755355.06 5135229.46 181.15
-9755347.81 5135222.33 188.22
-9755347.93 5135234.02 183.80
-9755348.25 5135241.81 186.95
-9755341.84 5135222.60 181.26
-9755335.33 5135222.84 181.17
-9755335.29 5135229.67 181.23
-9755341.80 5135229.70 181.26
-9755346.12 5135231.87 187.01
-9755344.47 5135222.93 186.91
-9755328.85 5135229.60 181.31
-9755328.57 5135222.81 181.24
-9755328.49 5135236.09 181.36
-9755321.98 5135236.12 181.43
-9755315.18 5135242.56 181.53
-9755315.34 5135216.17 181.41
-9755315.33 5135222.73 181.48
-9755315.19 5135236.03 181.49
-9755922.01 5135194.59 189.90
-9755921.31 5135198.43 183.14
-9755921.67 5135201.80 185.58
-9755915.07 5135195.81 183.23
-9755923.22 5135215.91 187.74
-9755921.04 5135191.96 187.09
-9755908.44 5135196.70 190.15
-9755907.80 5135198.35 195.58
-9755914.04 5135209.25 196.03
-9755908.31 5135216.52 196.51
-9755914.11 5135218.11 194.94
-9755902.17 5135196.22 189.38
-9755893.07 5135197.37 193.94
-9755888.93 5135197.13 184.14
-9755895.72 5135209.54 196.58
-9755895.64 5135202.88 188.87
-9755895.29 5135209.33 190.65
-9755894.11 5135203.20 181.41
-9755888.90 5135207.05 189.61
-9755901.71 5135218.40 189.31
-9755897.58 5135215.53 194.46
-9755902.26 5135215.10 182.29
-9755915.44 5135190.36 183.29
-9755902.22 5135190.10 190.02
-9755904.65 5135190.87 193.38
-9755888.56 5135190.76 189.10
-9755882.14 5135196.55 190.13
-9755883.94 5135198.11 193.62
-9755882.05 5135196.69 180.83
-9755881.99 5135210.02 180.85
-9755862.37 5135197.12 188.54
-9755856.75 5135196.23 187.64
-9755868.78 5135202.53 188.24
-9755868.92 5135203.39 183.72
-9755874.82 5135216.72 182.77
-9755856.43 5135209.13 183.08
-9755853.97 5135216.64 183.60
-9755867.86 5135213.00 181.14
-9755883.47 5135191.83 189.56
-9755875.70 5135189.79 189.58
-9755868.90 5135189.93 189.58
-9755868.91 5135193.19 183.23
-9755836.05 5135196.59 183.67
-9755830.20 5135196.05 183.39
-9755848.96 5135204.49 182.57
-9755836.03 5135209.33 184.43
-9755849.48 5135216.39 183.41
-9755855.87 5135189.97 182.37
-9755849.36 5135190.05 180.99
-9755816.39 5135209.40 190.75
-9755809.50 5135203.84 189.34
-9755809.52 5135203.97 183.65
-9755816.30 5135216.62 190.48
-9755803.01 5135216.55 190.59
-9755802.95 5135216.56 184.01
-9755810.20 5135218.73 183.97
-9755796.43 5135195.95 185.27
-9755816.38 5135189.33 183.19
-9755809.63 5135189.62 189.19
-9755796.39 5135189.91 189.71
-9755788.27 5135202.46 182.70
-9755777.16 5135203.00 190.99
-9755783.20 5135216.36 189.87
-9755776.14 5135219.25 184.37
-9755769.79 5135202.96 190.87
-9755770.28 5135216.60 190.84
-9755781.57 5135189.57 183.32
-9755776.85 5135190.00 183.00
-9755763.30 5135196.88 183.57
-9755765.59 5135209.77 189.43
-9755765.59 5135217.28 189.41
-9755755.40 5135215.04 183.74
-9755750.45 5135216.54 183.40
-9755759.67 5135218.07 187.21
-9755743.98 5135209.57 181.43
-9755743.51 5135202.96 181.34
-9755743.62 5135216.86 182.35
-9755737.35 5135189.99 181.41
-9755723.80 5135196.62 183.01
-9755710.32 5135196.07 185.69
-9755717.89 5135190.00 183.92
-9755691.06 5135196.29 185.89
-9755704.25 5135209.63 185.86
-9755706.84 5135202.51 195.94
-9755705.87 5135198.86 195.71
-9755691.02 5135203.32 185.81
-9755703.93 5135216.45 185.85
-9755677.85 5135196.76 185.63
-9755684.24 5135209.85 185.64
-9755697.57 5135190.11 186.02
-9755664.90 5135196.65 187.35
-9755671.25 5135203.35 185.48
-9755665.40 5135203.37 187.37
-9755664.51 5135202.95 185.36
-9755665.08 5135209.73 185.28
-9755664.68 5135209.61 187.07
-9755660.09 5135196.52 187.35
-9755658.02 5135202.88 185.41
-9755669.76 5135189.92 187.16
-9755658.11 5135189.84 185.42
-9755644.84 5135196.75 187.42
-9755648.66 5135196.79 187.38
-9755644.75 5135203.00 187.21
-9755644.98 5135209.80 187.19
-9755631.76 5135196.84 185.29
-9755625.06 5135196.78 185.45
-9755625.06 5135190.01 185.47
-9755618.45 5135209.74 185.40
-9755632.24 5135216.36 185.25
-9755625.12 5135216.32 185.46
-9755612.70 5135189.54 183.06
-9755613.14 5135209.68 183.49
-9755611.60 5135216.05 182.67
-9755598.80 5135196.53 181.12
-9755592.26 5135196.80 181.28
-9755592.19 5135188.70 184.60
-9755591.92 5135189.57 189.83
-9755589.68 5135196.84 188.28
-9755592.24 5135203.00 181.23
-9755598.67 5135203.43 181.12
-9755592.18 5135209.44 183.81
-9755596.39 5135208.60 188.79
-9755595.87 5135205.91 188.92
-9755605.41 5135216.36 181.10
-9755598.65 5135216.40 181.11
-9755594.09 5135214.12 188.29
-9755597.20 5135213.93 187.69
-9755585.90 5135216.35 181.09
-9755559.34 5135216.46 181.01
-9755585.14 5135196.56 184.75
-9755585.45 5135190.44 190.11
-9755585.89 5135196.15 189.46
-9755591.14 5135206.23 193.28
-9755579.33 5135196.50 189.97
-9755579.75 5135196.65 184.91
-9755579.68 5135190.22 189.05
-9755579.41 5135189.69 184.71
-9755585.62 5135190.03 193.62
-9755558.91 5135196.63 181.09
-9755578.91 5135202.96 181.03
-9755559.39 5135203.13 181.02
-9755545.96 5135196.45 181.10
-9755552.79 5135209.55 181.08
-9755539.45 5135203.59 181.08
-9755512.97 5135189.85 181.11
-9755526.17 5135203.15 181.06
-9755513.13 5135209.68 181.10
-9755500.05 5135190.32 181.16
-9755500.26 5135209.83 181.17
-9755493.54 5135190.09 181.09
-9755486.83 5135189.69 181.10
-9755480.04 5135196.73 181.10
-9755493.47 5135203.17 181.11
-9755486.93 5135209.52 181.03
-9755480.39 5135209.52 181.01
-9755473.67 5135202.91 181.08
-9755460.25 5135189.80 181.12
-9755453.67 5135196.63 181.10
-9755467.22 5135209.66 181.06
-9755453.66 5135203.10 181.07
-9755440.74 5135196.52 181.09
-9755447.16 5135203.10 181.07
-9755434.29 5135189.95 181.07
-9755427.10 5135209.48 181.08
-9755420.98 5135190.24 181.13
-9755420.95 5135196.38 181.13
-9755414.52 5135196.58 181.14
-9755418.54 5135194.03 192.69
-9755416.48 5135194.24 192.66
-9755408.07 5135190.10 181.11
-9755401.24 5135196.26 181.07
-9755394.46 5135190.18 181.07
-9755375.61 5135190.06 183.01
-9755374.88 5135204.20 183.22
-9755373.74 5135204.00 187.20
-9755354.91 5135196.63 181.05
-9755368.29 5135209.24 188.61
-9755363.26 5135208.35 184.23
-9755348.48 5135196.32 180.94
-9755349.37 5135202.95 190.51
-9755341.39 5135190.50 183.64
-9755347.26 5135189.70 188.86
-9755335.20 5135189.95 181.25
-9755322.23 5135189.91 181.26
-9755322.18 5135196.72 181.33
-9755328.61 5135209.52 181.33
-9755321.89 5135209.77 181.38
-9755308.70 5135189.80 181.31
-9755315.17 5135196.70 181.25
-9755315.70 5135203.18 181.41
-9755920.33 5135170.21 189.36
-9755914.95 5135170.01 184.27
-9755921.70 5135176.68 183.38
-9755910.22 5135170.02 182.87
-9755909.50 5135170.21 189.21
-9755910.29 5135176.95 182.76
-9755909.40 5135183.01 183.41
-9755894.87 5135172.30 188.55
-9755901.87 5135183.21 180.38
-9755894.82 5135176.66 184.92
-9755894.74 5135182.52 189.20
-9755888.96 5135176.70 189.80
-9755888.87 5135182.90 184.94
-9755904.54 5135186.59 190.82
-9755909.68 5135164.18 189.38
-9755888.45 5135164.00 183.10
-9755883.18 5135183.07 190.12
-9755882.12 5135176.74 190.20
-9755881.57 5135176.04 184.65
-9755884.15 5135177.32 193.26
-9755875.47 5135170.23 188.87
-9755869.04 5135170.18 189.21
-9755875.70 5135183.44 183.19
-9755869.21 5135177.25 189.04
-9755875.47 5135177.31 189.03
-9755869.04 5135173.24 183.04
-9755856.81 5135176.45 189.44
-9755862.45 5135182.65 188.56
-9755856.34 5135183.04 188.06
-9755862.21 5135183.52 183.52
-9755855.90 5135183.35 183.31
-9755855.72 5135176.96 183.24
-9755854.70 5135170.96 182.86
-9755883.29 5135164.70 189.49
-9755881.35 5135163.07 183.45
-9755875.53 5135163.40 183.28
-9755862.34 5135164.33 188.42
-9755835.93 5135170.29 184.10
-9755840.57 5135177.32 183.21
-9755849.34 5135162.56 182.78
-9755830.35 5135163.70 183.26
-9755822.65 5135170.01 183.67
-9755823.24 5135175.07 186.79
-9755797.15 5135177.10 190.13
-9755795.97 5135184.85 182.52
-9755822.19 5135163.47 183.20
-9755815.98 5135163.41 189.56
-9755789.89 5135183.11 180.81
-9755776.48 5135177.01 189.47
-9755769.70 5135170.38 190.86
-9755769.65 5135182.73 191.36
-9755770.16 5135177.04 189.48
-9755777.10 5135163.67 190.61
-9755756.92 5135170.26 181.08
-9755749.23 5135169.71 183.38
-9755763.70 5135183.44 183.53
-9755765.53 5135183.46 189.08
-9755743.60 5135176.65 181.18
-9755743.57 5135183.43 181.24
-9755764.77 5135163.62 189.14
-9755717.47 5135170.47 183.46
-9755710.98 5135163.54 183.76
-9755705.09 5135175.93 185.90
-9755697.66 5135183.26 185.98
-9755701.19 5135176.50 196.14
-9755690.95 5135170.20 185.93
-9755690.87 5135177.00 185.92
-9755684.12 5135176.93 185.82
-9755677.90 5135176.93 185.65
-9755697.71 5135163.17 185.54
-9755671.12 5135183.45 185.60
-9755669.63 5135182.89 187.21
-9755669.72 5135177.15 187.22
-9755664.90 5135183.38 185.39
-9755664.31 5135176.81 187.33
-9755665.31 5135177.24 185.22
-9755658.49 5135170.32 185.45
-9755664.44 5135163.55 185.39
-9755657.91 5135176.55 185.43
-9755659.74 5135176.43 187.28
-9755658.14 5135183.37 185.44
-9755651.62 5135183.30 185.43
-9755664.83 5135163.72 187.21
-9755644.94 5135163.67 185.60
-9755648.50 5135176.66 187.34
-9755638.03 5135183.53 185.44
-9755631.95 5135176.69 185.18
-9755625.15 5135176.61 185.45
-9755648.30 5135166.01 187.25
-9755612.22 5135163.44 183.10
-9755612.18 5135170.06 183.46
-9755612.44 5135177.02 182.97
-9755605.65 5135170.52 181.30
-9755592.49 5135163.41 184.28
-9755592.22 5135169.93 189.85
-9755596.52 5135170.99 190.38
-9755590.86 5135176.22 183.66
-9755598.79 5135176.96 181.08
-9755590.91 5135182.31 183.91
-9755598.82 5135183.15 181.09
-9755591.07 5135163.32 193.29
-9755590.12 5135170.25 193.44
-9755585.29 5135183.12 189.87
-9755586.42 5135169.72 193.50
-9755587.22 5135186.34 193.31
-9755580.71 5135162.45 193.60
-9755579.37 5135170.85 190.40
-9755572.45 5135170.06 180.99
-9755571.85 5135161.77 184.12
-9755574.63 5135164.06 189.15
-9755565.88 5135163.46 181.01
-9755578.81 5135183.43 189.07
-9755580.06 5135182.69 184.95
-9755574.85 5135181.87 188.70
-9755575.28 5135179.61 187.88
-9755545.90 5135163.48 181.06
-9755539.33 5135170.11 181.04
-9755532.82 5135169.86 181.01
-9755552.60 5135176.98 181.08
-9755552.57 5135183.18 181.09
-9755546.04 5135183.51 181.08
-9755538.61 5135156.28 183.68
-9755519.63 5135170.03 180.99
-9755519.68 5135163.81 181.04
-9755512.90 5135163.47 181.09
-9755506.56 5135163.42 181.10
-9755519.90 5135176.85 181.01
-9755513.32 5135176.49 181.07
-9755506.27 5135176.79 181.14
-9755499.83 5135170.17 181.12
-9755526.85 5135160.33 187.46
-9755512.63 5135157.09 183.70
-9755486.93 5135163.59 181.05
-9755493.37 5135170.42 181.05
-9755473.63 5135163.36 181.04
-9755493.35 5135157.35 183.66
-9755473.46 5135157.48 183.70
-9755467.18 5135163.79 181.06
-9755467.11 5135170.32 181.02
-9755453.75 5135170.51 181.07
-9755447.49 5135163.44 181.08
-9755440.29 5135176.72 180.99
-9755427.59 5135170.10 181.03
-9755420.58 5135163.86 181.10
-9755413.93 5135157.21 184.50
-9755407.64 5135163.71 181.08
-9755401.12 5135163.71 181.08
-9755400.79 5135170.24 181.01
-9755401.21 5135183.37 181.01
-9755394.43 5135163.40 181.04
-9755374.75 5135163.65 186.91
-9755375.65 5135183.29 182.92
-9755368.09 5135164.37 183.81
-9755369.36 5135176.46 188.84
-9755361.63 5135169.98 180.91
-9755368.51 5135183.21 184.17
-9755369.31 5135180.49 187.88
-9755367.54 5135157.17 183.85
-9755372.99 5135156.35 189.10
-9755354.88 5135156.93 181.10
-9755348.16 5135176.41 184.11
-9755347.30 5135163.01 187.64
-9755335.38 5135163.64 181.28
-9755342.75 5135168.94 183.84
-9755341.29 5135177.18 188.84
-9755346.05 5135166.94 186.92
-9755328.58 5135170.09 181.26
-9755328.77 5135183.43 181.23
-9755348.40 5135156.90 181.08
-9755315.51 5135183.67 181.32
-9755315.10 5135157.04 181.27
-9755922.19 5135143.01 184.91
-9755921.85 5135142.83 189.85
-9755918.18 5135142.16 187.82
-9755920.09 5135156.94 189.35
-9755922.12 5135150.43 181.94
-9755922.18 5135157.39 183.12
-9755921.70 5135130.69 180.50
-9755922.78 5135133.53 189.12
-9755915.46 5135130.61 180.52
-9755909.84 5135150.72 183.82
-9755910.01 5135157.04 183.12
-9755909.40 5135157.65 189.37
-9755904.24 5135143.38 182.67
-9755888.57 5135144.85 189.10
-9755895.56 5135156.85 180.61
-9755888.49 5135149.70 183.67
-9755888.54 5135158.03 185.27
-9755901.87 5135137.05 180.57
-9755888.95 5135137.22 180.57
-9755881.85 5135143.88 189.04
-9755868.86 5135144.11 189.12
-9755875.59 5135156.89 189.92
-9755862.29 5135156.99 189.93
-9755855.79 5135156.79 190.05
-9755875.83 5135159.08 183.38
-9755861.69 5135159.12 182.46
-9755875.67 5135130.93 180.57
-9755861.55 5135137.07 184.27
-9755862.46 5135131.38 187.57
-9755849.11 5135150.12 190.85
-9755843.05 5135160.21 182.94
-9755848.97 5135159.98 182.08
-9755848.05 5135161.34 188.79
-9755836.13 5135159.87 184.04
-9755848.64 5135136.82 184.41
-9755843.20 5135137.16 181.34
-9755829.67 5135130.38 180.52
-9755836.12 5135131.00 180.54
-9755828.23 5135128.53 188.23
-9755821.60 5135144.85 182.10
-9755816.03 5135145.01 182.85
-9755822.21 5135157.72 183.19
-9755803.12 5135150.21 190.25
-9755810.81 5135141.20 190.39
-9755802.05 5135156.66 182.89
-9755798.33 5135144.67 187.45
-9755795.93 5135157.39 181.96
-9755798.99 5135150.26 189.03
-9755816.65 5135137.59 184.71
-9755822.58 5135130.66 180.58
-9755816.48 5135133.78 187.63
-9755803.11 5135137.29 182.21
-9755802.54 5135128.53 184.90
-9755808.82 5135139.09 190.33
-9755789.93 5135141.76 189.58
-9755781.04 5135150.16 189.18
-9755776.77 5135157.15 190.67
-9755770.39 5135144.42 184.09
-9755769.61 5135159.67 183.73
-9755789.83 5135137.27 180.56
-9755794.02 5135138.87 189.67
-9755777.19 5135137.36 184.24
-9755763.44 5135144.16 184.23
-9755750.80 5135145.27 182.36
-9755750.18 5135142.24 189.69
-9755759.16 5135150.01 183.37
-9755749.21 5135151.08 185.16
-9755757.68 5135147.29 188.47
-9755744.45 5135144.77 189.15
