-9754327.04 5136409.19 191.67
-9754326.86 5136415.58 181.57
-9754328.09 5136411.20 181.53
-9754313.74 5136409.09 191.70
-9754320.25 5136414.23 182.65
-9754321.20 5136414.03 189.93
-9754321.05 5136411.22 181.55
-9754313.73 5136415.71 196.50
-9754313.94 5136416.48 191.11
-9754313.68 5136414.27 182.71
-9754314.51 5136411.63 181.68
-9754307.66 5136414.30 182.71
-9754306.93 5136417.16 190.48
-9754307.62 5136411.67 181.71
-9754300.02 5136414.41 183.22
-9754280.68 5136409.19 185.84
-9754287.45 5136415.47 185.85
-9755071.35 5136408.99 176.39
-9755051.69 5136402.64 176.30
-9755058.67 5136408.85 176.46
-9755045.16 5136402.60 176.60
-9755038.70 5136395.99 176.65
-9755031.93 5136396.02 176.67
-9755025.36 5136408.94 176.67
-9755018.61 5136402.46 176.79
-9754992.38 5136402.87 176.74
-9755005.70 5136408.91 176.79
-9754985.88 5136409.36 176.71
-9754972.67 5136402.45 176.35
-9754952.91 5136395.83 176.28
-9754933.48 5136409.13 178.20
-9754913.69 5136402.57 179.90
-9754906.02 5136396.61 187.84
-9754894.02 5136395.97 184.49
-9754887.13 5136408.98 184.40
-9754854.46 5136402.45 181.15
-9754853.89 5136395.91 181.09
-9754821.18 5136396.03 180.85
-9754795.22 5136402.22 189.81
-9754794.98 5136395.65 194.72
-9754788.10 5136402.66 181.25
-9754779.35 5136395.29 189.21
-9754768.66 5136396.26 189.96
-9754755.47 5136396.39 189.53
-9754715.70 5136395.91 189.13
-9754709.07 5136402.71 181.24
-9754714.42 5136395.66 181.42
-9754696.39 5136397.93 189.93
-9754696.20 5136395.87 183.36
-9754683.20 5136396.06 180.78
-9754676.11 5136396.05 181.01
-9754655.58 5136395.93 189.79
-9754644.02 5136396.48 187.62
-9754643.38 5136396.96 184.36
-9754644.57 5136402.16 184.61
-9754637.09 5136403.34 184.03
-9754635.45 5136395.95 182.58
-9754630.15 5136395.99 189.86
-9754634.51 5136402.31 189.42
-9754623.41 5136395.95 189.90
-9754617.18 5136402.41 189.91
-9754603.61 5136402.62 189.92
-9754597.18 5136395.79 189.90
-9754590.66 5136395.99 189.89
-9754590.67 5136402.54 189.90
-9754584.05 5136402.54 182.51
-9754583.46 5136396.29 183.87
-9754570.89 5136402.41 190.32
-9754577.35 5136395.78 181.20
-9754570.54 5136396.74 183.92
-9754577.28 5136402.60 181.24
-9754569.28 5136405.26 194.73
-9754565.84 5136404.76 194.64
-9754557.56 5136395.98 181.15
-9754556.68 5136401.33 187.16
-9754556.49 5136395.40 188.36
-9754550.18 5136396.04 184.03
-9754544.14 5136402.73 188.60
-9754544.59 5136389.34 189.91
-9754537.74 5136402.35 181.11
-9754544.94 5136389.02 181.35
-9754537.86 5136389.03 181.09
-9754531.27 5136402.63 181.26
-9754524.83 5136395.82 181.20
-9754524.86 5136402.57 181.21
-9754524.70 5136389.69 190.19
-9754524.87 5136389.20 181.18
-9754517.86 5136395.83 183.52
-9754518.03 5136402.52 181.32
-9754518.22 5136390.02 183.86
-9754518.02 5136389.33 189.46
-9754511.26 5136402.45 181.37
-9754504.82 5136395.64 181.40
-9754505.06 5136402.46 181.40
-9754505.24 5136388.90 187.54
-9754498.31 5136395.87 181.75
-9754499.24 5136396.49 186.97
-9754496.84 5136401.94 184.05
-9754498.71 5136389.17 186.72
-9754491.24 5136395.97 185.86
-9754497.83 5136389.39 186.61
-9754491.61 5136389.14 185.89
-9754486.43 5136395.74 191.04
-9754485.94 5136395.50 185.09
-9754478.68 5136396.00 189.35
-9754485.92 5136402.43 185.09
-9754478.58 5136395.95 184.63
-9754483.90 5136402.03 193.36
-9754478.65 5136402.24 194.61
-9754477.98 5136402.71 184.54
-9754472.69 5136395.78 185.15
-9754472.35 5136403.01 185.31
-9754472.13 5136402.52 188.04
-9754471.88 5136389.19 188.16
-9754473.11 5136391.47 194.41
-9754466.82 5136402.33 190.08
-9754466.66 5136395.85 189.85
-9754466.67 5136389.18 190.24
-9754472.78 5136389.31 185.20
-9754465.60 5136402.29 185.18
-9754458.90 5136389.34 185.40
-9754445.56 5136395.67 185.81
-9754452.42 5136389.24 185.61
-9754452.62 5136400.28 186.93
-9754439.06 5136402.45 186.06
-9754432.96 5136395.60 187.30
-9754434.10 5136396.75 186.20
-9754434.90 5136403.00 180.03
-9754425.65 5136389.21 187.21
-9754425.45 5136402.57 187.44
-9754419.11 5136396.05 187.53
-9754419.05 5136402.52 187.67
-9754419.35 5136389.48 187.44
-9754412.62 5136389.20 187.65
-9754399.84 5136396.31 185.18
-9754399.61 5136396.16 189.48
-9754407.81 5136402.26 184.55
-9754399.61 5136389.13 181.19
-9754399.64 5136389.98 189.89
-9754399.29 5136402.42 189.79
-9754405.95 5136401.56 188.36
-9754399.07 5136402.44 193.43
-9754393.08 5136397.09 193.51
-9754392.83 5136389.68 189.95
-9754393.11 5136395.59 181.19
-9754392.84 5136389.08 181.18
-9754386.26 5136396.02 190.13
-9754386.32 5136390.06 188.28
-9754386.11 5136390.76 183.75
-9754379.77 5136395.53 181.08
-9754379.84 5136389.00 181.09
-9754379.75 5136402.33 181.06
-9754382.29 5136403.02 189.79
-9754382.74 5136406.80 187.48
-9754373.02 5136395.45 181.03
-9754373.06 5136389.26 181.02
-9754365.77 5136397.25 190.65
-9754366.25 5136396.01 181.28
-9754366.36 5136389.12 183.99
-9754358.62 5136396.11 184.28
-9754358.60 5136397.26 190.58
-9754359.77 5136389.29 183.54
-9754359.99 5136402.95 184.20
-9754358.83 5136402.44 189.21
-9754360.11 5136403.91 195.44
-9754353.45 5136389.63 189.80
-9754353.07 5136390.13 184.55
-9754353.06 5136394.95 189.07
-9754353.33 5136402.54 191.68
-9754344.86 5136395.45 196.45
-9754344.36 5136389.83 196.57
-9754346.81 5136402.22 191.68
-9754340.42 5136389.52 196.32
-9754339.64 5136395.68 189.49
-9754340.27 5136395.74 184.61
-9754340.31 5136389.30 181.55
-9754335.02 5136395.65 190.57
-9754340.04 5136402.44 191.72
-9754333.55 5136402.40 191.67
-9754336.06 5136401.67 195.18
-9754327.03 5136389.11 184.39
-9754326.64 5136394.82 182.53
-9754327.12 5136402.37 191.68
-9754319.98 5136389.45 193.37
-9754313.79 5136395.81 185.05
-9754315.97 5136389.44 190.34
-9754313.83 5136402.61 191.72
-9754307.32 5136395.77 185.10
-9754302.06 5136394.02 187.29
-9754299.92 5136390.32 187.64
-9754294.09 5136389.43 185.94
-9754292.42 5136405.08 188.13
-9754287.53 5136402.41 185.82
-9755045.31 5136382.44 176.46
-9755032.03 5136382.66 176.58
-9755038.75 5136389.22 176.61
-9755025.58 5136376.09 176.46
-9755012.27 5136376.29 176.66
-9754992.84 5136382.44 176.60
-9755005.76 5136389.03 176.73
-9754992.75 5136389.29 176.65
-9754986.11 5136376.17 176.50
-9754979.50 5136389.48 176.47
-9754959.54 5136376.00 176.21
-9754932.64 5136390.33 182.28
-9754933.22 5136392.86 181.52
-9754910.45 5136389.80 181.92
-9754894.09 5136375.90 184.38
-9754866.70 5136382.76 185.22
-9754861.04 5136382.60 181.23
-9754862.65 5136375.55 183.18
-9754816.88 5136376.18 182.36
-9754795.18 5136383.19 189.12
-9754779.15 5136390.37 189.20
-9754782.21 5136375.31 181.90
-9754768.65 5136382.57 189.58
-9754755.28 5136376.26 189.13
-9754748.74 5136389.28 189.14
-9754735.50 5136389.19 189.13
-9754701.59 5136389.01 195.00
-9754696.32 5136389.59 195.27
-9754689.13 5136387.40 184.83
-9754700.54 5136377.14 189.27
-9754697.27 5136374.99 184.59
-9754688.69 5136374.78 190.47
-9754696.62 5136383.36 194.85
-9754701.90 5136382.23 194.53
-9754692.54 5136384.32 193.48
-9754669.67 5136389.15 181.19
-9754682.84 5136376.40 190.33
-9754676.06 5136376.11 196.54
-9754680.10 5136375.88 196.08
-9754676.76 5136382.52 190.33
-9754676.50 5136383.15 184.21
-9754669.69 5136382.96 181.14
-9754649.88 5136389.21 184.67
-9754655.71 5136376.64 184.12
-9754649.99 5136376.03 181.32
-9754649.46 5136382.49 188.57
-9754649.38 5136383.29 181.37
-9754648.57 5136392.55 188.98
-9754653.78 5136386.12 186.81
-9754645.92 5136391.80 187.67
-9754643.11 5136389.32 181.41
-9754636.66 5136389.57 181.47
-9754644.12 5136382.74 188.52
-9754636.70 5136376.30 181.34
-9754636.67 5136382.76 181.38
-9754630.19 5136389.14 189.86
-9754623.44 5136389.40 189.89
-9754631.06 5136376.03 181.62
-9754634.28 5136376.46 190.12
-9754623.53 5136376.37 189.90
-9754617.01 5136382.87 189.90
-9754610.46 5136389.35 189.90
-9754610.25 5136376.01 189.90
-9754603.78 5136376.26 189.91
-9754596.90 5136389.25 189.89
-9754584.25 5136389.47 189.92
-9754583.89 5136389.21 183.03
-9754597.27 5136376.19 189.88
-9754583.75 5136376.15 189.91
-9754583.58 5136376.55 182.99
-9754597.24 5136382.75 189.90
-9754590.45 5136382.68 189.91
-9754583.97 5136382.94 189.93
-9754570.64 5136389.28 190.25
-9754557.64 5136389.41 181.16
-9754565.03 5136389.00 183.51
-9754577.62 5136376.34 190.23
-9754570.68 5136376.20 181.17
-9754577.43 5136376.19 181.26
-9754570.96 5136382.57 184.47
-9754570.75 5136382.86 190.14
-9754577.43 5136382.73 181.24
-9754564.00 5136375.95 189.63
-9754537.92 5136376.27 181.07
-9754544.27 5136382.76 189.72
-9754530.92 5136375.34 183.58
-9754531.20 5136382.23 184.76
-9754531.23 5136382.67 189.71
-9754524.81 5136376.12 189.60
-9754525.59 5136375.75 184.95
-9754524.75 5136382.96 189.88
-9754517.92 5136382.57 189.76
-9754512.58 5136376.94 184.08
-9754498.77 5136376.04 186.75
-9754510.12 5136382.16 184.04
-9754510.26 5136381.46 188.13
-9754506.11 5136383.51 181.81
-9754497.88 5136376.38 186.62
-9754491.37 5136376.02 185.90
-9754485.92 5136376.01 185.32
-9754478.44 5136375.79 194.73
-9754491.61 5136382.65 185.95
-9754498.13 5136382.55 186.65
-9754486.02 5136382.66 185.42
-9754483.94 5136382.52 193.38
-9754471.94 5136376.24 188.30
-9754472.55 5136375.82 194.34
-9754472.61 5136376.53 185.20
-9754466.32 5136376.07 189.99
-9754472.26 5136382.71 188.25
-9754472.87 5136383.35 194.38
-9754472.83 5136382.80 185.18
-9754466.41 5136382.98 189.95
-9754458.69 5136376.32 182.63
-9754458.96 5136382.59 182.75
-9754445.66 5136375.97 182.54
-9754445.68 5136382.49 182.30
-9754438.89 5136375.97 182.29
-9754438.05 5136376.62 186.67
-9754418.91 5136376.22 187.23
-9754421.48 5136374.70 181.35
-9754399.37 5136376.10 181.15
-9754407.44 5136376.06 187.56
-9754405.87 5136382.87 183.55
-9754399.66 5136382.58 181.16
-9754407.37 5136382.30 187.66
-9754392.89 5136382.55 181.16
-9754386.12 5136376.30 181.20
-9754379.89 5136376.25 181.11
-9754366.37 5136376.17 181.28
-9754360.18 5136376.40 181.32
-9754365.99 5136383.21 183.63
-9754359.85 5136382.13 184.45
-9754354.17 5136382.17 184.13
-9754352.73 5136376.34 189.82
-9754352.72 5136375.56 194.05
-9754347.06 5136377.32 194.83
-9754346.55 5136382.81 181.64
-9754347.17 5136383.02 195.59
-9754340.40 5136376.06 181.59
-9754333.93 5136376.71 190.89
-9754339.91 5136382.72 196.26
-9754340.33 5136382.73 190.75
-9754333.15 5136382.49 195.76
-9754333.73 5136382.38 191.08
-9754326.93 5136376.19 189.56
-9754327.10 5136382.43 181.58
-9754323.16 5136376.42 189.27
-9754320.76 5136383.86 194.09
-9754313.86 5136382.78 185.50
-9754308.29 5136381.72 188.29
-9754300.65 5136382.91 187.31
-9754300.61 5136382.72 185.89
-9754294.12 5136382.63 185.89
-9754287.37 5136376.07 185.88
-9754292.56 5136373.44 186.95
-9754281.51 5136375.87 183.19
-9755052.19 5136362.99 176.00
-9755025.59 5136369.58 176.42
-9755012.38 5136369.51 176.64
-9754992.29 5136369.72 176.52
-9754934.13 5136371.53 181.23
-9754930.73 5136362.92 180.11
-9754919.90 5136362.86 179.98
-9754894.16 5136369.64 184.34
-9754854.37 5136369.55 181.12
-9754862.37 5136362.39 183.88
-9754841.14 5136363.24 180.89
-9754827.87 5136362.94 182.78
-9754821.67 5136362.78 183.83
-9754778.90 5136363.03 189.67
-9754767.92 5136369.72 189.65
-9754748.36 5136370.09 189.63
-9754748.90 5136362.93 189.15
-9754742.15 5136362.89 189.14
-9754728.86 5136362.83 189.14
-9754722.37 5136362.78 189.14
-9754711.74 5136363.01 189.27
-9754682.45 5136369.50 184.77
-9754676.37 5136369.51 190.64
-9754676.06 5136371.00 184.80
-9754676.41 5136369.53 196.18
-9754669.23 5136370.38 190.69
-9754668.61 5136370.50 185.05
-9754683.86 5136357.49 185.26
-9754681.72 5136364.24 194.49
-9754675.50 5136362.46 188.32
-9754670.17 5136363.72 195.77
-9754675.78 5136356.51 190.06
-9754669.21 5136363.09 181.17
-9754670.50 5136356.55 189.21
-9754669.53 5136356.04 181.14
-9754662.78 5136369.43 190.05
-9754656.57 5136370.37 189.20
-9754649.85 5136369.43 196.57
-9754649.90 5136369.62 182.01
-9754650.67 5136374.44 194.62
-9754662.80 5136363.68 190.46
-9754663.08 5136356.61 181.22
-9754664.29 5136363.66 181.22
-9754655.84 5136362.86 196.48
-9754656.39 5136362.83 188.56
-9754656.37 5136357.07 195.02
-9754649.95 5136362.91 196.41
-9754650.07 5136363.12 181.36
-9754656.64 5136356.53 181.24
-9754659.93 5136367.72 193.75
-9754643.35 5136369.68 190.41
-9754645.15 5136369.48 195.39
-9754643.87 5136369.13 181.33
-9754636.95 5136369.83 190.09
-9754636.49 5136369.50 181.34
-9754643.36 5136363.10 196.69
-9754643.22 5136356.45 195.93
-9754643.13 5136362.91 188.91
-9754643.25 5136363.17 183.83
-9754642.98 5136355.24 181.35
-9754636.81 5136363.40 190.45
-9754637.24 5136356.32 189.93
-9754632.71 5136368.89 182.52
-9754630.09 5136363.07 189.90
-9754630.15 5136356.29 189.87
-9754630.66 5136354.73 181.25
-9754603.81 5136369.44 189.95
-9754603.89 5136362.89 189.99
-9754603.83 5136356.43 190.02
-9754603.58 5136362.98 182.55
-9754610.27 5136363.06 181.56
-9754604.61 5136356.53 195.33
-9754590.55 5136369.65 189.88
-9754597.09 5136362.88 189.91
-9754597.09 5136356.38 189.88
-9754583.32 5136363.71 182.48
-9754570.94 5136369.54 195.92
-9754577.50 5136369.44 181.26
-9754576.93 5136369.06 195.80
-9754569.84 5136374.23 194.03
-9754564.06 5136369.12 195.27
-9754563.54 5136373.78 193.56
-9754583.19 5136355.71 183.84
-9754570.92 5136362.96 196.73
-9754577.29 5136362.95 181.27
-9754571.34 5136358.03 195.63
-9754577.32 5136362.95 196.53
-9754570.79 5136356.36 181.17
-9754564.29 5136363.14 181.17
-9754557.36 5136363.08 189.49
-9754557.56 5136362.78 181.19
-9754551.71 5136362.62 195.01
-9754551.16 5136356.75 195.84
-9754550.71 5136362.71 181.48
-9754554.70 5136355.20 193.86
-9754544.48 5136369.51 181.30
-9754544.25 5136363.16 190.15
-9754545.76 5136362.71 194.46
-9754544.07 5136356.27 190.34
-9754544.88 5136355.93 181.42
-9754538.04 5136362.68 181.14
-9754535.92 5136361.18 188.70
-9754536.10 5136356.69 189.87
-9754538.08 5136356.47 181.17
-9754540.84 5136357.05 194.39
-9754531.07 5136356.61 189.98
-9754524.43 5136369.44 181.17
-9754528.30 5136370.24 189.41
-9754529.30 5136374.47 193.49
-9754528.30 5136372.37 194.22
-9754518.05 5136370.49 189.97
-9754524.57 5136356.35 190.00
-9754524.77 5136362.92 181.15
-9754524.80 5136356.64 181.14
-9754516.48 5136362.13 188.91
-9754517.60 5136363.51 182.12
-9754518.77 5136357.39 189.10
-9754517.06 5136356.68 185.15
-9754517.91 5136355.87 178.96
-9754514.18 5136360.68 179.02
-9754511.54 5136356.30 188.27
-9754514.17 5136362.89 181.53
-9754511.58 5136362.83 188.25
-9754513.79 5136356.32 179.19
-9754498.61 5136356.26 186.81
-9754486.54 5136369.16 190.02
-9754478.49 5136369.46 184.82
-9754491.15 5136362.82 185.91
-9754497.40 5136356.17 186.66
-9754491.32 5136356.30 185.90
-9754493.17 5136362.83 187.27
-9754478.53 5136362.72 189.70
-9754485.12 5136356.48 185.45
-9754477.36 5136357.56 194.98
-9754478.43 5136362.31 184.94
-9754478.25 5136356.49 184.94
-9754478.53 5136367.60 194.77
-9754472.02 5136369.39 188.37
-9754472.36 5136367.47 194.38
-9754471.86 5136361.94 185.50
-9754472.11 5136356.20 188.49
-9754472.46 5136356.53 185.32
-9754452.23 5136369.70 185.07
-9754445.44 5136369.56 186.24
-9754458.78 5136356.47 185.04
-9754452.30 5136362.91 185.06
-9754445.78 5136363.07 186.14
-9754439.28 5136369.53 186.44
-9754439.01 5136363.01 186.33
-9754431.72 5136363.24 181.25
-9754429.57 5136364.49 190.17
-9754425.79 5136369.29 189.94
-9754420.99 5136371.02 189.31
-9754425.79 5136369.72 195.26
-9754429.86 5136370.00 194.26
-9754421.84 5136371.90 181.26
-9754412.75 5136369.66 187.35
-9754426.07 5136362.88 188.12
-9754426.41 5136356.13 186.66
-9754419.00 5136356.36 186.92
-9754412.47 5136362.83 187.24
-9754412.51 5136356.32 187.11
-9754405.80 5136370.45 182.00
-9754399.13 5136369.55 181.16
-9754391.73 5136368.05 184.54
-9754399.44 5136362.76 181.16
-9754399.49 5136356.51 181.13
-9754406.94 5136356.65 187.23
-9754392.75 5136362.87 189.47
-9754392.76 5136356.53 183.40
-9754392.84 5136356.33 189.90
-9754393.22 5136362.81 183.87
-9754386.12 5136369.76 181.16
-9754379.94 5136369.45 181.15
-9754386.33 5136362.49 190.33
-9754386.20 5136362.99 181.21
-9754388.07 5136355.89 183.10
-9754379.70 5136363.21 181.15
-9754381.34 5136356.34 189.94
-9754393.26 5136366.90 186.81
-9754366.67 5136368.89 182.42
-9754361.36 5136368.29 182.34
-9754373.18 5136363.16 181.14
-9754373.22 5136356.41 181.09
-9754366.56 5136356.59 188.53
-9754360.74 5136356.79 184.07
-9754353.12 5136369.53 181.23
-9754352.25 5136370.45 188.17
-9754346.89 5136369.52 181.34
-9754345.26 5136370.05 193.37
-9754353.17 5136362.76 181.29
-9754340.27 5136369.37 190.36
-9754333.40 5136369.66 182.71
-9754326.96 5136369.71 182.44
-9754328.80 5136368.76 188.24
-9754340.60 5136361.71 182.74
-9754333.73 5136362.94 181.66
-9754327.05 5136356.27 189.73
-9754326.66 5136356.40 181.74
-9754313.24 5136369.59 185.07
-9754307.14 5136369.72 185.50
-9754313.74 5136362.90 185.52
-9754313.71 5136356.41 185.52
-9754300.38 5136369.34 185.83
-9754299.85 5136369.45 187.67
-9754294.22 5136369.61 185.81
-9754306.38 5136356.30 187.38
-9754287.39 5136369.58 185.84
-9754292.58 5136372.23 187.01
-9754281.09 5136356.30 183.16
-9754281.37 5136363.18 181.91
-9755078.26 5136349.78 176.61
-9755071.42 5136356.56 175.93
-9755058.19 5136343.17 175.92
-9755025.40 5136356.28 176.33
-9755038.42 5136343.03 176.28
-9754979.44 5136356.33 176.29
-9754979.48 5136343.31 176.20
-9754959.45 5136349.78 180.09
-9754946.70 5136349.91 176.57
-9754946.44 5136343.04 176.42
-9754932.90 5136356.02 178.78
-9754933.29 5136350.35 178.67
-9754926.51 5136356.99 182.23
-9754906.99 5136343.12 183.15
-9754906.11 5136349.24 187.12
-9754874.00 5136343.08 185.82
-9754866.57 5136356.40 185.30
-9754861.97 5136349.33 182.72
-9754854.17 5136349.69 181.05
-9754834.18 5136343.09 180.87
-9754827.64 5136343.00 182.28
-9754801.53 5136350.00 189.77
-9754786.83 5136349.47 195.94
-9754792.43 5136354.02 194.85
-9754799.43 5136344.20 191.15
-9754801.49 5136343.24 180.52
-9754787.72 5136342.41 188.96
-9754781.81 5136349.77 196.64
-9754774.92 5136356.55 189.47
-9754777.98 5136354.41 193.80
-9754768.53 5136356.79 189.49
-9754755.57 5136356.86 189.72
-9754761.73 5136343.58 189.57
-9754735.47 5136343.27 189.16
-9754722.44 5136356.29 189.13
-9754728.97 5136343.59 189.67
-9754722.49 5136343.22 189.13
-9754715.66 5136349.70 189.11
-9754711.79 5136356.52 189.26
-9754702.62 5136350.76 184.31
-9754716.01 5136343.20 189.13
-9754708.93 5136342.86 183.26
-9754695.58 5136349.83 189.73
-9754696.20 5136356.11 195.83
-9754696.33 5136351.45 195.60
-9754691.78 5136354.77 193.61
-9754695.32 5136343.22 184.88
-9754695.64 5136345.14 195.30
-9754691.01 5136344.46 195.44
-9754676.79 5136349.09 183.22
-9754676.87 5136349.57 190.06
-9754676.54 5136349.54 194.10
-9754669.57 5136349.62 181.17
-9754669.14 5136352.24 190.76
-9754669.72 5136349.82 194.01
-9754683.34 5136343.94 184.43
-9754669.48 5136342.99 194.02
-9754663.19 5136352.33 190.76
-9754662.87 5136353.73 194.01
-9754656.16 5136351.80 189.37
-9754656.67 5136349.70 181.71
-9754650.53 5136351.75 188.70
-9754656.51 5136343.49 194.00
-9754643.50 5136358.20 189.39
-9754645.98 5136349.04 194.19
-9754638.15 5136351.92 189.19
-9754647.00 5136343.51 190.79
-9754643.40 5136342.86 181.39
-9754630.19 5136349.77 189.89
-9754616.90 5136349.68 189.85
-9754633.50 5136343.22 189.80
-9754623.74 5136343.17 189.90
-9754603.62 5136349.89 189.89
-9754609.66 5136350.99 181.43
-9754604.90 5136351.31 181.48
-9754610.43 5136343.12 189.90
-9754603.71 5136343.13 189.90
-9754590.63 5136349.82 189.87
-9754583.21 5136349.82 183.12
-9754596.91 5136343.03 189.90
-9754583.89 5136342.97 189.90
-9754583.24 5136343.02 182.51
-9754570.86 5136349.72 183.93
-9754577.60 5136349.85 181.30
-9754574.18 5136353.04 188.64
-9754577.37 5136343.06 181.25
-9754565.81 5136342.62 188.71
-9754549.58 5136352.04 194.96
-9754557.60 5136342.98 181.21
-9754550.88 5136342.58 189.14
-9754554.44 5136345.04 186.80
-9754543.47 5136347.65 193.38
-9754537.96 5136348.34 190.41
-9754529.87 5136348.40 184.13
-9754537.84 5136343.14 181.18
-9754530.61 5136354.50 193.50
-9754530.85 5136352.47 193.41
-9754517.99 5136349.93 179.06
-9754524.95 5136343.23 189.95
-9754525.26 5136343.53 184.93
-9754517.78 5136343.14 179.02
-9754511.64 5136349.70 188.29
-9754513.83 5136350.15 178.99
-9754505.21 5136349.77 187.53
-9754498.38 5136349.70 186.78
-9754513.63 5136342.23 179.21
-9754505.19 5136343.22 187.54
-9754497.48 5136349.74 186.65
-9754491.87 5136349.68 186.01
-9754478.52 5136349.77 184.91
-9754478.35 5136348.85 194.83
-9754497.55 5136342.65 186.66
-9754478.10 5136343.18 189.86
-9754478.29 5136343.22 184.92
-9754472.14 5136349.74 188.61
-9754472.35 5136349.95 185.29
-9754472.80 5136348.86 194.62
-9754470.10 5136343.65 193.70
-9754472.65 5136343.05 185.24
-9754468.40 5136342.78 193.27
-9754452.37 5136349.78 185.70
-9754445.56 5136349.76 185.92
-9754439.17 5136349.77 186.13
-9754432.61 5136349.39 186.35
-9754439.16 5136343.21 186.02
-9754426.13 5136349.64 186.57
-9754423.76 5136350.51 186.67
-9754419.04 5136349.85 186.79
-9754425.82 5136343.38 186.47
-9754419.68 5136342.47 186.66
-9754406.96 5136349.72 187.21
-9754393.26 5136342.75 183.47
-9754379.80 5136349.92 181.12
-9754392.75 5136338.91 188.40
-9754365.63 5136350.24 184.53
-9754372.35 5136341.11 182.60
-9754373.11 5136337.01 182.77
-9754366.53 5136343.32 181.28
-9754366.57 5136336.50 181.31
-9754354.52 5136349.75 184.75
-9754346.71 5136349.63 181.83
-9754333.59 5136349.77 190.04
-9754337.64 5136354.38 189.03
-9754337.07 5136352.65 189.80
-9754326.77 5136349.75 189.86
-9754327.00 5136349.98 184.03
-9754340.09 5136336.64 181.60
-9754332.71 5136336.41 184.13
-9754326.87 5136336.40 184.04
-9754330.79 5136346.25 188.25
-9754321.97 5136349.52 182.77
-9754313.48 5136349.88 185.49
-9754321.13 5136343.34 183.09
-9754320.76 5136337.03 183.28
-9754313.59 5136336.53 185.60
-9754294.01 5136349.52 185.86
-9754307.32 5136343.05 185.52
-9754306.96 5136335.51 186.68
-9754294.09 5136336.72 185.87
-9754287.55 5136349.73 185.93
-9754281.04 5136350.04 184.43
-9755065.00 5136337.00 175.85
-9755038.76 5136336.53 176.24
-9754992.39 5136329.70 177.24
-9754946.53 5136336.58 176.40
-9754934.04 5136329.92 182.90
-9754931.80 5136335.28 183.05
-9754934.03 5136329.65 178.70
-9754913.19 5136330.02 179.89
-9754893.89 5136330.27 184.20
-9754881.19 5136330.14 184.77
-9754862.00 5136336.68 183.62
-9754863.39 5136343.01 186.83
-9754855.37 5136332.12 191.32
-9754847.82 5136330.64 182.95
-9754841.07 5136330.83 183.12
-9754794.40 5136330.13 180.76
-9754781.69 5136336.86 196.63
-9754771.34 5136332.89 193.45
-9754768.60 5136323.64 189.35
-9754735.54 5136329.99 189.14
-9754749.23 5136323.89 189.30
-9754735.02 5136324.05 189.32
-9754722.57 5136329.91 189.15
-9754722.50 5136336.41 189.15
-9754708.71 5136330.00 196.63
-9754709.18 5136329.63 181.19
-9754709.21 5136336.44 181.26
-9754702.61 5136330.00 196.40
-9754703.72 5136332.31 199.96
-9754702.71 5136336.68 181.09
-9754713.07 5136337.68 181.33
-9754712.48 5136330.67 181.24
-9754709.37 5136323.66 190.36
-9754709.64 5136323.55 184.15
-9754702.50 5136323.12 181.02
-9754702.55 5136323.87 190.25
-9754698.56 5136331.80 196.00
-9754694.88 5136329.26 185.02
-9754694.80 5136339.64 189.08
-9754696.32 5136323.71 185.25
-9754690.27 5136323.21 195.42
-9754690.47 5136327.21 193.69
-9754691.44 5136326.72 190.79
-9754682.99 5136329.02 184.40
-9754682.65 5136336.87 180.77
-9754676.49 5136329.94 183.27
-9754676.56 5136330.20 189.99
-9754676.68 5136336.78 190.28
-9754676.28 5136336.50 194.10
-9754676.48 5136323.32 189.99
-9754676.42 5136323.68 183.29
-9754669.59 5136323.45 194.02
-9754663.39 5136336.67 195.26
-9754656.28 5136329.82 195.61
-9754650.69 5136329.19 195.55
-9754654.71 5136336.08 195.65
-9754658.38 5136323.34 196.10
-9754643.24 5136330.21 184.02
-9754642.88 5136330.07 187.99
-9754646.68 5136328.54 190.74
-9754646.74 5136335.69 190.75
-9754643.13 5136336.59 181.37
-9754645.17 5136337.58 194.22
-9754633.72 5136329.81 189.62
-9754642.72 5136324.67 184.67
-9754646.58 5136323.50 190.78
-9754629.99 5136329.92 189.88
-9754630.27 5136329.91 181.48
-9754630.75 5136336.38 181.55
-9754623.50 5136336.71 189.88
-9754617.01 5136329.85 189.85
-9754616.94 5136336.67 189.86
-9754630.11 5136323.43 181.52
-9754623.58 5136323.34 189.91
-9754610.51 5136337.29 189.87
-9754604.14 5136337.24 189.84
-9754610.28 5136323.29 189.88
-9754603.78 5136323.27 189.88
-9754597.27 5136329.74 189.84
-9754584.04 5136330.22 189.90
-9754597.25 5136336.54 189.87
-9754590.72 5136336.51 189.88
-9754583.06 5136336.82 182.52
-9754584.02 5136323.44 189.90
-9754571.00 5136329.33 183.86
-9754564.12 5136330.23 181.28
-9754570.11 5136336.47 183.33
-9754574.30 5136332.98 187.76
-9754582.91 5136323.49 182.53
-9754564.28 5136321.45 189.20
-9754559.16 5136336.18 182.33
-9754550.89 5136329.65 183.87
-9754551.00 5136329.79 189.35
-9754550.33 5136337.94 184.54
-9754557.70 5136323.69 181.19
-9754550.92 5136323.73 181.37
-9754556.26 5136323.02 188.74
-9754544.52 5136330.00 190.10
-9754539.20 5136329.16 189.02
-9754537.92 5136330.10 181.20
-9754537.89 5136336.85 181.20
-9754531.14 5136329.79 181.31
-9754531.29 5136336.51 189.89
-9754531.44 5136336.58 181.30
-9754537.96 5136323.28 181.22
-9754531.30 5136323.81 185.06
-9754519.07 5136331.05 190.07
-9754516.10 5136329.88 184.04
-9754517.58 5136330.35 179.05
-9754524.69 5136336.48 181.14
-9754517.83 5136336.15 179.04
-9754517.29 5136335.92 184.75
-9754525.31 5136324.66 184.93
-9754515.94 5136323.16 188.89
-9754513.88 5136329.40 179.09
-9754505.29 5136329.88 187.59
-9754498.79 5136329.94 186.85
-9754513.53 5136336.78 179.20
-9754498.71 5136336.70 186.82
-9754513.23 5136323.84 179.21
-9754497.28 5136329.62 186.64
-9754477.61 5136328.51 195.04
-9754483.51 5136330.05 193.53
-9754485.85 5136330.00 190.29
-9754478.17 5136330.18 189.91
-9754478.36 5136329.89 185.05
-9754491.36 5136336.71 185.99
-9754485.91 5136336.29 190.34
-9754478.14 5136337.32 195.09
-9754477.86 5136323.43 189.93
-9754485.95 5136323.48 190.36
-9754483.56 5136323.57 193.47
-9754472.37 5136328.47 194.77
-9754472.33 5136330.00 188.84
-9754472.59 5136330.04 185.28
-9754468.18 5136329.94 193.36
-9754465.45 5136330.08 184.94
-9754465.73 5136336.69 189.94
-9754472.55 5136336.70 185.25
-9754472.58 5136337.65 194.79
-9754478.10 5136323.38 185.11
-9754472.29 5136323.56 185.43
-9754470.85 5136322.49 194.42
-9754458.99 5136330.03 185.18
-9754458.61 5136336.51 185.33
-9754452.17 5136330.00 185.40
-9754445.70 5136329.93 185.60
-9754452.18 5136336.75 185.51
-9754445.63 5136336.47 185.71
-9754458.75 5136323.27 185.10
-9754452.23 5136323.16 185.28
-9754445.68 5136323.71 185.49
-9754438.87 5136336.39 185.93
-9754432.45 5136329.85 186.04
-9754432.40 5136336.34 186.14
-9754432.49 5136323.32 185.94
-9754426.20 5136336.60 186.36
-9754417.35 5136337.70 186.67
-9754415.85 5136333.87 186.66
-9754425.96 5136323.62 186.17
-9754399.34 5136329.86 181.12
-9754406.78 5136336.43 187.01
-9754406.30 5136323.25 183.88
-9754386.11 5136329.82 181.10
-9754379.58 5136329.77 181.17
-9754373.37 5136330.71 183.15
-9754365.71 5136321.31 189.36
-9754353.38 5136330.01 184.00
-9754346.62 5136330.34 181.79
-9754334.41 5136330.35 183.53
-9754311.78 5136329.97 186.67
-9754307.65 5136330.39 183.43
-9754307.12 5136323.40 181.76
-9754300.69 5136330.82 183.23
-9754302.08 5136329.13 186.68
-9754295.69 5136330.07 183.18
-9754293.92 5136321.80 190.50
-9754287.37 5136329.89 185.85
-9755078.38 5136323.41 176.66
-9755064.00 5136316.89 177.11
-9755058.57 5136323.60 175.78
-9755038.88 5136316.67 176.10
-9754999.13 5136310.25 176.04
-9754992.29 5136323.51 176.22
-9754979.31 5136323.15 176.08
-9754959.56 5136323.32 175.79
-9754952.80 5136310.38 176.54
-9754946.03 5136310.49 176.31
-9754928.73 5136312.11 179.30
-9754919.85 5136316.39 180.08
-9754906.97 5136310.26 183.11
-9754905.76 5136317.29 187.20
-9754873.84 5136323.56 185.82
-9754866.45 5136316.48 185.50
-9754861.43 5136316.88 183.05
-9754854.62 5136323.40 187.03
-9754788.10 5136309.94 181.03
-9754800.59 5136315.95 188.44
-9754800.08 5136321.43 189.40
-9754780.46 5136310.13 190.18
-9754774.07 5136310.47 189.94
-9754774.61 5136311.13 182.46
-9754781.84 5136317.29 181.14
-9754768.35 5136310.79 182.53
-9754748.85 5136317.45 178.31
-9754748.42 5136311.74 178.64
-9754735.92 5136311.65 182.55
-9754735.54 5136316.89 178.57
-9754728.92 5136311.68 182.54
-9754729.32 5136311.91 178.60
-9754722.27 5136312.06 178.93
-9754709.20 5136310.17 190.20
-9754709.47 5136310.22 196.82
-9754714.74 5136308.93 191.15
-9754713.89 5136308.26 195.36
-9754703.53 5136310.32 190.23
-9754717.30 5136317.58 180.01
-9754717.52 5136312.29 179.95
-9754709.42 5136317.00 196.72
-9754713.74 5136317.95 189.52
-9754708.25 5136315.73 190.34
-9754713.76 5136314.84 194.78
-9754712.88 5136321.91 194.74
-9754701.93 5136315.79 185.10
-9754696.09 5136310.03 195.99
-9754696.16 5136309.57 182.64
-9754689.47 5136310.36 189.09
-9754696.56 5136316.91 180.76
-9754691.80 5136318.53 196.43
-9754682.53 5136309.97 180.91
-9754682.16 5136316.73 181.03
-9754686.10 5136311.87 189.30
-9754676.45 5136310.46 194.14
-9754676.57 5136310.08 190.30
-9754676.45 5136316.67 194.12
-9754671.87 5136316.52 182.26
-9754663.17 5136316.69 197.27
-9754658.32 5136309.62 197.23
-9754649.92 5136317.02 195.52
-9754642.74 5136309.61 184.96
-9754643.66 5136310.57 187.95
-9754649.25 5136308.10 181.40
-9754643.42 5136316.07 188.07
-9754636.92 5136311.01 189.17
-9754637.43 5136309.92 185.25
-9754637.42 5136315.63 187.23
-9754632.06 5136310.37 183.82
-9754623.36 5136310.33 189.87
-9754630.11 5136316.58 189.88
-9754616.90 5136310.01 189.85
-9754603.87 5136310.25 189.84
-9754610.35 5136316.78 189.89
-9754597.39 5136310.17 189.83
-9754590.59 5136310.44 189.90
-9754582.83 5136316.87 182.49
-9754582.53 5136310.46 182.48
-9754571.17 5136310.35 190.36
-9754564.39 5136309.68 184.77
-9754577.53 5136316.73 181.30
-9754570.44 5136316.96 181.19
-9754563.66 5136317.05 184.03
-9754570.91 5136303.63 189.58
-9754570.21 5136302.69 183.84
-9754557.82 5136310.36 181.23
-9754557.50 5136316.64 181.23
-9754550.35 5136316.45 184.63
-9754544.32 5136310.25 190.27
-9754544.26 5136309.24 184.06
-9754537.75 5136310.29 181.22
-9754544.54 5136316.66 189.47
-9754532.43 5136310.35 184.29
-9754531.22 5136316.47 181.36
-9754537.37 5136305.98 190.46
-9754531.16 5136303.69 189.22
-9754525.94 5136311.72 183.92
-9754516.00 5136310.45 188.88
-9754516.02 5136309.99 183.98
-9754530.66 5136315.37 188.06
-9754517.34 5136309.94 179.04
-9754516.04 5136317.05 188.90
-9754524.65 5136303.82 190.02
-9754525.81 5136302.80 183.23
-9754518.55 5136306.86 179.99
-9754513.12 5136309.87 179.03
-9754511.58 5136310.07 188.34
-9754513.22 5136317.20 179.22
-9754498.60 5136310.05 186.94
-9754511.52 5136303.88 181.10
-9754519.60 5136304.09 188.91
-9754497.73 5136302.75 181.74
-9754486.21 5136310.76 190.48
-9754484.99 5136310.25 181.12
-9754478.33 5136310.11 195.20
-9754491.74 5136317.08 186.06
-9754494.60 5136311.51 187.06
-9754483.17 5136316.83 193.78
-9754478.30 5136316.92 195.14
-9754486.80 5136304.13 190.86
-9754485.41 5136303.62 181.21
-9754478.39 5136303.62 195.25
-9754478.47 5136317.73 188.90
-9754467.68 5136310.07 193.57
-9754465.51 5136310.39 181.15
-9754465.21 5136303.60 181.09
-9754472.58 5136316.75 185.39
-9754472.09 5136316.92 194.96
-9754472.58 5136317.59 188.91
-9754458.73 5136310.09 181.17
-9754458.73 5136316.69 184.97
-9754452.24 5136310.37 181.14
-9754439.37 5136310.88 182.30
-9754439.04 5136303.79 181.05
-9754425.76 5136303.68 181.07
-9754425.74 5136316.85 186.06
-9754412.78 5136310.14 181.03
-9754405.94 5136310.05 180.94
-9754392.65 5136316.80 181.04
-9754372.88 5136316.70 181.25
-9754367.32 5136310.38 184.78
-9754359.69 5136303.85 189.61
-9754367.43 5136317.51 184.34
-9754366.39 5136317.06 189.88
-9754356.30 5136315.49 187.96
-9754344.45 5136309.69 187.41
-9754347.42 5136302.72 189.36
-9754333.53 5136310.06 189.97
-9754340.55 5136304.37 183.72
-9754340.94 5136320.53 187.59
-9754326.99 5136303.38 181.43
-9754328.83 5136310.07 189.10
-9754314.02 5136303.15 184.08
-9754313.77 5136310.67 188.18
-9754319.99 5136317.09 183.78
-9754313.39 5136316.88 184.42
-9754317.58 5136312.64 186.85
-9754313.06 5136306.23 187.53
-9754307.59 5136303.39 183.93
-9754307.29 5136310.42 190.06
-9754300.43 5136303.79 196.80
-9754307.00 5136310.04 195.87
-9754300.42 5136310.78 183.32
-9754300.80 5136303.53 181.71
-9754295.53 5136303.52 183.08
-9754294.84 5136310.62 190.83
-9754295.57 5136302.90 190.10
-9754295.48 5136311.13 183.12
-9754300.70 5136317.32 190.06
-9754300.64 5136316.72 183.51
-9754296.00 5136315.57 183.51
-9754287.22 5136303.84 185.87
-9754286.50 5136316.41 185.64
-9754287.70 5136314.46 186.82
-9754287.32 5136303.56 188.86
-9755071.71 5136303.56 175.51
-9755058.76 5136296.98 175.60
-9755045.88 5136290.67 176.43
-9755038.67 5136303.66 176.03
-9755031.95 5136297.09 176.07
-9755025.43 5136303.60 176.03
-9755025.74 5136297.05 175.97
-9755005.99 5136296.90 176.28
-9754998.82 5136296.89 176.57
-9754985.95 5136296.85 176.04
-9754966.24 5136290.20 175.54
-9754939.93 5136303.61 177.56
-9754932.71 5136304.74 178.74
-9754926.49 5136290.37 181.22
-9754931.23 5136291.81 182.41
-9754913.41 5136297.11 179.99
-9754913.46 5136290.58 180.02
-9754912.71 5136305.19 186.93
-9754905.21 5136304.18 187.02
-9754893.78 5136296.79 184.09
-9754893.81 5136290.58 184.20
-9754880.82 5136290.45 184.70
-9754841.94 5136305.20 182.64
-9754834.42 5136297.24 180.70
-9754808.14 5136303.59 180.50
-9754794.69 5136297.21 189.04
-9754788.39 5136290.49 196.96
-9754788.22 5136290.41 181.06
-9754801.11 5136303.54 180.55
-9754794.93 5136303.84 180.71
-9754781.19 5136297.62 196.97
-9754775.20 5136297.12 181.44
-9754761.97 5136290.23 181.49
-9754755.46 5136296.99 181.54
-9754748.64 5136296.95 181.57
-9754742.17 5136290.40 181.48
-9754735.67 5136297.21 181.51
-9754742.12 5136303.44 181.47
-9754728.91 5136297.14 181.50
-9754722.49 5136290.35 181.41
-9754715.34 5136296.92 196.79
-9754715.66 5136297.23 190.77
-9754708.96 5136296.79 190.13
-9754702.54 5136297.07 197.15
-9754702.08 5136295.90 190.20
-9754702.18 5136291.19 190.76
-9754703.15 5136297.23 180.95
-9754712.93 5136302.79 189.68
-9754708.86 5136303.65 190.36
-9754702.38 5136303.62 197.46
-9754702.58 5136303.57 180.99
-9754707.61 5136300.54 199.89
-9754695.98 5136297.12 196.47
-9754695.78 5136290.61 189.68
-9754695.05 5136295.52 184.95
-9754694.19 5136289.98 183.50
-9754695.94 5136296.82 191.40
-9754689.21 5136290.59 190.10
-9754690.15 5136289.47 195.68
-9754695.92 5136302.41 184.86
-9754681.95 5136304.00 181.04
-9754676.16 5136297.08 183.88
-9754675.98 5136290.79 190.11
-9754676.27 5136290.53 183.46
-9754676.24 5136290.32 194.13
-9754676.24 5136296.85 194.14
-9754669.80 5136290.56 194.89
-9754670.08 5136297.02 194.85
-9754676.20 5136303.46 189.91
-9754672.79 5136303.61 181.53
-9754662.79 5136290.13 196.86
-9754663.00 5136296.83 196.64
-9754656.53 5136296.89 196.20
-9754649.67 5136296.98 194.00
-9754649.75 5136290.40 193.99
-9754649.99 5136304.39 196.11
-9754643.18 5136297.12 184.54
-9754645.38 5136297.45 190.72
-9754645.23 5136290.91 190.67
-9754643.42 5136303.06 184.37
-9754645.30 5136303.66 194.17
-9754642.72 5136302.79 188.55
-9754637.00 5136298.04 184.59
-9754636.16 5136303.88 183.16
-9754635.07 5136305.03 187.62
-9754629.97 5136290.51 189.63
-9754629.82 5136297.18 181.32
-9754630.92 5136294.73 188.82
-9754623.48 5136291.29 184.91
-9754623.08 5136296.56 184.21
-9754622.84 5136289.74 187.85
-9754630.46 5136303.36 183.99
-9754623.40 5136303.52 189.93
-9754616.07 5136290.48 183.91
-9754617.15 5136296.97 184.09
-9754603.65 5136296.24 183.90
-9754610.06 5136297.01 181.33
-9754597.22 5136297.59 184.16
-9754602.50 5136290.13 186.82
-9754597.23 5136297.11 190.00
-9754596.25 5136290.77 184.77
-9754596.85 5136290.83 190.14
-9754590.28 5136296.97 189.83
-9754590.41 5136290.44 181.34
-9754583.70 5136290.81 195.24
-9754597.14 5136303.69 189.99
-9754590.61 5136303.64 190.01
-9754583.92 5136303.65 190.00
-9754570.85 5136290.45 190.14
-9754576.62 5136289.91 189.28
-9754570.87 5136297.24 190.11
-9754577.47 5136290.49 183.69
-9754577.78 5136296.79 194.72
-9754577.13 5136289.58 194.96
-9754570.56 5136297.15 181.17
-9754564.58 5136297.13 189.92
-9754564.18 5136290.70 190.28
-9754563.97 5136297.23 183.90
-9754563.88 5136290.74 184.24
-9754577.30 5136303.94 182.58
-9754577.34 5136303.91 189.87
-9754557.32 5136297.01 181.20
-9754559.44 5136291.16 188.50
-9754550.38 5136298.04 189.37
-9754551.22 5136290.44 188.33
-9754544.70 5136297.70 184.01
-9754545.28 5136290.82 184.38
-9754544.51 5136290.65 190.14
-9754538.12 5136296.97 181.20
-9754537.61 5136290.41 181.17
-9754531.73 5136290.57 184.43
-9754530.32 5136290.34 189.39
-9754524.72 5136290.81 190.02
-9754525.29 5136295.57 189.83
-9754524.88 5136296.87 181.13
-9754517.85 5136291.27 184.66
-9754518.17 5136297.04 183.63
-9754520.24 5136290.54 188.19
-9754511.69 5136290.63 184.43
-9754511.32 5136296.78 181.03
-9754513.91 5136294.63 186.68
-9754504.89 5136289.83 184.02
-9754498.35 5136296.99 180.94
-9754491.56 5136296.97 180.94
-9754491.89 5136290.46 180.82
-9754501.07 5136289.04 186.73
-9754489.30 5136290.24 189.95
-9754485.41 5136290.46 180.79
-9754488.64 5136296.90 190.53
-9754467.33 5136290.58 193.64
-9754467.22 5136296.86 193.45
-9754465.30 5136297.17 181.00
-9754452.72 5136290.04 184.05
-9754452.00 5136297.32 181.00
-9754445.55 5136297.01 180.92
-9754448.88 5136289.88 187.61
-9754439.11 5136296.96 180.94
-9754438.85 5136290.48 180.85
-9754432.62 5136290.41 180.89
-9754425.50 5136290.34 180.98
-9754419.06 5136290.32 181.09
-9754412.80 5136296.80 180.95
-9754386.05 5136290.78 188.37
-9754379.47 5136297.18 181.17
-9754382.64 5136289.76 186.68
-9754366.25 5136297.13 181.19
-9754353.24 5136297.13 184.32
-9754346.81 5136290.46 181.34
-9754346.50 5136297.03 181.33
-9754339.98 5136296.97 181.28
-9754340.32 5136290.42 181.30
-9754333.53 5136297.20 181.36
-9754327.02 5136297.22 181.40
-9754320.24 5136297.13 181.48
-9754320.31 5136290.57 181.49
-9754313.32 5136290.68 190.49
-9754313.40 5136297.41 184.43
-9754313.97 5136295.66 190.29
-9754307.10 5136290.68 190.70
-9754307.06 5136296.89 190.00
-9754308.16 5136297.56 181.71
-9754300.90 5136290.67 189.85
-9754300.65 5136296.82 189.94
-9754300.83 5136297.16 184.05
-9754295.02 5136290.78 185.03
-9754300.05 5136297.98 195.23
-9754296.41 5136298.57 191.02
-9754287.61 5136290.49 185.83
-9755078.29 5136290.64 176.61
-9755078.07 5136277.19 176.86
-9755071.48 5136290.59 175.44
-9755058.34 5136277.11 176.61
-9755038.50 5136284.10 175.95
-9754986.06 5136277.27 175.98
-9754939.69 5136283.57 177.41
-9754926.18 5136284.03 181.25
-9754906.77 5136283.67 187.45
-9754887.08 5136277.52 184.58
-9754881.15 5136283.99 184.74
-9754854.23 5136277.40 201.26
-9754854.14 5136278.76 196.79
-9754841.38 5136279.27 189.98
-9754840.72 5136279.08 184.36
-9754834.76 5136279.19 196.87
-9754827.99 5136277.79 201.27
-9754819.64 5136276.51 189.03
-9754815.43 5136277.14 183.70
-9754793.88 5136276.91 189.83
-9754788.24 5136277.15 190.05
-9754774.17 5136288.33 189.65
-9754781.68 5136277.44 195.93
-9754781.31 5136277.39 189.99
-9754774.29 5136277.39 189.01
-9754781.57 5136283.98 196.62
-9754770.68 5136277.99 190.22
-9754747.98 5136277.31 189.71
-9754747.59 5136277.86 194.88
-9754742.08 5136277.23 189.75
-9754742.88 5136278.38 184.73
-9754741.99 5136283.88 183.55
-9754740.55 5136283.60 189.59
-9754734.89 5136283.36 189.00
-9754735.47 5136283.82 183.63
-9754729.08 5136277.39 184.52
-9754735.90 5136271.89 189.40
-9754731.28 5136273.86 186.89
-9754729.97 5136283.82 183.65
-9754731.45 5136283.65 187.53
-9754715.76 5136270.85 183.87
-9754709.44 5136277.30 196.74
-9754709.65 5136269.82 189.56
-9754708.99 5136270.68 181.18
-9754714.48 5136277.77 188.86
-9754702.67 5136277.22 196.74
-9754702.39 5136270.33 196.53
-9754701.62 5136270.79 190.33
-9754708.96 5136283.51 190.97
-9754708.84 5136284.05 197.30
-9754716.04 5136283.63 190.59
-9754709.21 5136284.04 181.26
-9754702.73 5136283.95 180.98
-9754703.07 5136283.46 191.72
-9754702.04 5136283.82 196.47
-9754704.46 5136280.44 200.51
-9754698.05 5136277.37 184.76
-9754695.92 5136270.40 196.14
-9754695.86 5136271.09 183.19
-9754688.38 5136277.23 190.66
-9754695.83 5136283.94 185.77
-9754695.08 5136284.18 190.31
-9754695.53 5136283.59 200.28
-9754689.68 5136283.61 197.40
-9754689.21 5136284.30 190.88
-9754682.72 5136276.85 180.68
-9754682.36 5136283.97 181.55
-9754684.88 5136284.82 188.05
-9754676.01 5136277.17 190.03
-9754669.55 5136277.28 193.98
-9754676.16 5136270.77 194.13
-9754676.21 5136283.76 189.98
-9754676.08 5136283.68 183.24
-9754669.23 5136284.21 196.44
-9754663.47 5136270.69 194.56
-9754662.75 5136283.17 196.84
-9754651.65 5136272.17 196.19
-9754656.52 5136283.98 194.67
-9754648.24 5136284.44 195.51
-9754644.67 5136271.32 194.18
-9754644.77 5136270.78 182.49
-9754644.53 5136283.60 194.25
-9754644.99 5136284.10 190.70
-9754635.89 5136271.37 187.89
-9754636.67 5136284.05 184.73
-9754636.17 5136284.50 187.90
-9754629.81 5136271.30 184.94
-9754624.99 5136270.95 184.30
-9754625.23 5136273.09 186.77
-9754629.94 5136284.06 185.02
-9754616.84 5136283.96 183.92
-9754618.19 5136286.14 187.27
-9754610.52 5136270.77 181.33
-9754603.72 5136277.46 181.27
-9754604.90 5136271.08 182.01
-9754603.27 5136285.70 186.85
-9754590.71 5136283.61 181.34
-9754584.19 5136283.15 190.06
-9754583.90 5136284.14 181.31
-9754596.98 5136270.62 181.35
-9754595.11 5136277.71 182.76
-9754591.56 5136276.78 183.18
-9754588.73 5136271.27 183.90
-9754584.57 5136276.59 184.70
-9754583.23 5136270.97 184.54
-9754590.23 5136277.93 189.77
-9754589.08 5136272.24 190.77
-9754584.50 5136277.66 189.54
-9754597.08 5136283.39 185.33
-9754583.94 5136284.37 195.28
-9754584.68 5136278.90 194.28
-9754576.36 5136283.78 194.49
-9754577.50 5136284.01 189.95
-9754570.82 5136284.19 193.52
-9754577.75 5136283.82 181.30
-9754564.16 5136283.95 190.13
-9754577.27 5136277.10 190.40
-9754577.59 5136277.41 184.64
-9754578.62 5136269.60 183.94
-9754571.00 5136277.03 181.14
-9754570.73 5136270.77 181.13
-9754564.37 5136270.65 189.96
-9754564.55 5136276.98 190.76
-9754564.86 5136270.49 181.58
-9754564.33 5136276.78 184.81
-9754557.63 5136283.72 181.17
-9754549.76 5136283.22 184.86
-9754557.74 5136277.51 181.13
-9754560.28 5136271.61 188.05
-9754551.28 5136270.95 181.25
-9754544.97 5136284.09 183.75
-9754537.63 5136283.89 181.16
-9754548.01 5136277.67 186.67
-9754549.01 5136273.05 186.96
-9754544.55 5136272.98 188.22
-9754544.09 5136277.19 183.66
-9754544.88 5136276.64 188.52
-9754537.98 5136270.85 181.16
-9754530.97 5136277.76 184.18
-9754524.48 5136283.94 189.84
-9754524.65 5136283.82 181.09
-9754517.95 5136284.78 183.65
-9754518.11 5136284.08 190.08
-9754524.68 5136277.27 190.63
-9754524.70 5136270.84 181.12
-9754524.38 5136277.51 185.20
-9754525.04 5136270.77 188.57
-9754510.46 5136284.19 183.91
-9754504.28 5136283.79 184.57
-9754504.13 5136284.85 187.12
-9754498.40 5136283.96 180.80
-9754504.72 5136270.56 184.16
-9754504.94 5136277.49 180.88
-9754483.43 5136283.77 190.03
-9754484.67 5136285.97 194.33
-9754491.93 5136283.94 180.74
-9754492.81 5136269.17 184.94
-9754493.04 5136271.54 188.50
-9754485.21 5136277.45 180.77
-9754481.98 5136276.63 188.90
-9754466.78 5136283.74 190.02
-9754478.58 5136277.29 188.95
-9754482.25 5136270.82 188.47
-9754471.76 5136270.71 188.97
-9754465.16 5136270.75 181.04
-9754465.13 5136277.28 181.01
-9754458.95 5136277.20 180.94
-9754451.81 5136269.31 183.76
-9754440.12 5136277.56 183.67
-9754432.62 5136270.90 184.15
-9754425.60 5136283.84 180.94
-9754425.67 5136270.54 180.95
-9754418.83 5136277.33 181.10
-9754412.36 5136277.25 180.98
-9754405.80 5136285.61 183.02
-9754405.92 5136270.71 181.00
-9754399.09 5136277.48 180.90
-9754393.24 5136277.11 181.19
-9754386.15 5136270.45 183.71
-9754385.61 5136277.75 184.15
-9754372.85 5136283.83 181.20
-9754364.82 5136285.18 183.69
-9754359.79 5136283.88 183.49
-9754371.96 5136275.95 182.81
-9754366.10 5136270.45 181.23
-9754366.71 5136277.19 182.03
-9754359.91 5136270.70 181.24
-9754353.61 5136284.01 181.31
-9754352.77 5136270.15 184.16
-9754353.40 5136277.18 181.29
-9754346.61 5136277.13 181.25
-9754340.11 5136283.93 181.29
-9754333.33 5136283.57 181.36
-9754340.14 5136270.87 181.25
-9754333.67 5136270.84 181.28
-9754333.34 5136277.02 181.35
-9754339.79 5136277.39 181.26
-9754326.88 5136277.35 181.35
-9754319.82 5136270.35 184.00
-9754326.95 5136270.20 188.93
-9754313.93 5136270.59 183.64
-9754320.32 5136277.28 181.34
-9754313.07 5136277.87 188.95
-9754300.73 5136283.86 189.25
-9754307.04 5136283.83 190.10
-9754307.13 5136283.81 181.57
-9754300.66 5136270.62 181.40
-9754307.19 5136277.41 189.19
-9754307.17 5136278.37 184.28
-9754294.11 5136277.10 181.53
-9754288.09 5136270.94 184.19
-9754287.32 5136276.92 184.17
-9754284.99 5136274.91 189.96
-9754281.20 5136276.86 184.75
-9755071.63 5136264.22 175.33
-9755058.59 5136270.57 176.84
-9755058.46 5136264.35 176.90
-9755058.39 5136257.56 176.31
-9755045.74 5136257.88 176.52
-9755025.64 5136264.20 175.92
-9755025.45 5136257.38 175.93
-9754992.60 5136270.52 175.97
-9754973.88 5136257.69 176.57
-9754946.38 5136257.51 176.04
-9754938.61 5136257.09 183.75
-9754900.48 5136257.47 183.90
-9754887.13 5136270.66 184.84
-9754887.20 5136257.58 185.40
-9754867.73 5136263.98 185.83
-9754841.06 5136271.05 201.06
-9754819.55 5136271.29 184.33
-9754819.77 5136258.24 188.49
-9754794.77 5136270.22 190.09
-9754794.74 5136270.85 180.79
-9754788.36 5136270.88 180.96
-9754799.80 5136262.56 187.65
-9754801.20 5136256.93 188.58
-9754794.69 5136257.87 189.34
-9754794.78 5136265.74 196.41
-9754788.15 5136258.30 190.26
-9754789.71 5136257.79 195.53
-9754775.21 5136270.61 196.69
-9754775.81 5136269.91 181.16
-9754781.70 5136264.14 196.60
-9754782.18 5136263.78 184.64
-9754775.06 5136264.11 196.28
-9754775.22 5136257.62 190.12
-9754770.52 5136271.24 194.37
-9754770.67 5136269.58 189.13
-9754761.79 5136271.00 181.26
-9754755.58 5136270.67 181.23
-9754768.57 5136264.51 181.12
-9754761.58 5136257.68 180.92
-9754755.03 5136264.18 181.10
-9754755.09 5136257.65 180.96
-9754749.06 5136271.39 184.14
-9754741.43 5136271.44 183.77
-9754741.91 5136271.45 193.58
-9754742.08 5136264.36 181.08
-9754735.58 5136264.05 181.08
-9754722.33 5136264.28 181.06
-9754713.52 5136270.24 189.86
-9754712.89 5136269.68 195.42
-9754707.46 5136269.96 200.16
-9754710.52 5136263.89 185.21
-9754708.89 5136264.03 190.02
-9754708.92 5136259.65 189.50
-9754712.91 5136260.69 188.10
-9754704.67 5136264.29 191.47
-9754702.59 5136257.31 180.90
-9754696.50 5136265.20 190.75
-9754698.60 5136263.75 194.77
-9754690.53 5136264.56 190.02
-9754690.28 5136265.89 193.41
-9754702.36 5136260.80 194.65
-9754682.49 5136264.04 180.70
-9754675.77 5136263.86 183.85
-9754675.86 5136264.18 190.05
-9754669.64 5136263.92 194.05
-9754681.02 5136259.17 182.33
-9754675.85 5136257.64 188.68
-9754664.27 5136257.64 184.24
-9754655.80 5136257.62 188.89
-9754649.58 5136256.88 185.13
-9754637.10 5136257.40 184.82
-9754636.51 5136257.77 189.70
-9754629.86 5136264.16 183.72
-9754629.77 5136256.72 185.32
-9754629.87 5136257.67 189.81
-9754623.58 5136257.76 181.07
-9754617.09 5136257.44 181.09
-9754610.37 5136257.95 184.66
-9754603.62 5136257.49 190.35
-9754614.15 5136257.22 189.18
-9754606.04 5136256.14 193.61
-9754608.92 5136256.80 193.56
-9754613.93 5136261.15 188.83
-9754597.31 5136264.12 181.21
-9754583.18 5136264.75 184.11
-9754595.65 5136257.81 188.98
-9754589.98 5136256.75 184.97
-9754590.63 5136257.69 190.23
-9754585.31 5136262.91 187.16
-9754583.84 5136257.12 184.20
-9754584.14 5136257.39 189.52
-9754577.86 5136264.48 184.50
-9754577.62 5136271.68 193.81
-9754576.89 5136265.37 188.62
-9754577.41 5136257.28 190.06
-9754577.68 5136258.18 184.81
-9754570.81 5136257.77 181.12
-9754563.34 5136262.77 183.89
-9754567.33 5136266.57 187.85
-9754557.20 5136264.18 181.12
-9754551.00 5136264.14 181.24
-9754564.29 5136257.69 181.05
-9754559.28 5136262.84 190.28
-9754551.06 5136257.60 181.26
-9754538.00 5136264.09 181.19
-9754530.98 5136264.01 181.22
-9754524.75 5136264.00 181.12
-9754524.79 5136257.74 181.09
-9754531.58 5136261.02 186.69
-9754509.98 5136264.42 184.66
-9754485.05 5136257.53 181.07
-9754472.90 5136264.09 189.98
-9754468.01 5136263.55 188.92
-9754472.66 5136257.32 189.98
-9754451.44 5136258.09 183.58
-9754445.75 5136257.35 184.24
-9754432.51 5136264.02 180.96
-9754432.48 5136263.01 190.14
-9754440.29 5136257.44 184.07
-9754426.13 5136263.30 189.29
-9754427.89 5136268.02 187.56
-9754412.43 5136263.91 181.14
-9754427.13 5136256.22 183.77
