-9754280.87 5135011.52 181.37
-9754280.71 5134998.74 181.53
-9754267.72 5134998.97 181.41
-9754252.08 5135011.70 195.85
-9754241.16 5135011.97 196.66
-9754251.76 5135002.02 193.58
-9754242.78 5134999.97 194.93
-9754287.55 5134985.77 181.93
-9754287.51 5134992.27 181.86
-9754274.02 5134985.67 181.63
-9754267.75 5134992.18 181.47
-9754267.98 5134985.59 188.50
-9754254.49 5134985.69 185.15
-9754248.14 5134991.66 196.20
-9754241.28 5134985.76 182.05
-9754241.15 5134992.48 196.26
-9754242.06 5134987.67 200.12
-9754261.44 5134965.78 181.69
-9754248.09 5134979.62 183.83
-9754242.64 5134980.52 195.70
-9754287.72 5135301.99 181.74
-9754287.44 5134958.73 189.60
-9754286.28 5135578.23 188.50
-9754287.15 5135433.45 192.28
-9754287.24 5135341.56 190.19
-9754287.27 5135235.94 181.63
-9754287.29 5135222.87 182.51
-9754287.28 5135189.97 190.21
-9754267.79 5134959.35 192.41
-9754373.25 5134958.81 184.12
-9754439.24 5134959.45 181.50
-9754326.92 5134959.38 181.32
-9754320.44 5134959.02 181.30
-9754292.55 5134958.02 189.65
-9754564.28 5134952.46 181.57
-9754564.25 5134959.25 181.47
-9754557.51 5134952.99 181.61
-9754552.04 5134943.79 186.99
-9754551.11 5134933.14 181.59
-9754544.26 5134946.11 181.51
-9754544.74 5134932.30 190.29
-9754544.17 5134932.23 184.37
-9754544.54 5134959.36 190.09
-9754539.12 5134932.07 190.88
-9754537.78 5134952.63 181.50
-9754538.02 5134959.11 181.49
-9754518.10 5134939.45 181.32
-9754517.60 5134953.63 187.71
-9754517.67 5134959.31 181.46
-9754511.33 5134932.90 181.51
-9754504.82 5134945.85 181.66
-9754498.35 5134932.85 181.44
-9754491.82 5134939.61 181.55
-9754491.84 5134946.41 181.82
-9754512.46 5134953.14 187.57
-9754511.48 5134952.72 181.55
-9754511.77 5134959.27 181.53
-9754513.45 5134956.88 187.30
-9754491.69 5134959.42 181.75
-9754471.82 5134939.75 181.88
-9754465.27 5134945.92 181.72
-9754478.50 5134952.83 181.94
-9754471.70 5134959.32 182.12
-9754458.27 5134946.19 187.99
-9754452.93 5134939.77 189.11
-9754458.19 5134939.72 188.01
-9754451.98 5134939.38 181.39
-9754458.07 5134932.92 188.01
-9754452.02 5134946.50 181.41
-9754453.02 5134946.02 189.12
-9754451.71 5134932.16 182.83
-9754445.56 5134939.31 181.36
-9754458.45 5134959.29 187.98
-9754424.83 5134946.05 182.63
-9754432.22 5134952.85 181.51
-9754425.32 5134939.30 189.71
-9754414.12 5134939.60 183.23
-9754399.62 5134934.84 182.91
-9754409.64 5134946.56 193.28
-9754405.85 5134947.14 193.58
-9754401.17 5134948.20 195.17
-9754399.74 5134954.05 190.22
-9754406.21 5134953.79 183.04
-9754399.58 5134959.34 190.55
-9754393.23 5134935.00 183.55
-9754386.31 5134939.84 181.62
-9754393.13 5134939.65 182.48
-9754392.91 5134932.96 190.92
-9754385.70 5134935.10 183.06
-9754386.24 5134954.41 189.81
-9754393.11 5134951.72 194.15
-9754392.86 5134947.04 193.42
-9754386.05 5134952.00 194.13
-9754386.60 5134959.49 192.97
-9754392.16 5134956.22 193.28
-9754379.97 5134932.81 190.50
-9754379.80 5134946.61 183.47
-9754380.19 5134946.58 189.74
-9754366.26 5134946.06 183.42
-9754379.79 5134952.67 190.02
-9754373.11 5134959.37 190.07
-9754361.30 5134939.90 182.12
-9754346.78 5134939.36 181.22
-9754353.27 5134939.38 181.37
-9754345.66 5134945.75 189.19
-9754333.48 5134946.04 182.37
-9754345.53 5134951.84 189.22
-9754341.27 5134953.21 183.50
-9754319.49 5134932.50 184.41
-9754326.90 5134946.63 189.28
-9754320.19 5134946.20 182.97
-9754326.18 5134932.88 187.70
-9754327.33 5134942.81 187.88
-9754313.46 5134939.47 181.19
-9754327.06 5134953.05 189.74
-9754314.36 5134946.85 187.59
-9754306.98 5134939.45 181.17
-9754300.24 5134933.13 181.34
-9754306.61 5134951.48 187.85
-9754299.91 5134946.83 188.97
-9754299.87 5134952.51 188.77
-9754293.14 5134946.49 184.79
-9754293.63 5134946.39 189.56
-9754292.01 5134941.50 189.59
-9754293.67 5134952.88 189.93
-9754554.38 5134940.83 186.89
-9754544.40 5134926.25 181.55
-9754531.10 5134926.46 181.59
-9754537.66 5134920.07 181.48
-9754517.95 5134906.58 181.26
-9754521.46 5134917.86 188.27
-9754521.90 5134911.88 187.83
-9754504.87 5134926.33 181.49
-9754491.63 5134926.54 181.39
-9754512.19 5134913.05 189.69
-9754511.62 5134918.92 184.92
-9754505.05 5134906.50 181.54
-9754498.50 5134913.02 181.54
-9754498.25 5134906.80 181.56
-9754485.22 5134913.21 181.49
-9754478.47 5134906.63 181.56
-9754465.43 5134913.09 181.37
-9754457.84 5134926.25 188.03
-9754452.46 5134926.34 181.34
-9754445.38 5134926.68 188.02
-9754457.79 5134920.13 188.02
-9754451.83 5134919.87 181.35
-9754451.68 5134912.18 182.11
-9754452.32 5134906.53 189.16
-9754445.45 5134919.78 181.31
-9754445.21 5134913.26 187.97
-9754444.94 5134906.99 188.02
-9754445.44 5134906.55 181.22
-9754438.55 5134919.75 181.57
-9754425.52 5134926.12 183.22
-9754419.12 5134926.27 185.27
-9754432.12 5134919.42 181.49
-9754425.38 5134906.45 189.42
-9754425.48 5134912.79 190.87
-9754424.29 5134919.26 189.67
-9754429.22 5134925.72 190.75
-9754419.25 5134919.79 188.99
-9754419.26 5134913.28 190.07
-9754412.64 5134913.64 189.59
-9754419.40 5134905.65 183.54
-9754412.67 5134919.86 181.76
-9754419.75 5134919.24 182.92
-9754412.33 5134912.99 184.82
-9754421.35 5134924.22 187.68
-9754386.43 5134926.36 191.22
-9754405.71 5134913.17 183.58
-9754405.98 5134912.99 189.25
-9754405.85 5134907.95 189.26
-9754405.30 5134920.28 183.38
-9754397.98 5134914.55 188.81
-9754404.14 5134921.80 186.84
-9754386.50 5134913.07 183.54
-9754394.48 5134914.15 188.43
-9754389.28 5134913.77 188.12
-9754386.21 5134906.59 183.54
-9754385.94 5134921.15 189.24
-9754373.86 5134925.50 182.69
-9754379.67 5134926.47 190.51
-9754360.30 5134926.41 189.22
-9754359.87 5134926.25 181.26
-9754379.27 5134913.33 189.52
-9754379.17 5134906.54 189.64
-9754373.14 5134919.81 189.97
-9754372.98 5134906.59 189.87
-9754373.37 5134920.65 194.68
-9754367.28 5134913.06 184.41
-9754367.32 5134920.88 190.52
-9754378.52 5134920.11 194.47
-9754359.58 5134919.60 181.25
-9754346.93 5134920.10 181.27
-9754345.33 5134913.63 188.15
-9754345.51 5134908.78 188.85
-9754339.49 5134907.34 189.65
-9754340.75 5134913.81 183.90
-9754340.11 5134920.05 181.34
-9754320.31 5134925.81 183.55
-9754327.25 5134926.91 184.52
-9754320.36 5134926.41 190.25
-9754314.24 5134926.36 183.32
-9754320.33 5134913.23 199.08
-9754326.85 5134906.68 199.19
-9754327.06 5134911.92 200.43
-9754319.69 5134911.68 200.26
-9754314.77 5134906.47 196.82
-9754326.47 5134924.98 200.22
-9754307.15 5134926.26 189.84
-9754300.71 5134926.47 196.40
-9754300.34 5134926.44 183.20
-9754294.03 5134926.46 196.80
-9754294.00 5134926.49 189.96
-9754309.37 5134920.21 200.55
-9754302.27 5134921.23 200.32
-9754294.34 5134906.60 190.51
-9754293.31 5134921.26 200.33
-9754516.86 5134899.00 182.99
-9754504.75 5134900.02 181.48
-9754472.06 5134893.59 181.43
-9754485.09 5134886.86 181.30
-9754485.11 5134880.39 181.39
-9754478.61 5134886.85 181.33
-9754465.10 5134880.51 181.36
-9754452.26 5134899.73 181.30
-9754457.44 5134900.32 188.07
-9754452.17 5134899.99 189.19
-9754444.91 5134899.59 188.05
-9754457.35 5134886.66 188.09
-9754452.13 5134886.69 181.22
-9754452.11 5134887.09 189.19
-9754452.09 5134880.17 181.30
-9754445.66 5134880.45 187.94
-9754411.93 5134900.12 183.64
-9754411.98 5134899.44 195.21
-9754412.23 5134893.62 183.45
-9754432.38 5134880.30 181.24
-9754437.49 5134892.04 190.56
-9754425.61 5134880.26 181.30
-9754419.09 5134880.57 181.32
-9754425.70 5134889.40 190.55
-9754418.69 5134880.09 194.55
-9754406.14 5134899.76 183.84
-9754406.94 5134894.81 184.27
-9754412.87 5134903.37 193.51
-9754386.27 5134893.44 190.25
-9754399.32 5134880.51 181.22
-9754399.68 5134880.87 190.06
-9754391.31 5134886.51 190.09
-9754386.22 5134880.20 189.67
-9754379.64 5134900.75 183.12
-9754379.63 5134893.15 189.98
-9754366.52 5134893.29 181.35
-9754379.67 5134880.41 190.13
-9754379.61 5134887.32 190.47
-9754373.10 5134887.09 181.21
-9754375.83 5134887.28 190.08
-9754366.27 5134886.77 181.33
-9754353.22 5134899.97 181.41
-9754345.97 5134898.90 184.94
-9754346.81 5134886.89 181.36
-9754353.32 5134880.17 181.44
-9754340.08 5134886.63 181.25
-9754340.37 5134880.08 181.27
-9754332.80 5134892.06 200.49
-9754326.86 5134900.18 199.20
-9754320.39 5134900.15 199.03
-9754326.93 5134893.34 199.21
-9754313.49 5134900.21 189.33
-9754313.96 5134893.56 199.08
-9754312.59 5134899.13 200.06
-9754332.84 5134886.39 199.94
-9754320.17 5134886.82 199.28
-9754326.63 5134890.37 200.39
-9754313.69 5134886.75 199.25
-9754312.79 5134885.86 200.07
-9754307.36 5134901.17 196.86
-9754307.60 5134900.28 189.24
-9754307.49 5134893.55 199.08
-9754300.96 5134901.07 196.45
-9754294.09 5134900.40 189.40
-9754300.73 5134887.00 199.25
-9754300.83 5134891.07 200.31
-9754471.95 5134867.25 181.56
-9754465.12 5134873.69 181.45
-9754457.03 5134867.16 188.23
-9754439.19 5134867.03 183.55
-9754452.21 5134873.86 189.26
-9754439.03 5134873.58 195.30
-9754456.93 5134860.31 188.36
-9754445.85 5134860.21 188.16
-9754432.42 5134867.26 183.22
-9754432.50 5134867.22 190.10
-9754432.40 5134873.28 181.41
-9754434.54 5134873.13 195.63
-9754425.91 5134873.24 181.34
-9754419.52 5134867.32 184.58
-9754412.43 5134867.00 184.52
-9754419.80 5134873.73 194.93
-9754420.41 5134868.09 190.77
-9754409.95 5134879.21 191.01
-9754432.15 5134860.75 183.90
-9754432.30 5134860.38 189.76
-9754426.63 5134854.05 182.91
-9754419.53 5134860.29 184.40
-9754399.11 5134873.33 181.55
-9754404.50 5134869.92 193.19
-9754392.72 5134866.99 189.35
-9754386.19 5134866.95 189.54
-9754386.72 5134869.76 195.22
-9754386.84 5134873.46 196.15
-9754392.66 5134870.10 183.72
-9754385.79 5134870.09 181.69
-9754372.95 5134859.98 190.16
-9754372.75 5134860.16 182.39
-9754373.87 5134866.57 188.92
-9754380.44 5134875.31 194.46
-9754372.34 5134866.54 193.76
-9754366.44 5134867.43 195.70
-9754360.09 5134867.03 189.92
-9754361.81 5134866.90 194.58
-9754359.81 5134873.68 181.31
-9754379.76 5134855.05 183.43
-9754379.79 5134853.84 189.73
-9754373.04 5134853.92 182.71
-9754369.85 5134861.29 194.16
-9754366.80 5134853.86 181.26
-9754360.44 5134861.93 194.16
-9754338.38 5134861.30 182.69
-9754339.40 5134861.05 196.21
-9754353.14 5134867.13 181.38
-9754346.81 5134866.90 189.80
-9754346.89 5134873.94 181.36
-9754346.71 5134873.66 189.88
-9754339.68 5134866.91 189.88
-9754340.53 5134867.66 194.71
-9754339.36 5134871.82 193.55
-9754344.81 5134868.56 193.55
-9754359.70 5134853.90 181.18
-9754338.99 5134853.64 184.39
-9754333.70 5134872.12 193.78
-9754333.68 5134873.59 181.32
-9754333.38 5134867.33 181.31
-9754313.72 5134860.59 188.99
-9754327.02 5134867.05 190.10
-9754320.45 5134867.15 188.96
-9754324.20 5134870.69 189.31
-9754313.60 5134874.04 185.77
-9754333.82 5134854.11 189.81
-9754335.74 5134855.52 193.79
-9754326.13 5134852.90 190.04
-9754313.72 5134853.41 189.89
-9754307.28 5134860.61 188.98
-9754307.44 5134874.02 185.82
-9754306.97 5134873.21 188.89
-9754456.70 5134846.88 188.39
-9754451.84 5134847.01 189.53
-9754445.31 5134840.43 181.43
-9754452.38 5134840.77 181.51
-9754431.40 5134847.54 183.79
-9754431.81 5134840.53 183.42
-9754425.55 5134847.45 189.10
-9754425.53 5134840.91 189.38
-9754419.36 5134847.30 190.40
-9754419.15 5134840.97 190.48
-9754420.00 5134846.73 182.14
-9754399.58 5134841.04 181.79
-9754407.74 5134841.33 188.67
-9754393.11 5134847.40 189.72
-9754386.36 5134847.39 189.81
-9754386.64 5134840.64 181.67
-9754396.37 5134853.34 189.26
-9754372.87 5134847.39 183.23
-9754373.40 5134847.31 190.02
-9754366.28 5134840.84 181.42
-9754359.73 5134847.32 181.16
-9754353.27 5134847.63 181.36
-9754353.53 5134840.77 181.34
-9754339.77 5134849.21 188.92
-9754331.75 5134840.94 194.19
-9754319.72 5134840.85 195.43
-9754327.47 5134840.57 190.34
-9754327.36 5134840.17 182.64
-9754320.28 5134840.70 183.37
-9754320.31 5134840.76 189.95
-9754327.60 5134847.19 184.59
-9754313.55 5134840.80 189.93
-9754313.65 5134840.49 194.58
-9754307.18 5134840.01 194.66
-9754307.43 5134840.02 183.55
-9754307.05 5134840.06 189.48
-9754294.00 5134847.19 181.81
-9754296.50 5134839.91 194.04
-9754452.23 5134959.50 181.46
-9754412.42 5134959.53 181.72
-9754380.53 5134959.32 194.88
-9754366.77 5134958.70 193.38
-9754346.66 5134959.22 181.16
-9755018.96 5135664.53 176.28
-9755009.18 5135677.00 189.59
-9754985.94 5135664.30 176.21
-9754966.17 5135677.54 182.50
-9754933.41 5135677.68 181.56
-9754939.96 5135671.37 184.29
-9754939.68 5135664.59 176.72
-9754933.47 5135671.08 177.37
-9754926.36 5135671.60 183.85
-9754939.90 5135677.72 181.75
-9754900.41 5135677.86 180.30
-9754887.21 5135670.79 182.97
-9754892.79 5135664.71 181.33
-9754890.63 5135679.93 186.67
-9754886.28 5135677.72 186.86
-9754886.95 5135664.07 189.81
-9754880.99 5135670.99 184.59
-9754881.39 5135677.53 189.35
-9754883.72 5135663.38 187.55
-9754867.38 5135677.91 187.91
-9754860.96 5135677.91 186.01
-9754848.25 5135677.63 183.19
-9754873.69 5135657.64 185.11
-9754848.37 5135671.03 183.95
-9754855.68 5135673.63 186.70
-9754848.17 5135657.97 183.20
-9754834.65 5135677.17 180.93
-9754827.58 5135677.36 180.91
-9754834.38 5135671.16 181.48
-9754801.66 5135677.82 180.69
-9754808.24 5135658.05 180.57
-9754801.73 5135671.04 180.64
-9754788.03 5135677.76 180.85
-9754775.08 5135677.66 180.97
-9754766.77 5135678.80 183.77
-9754788.44 5135664.41 180.89
-9754788.18 5135657.62 180.94
-9754781.66 5135670.90 180.94
-9754768.41 5135664.33 181.12
-9754742.11 5135677.76 180.99
-9754755.37 5135671.08 181.08
-9754748.57 5135670.98 181.10
-9754735.61 5135670.94 181.08
-9754741.88 5135657.91 181.31
-9754722.04 5135671.10 181.02
-9754728.93 5135657.83 181.35
-9754722.43 5135657.78 181.28
-9754709.16 5135664.24 181.09
-9754709.12 5135671.07 180.98
-9754709.17 5135657.73 181.18
-9754689.37 5135670.98 180.73
-9754669.73 5135677.92 189.51
-9754663.37 5135678.13 189.44
-9754655.55 5135678.78 191.66
-9754673.67 5135676.82 193.30
-9754663.02 5135657.95 195.79
-9754656.55 5135657.89 195.76
-9754643.14 5135677.65 195.91
-9754642.76 5135678.31 184.73
-9754642.62 5135678.48 191.27
-9754636.57 5135677.95 196.58
-9754637.52 5135678.59 189.48
-9754629.95 5135678.12 196.59
-9754629.09 5135678.78 189.59
-9754629.97 5135678.59 181.14
-9754649.95 5135664.37 196.46
-9754643.23 5135664.35 195.90
-9754630.27 5135657.79 195.79
-9754616.10 5135678.01 189.67
-9754603.45 5135679.20 184.91
-9754623.43 5135671.09 195.86
-9754623.55 5135657.72 195.86
-9754616.93 5135664.58 190.23
-9754609.59 5135658.03 196.63
-9754588.11 5135679.51 190.61
-9754590.41 5135679.32 181.42
-9754584.56 5135679.50 190.13
-9754578.09 5135679.91 184.42
-9754577.49 5135671.39 201.63
-9754577.23 5135657.96 196.72
-9754550.77 5135677.78 181.24
-9754563.76 5135671.12 190.14
-9754557.27 5135663.60 182.44
-9754563.93 5135666.93 199.89
-9754563.81 5135671.17 196.87
-9754563.97 5135658.02 189.82
-9754563.52 5135659.16 183.29
-9754557.66 5135657.11 182.70
-9754551.06 5135671.02 181.23
-9754551.13 5135664.23 181.25
-9754559.79 5135661.08 186.70
-9754518.04 5135677.33 181.30
-9754544.37 5135657.91 181.51
-9754538.10 5135670.94 181.34
-9754537.90 5135657.61 181.36
-9754524.60 5135657.80 181.34
-9754517.24 5135670.38 182.48
-9754511.55 5135677.57 181.41
-9754495.99 5135680.78 187.91
-9754498.35 5135664.50 181.04
-9754491.88 5135664.49 181.01
-9754472.15 5135677.68 189.08
-9754483.66 5135672.78 188.07
-9754465.32 5135670.85 181.37
-9754472.20 5135671.32 189.41
-9754452.11 5135676.55 183.54
-9754450.38 5135672.19 183.66
-9754452.36 5135670.84 189.61
-9754458.95 5135670.94 189.12
-9754458.90 5135664.52 181.28
-9754445.63 5135664.51 180.77
-9754439.06 5135670.96 180.73
-9754412.79 5135677.93 180.81
-9754432.32 5135664.42 180.70
-9754432.25 5135670.94 180.73
-9754425.96 5135658.35 181.98
-9754419.31 5135664.31 180.67
-9754412.59 5135664.60 180.71
-9754412.80 5135671.11 180.75
-9754406.00 5135678.20 180.88
-9754392.77 5135677.32 182.49
-9754371.76 5135677.94 181.81
-9754366.61 5135657.80 180.80
-9754360.60 5135672.26 181.80
-9754346.79 5135664.54 180.67
-9754340.01 5135664.76 180.68
-9754333.91 5135663.94 182.35
-9754332.90 5135659.13 182.19
-9754327.13 5135677.59 190.14
-9754306.41 5135679.09 186.68
-9754320.50 5135670.86 180.83
-9754327.42 5135658.36 182.82
-9754307.01 5135664.59 180.88
-9754300.53 5135664.22 181.13
-9754292.64 5135666.18 182.97
-9754992.53 5135644.76 176.95
-9754992.29 5135637.97 176.94
-9754966.35 5135638.16 176.18
-9754959.85 5135638.12 175.98
-9754928.59 5135650.05 211.75
-9754927.96 5135647.66 202.75
-9754933.32 5135638.23 177.14
-9754926.57 5135638.60 181.09
-9754906.99 5135651.00 180.31
-9754914.16 5135637.87 181.53
-9754919.85 5135631.29 183.53
-9754888.40 5135643.23 188.13
-9754893.76 5135645.81 183.65
-9754887.31 5135651.26 183.72
-9754873.74 5135651.37 185.13
-9754880.55 5135651.15 185.25
-9754883.77 5135660.20 188.54
-9754899.66 5135631.15 189.43
-9754893.64 5135631.75 189.58
-9754873.85 5135638.39 185.23
-9754881.57 5135631.31 185.19
-9754874.19 5135631.52 185.16
-9754867.59 5135651.32 185.17
-9754853.10 5135644.69 185.79
-9754847.67 5135644.86 183.44
-9754849.18 5135649.68 186.76
-9754828.08 5135644.83 180.77
-9754813.71 5135643.14 183.58
-9754813.03 5135651.84 186.68
-9754794.82 5135644.53 183.28
-9754795.10 5135638.10 180.83
-9754788.25 5135651.39 180.96
-9754768.50 5135644.45 181.42
-9754775.25 5135651.03 181.17
-9754768.56 5135637.93 181.48
-9754762.05 5135644.40 181.47
-9754761.70 5135650.94 181.36
-9754748.76 5135644.61 181.51
-9754748.80 5135638.11 181.64
-9754735.54 5135644.81 181.64
-9754735.75 5135651.06 181.45
-9754742.05 5135631.55 181.69
-9754735.64 5135631.37 183.29
-9754722.20 5135644.75 181.43
-9754722.22 5135651.29 181.39
-9754709.23 5135651.51 181.27
-9754716.09 5135631.42 181.52
-9754709.06 5135631.94 181.38
-9754702.79 5135644.94 181.13
-9754683.04 5135638.05 180.88
-9754676.27 5135638.27 180.95
-9754675.80 5135647.24 187.16
-9754669.25 5135644.96 182.73
-9754669.98 5135651.42 185.44
-9754663.16 5135638.07 190.65
-9754663.96 5135651.88 196.87
-9754656.43 5135646.48 182.26
-9754675.07 5135631.52 189.25
-9754651.47 5135645.51 182.10
-9754652.40 5135644.36 189.91
-9754650.95 5135639.02 182.18
-9754641.46 5135640.99 187.62
-9754635.92 5135644.29 184.11
-9754636.38 5135639.67 184.64
-9754652.09 5135631.20 183.76
-9754643.28 5135631.87 180.91
-9754626.54 5135643.21 186.97
-9754616.70 5135638.24 181.03
-9754616.73 5135653.61 183.12
-9754610.31 5135644.83 184.38
-9754610.22 5135644.37 188.27
-9754603.72 5135644.72 187.50
-9754623.55 5135631.81 180.96
-9754604.13 5135631.41 184.10
-9754597.24 5135644.66 181.16
-9754599.78 5135641.19 187.59
-9754577.39 5135638.05 196.69
-9754570.90 5135638.11 196.20
-9754564.10 5135638.71 196.12
-9754563.19 5135639.00 183.44
-9754563.36 5135638.54 189.09
-9754563.48 5135650.92 182.17
-9754557.75 5135644.65 182.59
-9754557.18 5135637.61 182.40
-9754558.64 5135652.82 190.35
-9754557.54 5135631.68 181.12
-9754544.42 5135651.44 181.52
-9754530.92 5135644.80 181.25
-9754537.75 5135638.02 181.35
-9754531.52 5135638.03 181.26
-9754524.87 5135639.15 183.47
-9754537.93 5135651.10 181.36
-9754524.76 5135645.34 187.35
-9754518.39 5135651.35 182.50
-9754524.26 5135631.00 183.97
-9754538.03 5135631.28 181.35
-9754529.06 5135630.88 187.31
-9754511.53 5135651.37 182.09
-9754498.42 5135651.17 180.98
-9754491.93 5135651.12 180.89
-9754494.17 5135645.30 197.31
-9754491.48 5135631.59 181.06
-9754485.24 5135638.12 181.03
-9754478.43 5135638.03 181.09
-9754471.98 5135644.98 189.13
-9754471.91 5135637.88 189.04
-9754471.50 5135645.54 183.43
-9754465.43 5135651.16 188.75
-9754485.00 5135631.83 181.12
-9754458.75 5135638.15 189.03
-9754451.52 5135638.41 182.33
-9754458.62 5135651.20 181.16
-9754452.16 5135651.09 182.27
-9754445.64 5135651.47 180.78
-9754438.87 5135644.61 180.79
-9754459.00 5135631.98 181.06
-9754452.20 5135631.95 180.96
-9754432.63 5135649.84 181.66
-9754426.25 5135638.18 182.56
-9754425.90 5135651.06 180.69
-9754419.47 5135638.00 180.75
-9754432.66 5135631.26 183.49
-9754425.85 5135631.31 183.47
-9754410.26 5135632.51 183.03
-9754406.88 5135643.12 181.38
-9754392.91 5135644.64 180.72
-9754386.23 5135638.08 180.80
-9754386.04 5135643.01 182.43
-9754399.57 5135649.85 182.40
-9754392.85 5135651.18 180.71
-9754385.72 5135652.19 181.76
-9754392.69 5135631.31 180.85
-9754385.96 5135632.03 184.00
-9754366.66 5135651.33 180.77
-9754366.49 5135631.50 180.85
-9754358.79 5135632.23 184.58
-9754353.13 5135644.68 180.71
-9754346.70 5135637.84 180.73
-9754346.61 5135644.95 180.64
-9754347.17 5135651.20 180.65
-9754340.22 5135631.60 180.81
-9754333.74 5135631.59 180.83
-9754327.23 5135638.03 180.85
-9754320.10 5135638.00 180.75
-9754320.37 5135644.51 180.71
-9754327.53 5135650.96 183.04
-9754306.90 5135631.74 180.88
-9754293.89 5135638.15 180.99
-9754300.61 5135651.14 181.07
-9754300.97 5135631.68 180.92
-9755005.85 5135625.01 176.89
-9754986.15 5135624.97 176.25
-9755005.67 5135618.25 176.83
-9754986.22 5135611.60 176.30
-9754985.90 5135618.43 176.28
-9754979.20 5135605.06 176.43
-9754966.41 5135624.85 176.23
-9754959.33 5135624.81 176.04
-9754966.19 5135618.04 176.25
-9754946.64 5135624.72 176.14
-9754926.45 5135623.89 183.35
-9754946.13 5135618.23 176.16
-9754939.91 5135618.17 176.06
-9754933.46 5135618.38 176.85
-9754926.48 5135611.77 178.24
-9754920.15 5135624.85 183.24
-9754906.87 5135624.81 180.38
-9754926.40 5135609.71 183.46
-9754920.06 5135611.70 183.23
-9754898.39 5135620.29 188.33
-9754898.66 5135606.62 184.56
-9754893.66 5135624.83 189.81
-9754888.24 5135624.94 188.37
-9754899.10 5135611.79 188.29
-9754893.54 5135618.25 183.50
-9754895.12 5135606.43 183.72
-9754886.98 5135605.05 183.18
-9754873.69 5135618.26 185.29
-9754847.65 5135624.91 183.44
-9754867.49 5135618.18 185.21
-9754854.01 5135605.31 185.96
-9754840.87 5135625.01 181.58
-9754827.92 5135624.71 181.30
-9754827.98 5135611.64 181.42
-9754807.84 5135624.90 180.67
-9754801.35 5135625.13 180.67
-9754794.26 5135625.01 186.90
-9754813.08 5135617.48 186.85
-9754799.71 5135610.95 184.55
-9754795.58 5135606.55 184.09
-9754795.89 5135608.35 186.86
-9754796.86 5135618.85 186.97
-9754781.57 5135624.98 181.33
-9754787.94 5135604.89 181.03
-9754781.46 5135605.11 181.30
-9754768.44 5135611.54 181.50
-9754735.33 5135624.99 181.71
-9754755.22 5135605.27 181.62
-9754748.70 5135611.72 181.68
-9754748.73 5135604.93 181.76
-9754741.88 5135611.99 181.74
-9754735.45 5135605.15 181.80
-9754722.39 5135624.94 181.57
-9754709.15 5135618.04 181.31
-9754728.93 5135611.64 181.62
-9754722.15 5135605.07 181.59
-9754715.72 5135605.07 181.52
-9754709.17 5135605.02 181.39
-9754690.89 5135626.11 184.93
-9754682.82 5135624.45 180.93
-9754689.43 5135605.24 180.95
-9754682.93 5135605.18 181.01
-9754679.66 5135630.81 187.80
-9754668.07 5135624.62 190.15
-9754669.85 5135618.43 181.16
-9754662.56 5135625.75 194.35
-9754656.38 5135617.84 189.54
-9754675.87 5135611.69 189.12
-9754679.60 5135613.55 187.00
-9754669.14 5135605.60 182.22
-9754666.84 5135604.92 190.77
-9754663.03 5135604.91 190.71
-9754662.95 5135611.82 193.87
-9754656.74 5135613.59 194.50
-9754656.56 5135605.31 193.62
-9754657.45 5135617.54 183.12
-9754649.86 5135618.55 181.06
-9754643.35 5135625.10 180.94
-9754640.42 5135629.27 188.96
-9754629.81 5135626.07 188.78
-9754655.55 5135605.11 181.08
-9754649.94 5135605.28 181.03
-9754653.07 5135611.49 189.92
-9754643.19 5135605.23 180.92
-9754636.82 5135605.37 188.99
-9754630.56 5135604.99 189.49
-9754623.60 5135618.14 181.01
-9754623.57 5135624.97 180.98
-9754605.37 5135624.19 188.24
-9754608.85 5135625.07 188.69
-9754604.26 5135617.99 183.85
-9754615.22 5135605.69 182.09
-9754616.90 5135611.58 181.01
-9754626.22 5135605.19 186.74
-9754610.84 5135605.66 182.45
-9754608.06 5135610.20 188.42
-9754604.33 5135611.23 184.44
-9754608.73 5135617.42 187.62
-9754597.05 5135624.83 181.13
-9754597.76 5135605.22 181.69
-9754588.70 5135612.45 195.61
-9754584.00 5135605.08 194.74
-9754577.57 5135613.14 181.98
-9754577.48 5135613.27 188.84
-9754577.25 5135605.08 194.86
-9754563.28 5135624.57 189.40
-9754558.56 5135625.16 190.50
-9754557.78 5135618.47 189.95
-9754571.67 5135613.48 181.98
-9754563.22 5135605.05 189.00
-9754558.10 5135613.69 193.86
-9754537.82 5135624.70 181.35
-9754538.12 5135618.56 181.35
-9754525.34 5135620.74 190.18
-9754518.11 5135618.25 183.19
-9754544.40 5135611.75 181.48
-9754537.91 5135611.70 181.33
-9754524.95 5135610.99 188.85
-9754529.46 5135605.46 187.96
-9754528.68 5135609.55 187.76
-9754517.90 5135618.23 188.53
-9754520.37 5135605.74 187.67
-9754517.90 5135621.68 187.19
-9754505.03 5135624.88 181.14
-9754491.76 5135624.77 181.12
-9754504.87 5135611.67 183.15
-9754506.16 5135610.72 186.82
-9754491.87 5135611.43 187.87
-9754491.95 5135605.17 181.64
-9754491.89 5135611.67 181.71
-9754465.25 5135618.45 181.02
-9754466.31 5135618.18 190.00
-9754485.14 5135611.34 189.88
-9754479.78 5135612.23 183.58
-9754459.69 5135625.36 182.51
-9754452.32 5135618.35 180.91
-9754458.56 5135624.79 188.96
-9754458.50 5135618.41 180.98
-9754445.53 5135618.25 180.87
-9754458.63 5135611.49 188.82
-9754432.15 5135616.12 183.24
-9754412.76 5135624.94 181.01
-9754419.26 5135624.63 180.85
-9754426.02 5135611.22 182.48
-9754399.57 5135624.49 181.06
-9754406.44 5135611.47 181.72
-9754406.08 5135605.62 181.79
-9754400.23 5135611.31 182.34
-9754400.19 5135605.40 181.89
-9754392.56 5135605.25 180.80
-9754379.78 5135624.94 181.20
-9754373.35 5135617.57 184.48
-9754373.15 5135604.83 181.98
-9754366.85 5135611.92 180.81
-9754366.61 5135605.40 180.82
-9754360.16 5135605.36 180.77
-9754348.84 5135617.68 182.84
-9754340.21 5135624.78 180.85
-9754353.05 5135605.31 180.76
-9754333.61 5135605.16 182.33
-9754320.53 5135618.20 180.73
-9754313.71 5135624.94 180.83
-9754321.12 5135604.48 187.87
-9754323.79 5135604.45 186.72
-9754313.84 5135611.93 180.77
-9754307.33 5135611.88 180.86
-9754979.28 5135585.51 176.55
-9754972.89 5135585.44 176.55
-9754966.38 5135585.14 176.49
-9754972.76 5135598.48 176.44
-9754939.83 5135585.65 176.29
-9754933.28 5135591.76 176.91
-9754933.27 5135598.58 176.99
-9754946.63 5135578.84 176.45
-9754927.24 5135578.64 178.00
-9754920.40 5135585.07 179.66
-9754907.11 5135591.68 180.60
-9754898.91 5135585.17 185.46
-9754899.71 5135597.49 188.26
-9754897.75 5135585.49 186.97
-9754893.62 5135598.57 190.00
-9754887.08 5135598.56 183.13
-9754888.31 5135597.93 187.74
-9754880.95 5135585.39 184.81
-9754880.64 5135591.92 184.95
-9754899.60 5135579.54 187.18
-9754893.42 5135578.75 189.21
-9754860.55 5135585.21 185.92
-9754840.85 5135585.30 181.51
-9754834.32 5135585.63 181.32
-9754834.63 5135579.15 180.82
-9754821.10 5135579.06 180.99
-9754813.78 5135597.33 184.47
-9754813.41 5135593.45 188.84
-9754809.84 5135585.39 183.43
-9754813.09 5135585.46 187.85
-9754801.54 5135591.97 180.80
-9754801.58 5135585.14 180.83
-9754795.28 5135592.23 187.21
-9754801.21 5135598.50 180.77
-9754807.84 5135578.69 180.80
-9754794.43 5135578.82 183.33
-9754781.84 5135592.12 181.25
-9754781.46 5135598.33 181.26
-9754775.04 5135592.07 181.39
-9754768.55 5135592.05 181.50
-9754768.61 5135585.23 181.52
-9754755.57 5135591.95 181.59
-9754742.32 5135591.84 181.79
-9754736.11 5135591.11 182.56
-9754748.78 5135598.68 181.70
-9754722.29 5135585.24 181.68
-9754715.76 5135591.72 181.52
-9754715.80 5135585.17 181.58
-9754722.53 5135598.58 181.64
-9754715.77 5135598.55 181.55
-9754709.26 5135598.81 181.39
-9754715.54 5135578.65 181.59
-9754709.36 5135578.63 181.54
-9754695.66 5135598.76 181.20
-9754683.06 5135585.36 181.09
-9754682.72 5135591.89 181.05
-9754683.01 5135598.38 181.02
-9754669.78 5135592.35 181.21
-9754675.79 5135583.02 187.97
-9754656.37 5135585.31 190.62
-9754661.65 5135579.58 182.84
-9754652.80 5135599.30 194.27
-9754652.77 5135598.75 189.23
-9754652.54 5135586.11 190.57
-9754650.57 5135591.62 182.14
-9754649.62 5135579.66 182.42
-9754604.77 5135599.17 189.07
-9754628.92 5135586.62 187.41
-9754624.23 5135584.95 184.71
-9754610.69 5135585.20 183.20
-9754610.31 5135578.67 180.92
-9754602.61 5135584.58 187.59
-9754603.52 5135578.70 181.04
-9754607.09 5135592.78 188.91
-9754588.16 5135599.31 195.61
-9754577.33 5135598.50 196.46
-9754597.57 5135585.61 184.33
-9754597.03 5135578.63 181.14
-9754587.73 5135592.31 195.66
-9754570.22 5135598.50 195.63
-9754563.29 5135598.77 190.59
-9754557.71 5135596.68 184.32
-9754563.12 5135585.49 196.13
-9754564.11 5135578.64 195.04
-9754561.75 5135591.82 189.95
-9754557.67 5135585.42 190.03
-9754558.08 5135585.50 181.18
-9754557.71 5135584.56 194.47
-9754557.54 5135578.98 182.72
-9754554.04 5135585.85 187.90
-9754551.06 5135578.64 181.23
-9754558.34 5135592.84 188.59
-9754553.38 5135589.95 190.82
-9754531.19 5135598.65 181.20
-9754537.73 5135585.66 181.34
-9754524.75 5135584.93 187.58
-9754524.51 5135584.87 184.68
-9754524.55 5135578.95 189.56
-9754528.96 5135579.59 187.88
-9754537.72 5135592.20 181.34
-9754524.71 5135592.10 181.16
-9754518.43 5135578.79 182.55
-9754512.19 5135584.12 182.65
-9754512.12 5135591.82 182.95
-9754491.49 5135591.91 187.29
-9754491.43 5135590.35 181.94
-9754484.96 5135598.67 187.21
-9754478.05 5135598.53 182.08
-9754471.13 5135598.19 188.70
-9754465.46 5135598.80 181.58
-9754470.87 5135585.39 188.60
-9754465.88 5135585.10 189.69
-9754465.80 5135585.73 182.18
-9754465.60 5135578.96 189.58
-9754478.51 5135591.88 187.30
-9754465.52 5135592.09 181.49
-9754452.43 5135598.19 182.54
-9754458.95 5135598.78 181.40
-9754459.03 5135585.48 181.29
-9754459.09 5135578.67 181.24
-9754458.28 5135585.41 188.48
-9754458.14 5135578.63 188.46
-9754445.48 5135585.44 180.81
-9754455.17 5135592.51 189.53
-9754438.90 5135591.94 180.72
-9754432.37 5135598.59 182.36
-9754425.81 5135596.98 181.98
-9754432.65 5135590.08 181.77
-9754425.98 5135591.86 180.62
-9754419.18 5135591.82 180.54
-9754412.41 5135590.66 181.53
-9754406.43 5135598.89 181.44
-9754405.05 5135592.22 181.69
-9754393.02 5135578.90 180.79
-9754392.69 5135585.43 180.81
-9754386.54 5135578.78 182.70
-9754399.40 5135592.20 181.67
-9754392.69 5135591.90 180.79
-9754366.66 5135598.56 180.79
-9754360.22 5135598.53 180.74
-9754379.06 5135585.77 183.07
-9754373.22 5135585.61 180.84
-9754373.18 5135592.14 180.83
-9754366.42 5135585.29 180.74
-9754373.00 5135572.28 180.87
-9754353.10 5135598.83 180.73
-9754346.61 5135598.45 180.65
-9754353.16 5135592.01 180.68
-9754339.90 5135585.14 180.58
-9754353.28 5135572.16 180.69
-9754333.78 5135572.08 180.76
-9754324.56 5135585.17 183.28
-9754321.30 5135581.83 187.35
-9754325.47 5135592.41 187.30
-9754321.99 5135592.20 186.82
-9754313.96 5135592.06 180.73
-9754307.25 5135572.17 180.77
-9754300.66 5135578.63 182.55
-9754300.70 5135585.46 182.26
-9754300.70 5135591.93 182.47
-9754291.73 5135580.46 186.83
-9754291.54 5135588.94 186.72
-9754300.71 5135572.39 182.24
-9754959.42 5135565.26 176.42
-9754972.72 5135558.78 176.85
-9754965.95 5135559.05 176.76
-9754959.41 5135558.76 176.49
-9754959.78 5135552.50 176.55
-9754953.26 5135559.01 176.61
-9754946.71 5135565.50 176.58
-9754939.90 5135572.24 176.41
-9754926.97 5135558.77 178.04
-9754925.08 5135572.12 182.70
-9754906.88 5135572.43 180.67
-9754914.16 5135552.50 183.45
-9754893.92 5135571.36 184.95
-9754893.77 5135571.04 188.16
-9754893.34 5135565.66 189.80
-9754889.78 5135570.83 188.07
-9754888.74 5135565.98 188.67
-9754899.10 5135569.14 187.63
-9754881.05 5135572.43 184.58
-9754873.94 5135572.34 184.98
-9754887.03 5135558.90 182.82
-9754893.56 5135552.42 189.79
-9754867.48 5135572.29 185.01
-9754860.77 5135565.69 185.91
-9754847.53 5135576.87 186.74
-9754860.49 5135558.85 185.89
-9754846.32 5135552.79 183.49
-9754834.41 5135572.07 180.90
-9754827.93 5135572.24 180.83
-9754820.86 5135572.23 180.99
-9754839.82 5135552.41 182.22
-9754834.51 5135558.95 180.95
-9754827.97 5135558.93 180.95
-9754814.75 5135565.55 183.65
-9754809.41 5135572.59 184.27
-9754808.86 5135564.34 184.40
-9754812.00 5135572.80 186.82
-9754801.40 5135572.41 180.86
-9754795.12 5135572.18 183.02
-9754796.15 5135569.93 186.71
-9754814.79 5135552.01 188.05
-9754815.01 5135564.17 186.69
-9754810.10 5135561.11 186.99
-9754801.45 5135559.12 180.92
-9754788.43 5135572.02 181.14
-9754788.21 5135552.78 181.08
-9754781.72 5135559.27 181.17
-9754775.02 5135551.10 184.28
-9754768.50 5135552.37 181.13
-9754748.96 5135565.83 181.56
-9754761.93 5135559.14 181.35
-9754755.21 5135559.12 181.44
-9754749.06 5135559.07 181.49
-9754735.44 5135559.02 181.50
-9754742.35 5135550.90 183.51
-9754729.20 5135565.43 181.62
-9754728.86 5135572.22 181.65
-9754733.44 5135550.30 189.34
-9754715.98 5135559.14 181.41
-9754715.73 5135552.37 181.32
-9754709.25 5135552.35 181.30
-9754702.64 5135565.88 181.46
-9754696.19 5135565.86 181.28
-9754689.73 5135565.19 181.26
-9754682.90 5135565.51 181.17
-9754694.57 5135572.66 186.79
-9754702.45 5135552.56 181.29
-9754675.53 5135564.07 184.48
-9754669.16 5135572.43 190.95
-9754656.75 5135571.62 192.25
-9754657.04 5135565.41 192.07
-9754656.15 5135574.11 193.34
-9754676.47 5135552.75 181.23
-9754669.71 5135552.40 181.28
-9754671.00 5135560.32 183.90
-9754643.62 5135572.04 183.04
-9754649.63 5135571.12 193.81
-9754643.16 5135572.19 191.05
-9754642.82 5135566.86 184.02
-9754630.25 5135565.65 190.50
-9754643.19 5135552.17 183.94
-9754649.44 5135555.30 191.04
-9754645.62 5135551.27 188.58
-9754643.83 5135561.69 193.32
-9754630.02 5135551.77 187.53
-9754616.95 5135565.54 190.50
-9754610.46 5135572.33 190.42
-9754603.69 5135565.49 190.51
-9754604.27 5135572.61 183.68
-9754616.90 5135552.16 183.46
-9754624.00 5135551.75 188.34
-9754625.23 5135553.01 183.81
-9754616.74 5135552.47 190.07
-9754597.11 5135565.83 181.04
-9754599.80 5135564.87 190.63
-9754587.55 5135558.93 195.71
-9754583.93 5135552.48 181.19
-9754563.95 5135565.76 197.41
-9754564.17 5135572.34 197.47
-9754558.35 5135567.26 187.94
-9754570.61 5135552.19 183.80
-9754562.64 5135559.58 191.53
-9754565.47 5135555.69 197.97
-9754557.41 5135552.33 181.19
-9754557.42 5135559.47 190.18
-9754524.32 5135565.65 189.92
-9754524.20 5135570.58 188.55
-9754529.32 5135569.62 187.49
-9754544.40 5135552.21 181.32
-9754537.95 5135552.44 181.34
-9754524.46 5135552.34 188.34
-9754528.07 5135552.20 187.19
-9754518.38 5135565.55 183.18
-9754519.59 5135566.14 188.01
-9754518.18 5135559.12 182.19
-9754521.13 5135562.24 187.50
-9754511.68 5135559.18 180.93
-9754498.38 5135565.31 180.86
-9754504.88 5135552.33 180.87
-9754498.45 5135552.30 180.86
-9754491.91 5135552.26 180.79
-9754478.63 5135565.79 180.99
-9754465.40 5135572.52 189.53
-9754498.50 5135545.75 180.88
-9754491.99 5135556.37 197.22
-9754485.11 5135552.76 180.81
-9754478.67 5135545.66 181.00
-9754465.14 5135552.35 181.38
-9754451.98 5135572.09 180.88
-9754458.64 5135558.89 181.29
-9754445.54 5135572.11 180.82
-9754438.87 5135552.21 180.84
-9754438.93 5135545.72 180.86
-9754432.26 5135572.03 180.75
-9754432.34 5135559.33 180.83
-9754425.83 5135565.48 180.77
-9754425.84 5135558.98 180.82
-9754419.20 5135545.90 180.79
-9754412.68 5135545.86 180.77
-9754404.85 5135572.22 182.38
-9754406.13 5135552.59 180.79
-9754379.27 5135565.79 183.30
-9754373.06 5135565.14 180.87
-9754366.27 5135565.69 180.84
-9754360.06 5135558.86 180.85
-9754346.77 5135565.92 180.76
-9754340.29 5135565.55 180.78
-9754340.36 5135559.04 180.82
-9754333.79 5135565.52 180.78
-9754333.61 5135559.00 180.81
-9754346.58 5135552.27 180.83
-9754326.84 5135558.99 180.93
-9754320.63 5135564.13 188.78
-9754307.12 5135552.60 180.79
-9754307.16 5135545.56 180.82
-9754292.88 5135558.42 183.83
-9754287.59 5135558.84 183.17
-9754285.87 5135571.38 187.47
-9754292.50 5135546.57 183.53
-9754959.49 5135545.75 176.64
-9754972.81 5135539.25 177.10
-9754940.13 5135532.59 176.90
-9754933.36 5135539.36 177.04
-9754913.63 5135545.67 182.79
-9754916.62 5135548.98 179.79
-9754907.19 5135532.46 180.85
-9754898.76 5135527.58 184.73
-9754892.66 5135546.14 181.65
-9754889.47 5135543.58 188.98
-9754887.29 5135526.00 189.58
-9754886.38 5135539.11 182.84
-9754899.01 5135525.84 188.80
-9754898.33 5135539.42 188.69
-9754847.58 5135545.84 184.85
-9754867.12 5135539.12 184.99
-9754860.91 5135532.83 185.91
-9754860.49 5135539.45 185.89
-9754847.35 5135532.58 184.80
-9754834.59 5135545.41 181.01
-9754827.80 5135545.34 181.00
-9754821.02 5135545.86 181.01
-9754840.59 5135532.42 183.02
-9754834.59 5135526.37 190.63
-9754838.28 5135525.30 193.49
-9754834.60 5135539.45 181.02
-9754827.30 5135533.04 183.28
-9754820.26 5135533.04 183.20
-9754827.63 5135526.06 181.36
-9754808.09 5135545.38 183.72
-9754808.71 5135547.35 187.65
-9754801.25 5135545.75 180.97
-9754814.08 5135539.14 188.36
-9754774.64 5135545.98 187.67
-9754788.36 5135539.17 180.96
-9754788.01 5135532.35 180.90
-9754786.39 5135525.26 183.21
-9754781.26 5135532.88 182.24
-9754776.02 5135526.83 184.09
-9754762.42 5135547.05 183.61
-9754752.76 5135549.01 186.72
-9754742.98 5135549.53 186.69
-9754761.79 5135532.80 180.91
-9754755.33 5135532.40 181.03
-9754761.78 5135539.30 180.95
-9754748.88 5135532.89 183.65
-9754740.95 5135533.70 182.66
-9754741.74 5135526.16 182.75
-9754732.96 5135546.83 189.54
-9754715.77 5135545.59 181.12
-9754717.59 5135549.73 187.53
-9754720.98 5135549.54 188.47
-9754735.06 5135526.15 182.96
-9754728.28 5135524.88 182.03
-9754728.89 5135524.35 190.20
-9754723.51 5135532.52 183.73
-9754722.38 5135525.89 183.13
-9754715.56 5135532.80 181.17
-9754702.33 5135532.77 181.26
-9754702.81 5135539.26 181.19
-9754696.06 5135539.22 181.23
-9754690.52 5135532.81 183.06
-9754676.00 5135546.18 181.27
-9754656.20 5135545.52 181.15
-9754675.50 5135525.85 182.99
-9754676.29 5135539.13 181.28
-9754656.28 5135532.78 181.15
-9754663.03 5135539.30 181.21
-9754628.97 5135547.05 187.57
-9754643.31 5135526.12 183.22
-9754650.09 5135532.76 181.16
-9754640.29 5135534.18 186.93
-9754636.48 5135539.12 181.12
-9754629.39 5135533.16 188.80
-9754623.44 5135546.44 182.05
-9754608.12 5135546.62 187.58
-9754616.67 5135525.85 182.20
-9754623.70 5135537.20 182.49
-9754616.53 5135537.81 182.65
-9754617.35 5135533.15 186.98
-9754597.21 5135545.73 180.98
-9754597.96 5135526.09 183.95
-9754588.51 5135524.75 193.93
-9754583.80 5135526.38 193.94
-9754577.31 5135532.83 181.29
-9754577.80 5135538.20 181.81
-9754588.63 5135518.77 191.29
-9754586.87 5135522.59 193.68
-9754577.47 5135519.33 191.46
-9754570.70 5135545.92 180.98
-9754550.96 5135546.07 181.15
-9754571.56 5135527.46 182.45
-9754570.53 5135527.59 188.79
-9754564.33 5135526.21 183.06
-9754550.81 5135526.22 181.24
-9754555.47 5135528.22 190.19
-9754551.04 5135538.95 181.20
-9754524.86 5135547.92 188.24
-9754531.32 5135526.07 181.27
-9754531.30 5135532.64 181.26
-9754531.18 5135539.16 181.28
-9754524.59 5135519.25 181.16
-9754504.93 5135545.84 180.89
-9754518.11 5135524.66 187.28
-9754504.75 5135532.49 180.99
-9754518.16 5135539.08 181.96
-9754505.04 5135539.30 180.93
-9754491.40 5135539.19 180.98
-9754518.70 5135520.11 182.56
-9754465.71 5135539.33 181.41
-9754484.96 5135539.17 180.98
-9754478.27 5135526.07 181.38
-9754465.24 5135525.87 189.11
-9754465.54 5135532.86 181.44
-9754470.27 5135533.36 187.86
-9754465.32 5135526.37 181.22
-9754478.78 5135539.11 181.04
-9754465.24 5135539.22 189.20
-9754491.59 5135519.03 181.11
-9754471.83 5135519.53 181.04
-9754465.33 5135519.19 180.97
-9754459.12 5135525.93 187.97
-9754452.26 5135532.46 180.89
-9754431.66 5135525.08 184.05
-9754425.37 5135531.36 182.13
-9754432.30 5135530.87 182.19
-9754424.95 5135521.57 184.42
-9754399.84 5135539.46 182.76
-9754406.37 5135531.75 181.86
-9754399.54 5135519.15 180.86
-9754393.07 5135519.38 180.86
-9754386.31 5135519.65 180.89
-9754372.88 5135539.40 180.85
-9754366.46 5135539.36 180.80
-9754381.88 5135524.65 186.87
-9754383.05 5135524.64 186.73
-9754372.10 5135526.09 187.06
-9754358.47 5135525.51 184.52
-9754372.72 5135522.23 186.67
-9754333.72 5135539.46 180.73
-9754353.20 5135532.76 180.73
-9754346.54 5135526.12 183.51
-9754333.82 5135519.36 180.66
-9754313.69 5135539.03 180.75
-9754326.77 5135519.27 180.71
-9754320.30 5135532.68 183.33
-9754307.17 5135532.55 180.89
-9754299.52 5135540.73 182.59
-9754300.74 5135532.45 180.83
-9754299.96 5135518.16 183.76
-9754959.46 5135506.27 177.17
-9754946.44 5135519.55 177.16
-9754946.47 5135513.00 177.26
-9754946.48 5135506.24 177.37
-9754920.27 5135506.28 179.73
-9754913.31 5135506.33 183.47
-9754919.09 5135512.04 182.89
-9754920.77 5135513.04 179.32
-9754907.05 5135506.08 180.97
-9754900.26 5135506.09 180.83
-9754886.97 5135506.11 183.15
-9754880.88 5135506.29 184.15
-9754887.23 5135500.31 189.86
-9754873.78 5135499.78 185.22
-9754854.23 5135519.45 185.90
-9754867.31 5135499.77 185.00
-9754860.69 5135499.70 185.72
-9754840.92 5135520.13 182.80
-9754837.70 5135522.64 193.28
-9754827.69 5135519.39 190.70
-9754827.38 5135520.13 184.17
-9754827.26 5135505.78 181.46
-9754832.35 5135500.55 193.48
-9754820.97 5135499.68 181.23
-9754807.86 5135519.73 182.20
-9754810.10 5135522.87 187.35
-9754813.31 5135507.86 184.10
-9754813.87 5135511.99 187.23
-9754808.08 5135512.39 184.11
-9754808.27 5135511.71 187.80
-9754795.43 5135518.63 181.85
-9754795.33 5135506.08 181.89
-9754801.42 5135512.59 180.90
-9754801.27 5135499.58 180.96
-9754795.09 5135500.05 188.57
-9754775.34 5135505.72 195.56
-9754781.80 5135512.88 190.95
-9754775.02 5135512.36 195.06
-9754766.45 5135519.74 183.72
-9754766.01 5135506.09 183.83
-9754766.15 5135505.93 190.53
-9754766.80 5135512.87 195.05
-9754766.29 5135512.73 183.70
-9754789.56 5135500.15 184.98
-9754761.87 5135519.44 180.98
-9754755.78 5135506.26 184.20
-9754755.15 5135512.78 183.89
-9754742.04 5135506.25 188.44
-9754741.85 5135513.62 190.38
-9754762.03 5135499.61 181.01
-9754741.98 5135500.02 183.26
-9754745.48 5135499.72 189.02
-9754735.34 5135515.82 193.48
-9754736.16 5135516.36 193.46
-9754722.50 5135519.39 189.94
-9754715.75 5135506.30 190.27
-9754716.13 5135512.23 189.11
-9754708.23 5135506.11 183.45
-9754723.22 5135499.75 182.43
-9754716.50 5135501.37 189.22
-9754708.35 5135501.34 184.41
-9754702.33 5135519.40 181.35
-9754689.73 5135506.29 181.23
-9754702.77 5135499.58 181.36
-9754706.32 5135502.39 187.24
-9754695.98 5135499.52 181.33
-9754702.65 5135493.04 184.08
-9754696.03 5135493.04 181.34
-9754676.15 5135512.95 183.46
-9754669.97 5135519.13 183.47
-9754669.46 5135506.32 183.35
-9754669.75 5135514.31 183.90
-9754682.76 5135492.96 181.17
-9754670.39 5135500.35 183.65
-9754656.48 5135493.36 183.47
-9754649.37 5135505.34 189.31
-9754642.95 5135505.99 183.95
-9754649.73 5135509.60 188.31
-9754636.29 5135512.37 183.61
-9754644.59 5135498.25 188.71
-9754643.50 5135499.49 181.31
-9754644.47 5135493.53 184.41
-9754647.75 5135494.43 190.02
-9754636.49 5135492.56 182.90
-9754629.77 5135502.33 183.14
-9754616.82 5135512.59 183.18
-9754623.59 5135499.91 189.11
-9754616.74 5135492.68 183.40
-9754603.74 5135492.99 183.74
-9754588.22 5135505.20 193.86
-9754583.71 5135505.38 193.76
-9754577.24 5135505.56 193.76
-9754576.51 5135510.85 193.40
-9754569.13 5135507.05 182.62
-9754564.25 5135506.05 182.28
-9754564.26 5135512.90 183.19
-9754571.00 5135512.98 193.72
-9754557.13 5135519.14 187.78
-9754556.59 5135508.90 186.84
-9754564.30 5135493.03 182.99
-9754565.53 5135492.90 191.09
-9754568.19 5135494.20 184.56
-9754550.97 5135493.38 181.11
-9754552.51 5135496.65 190.45
-9754537.92 5135506.02 181.34
-9754531.44 5135506.59 181.24
-9754524.66 5135506.24 181.26
-9754537.29 5135512.78 182.91
-9754537.94 5135499.78 181.36
-9754524.81 5135498.92 189.75
-9754524.53 5135499.91 185.06
-9754529.74 5135494.11 187.52
-9754511.70 5135506.15 181.34
-9754518.14 5135512.99 181.19
-9754498.40 5135512.58 181.15
-9754518.62 5135493.35 190.00
-9754518.04 5135499.34 183.60
-9754517.90 5135493.52 183.88
-9754511.65 5135493.11 182.87
-9754514.71 5135498.57 186.75
-9754491.67 5135506.42 183.93
-9754478.36 5135506.26 181.24
-9754471.90 5135506.49 181.24
-9754485.45 5135499.80 181.04
-9754478.72 5135493.21 181.01
-9754464.56 5135500.22 190.18
-9754471.98 5135493.20 181.15
-9754465.56 5135493.11 187.83
-9754460.67 5135506.12 190.21
-9754452.15 5135504.49 182.82
-9754446.51 5135504.78 182.14
-9754459.24 5135512.93 187.87
-9754452.35 5135512.95 180.93
-9754452.17 5135493.10 180.84
-9754458.93 5135499.91 181.13
-9754439.19 5135499.86 180.79
-9754432.11 5135504.65 182.18
-9754432.04 5135512.81 180.87
-9754419.38 5135512.69 180.87
-9754426.17 5135498.33 182.76
-9754419.08 5135499.69 180.74
-9754420.10 5135493.43 181.52
-9754406.14 5135512.64 180.91
-9754399.37 5135506.39 180.95
-9754392.53 5135506.91 181.80
-9754386.43 5135506.32 180.98
-9754406.41 5135500.72 182.19
-9754398.45 5135493.58 183.20
-9754385.82 5135499.38 181.94
-9754366.60 5135506.18 180.91
-9754371.36 5135499.81 188.45
-9754372.45 5135499.57 183.61
-9754366.77 5135499.58 189.92
-9754359.68 5135499.45 189.89
-9754367.82 5135495.81 187.23
-9754353.34 5135512.63 180.85
-9754340.09 5135506.25 182.80
-9754333.60 5135513.11 180.72
-9754353.00 5135493.36 181.89
-9754334.87 5135499.33 188.73
-9754333.39 5135492.96 180.83
-9754338.94 5135496.30 187.60
-9754320.37 5135511.30 181.59
-9754320.07 5135505.77 182.04
-9754306.40 5135513.11 182.69
-9754307.41 5135504.55 183.53
-9754306.70 5135498.74 183.48
-9754307.21 5135499.72 189.95
-9754311.30 5135499.72 187.55
-9754313.66 5135493.20 180.77
-9754294.13 5135512.75 183.30
-9754294.24 5135515.30 187.93
-9754293.76 5135508.17 183.12
-9754294.77 5135498.76 183.00
-9754300.42 5135499.79 189.41
-9754295.92 5135500.05 189.39
-9754287.09 5135503.94 188.02
-9754300.70 5135493.06 180.78
-9754939.81 5135493.18 177.48
-9754926.91 5135492.98 178.46
-9754933.40 5135486.33 177.47
-9754939.91 5135473.54 177.77
-9754933.17 5135473.24 177.67
-9754906.82 5135493.08 181.01
-9754918.63 5135486.15 180.53
-9754913.02 5135486.90 181.66
-9754906.89 5135473.54 181.07
-9754921.26 5135485.42 212.98
-9754923.64 5135484.41 212.94
-9754900.17 5135473.16 180.95
-9754887.03 5135493.19 182.83
-9754897.25 5135495.96 187.67
-9754873.91 5135486.44 185.21
-9754880.98 5135486.53 184.08
-9754887.17 5135479.73 183.80
-9754893.04 5135480.07 185.28
-9754892.18 5135473.79 184.20
-9754886.64 5135473.47 182.33
-9754897.23 5135486.58 186.68
-9754880.68 5135479.75 184.08
-9754873.65 5135473.12 185.22
-9754873.97 5135480.00 185.22
-9754867.12 5135486.42 185.03
-9754854.08 5135492.83 185.89
-9754846.75 5135486.90 184.87
-9754867.16 5135479.66 185.01
-9754834.36 5135493.01 190.63
-9754837.70 5135494.89 190.52
-9754831.00 5135491.69 193.46
-9754834.12 5135486.55 190.64
-9754831.00 5135488.77 193.48
-9754824.50 5135492.26 190.21
-9754819.66 5135486.67 182.50
-9754826.97 5135486.30 184.13
-9754840.90 5135473.50 180.90
-9754827.54 5135473.57 183.78
-9754822.56 5135472.51 181.94
-9754814.06 5135493.69 189.20
-9754807.93 5135493.21 189.60
-9754812.55 5135487.73 188.39
-9754808.22 5135488.33 187.95
-9754795.09 5135492.93 182.59
-9754808.22 5135474.08 187.39
-9754808.30 5135468.02 187.32
-9754801.34 5135480.06 180.97
-9754793.43 5135478.00 187.79
-9754793.38 5135475.02 188.23
-9754801.43 5135466.67 180.94
-9754794.98 5135466.71 182.34
-9754775.47 5135495.62 184.83
-9754790.18 5135487.64 188.61
-9754768.41 5135493.04 184.23
-9754788.06 5135479.69 181.20
-9754790.47 5135475.53 187.63
-9754782.04 5135473.17 190.92
-9754781.40 5135479.71 190.15
-9754774.85 5135479.20 183.58
-9754774.60 5135465.96 190.85
-9754768.45 5135474.01 191.14
-9754768.38 5135479.90 190.20
-9754748.84 5135486.43 183.76
-9754742.16 5135486.69 189.13
-9754761.86 5135480.09 181.02
-9754755.44 5135473.36 184.00
-9754755.36 5135479.94 183.86
-9754742.23 5135480.09 183.36
-9754742.30 5135466.85 189.05
-9754722.97 5135492.84 181.85
-9754724.58 5135495.12 190.12
-9754716.11 5135486.49 183.32
-9754716.49 5135485.48 187.00
-9754735.71 5135480.22 183.56
-9754736.33 5135469.24 181.26
-9754728.98 5135473.26 190.04
-9754729.32 5135480.19 183.49
-9754729.00 5135466.75 189.12
-9754722.94 5135473.30 181.98
-9754722.55 5135466.76 182.76
-9754715.93 5135479.76 183.59
-9754716.25 5135474.81 187.21
-9754716.13 5135478.05 186.68
-9754707.24 5135492.81 186.97
-9754703.85 5135486.15 183.90
-9754709.43 5135466.76 181.12
-9754702.68 5135473.54 181.39
-9754696.08 5135480.00 181.71
-9754696.91 5135467.05 183.90
-9754689.66 5135473.13 181.29
-9754669.60 5135486.48 183.26
-9754683.25 5135479.56 187.15
-9754676.10 5135473.66 181.21
-9754669.63 5135466.74 183.27
-9754662.88 5135479.96 183.46
-9754662.78 5135472.28 183.14
-9754643.45 5135486.62 184.18
-9754648.24 5135486.67 188.65
-9754636.73 5135486.46 189.76
