-9754691.25 5135913.27 188.18
-9754692.18 5135910.29 185.23
-9754684.34 5135916.42 180.88
-9754684.46 5135909.97 185.48
-9754687.85 5135919.71 180.90
-9754688.18 5135924.47 185.51
-9754707.54 5135903.40 188.94
-9754692.95 5135911.39 187.87
-9754701.19 5135906.45 180.91
-9754697.72 5135905.43 188.81
-9754705.05 5135905.84 188.97
-9754694.31 5135905.53 186.49
-9754694.18 5135902.98 184.95
-9754694.56 5135905.01 190.17
-9754687.64 5135906.62 180.91
-9754684.41 5135906.78 184.81
-9754690.46 5135905.89 185.87
-9754691.17 5135903.64 185.64
-9754688.07 5135903.76 185.86
-9754691.97 5135905.06 189.35
-9754671.26 5135929.91 181.04
-9754671.35 5135929.53 185.23
-9754669.94 5135929.46 190.23
-9754664.82 5135930.03 184.33
-9754677.82 5135913.41 180.88
-9754677.88 5135910.14 180.89
-9754674.88 5135916.50 185.22
-9754673.53 5135913.19 183.50
-9754677.80 5135919.60 180.89
-9754678.08 5135923.19 180.91
-9754673.26 5135919.29 191.14
-9754676.38 5135918.30 185.06
-9754670.64 5135926.19 184.66
-9754664.72 5135926.43 188.49
-9754664.78 5135926.62 181.18
-9754664.83 5135926.20 191.54
-9754668.10 5135913.37 181.11
-9754671.37 5135916.51 188.29
-9754668.05 5135916.22 188.76
-9754671.48 5135913.75 184.07
-9754667.69 5135909.93 184.72
-9754664.23 5135916.33 191.63
-9754667.71 5135916.67 184.70
-9754663.37 5135909.87 189.00
-9754668.16 5135919.78 188.30
-9754667.67 5135920.03 191.41
-9754668.10 5135923.29 185.58
-9754664.98 5135922.84 191.82
-9754668.02 5135923.10 181.06
-9754664.55 5135919.55 181.14
-9754668.09 5135919.91 185.11
-9754670.45 5135924.53 185.19
-9754664.48 5135922.71 186.31
-9754664.99 5135922.55 193.30
-9754673.08 5135917.94 190.17
-9754661.58 5135916.53 191.46
-9754661.18 5135909.80 188.13
-9754661.63 5135923.09 181.23
-9754664.61 5135906.66 189.74
-9754665.60 5135906.30 184.87
-9754671.14 5135903.30 181.05
-9754661.11 5135906.51 188.50
-9754660.53 5135905.93 193.74
-9754660.62 5135903.80 194.34
-9754661.35 5135903.63 184.47
-9754663.92 5135904.29 191.54
-9755079.76 5135899.77 181.29
-9755076.80 5135899.98 181.02
-9755077.20 5135897.46 181.06
-9755073.49 5135903.58 180.26
-9755074.99 5135906.01 180.05
-9755063.23 5135903.39 177.22
-9755073.91 5135900.02 180.25
-9755074.17 5135897.04 180.30
-9755066.82 5135900.37 178.21
-9755060.02 5135896.60 177.26
-9755063.58 5135896.85 177.20
-9755060.02 5135899.81 177.26
-9755076.34 5135890.39 184.76
-9755079.67 5135889.94 181.55
-9755079.54 5135887.05 181.45
-9755076.71 5135887.50 184.58
-9755076.56 5135880.26 185.22
-9755073.38 5135886.83 181.62
-9755073.09 5135885.82 183.94
-9755066.56 5135886.81 177.90
-9755066.56 5135890.02 178.16
-9755063.55 5135890.03 177.19
-9755060.09 5135886.81 177.21
-9755056.78 5135896.87 177.31
-9755056.77 5135900.07 177.31
-9755053.54 5135900.11 177.32
-9755036.99 5135903.24 177.45
-9755040.00 5135896.51 178.17
-9755053.59 5135889.98 177.30
-9755033.81 5135889.87 177.50
-9755017.27 5135899.81 177.53
-9755027.28 5135893.71 177.59
-9755023.73 5135896.94 177.61
-9755010.83 5135903.14 178.09
-9755007.55 5135900.05 182.54
-9755010.15 5135899.83 182.34
-9755012.35 5135894.33 181.12
-9755023.56 5135880.05 177.56
-9755017.37 5135880.33 177.49
-9755007.71 5135890.02 177.87
-9755010.61 5135889.93 178.07
-9755007.59 5135886.54 182.46
-9755004.01 5135896.58 182.64
-9754984.21 5135900.25 177.63
-9754994.39 5135893.25 178.40
-9754987.52 5135893.45 177.58
-9754995.41 5135898.68 181.04
-9754981.01 5135896.67 177.62
-9755003.89 5135883.56 181.85
-9755000.76 5135890.21 179.12
-9755003.99 5135883.66 179.08
-9754994.15 5135880.16 178.79
-9754997.40 5135880.29 182.27
-9754990.80 5135889.92 177.52
-9754984.37 5135883.35 177.57
-9754981.08 5135889.88 177.62
-9754974.51 5135899.90 177.56
-9754974.55 5135893.39 177.53
-9754971.26 5135896.63 177.49
-9754957.72 5135893.28 177.31
-9754951.24 5135896.80 177.32
-9754960.99 5135890.07 177.26
-9754928.54 5135899.85 178.70
-9754928.26 5135893.37 178.91
-9754931.53 5135896.92 178.84
-9754951.61 5135883.46 177.28
-9754944.77 5135890.26 177.20
-9754931.82 5135886.86 179.16
-9754911.71 5135899.68 180.48
-9754921.45 5135900.05 180.12
-9754905.25 5135900.27 180.40
-9754905.23 5135903.48 180.42
-9754901.64 5135900.54 182.68
-9754902.13 5135896.80 184.17
-9754898.57 5135903.52 185.28
-9754898.83 5135903.18 188.43
-9754898.70 5135893.97 181.39
-9754898.54 5135896.25 184.56
-9754918.28 5135886.70 181.45
-9754918.05 5135879.98 181.53
-9754921.51 5135890.01 180.21
-9754908.62 5135880.40 180.39
-9754905.09 5135880.09 180.36
-9754898.84 5135890.21 185.20
-9754895.63 5135903.32 188.18
-9754885.53 5135900.24 185.33
-9754898.03 5135895.08 186.69
-9754895.21 5135896.89 184.87
-9754878.72 5135903.43 185.00
-9754881.96 5135896.64 184.82
-9754898.57 5135888.41 183.82
-9754895.69 5135890.03 185.20
-9754891.60 5135880.16 184.62
-9754885.37 5135880.34 184.78
-9754894.92 5135887.28 183.88
-9754896.34 5135891.01 187.23
-9754895.71 5135880.77 191.38
-9754893.66 5135890.24 182.41
-9754869.03 5135900.10 185.99
-9754868.81 5135889.95 186.01
-9754865.78 5135896.78 185.98
-9754850.16 5135903.27 185.88
-9754849.36 5135900.30 191.47
-9754849.96 5135900.17 185.15
-9754846.19 5135904.64 180.94
-9754845.73 5135905.27 191.75
-9754862.56 5135893.22 185.93
-9754849.90 5135889.96 185.25
-9754849.61 5135890.03 182.16
-9754859.27 5135896.76 185.97
-9754844.40 5135905.61 188.78
-9754868.80 5135883.50 186.02
-9754849.87 5135886.86 185.27
-9754849.08 5135886.80 188.74
-9754849.57 5135886.62 182.18
-9754849.76 5135883.75 185.01
-9754845.81 5135879.93 188.67
-9754849.21 5135880.30 182.12
-9754854.60 5135890.76 187.03
-9754854.46 5135883.56 186.88
-9754843.16 5135905.08 191.65
-9754838.89 5135904.81 180.93
-9754829.56 5135903.19 191.33
-9754832.84 5135905.03 188.72
-9754836.35 5135905.18 183.68
-9754837.66 5135904.86 184.71
-9754827.02 5135899.76 188.58
-9754838.66 5135890.12 191.80
-9754827.07 5135890.12 191.66
-9754836.02 5135896.78 188.73
-9754832.83 5135893.49 188.70
-9754816.51 5135899.98 181.92
-9754839.39 5135886.75 188.75
-9754839.38 5135880.23 188.75
-9754836.50 5135879.47 190.26
-9754832.96 5135880.30 192.70
-9754836.17 5135880.19 188.79
-9754829.34 5135883.41 188.72
-9754829.17 5135880.07 191.52
-9754833.12 5135878.60 196.53
-9754826.95 5135887.15 191.72
-9754826.75 5135876.93 191.69
-9754819.55 5135880.50 180.98
-9754819.50 5135886.99 180.96
-9754816.31 5135889.93 180.92
-9754816.57 5135883.67 180.92
-9754816.36 5135879.89 180.93
-9754813.00 5135902.89 181.54
-9754809.78 5135893.13 180.86
-9754808.81 5135894.03 185.76
-9754808.91 5135895.54 185.50
-9754806.49 5135893.64 184.84
-9754803.97 5135900.06 181.80
-9754792.97 5135903.41 187.89
-9754790.01 5135903.35 187.85
-9754803.83 5135890.50 181.77
-9754789.78 5135890.33 188.12
-9754803.02 5135896.93 187.99
-9754804.31 5135893.92 185.11
-9754796.54 5135893.61 187.90
-9754809.30 5135880.06 188.15
-9754806.36 5135880.31 188.37
-9754808.34 5135876.98 184.60
-9754806.31 5135876.96 184.62
-9754806.37 5135877.10 188.33
-9754803.48 5135886.74 184.68
-9754803.76 5135889.92 185.22
-9754803.88 5135886.96 181.80
-9754806.67 5135883.04 187.99
-9754803.38 5135883.75 185.60
-9754803.07 5135883.46 180.99
-9754803.73 5135879.91 185.88
-9754803.13 5135877.09 188.03
-9754803.40 5135876.93 185.25
-9754799.87 5135886.80 187.91
-9754793.26 5135886.86 187.88
-9754793.12 5135886.91 190.53
-9754789.84 5135883.50 187.84
-9754789.80 5135886.79 188.19
-9754799.33 5135883.76 190.35
-9754786.55 5135900.17 188.33
-9754786.47 5135903.38 187.87
-9754783.56 5135903.31 187.88
-9754776.38 5135899.93 188.40
-9754770.10 5135903.49 191.61
-9754786.80 5135893.51 187.82
-9754773.53 5135896.80 187.91
-9754770.31 5135893.47 187.90
-9754773.34 5135897.48 190.75
-9754766.73 5135903.23 187.94
-9754763.89 5135890.26 188.05
-9754766.75 5135896.72 187.96
-9754786.87 5135887.30 188.91
-9754779.84 5135880.20 187.88
-9754776.55 5135883.43 187.87
-9754773.39 5135880.16 187.90
-9754773.31 5135886.93 187.88
-9754776.58 5135876.92 187.95
-9754773.37 5135883.41 187.89
-9754770.09 5135880.17 187.90
-9754770.04 5135876.85 188.26
-9754773.66 5135876.41 190.44
-9754760.49 5135903.54 180.80
-9754753.70 5135903.17 180.72
-9754756.91 5135903.53 180.75
-9754753.71 5135899.96 180.71
-9754752.49 5135903.28 185.47
-9754750.22 5135903.22 185.89
-9754757.04 5135890.14 180.73
-9754753.77 5135890.14 180.81
-9754752.36 5135889.64 185.57
-9754750.90 5135889.82 181.01
-9754751.00 5135896.71 180.80
-9754752.63 5135897.24 185.57
-9754740.62 5135902.02 191.12
-9754737.21 5135903.26 188.94
-9754744.53 5135903.23 186.20
-9754744.36 5135899.90 185.98
-9754745.69 5135899.85 188.95
-9754744.60 5135889.99 186.12
-9754746.96 5135896.68 185.98
-9754747.04 5135893.44 185.99
-9754737.02 5135896.82 188.92
-9754743.81 5135893.46 191.77
-9754744.67 5135893.82 188.97
-9754738.07 5135897.32 191.38
-9754745.02 5135893.41 186.16
-9754737.73 5135895.07 188.86
-9754746.67 5135893.50 191.02
-9754744.40 5135897.09 186.04
-9754746.78 5135893.34 189.38
-9754756.72 5135886.64 180.73
-9754750.28 5135886.64 185.89
-9754749.93 5135883.15 181.94
-9754750.28 5135886.52 180.81
-9754751.34 5135877.05 181.74
-9754747.31 5135886.89 185.93
-9754746.44 5135886.96 190.22
-9754749.72 5135885.21 191.02
-9754740.37 5135880.00 192.09
-9754737.36 5135880.50 188.92
-9754745.09 5135880.06 185.54
-9754740.76 5135877.24 188.99
-9754743.90 5135876.97 188.91
-9754737.07 5135883.47 188.94
-9754739.93 5135887.61 190.80
-9754734.29 5135901.02 188.89
-9754730.72 5135901.30 188.90
-9754733.81 5135893.30 191.76
-9754734.03 5135897.02 188.85
-9754733.75 5135896.37 191.62
-9754730.79 5135896.74 188.87
-9754720.78 5135899.95 188.89
-9754724.12 5135890.35 191.34
-9754727.27 5135893.72 188.88
-9754727.21 5135896.66 188.89
-9754717.59 5135890.15 188.92
-9754720.79 5135893.68 188.87
-9754717.51 5135893.42 188.88
-9754710.76 5135896.63 188.88
-9754710.79 5135893.66 188.88
-9754730.57 5135886.89 188.92
-9754732.60 5135881.92 190.45
-9754727.33 5135877.11 188.90
-9754724.09 5135886.93 188.92
-9754726.76 5135883.04 190.18
-9754730.46 5135887.52 190.04
-9754720.60 5135886.88 188.93
-9754710.80 5135887.05 189.01
-9754717.57 5135886.85 188.92
-9754714.12 5135877.12 188.90
-9754710.81 5135877.10 188.88
-9754707.58 5135883.59 189.14
-9754697.46 5135899.99 191.68
-9754700.62 5135900.20 180.97
-9754694.17 5135900.08 188.57
-9754703.07 5135902.37 191.02
-9754699.44 5135902.94 185.04
-9754697.81 5135890.13 185.22
-9754697.47 5135890.13 180.98
-9754700.98 5135896.65 180.97
-9754700.68 5135897.03 184.50
-9754694.40 5135896.67 188.24
-9754694.16 5135896.59 181.00
-9754698.10 5135889.74 187.38
-9754691.00 5135899.85 188.27
-9754684.42 5135900.11 180.89
-9754681.48 5135899.78 180.92
-9754691.13 5135897.24 190.83
-9754684.47 5135893.30 180.98
-9754691.67 5135894.07 189.99
-9754687.51 5135895.48 185.48
-9754697.70 5135886.98 185.38
-9754694.44 5135880.59 184.29
-9754694.56 5135886.65 185.25
-9754698.15 5135880.50 184.06
-9754694.56 5135883.94 187.77
-9754698.09 5135879.04 188.58
-9754700.41 5135887.15 187.93
-9754698.19 5135876.86 185.61
-9754695.12 5135885.98 187.37
-9754697.57 5135876.87 180.96
-9754697.52 5135876.53 188.25
-9754700.77 5135876.82 180.93
-9754688.05 5135883.54 181.00
-9754687.41 5135887.63 184.38
-9754681.29 5135886.77 180.98
-9754677.95 5135900.07 180.91
-9754677.98 5135890.06 181.02
-9754675.27 5135891.04 184.87
-9754677.95 5135896.54 180.95
-9754677.75 5135891.92 185.22
-9754676.32 5135891.88 186.79
-9754664.40 5135903.25 188.57
-9754664.19 5135901.07 187.78
-9754660.42 5135901.18 193.30
-9754663.10 5135899.96 185.96
-9754673.19 5135890.25 192.09
-9754671.14 5135893.23 184.29
-9754671.44 5135896.49 181.00
-9754667.95 5135893.49 181.09
-9754667.92 5135896.73 181.08
-9754664.65 5135897.06 181.11
-9754666.30 5135893.13 187.51
-9754660.59 5135891.13 187.96
-9754660.53 5135897.57 187.62
-9754661.15 5135893.19 188.18
-9754660.97 5135893.18 185.36
-9754677.82 5135883.50 187.62
-9754679.58 5135880.66 185.24
-9754677.72 5135883.73 181.02
-9754680.43 5135884.30 187.79
-9754677.78 5135879.97 181.00
-9754677.49 5135883.87 185.25
-9754679.73 5135883.85 186.64
-9754674.53 5135883.67 190.69
-9754674.22 5135886.79 190.99
-9754675.17 5135883.02 188.74
-9754674.82 5135880.27 185.77
-9754674.42 5135880.97 190.08
-9754674.27 5135876.99 181.02
-9754674.30 5135877.02 185.27
-9754668.05 5135887.00 191.80
-9754668.42 5135880.74 187.35
-9754668.21 5135876.01 187.97
-9754668.11 5135877.11 181.19
-9754671.30 5135886.43 181.98
-9754664.42 5135880.45 182.06
-9754668.40 5135880.60 190.49
-9754670.98 5135886.68 185.14
-9754664.22 5135883.22 191.54
-9754668.41 5135886.76 185.84
-9754664.31 5135883.12 187.80
-9754664.44 5135880.37 191.25
-9754664.35 5135879.81 188.00
-9754661.53 5135883.65 181.21
-9754664.36 5135882.98 184.76
-9754660.55 5135883.06 190.23
-9754664.17 5135876.97 184.59
-9754664.21 5135876.87 188.45
-9754664.31 5135882.89 194.83
-9754664.24 5135876.81 191.72
-9754664.05 5135876.99 195.11
-9754662.54 5135879.51 181.42
-9754660.70 5135878.31 181.14
-9755079.91 5135873.96 181.28
-9755076.45 5135873.01 181.70
-9755073.35 5135876.64 179.31
-9755074.62 5135876.57 180.17
-9755076.41 5135866.67 180.39
-9755077.03 5135854.15 180.39
-9755076.40 5135856.82 179.95
-9755074.68 5135873.68 180.11
-9755073.32 5135870.17 179.15
-9755047.19 5135873.65 177.20
-9755046.96 5135863.92 177.16
-9755043.33 5135866.88 177.12
-9755050.14 5135870.16 177.21
-9755037.85 5135860.20 178.06
-9755037.79 5135857.32 177.99
-9755023.59 5135873.53 177.55
-9755007.40 5135873.55 177.76
-9755023.76 5135854.01 177.47
-9755013.92 5135860.75 177.35
-9755007.49 5135857.16 177.74
-9755007.48 5135864.03 177.80
-9755009.24 5135860.48 182.21
-9755007.51 5135866.90 177.80
-9755009.47 5135870.45 182.18
-9755007.40 5135870.43 177.75
-9755000.78 5135876.92 179.08
-9755004.26 5135873.80 182.57
-9755000.68 5135870.22 182.54
-9755003.99 5135860.29 179.03
-9755003.92 5135870.33 179.07
-9754997.43 5135870.19 182.24
-9754994.20 5135863.82 178.70
-9754994.57 5135853.93 180.89
-9754987.68 5135863.81 177.45
-9754987.63 5135870.33 177.49
-9754984.14 5135860.30 177.48
-9754981.24 5135853.75 177.48
-9754977.58 5135873.54 177.53
-9754954.61 5135873.76 177.27
-9754977.70 5135853.73 177.45
-9754964.43 5135853.97 177.00
-9754974.47 5135857.27 177.41
-9754967.90 5135866.95 178.12
-9754964.65 5135867.01 177.09
-9754957.99 5135853.94 177.11
-9754957.86 5135867.20 177.20
-9754948.14 5135870.43 177.17
-9754947.90 5135863.93 177.15
-9754948.18 5135860.38 177.13
-9754941.41 5135857.05 177.49
-9754933.65 5135870.82 180.53
-9754935.29 5135863.80 178.98
-9754931.45 5135857.18 181.07
-9754931.10 5135867.20 179.86
-9754924.91 5135863.69 179.86
-9754928.53 5135850.66 180.25
-9754921.59 5135876.94 180.39
-9754921.27 5135863.24 179.60
-9754915.16 5135870.09 180.46
-9754911.69 5135857.34 180.37
-9754911.97 5135863.59 180.38
-9754921.43 5135854.14 180.07
-9754905.23 5135854.06 180.27
-9754908.37 5135866.81 180.33
-9754898.16 5135853.36 182.27
-9754901.36 5135860.43 189.67
-9754899.38 5135860.46 189.49
-9754920.80 5135849.92 180.97
-9754916.29 5135850.18 181.45
-9754912.02 5135850.53 180.34
-9754898.22 5135876.54 184.83
-9754895.74 5135873.32 184.85
-9754875.69 5135873.75 185.14
-9754872.54 5135877.38 195.84
-9754897.82 5135869.26 184.46
-9754898.65 5135857.08 184.17
-9754888.74 5135853.74 185.03
-9754893.40 5135858.36 182.97
-9754897.68 5135867.88 184.32
-9754893.13 5135866.84 182.24
-9754889.09 5135865.93 186.68
-9754875.68 5135870.25 185.12
-9754878.92 5135870.55 185.00
-9754872.28 5135853.88 185.90
-9754878.97 5135863.72 185.00
-9754881.88 5135867.02 185.02
-9754878.97 5135866.99 185.00
-9754875.69 5135866.99 185.15
-9754895.55 5135850.18 185.15
-9754868.57 5135873.72 186.02
-9754862.38 5135873.66 185.96
-9754849.52 5135873.53 184.94
-9754849.75 5135873.48 188.16
-9754846.20 5135874.98 188.55
-9754854.60 5135876.21 188.08
-9754868.37 5135863.95 186.02
-9754868.43 5135860.36 186.06
-9754849.52 5135870.33 185.60
-9754862.22 5135853.85 185.97
-9754859.25 5135863.87 185.94
-9754859.25 5135857.32 185.93
-9754849.36 5135857.13 185.04
-9754849.35 5135854.03 188.36
-9754849.57 5135863.61 188.35
-9754849.38 5135853.71 197.98
-9754849.37 5135863.90 184.78
-9754852.19 5135863.72 182.44
-9754849.27 5135853.70 191.77
-9754849.62 5135860.29 185.17
-9754846.00 5135863.53 191.61
-9754849.48 5135860.71 188.41
-9754849.16 5135864.06 182.14
-9754849.30 5135860.58 191.66
-9754845.87 5135853.64 200.37
-9754849.59 5135867.32 188.19
-9754845.95 5135867.07 191.62
-9754849.52 5135867.36 184.62
-9754846.27 5135855.27 198.87
-9754849.24 5135850.58 184.61
-9754849.53 5135850.38 195.13
-9754842.17 5135875.02 188.69
-9754839.15 5135875.96 191.69
-9754839.42 5135875.18 188.75
-9754829.44 5135875.20 188.69
-9754833.29 5135875.13 188.72
-9754826.53 5135873.76 191.68
-9754816.36 5135873.63 180.99
-9754826.45 5135870.30 191.64
-9754842.97 5135861.65 198.39
-9754843.39 5135855.55 194.28
-9754839.29 5135857.00 191.68
-9754832.78 5135856.95 191.67
-9754833.05 5135863.78 191.65
-9754836.01 5135856.97 191.68
-9754832.47 5135855.38 191.65
-9754832.59 5135854.14 200.39
-9754832.53 5135857.08 193.36
-9754835.69 5135855.21 191.67
-9754835.81 5135855.38 193.86
-9754837.28 5135855.49 197.79
-9754826.53 5135863.69 191.69
-9754835.94 5135867.04 191.68
-9754826.20 5135866.85 191.87
-9754819.68 5135860.32 180.95
-9754828.78 5135855.44 198.89
-9754816.12 5135863.88 180.96
-9754819.35 5135867.13 180.98
-9754803.44 5135873.73 181.62
-9754806.04 5135873.60 180.94
-9754803.18 5135870.30 188.04
-9754803.40 5135870.27 181.61
-9754799.70 5135873.73 188.34
-9754796.33 5135873.72 188.00
-9754799.96 5135870.35 188.08
-9754789.92 5135870.18 188.09
-9754812.93 5135863.84 180.80
-9754813.18 5135867.12 180.84
-9754809.62 5135860.60 180.85
-9754805.98 5135857.76 184.99
-9754806.16 5135864.13 182.47
-9754806.71 5135870.19 184.37
-9754796.77 5135870.74 190.51
-9754803.12 5135860.64 185.22
-9754805.88 5135860.52 187.88
-9754803.52 5135863.82 181.78
-9754803.08 5135853.85 181.72
-9754802.97 5135853.98 188.03
-9754796.48 5135853.91 187.92
-9754796.47 5135864.06 187.92
-9754796.47 5135860.48 187.96
-9754799.74 5135853.93 187.96
-9754796.42 5135857.11 187.95
-9754793.21 5135863.73 187.90
-9754789.95 5135863.95 187.86
-9754801.77 5135856.12 190.39
-9754796.41 5135866.99 187.91
-9754809.74 5135850.54 180.84
-9754802.95 5135850.58 181.81
-9754793.02 5135850.65 187.97
-9754790.01 5135850.58 187.99
-9754786.75 5135870.48 187.92
-9754783.46 5135870.49 187.92
-9754776.57 5135873.70 188.45
-9754773.37 5135872.01 190.22
-9754763.57 5135873.86 188.06
-9754766.93 5135870.63 187.96
-9754786.47 5135853.90 187.88
-9754783.00 5135857.39 188.37
-9754779.97 5135860.70 188.22
-9754780.03 5135853.84 188.46
-9754779.94 5135863.85 188.00
-9754779.79 5135863.75 190.38
-9754773.46 5135863.86 187.90
-9754774.43 5135853.62 190.24
-9754766.74 5135857.36 187.95
-9754766.74 5135866.78 187.95
-9754763.69 5135867.08 188.04
-9754750.94 5135873.20 181.05
-9754751.30 5135870.60 181.87
-9754747.12 5135870.35 185.49
-9754738.65 5135873.47 191.89
-9754740.44 5135873.61 192.06
-9754740.60 5135873.73 188.89
-9754743.93 5135873.47 188.91
-9754743.65 5135870.44 188.94
-9754744.82 5135873.40 185.57
-9754744.59 5135869.96 185.65
-9754743.14 5135872.34 190.42
-9754760.19 5135863.50 186.88
-9754750.45 5135863.70 185.45
-9754750.86 5135860.81 181.11
-9754746.51 5135870.56 186.74
-9754747.18 5135863.86 185.47
-9754746.99 5135854.04 191.52
-9754744.81 5135860.36 184.98
-9754736.96 5135853.04 191.15
-9754744.44 5135854.26 181.04
-9754744.76 5135854.79 185.41
-9754744.54 5135860.47 181.27
-9754746.89 5135850.40 181.10
-9754744.47 5135857.79 180.95
-9754744.74 5135851.44 185.86
-9754744.88 5135855.89 185.44
-9754743.94 5135850.42 181.01
-9754740.72 5135867.25 188.93
-9754737.50 5135866.99 191.46
-9754737.54 5135867.18 188.93
-9754745.52 5135850.63 188.69
-9754745.76 5135850.41 184.23
-9754727.21 5135875.13 188.91
-9754723.89 5135873.80 191.50
-9754724.21 5135870.36 188.91
-9754717.37 5135870.59 188.91
-9754707.66 5135873.79 188.92
-9754734.00 5135853.81 188.81
-9754733.96 5135867.02 191.07
-9754730.57 5135867.69 191.12
-9754730.23 5135865.16 189.08
-9754727.19 5135863.73 191.78
-9754727.48 5135857.07 188.80
-9754723.79 5135853.66 191.72
-9754723.98 5135860.42 191.82
-9754724.02 5135853.82 188.87
-9754724.72 5135865.16 188.93
-9754724.48 5135865.63 191.69
-9754720.79 5135860.39 191.81
-9754717.48 5135854.03 188.82
-9754717.24 5135853.90 191.71
-9754714.29 5135863.88 191.75
-9754717.45 5135860.36 191.81
-9754718.41 5135851.11 188.79
-9754717.51 5135850.64 191.98
-9754710.71 5135864.02 189.02
-9754710.97 5135857.25 188.81
-9754717.00 5135867.19 191.45
-9754714.18 5135867.32 188.93
-9754707.41 5135860.46 188.88
-9754709.04 5135863.82 191.06
-9754707.41 5135863.77 188.95
-9754707.43 5135857.21 188.86
-9754707.72 5135867.00 188.93
-9754701.13 5135870.32 180.92
-9754694.99 5135874.24 185.16
-9754697.58 5135870.23 180.97
-9754697.04 5135869.16 187.13
-9754695.09 5135873.27 188.06
-9754687.59 5135873.72 188.08
-9754691.06 5135873.49 180.99
-9754684.68 5135873.67 187.94
-9754690.87 5135873.28 188.42
-9754687.80 5135873.77 180.97
-9754688.25 5135871.06 188.67
-9754685.25 5135870.52 188.01
-9754690.68 5135871.37 188.63
-9754688.43 5135875.53 187.53
-9754694.22 5135869.82 186.68
-9754707.47 5135850.70 188.85
-9754698.31 5135860.89 184.26
-9754694.43 5135864.13 180.94
-9754694.42 5135853.85 184.72
-9754704.79 5135860.47 188.93
-9754694.12 5135856.97 181.33
-9754697.45 5135863.34 184.01
-9754697.37 5135850.93 185.11
-9754694.59 5135852.41 186.74
-9754697.75 5135850.41 181.03
-9754694.82 5135850.70 187.85
-9754696.18 5135852.24 187.12
-9754694.37 5135867.15 185.10
-9754697.23 5135866.86 184.37
-9754697.33 5135867.32 180.98
-9754695.74 5135867.61 186.77
-9754687.94 5135853.67 180.90
-9754682.09 5135861.64 184.94
-9754687.88 5135863.99 180.90
-9754681.44 5135857.44 180.83
-9754681.64 5135863.38 184.79
-9754684.67 5135850.70 180.88
-9754681.91 5135865.68 183.90
-9754678.10 5135870.23 180.91
-9754674.56 5135873.66 181.00
-9754677.49 5135874.91 186.00
-9754674.58 5135873.21 184.59
-9754670.98 5135873.94 187.65
-9754668.03 5135873.98 188.03
-9754671.26 5135874.41 185.82
-9754671.69 5135869.94 185.08
-9754664.57 5135873.91 181.24
-9754668.03 5135870.09 181.16
-9754670.40 5135872.56 192.25
-9754664.89 5135870.42 181.26
-9754664.18 5135870.53 195.05
-9754664.10 5135873.82 191.57
-9754664.50 5135870.20 197.73
-9754664.17 5135873.07 184.97
-9754664.05 5135870.13 184.80
-9754664.19 5135873.84 195.02
-9754664.10 5135870.27 188.15
-9754677.93 5135869.33 186.64
-9754677.86 5135863.61 188.36
-9754680.57 5135853.03 189.11
-9754674.38 5135863.60 188.25
-9754674.89 5135860.65 189.42
-9754674.25 5135860.37 194.90
-9754674.37 5135860.40 180.88
-9754674.30 5135856.42 185.28
-9754674.39 5135863.93 192.11
-9754677.37 5135863.67 192.32
-9754673.86 5135857.90 189.39
-9754676.80 5135862.90 194.13
-9754680.43 5135866.06 187.95
-9754677.84 5135866.86 188.47
-9754674.85 5135866.77 188.02
-9754674.56 5135867.17 180.94
-9754673.97 5135866.58 194.69
-9754671.48 5135863.81 194.81
-9754671.28 5135853.54 194.89
-9754667.99 5135860.68 192.22
-9754671.56 5135853.67 192.33
-9754667.90 5135853.84 181.32
-9754671.42 5135863.96 181.09
-9754667.84 5135857.28 181.26
-9754671.14 5135860.82 191.26
-9754668.00 5135850.70 191.91
-9754668.47 5135857.69 191.69
-9754671.49 5135857.10 187.96
-9754668.24 5135860.92 186.36
-9754669.17 5135862.84 197.03
-9754667.97 5135850.53 181.34
-9754668.96 5135857.07 194.19
-9754664.62 5135863.83 181.26
-9754664.54 5135853.80 181.24
-9754668.17 5135867.12 181.16
-9754664.64 5135867.04 181.25
-9754671.34 5135867.00 192.30
-9754668.71 5135867.80 194.15
-9754670.80 5135866.77 188.07
-9754668.56 5135868.87 193.36
-9754664.06 5135854.01 191.74
-9754664.14 5135856.63 188.28
-9754663.73 5135860.07 184.84
-9754663.95 5135853.59 197.93
-9754663.81 5135857.46 184.86
-9754664.06 5135857.01 194.47
-9754663.80 5135856.93 191.62
-9754663.79 5135853.92 188.38
-9754663.98 5135860.02 188.19
-9754660.25 5135854.15 181.10
-9754664.07 5135860.43 194.56
-9754664.15 5135860.98 191.86
-9754664.15 5135863.78 195.48
-9754661.49 5135850.55 184.73
-9754664.05 5135863.96 188.24
-9754664.09 5135863.96 191.51
-9754660.42 5135856.69 181.05
-9754660.38 5135860.90 181.26
-9754661.32 5135852.21 198.18
-9754664.02 5135867.13 188.50
-9754664.09 5135866.66 184.80
-9754664.13 5135867.39 191.70
-9754664.04 5135867.03 195.21
-9754664.15 5135867.23 198.19
-9754660.55 5135867.14 181.20
-9754660.51 5135863.85 181.23
-9754662.79 5135849.85 194.36
-9755076.83 5135850.52 180.21
-9755076.86 5135847.36 180.20
-9755076.49 5135850.64 179.76
-9755077.64 5135839.77 181.43
-9755064.59 5135843.93 177.67
-9755066.51 5135847.41 177.60
-9755064.31 5135837.61 177.65
-9755069.79 5135840.59 178.33
-9755080.03 5135827.16 180.82
-9755079.67 5135831.38 186.74
-9755073.39 5135830.79 179.09
-9755066.65 5135827.56 177.56
-9755056.85 5135834.10 176.97
-9755047.10 5135843.79 177.04
-9755039.03 5135840.95 177.95
-9755033.57 5135837.48 177.25
-9755033.81 5135840.74 177.27
-9755040.42 5135827.78 176.82
-9755039.51 5135826.89 176.78
-9755033.91 5135827.72 177.19
-9755013.78 5135847.43 177.30
-9755014.00 5135850.39 177.32
-9755010.85 5135847.32 178.57
-9755007.42 5135850.33 177.71
-9755007.60 5135847.39 177.67
-9755006.97 5135833.98 177.69
-9755007.50 5135840.59 177.65
-9755009.02 5135840.95 182.05
-9755027.15 5135830.65 177.30
-9755020.63 5135827.62 177.30
-9755026.85 5135824.40 177.27
-9755017.38 5135827.63 177.25
-9755017.38 5135830.84 177.27
-9755007.37 5135830.80 177.63
-9755007.72 5135824.34 181.93
-9755004.41 5135847.07 178.93
-9755004.36 5135837.54 178.93
-9755000.88 5135837.42 182.26
-9755000.28 5135840.73 178.83
-9754993.97 5135850.55 178.63
-9754984.26 5135847.24 177.42
-9754991.08 5135837.54 177.28
-9754987.82 5135840.49 177.33
-9754984.32 5135833.95 177.34
-9755007.43 5135824.28 177.58
-9755000.67 5135830.92 178.84
-9754993.85 5135827.44 178.44
-9754994.10 5135830.63 178.46
-9754997.35 5135830.81 182.15
-9754987.94 5135824.17 177.22
-9754984.32 5135830.67 177.31
-9754977.77 5135847.20 177.41
-9754964.49 5135850.75 176.99
-9754974.52 5135847.52 177.37
-9754974.54 5135843.92 177.34
-9754964.49 5135844.16 176.92
-9754961.29 5135844.20 176.99
-9754971.31 5135837.42 177.28
-9754971.35 5135834.16 177.26
-9754961.02 5135837.71 176.95
-9754961.05 5135840.91 176.98
-9754954.77 5135850.63 177.12
-9754971.36 5135830.88 177.24
-9754964.62 5135827.61 176.82
-9754965.94 5135823.79 177.92
-9754941.19 5135850.57 177.45
-9754941.21 5135847.32 177.44
-9754948.27 5135850.62 177.07
-9754948.31 5135840.80 177.01
-9754951.53 5135840.85 177.05
-9754938.01 5135844.01 178.10
-9754938.23 5135850.47 178.07
-9754935.01 5135843.92 178.79
-9754929.09 5135844.37 181.36
-9754930.96 5135837.07 180.31
-9754928.38 5135833.98 181.44
-9754935.13 5135837.12 178.72
-9754928.38 5135827.44 181.46
-9754934.85 5135827.62 178.77
-9754935.15 5135824.37 178.70
-9754931.36 5135823.38 182.26
-9754925.13 5135827.79 180.49
-9754921.57 5135834.06 180.39
-9754918.25 5135834.01 181.07
-9754915.38 5135834.01 180.36
-9754908.64 5135834.22 180.27
-9754901.73 5135844.28 180.36
-9754918.35 5135827.79 180.40
-9754915.11 5135823.93 180.36
-9754901.85 5135827.67 180.30
-9754895.65 5135843.98 184.93
-9754892.75 5135840.53 182.32
-9754895.29 5135840.86 181.67
-9754895.37 5135837.48 184.94
-9754894.83 5135833.81 185.47
-9754897.12 5135836.39 183.58
-9754886.90 5135834.89 186.72
-9754892.42 5135840.08 187.26
-9754882.01 5135847.48 184.99
-9754872.33 5135844.16 185.89
-9754875.52 5135847.41 185.13
-9754882.05 5135840.65 185.12
-9754882.82 5135841.80 186.81
-9754882.11 5135833.87 185.09
-9754882.06 5135837.39 185.11
-9754895.11 5135827.67 185.50
-9754885.36 5135827.30 185.18
-9754893.04 5135827.84 182.37
-9754885.41 5135824.07 185.20
-9754895.07 5135830.50 187.06
-9754882.48 5135833.09 187.22
-9754868.18 5135844.07 186.07
-9754869.12 5135834.01 186.38
-9754862.28 5135847.33 185.99
-9754849.21 5135844.12 188.69
-9754845.31 5135847.31 201.26
-9754849.32 5135840.71 188.26
-9754849.32 5135847.27 191.80
-9754849.15 5135847.42 188.64
-9754849.30 5135847.33 184.63
-9754849.37 5135847.16 198.38
-9754849.22 5135840.44 198.24
-9754849.33 5135847.32 194.55
-9754849.15 5135840.99 191.30
-9754849.20 5135840.60 194.94
-9754850.88 5135842.72 187.56
-9754854.84 5135845.67 190.48
-9754849.10 5135837.04 191.72
-9754849.08 5135837.31 194.99
-9754849.15 5135834.36 194.80
-9754849.12 5135833.93 191.69
-9754851.74 5135837.67 187.83
-9754849.10 5135834.21 185.17
-9754849.24 5135837.16 198.18
-9754852.32 5135839.88 188.60
-9754868.19 5135827.63 186.07
-9754862.39 5135830.76 186.00
-9754862.43 5135823.97 186.03
-9754849.17 5135830.79 185.15
-9754848.98 5135827.42 184.98
-9754849.03 5135827.33 194.95
-9754849.14 5135827.75 198.22
-9754848.95 5135830.87 194.90
-9754849.11 5135830.98 191.77
-9754849.07 5135824.22 191.59
-9754849.15 5135830.83 188.53
-9754849.04 5135824.39 188.51
-9754849.15 5135824.29 194.66
-9754849.08 5135824.01 185.13
-9754842.73 5135837.37 200.39
-9754839.49 5135834.02 200.38
-9754835.92 5135834.02 200.36
-9754816.29 5135837.56 180.90
-9754842.81 5135827.56 200.39
-9754835.98 5135827.52 200.39
-9754829.49 5135827.47 200.39
-9754813.02 5135840.49 180.82
-9754809.79 5135837.50 180.83
-9754806.22 5135844.26 180.92
-9754803.03 5135844.41 185.11
-9754803.00 5135840.57 181.68
-9754803.09 5135840.63 185.19
-9754803.24 5135846.76 186.01
-9754796.55 5135844.15 187.92
-9754799.78 5135843.87 187.94
-9754799.83 5135840.64 188.01
-9754801.08 5135848.28 190.06
-9754790.08 5135847.37 187.94
-9754802.90 5135837.34 181.84
-9754803.01 5135834.14 181.74
-9754802.86 5135833.70 185.13
-9754803.11 5135837.35 188.05
-9754816.41 5135824.21 180.90
-9754806.00 5135830.67 180.91
-9754802.88 5135828.31 181.63
-9754803.13 5135830.84 188.04
-9754803.12 5135824.36 181.61
-9754793.11 5135827.58 187.84
-9754801.07 5135829.60 181.18
-9754786.58 5135840.59 187.97
-9754780.02 5135847.04 187.93
-9754776.84 5135840.80 187.98
-9754776.88 5135837.26 188.05
-9754766.81 5135843.92 187.99
-9754763.55 5135840.66 188.05
-9754766.43 5135845.95 190.35
-9754767.08 5135840.71 188.06
-9754766.81 5135837.45 187.96
-9754763.58 5135837.47 188.05
-9754783.38 5135824.26 187.84
-9754776.91 5135830.78 188.27
-9754770.15 5135827.42 187.88
-9754770.15 5135824.22 187.90
-9754766.86 5135827.48 187.90
-9754763.35 5135824.14 188.04
-9754756.98 5135847.24 180.74
-9754753.73 5135846.97 180.71
-9754753.76 5135843.96 180.73
-9754756.99 5135840.74 180.74
-9754750.46 5135847.52 180.72
-9754757.06 5135837.46 180.73
-9754758.55 5135837.85 183.40
-9754751.07 5135837.14 181.84
-9754750.27 5135837.70 185.11
-9754746.96 5135847.44 180.83
-9754744.33 5135840.84 181.97
-9754743.83 5135843.82 188.87
-9754744.45 5135847.47 185.15
-9754744.23 5135847.28 181.70
-9754744.37 5135844.33 185.01
-9754736.98 5135847.36 188.75
-9754746.18 5135843.01 187.70
-9754744.31 5135844.16 182.05
-9754746.12 5135842.75 186.29
-9754745.46 5135846.56 189.25
-9754744.18 5135834.42 184.99
-9754737.05 5135834.05 188.80
-9754744.09 5135834.19 181.59
-9754740.60 5135837.57 188.82
-9754757.09 5135824.19 185.73
-9754753.62 5135827.47 185.82
-9754756.85 5135824.49 188.82
-9754758.32 5135827.02 180.97
-9754750.42 5135824.14 185.87
-9754746.77 5135830.63 180.84
-9754740.41 5135824.41 191.31
-9754744.12 5135827.37 181.86
-9754743.79 5135824.12 181.44
-9754744.07 5135824.44 185.19
-9754743.92 5135824.23 188.94
-9754737.10 5135825.24 189.16
-9754737.11 5135824.06 191.33
-9754742.12 5135829.58 190.27
-9754733.82 5135847.06 191.14
-9754733.78 5135847.38 188.80
-9754730.94 5135841.93 190.05
-9754727.27 5135847.06 188.83
-9754727.28 5135844.00 188.81
-9754724.00 5135847.31 188.89
-9754724.10 5135844.13 192.00
-9754723.80 5135840.76 188.88
-9754714.69 5135847.34 191.94
-9754717.29 5135847.36 191.98
-9754718.07 5135844.08 188.81
-9754718.11 5135846.58 188.79
-9754713.99 5135840.68 188.86
-9754724.13 5135833.96 188.88
-9754714.37 5135834.19 188.79
-9754711.15 5135844.60 190.08
-9754733.86 5135830.80 188.83
-9754734.71 5135825.31 188.84
-9754730.34 5135830.76 188.81
-9754724.08 5135830.96 188.88
-9754727.40 5135825.60 190.74
-9754717.39 5135830.94 188.82
-9754712.68 5135830.16 190.11
-9754697.56 5135840.83 188.21
-9754700.65 5135841.04 188.22
-9754697.76 5135847.37 184.58
-9754697.78 5135844.21 185.23
-9754697.69 5135844.23 180.97
-9754704.29 5135844.00 188.92
-9754697.48 5135847.71 187.82
-9754694.87 5135840.85 187.73
-9754699.49 5135849.44 185.02
-9754707.58 5135837.36 188.83
-9754701.04 5135834.17 191.37
-9754697.97 5135834.12 194.49
-9754704.35 5135837.10 188.91
-9754694.18 5135834.13 181.01
-9754694.58 5135838.30 187.35
-9754697.60 5135837.36 184.93
-9754694.27 5135837.81 184.86
-9754690.91 5135843.92 180.98
-9754692.13 5135847.76 184.88
-9754684.51 5135840.57 180.96
-9754688.03 5135843.89 180.98
-9754682.21 5135848.12 183.50
-9754681.30 5135847.50 188.97
-9754681.03 5135844.13 188.04
-9754684.27 5135834.11 180.94
-9754681.29 5135834.05 180.93
-9754687.77 5135837.37 180.98
-9754684.49 5135837.62 180.95
-9754707.60 5135830.86 188.85
-9754707.59 5135824.37 188.86
-9754697.71 5135830.76 191.59
-9754697.47 5135827.25 188.32
-9754697.31 5135823.96 194.90
-9754697.58 5135827.30 185.49
-9754694.25 5135830.95 191.79
-9754697.89 5135830.88 189.10
-9754694.43 5135824.63 194.12
-9754697.83 5135823.51 188.40
-9754697.85 5135827.52 194.72
-9754700.02 5135827.30 195.23
-9754701.03 5135830.96 180.96
-9754694.73 5135830.40 187.86
-9754701.48 5135830.74 188.23
-9754697.57 5135824.06 180.98
-9754702.91 5135830.16 194.00
-9754694.48 5135827.44 191.30
-9754694.70 5135827.39 185.88
-9754700.04 5135827.37 185.79
-9754699.42 5135828.09 188.93
-9754694.30 5135824.37 181.03
-9754699.92 5135825.88 186.39
-9754694.01 5135831.24 196.75
-9754694.65 5135830.64 186.16
-9754691.49 5135823.84 190.93
-9754684.25 5135830.54 180.94
-9754690.82 5135827.51 195.27
-9754684.29 5135824.02 180.97
-9754681.32 5135830.81 180.94
-9754689.01 5135824.76 191.31
-9754678.33 5135846.87 187.70
-9754678.17 5135841.26 190.53
-9754674.49 5135844.12 180.94
-9754677.62 5135844.36 194.64
-9754674.24 5135841.59 194.65
-9754674.40 5135844.14 188.95
-9754674.17 5135847.17 189.28
-9754674.31 5135840.89 191.16
-9754678.03 5135833.97 180.91
-9754677.87 5135830.95 181.92
-9754673.69 5135831.01 184.44
-9754667.97 5135847.21 194.86
-9754667.66 5135844.76 194.55
-9754664.61 5135847.08 184.45
-9754667.95 5135847.29 181.37
-9754667.02 5135846.39 185.11
-9754664.85 5135843.84 191.41
-9754667.41 5135844.81 183.84
-9754664.81 5135844.10 184.87
-9754665.20 5135845.46 194.11
-9754665.22 5135846.61 188.96
-9754668.35 5135842.26 189.19
-9754660.49 5135846.72 184.91
-9754661.85 5135843.80 185.36
-9754662.32 5135848.16 193.31
-9754660.93 5135841.07 185.15
-9754661.46 5135847.28 181.26
-9754661.17 5135840.76 181.17
-9754660.03 5135847.48 188.48
-9754666.23 5135834.44 184.41
-9754668.14 5135836.67 185.01
-9754664.74 5135837.20 181.13
-9754661.49 5135837.50 181.17
-9754677.83 5135823.90 181.36
-9754674.50 5135831.02 181.03
-9754674.55 5135827.50 181.35
-9754668.29 5135827.91 183.92
-9754671.33 5135824.20 183.69
-9754667.46 5135823.37 183.76
-9754663.33 5135823.79 185.52
-9754661.27 5135824.46 181.38
-9754662.79 5135823.59 184.41
-9754663.41 5135823.57 191.76
-9754662.92 5135823.68 187.89
-9754662.78 5135824.03 191.45
-9754663.38 5135823.73 195.07
-9755074.79 5135825.16 184.67
-9755063.71 5135820.78 176.73
-9755063.14 5135817.55 176.73
-9755076.54 5135814.13 181.75
-9755078.80 5135816.26 179.93
-9755079.78 5135804.48 181.88
-9755079.95 5135810.54 181.52
-9755080.51 5135798.12 183.80
-9755079.76 5135809.23 184.62
-9755079.63 5135810.75 184.55
-9755076.47 5135808.01 179.31
-9755076.61 5135807.67 212.86
-9755077.51 5135812.51 181.49
-9755074.16 5135798.42 180.77
-9755066.47 5135811.03 177.92
-9755067.37 5135807.40 177.87
-9755066.79 5135801.25 177.46
-9755063.29 5135801.27 176.57
-9755066.62 5135797.40 177.78
-9755060.18 5135816.91 176.78
-9755060.17 5135817.83 176.79
-9755056.65 5135820.74 176.88
-9755053.35 5135821.05 176.91
-9755043.61 5135824.23 176.85
-9755033.66 5135821.20 177.16
-9755059.33 5135814.87 176.79
-9755059.70 5135804.46 176.70
-9755057.08 5135797.94 176.70
-9755050.49 5135814.20 176.87
-9755053.48 5135807.40 176.81
-9755053.50 5135804.47 176.78
-9755049.99 5135801.21 176.77
-9755054.08 5135806.85 176.78
-9755047.04 5135797.92 176.71
-9755043.52 5135797.90 176.66
-9755037.61 5135807.92 176.52
-9755037.58 5135797.53 176.56
-9755039.34 5135813.01 177.33
-9755038.79 5135812.66 177.46
-9755017.41 5135820.83 177.21
-9755010.71 5135814.50 178.40
-9755007.09 5135821.03 177.58
-9755007.16 5135817.50 177.55
-9755007.45 5135817.78 182.16
-9755026.91 5135814.37 177.19
-9755023.71 5135804.55 177.17
-9755023.65 5135807.80 177.19
-9755020.50 5135798.03 177.09
-9755010.73 5135807.69 178.37
-9755013.73 5135797.98 176.99
-9755007.22 5135811.06 182.08
-9755007.24 5135804.51 182.08
-9755007.24 5135801.20 177.49
-9755007.25 5135801.25 182.10
-9755003.98 5135814.24 182.31
-9755004.19 5135817.69 178.83
-9755004.22 5135814.44 178.84
-9754990.89 5135820.96 177.17
-9755004.01 5135804.37 178.84
-9755000.82 5135797.71 182.26
-9754994.02 5135807.79 178.21
-9754995.69 5135807.52 182.00
-9754990.97 5135807.68 177.06
-9754984.25 5135801.09 177.12
-9754971.14 5135817.32 177.15
-9754966.39 5135821.73 176.75
-9754957.85 5135817.50 176.86
-9754977.74 5135797.78 177.10
-9754974.23 5135801.02 177.07
-9754966.86 5135800.89 177.63
-9754971.25 5135810.80 177.10
-9754977.64 5135811.07 177.20
-9754974.14 5135811.10 177.14
-9754944.61 5135821.06 176.77
-9754941.38 5135817.66 177.17
-9754941.13 5135814.16 177.25
-9754931.96 5135821.04 179.62
-9754926.06 5135817.99 181.47
-9754951.25 5135804.46 176.80
-9754951.51 5135797.99 176.75
-9754944.70 5135804.40 176.66
-9754944.73 5135797.62 176.62
-9754942.87 5135807.66 176.77
-9754934.33 5135814.24 212.14
-9754937.91 5135797.83 177.75
-9754938.20 5135801.35 177.77
-9754937.94 5135804.62 177.98
-9754934.96 5135801.31 178.36
-9754933.30 5135811.80 187.95
-9754921.63 5135820.97 180.44
-9754921.71 5135807.62 180.44
-9754915.28 5135804.38 180.35
-9754911.71 5135801.05 180.29
-9754911.72 5135797.50 180.31
-9754904.44 5135800.38 181.11
-9754908.53 5135798.06 180.27
-9754908.40 5135811.15 180.22
-9754901.98 5135804.30 180.29
-9754898.43 5135804.26 180.42
-9754901.69 5135807.83 180.29
-9754898.40 5135807.78 180.44
-9754885.51 5135820.80 185.37
-9754892.37 5135814.11 182.31
-9754894.80 5135823.95 184.74
-9754892.30 5135820.74 182.90
-9754885.40 5135814.90 187.28
-9754882.20 5135820.84 185.29
-9754872.49 5135817.77 185.77
-9754875.71 5135821.09 185.23
-9754892.25 5135807.66 182.50
-9754895.40 5135807.78 181.57
-9754892.08 5135804.06 184.68
-9754889.04 5135801.02 185.22
-9754895.25 5135797.64 181.53
-9754885.02 5135801.31 187.05
-9754892.27 5135810.99 182.37
-9754894.10 5135807.61 183.76
-9754894.61 5135809.09 190.61
-9754894.46 5135797.52 188.35
-9754871.75 5135814.48 187.42
-9754878.70 5135811.05 185.22
-9754875.52 5135801.23 185.29
-9754881.98 5135807.76 185.31
-9754875.53 5135797.96 185.29
-9754875.44 5135811.02 185.25
-9754869.01 5135814.48 186.38
-9754865.98 5135820.99 185.95
-9754862.44 5135817.69 186.03
-9754855.66 5135817.62 186.37
-9754862.20 5135814.43 186.04
-9754848.85 5135821.03 188.31
-9754848.87 5135817.86 191.75
-9754849.01 5135821.06 194.87
-9754848.75 5135814.58 194.75
-9754848.92 5135814.07 191.84
-9754849.00 5135817.85 195.01
-9754849.04 5135821.09 200.41
-9754848.77 5135814.06 198.32
-9754869.04 5135797.85 186.39
-9754865.78 5135801.13 185.97
-9754859.00 5135811.14 185.94
-9754854.01 5135813.25 195.94
-9754849.21 5135811.18 184.70
-9754848.82 5135811.10 198.48
-9754848.88 5135810.72 188.71
-9754848.85 5135811.22 191.58
-9754848.89 5135810.71 195.30
-9754862.27 5135801.39 186.05
-9754848.76 5135801.41 198.35
-9754848.76 5135807.79 198.16
-9754848.87 5135804.52 188.54
-9754849.27 5135807.86 184.61
-9754848.70 5135801.53 188.60
-9754848.69 5135804.77 194.75
-9754848.86 5135807.84 188.37
-9754848.72 5135804.50 197.92
-9754848.63 5135801.43 194.90
-9754848.65 5135804.17 191.78
-9754848.62 5135801.36 191.12
-9754846.01 5135797.98 180.82
-9754842.55 5135814.25 200.37
-9754836.03 5135820.72 200.38
-9754836.08 5135817.74 200.37
-9754829.28 5135817.72 200.35
-9754826.03 5135817.68 200.42
-9754842.65 5135800.89 200.40
-9754844.88 5135799.51 200.25
-9754839.37 5135807.72 200.38
-9754842.14 5135804.70 199.19
-9754832.63 5135797.87 195.37
-9754832.87 5135807.68 200.38
-9754834.39 5135805.15 204.11
-9754829.32 5135807.91 200.38
-9754832.79 5135807.45 205.63
-9754829.23 5135808.74 203.33
-9754822.72 5135797.88 180.71
-9754816.37 5135814.42 180.91
-9754802.81 5135821.13 181.71
-9754802.56 5135814.29 181.76
-9754802.89 5135818.11 181.92
-9754806.30 5135817.62 183.47
-9754805.19 5135820.99 186.80
-9754799.97 5135821.08 187.92
-9754813.19 5135811.15 180.83
-9754816.20 5135807.64 180.89
-9754813.27 5135798.13 180.84
-9754812.98 5135801.33 180.82
-9754806.41 5135807.56 182.13
-9754806.16 5135808.28 185.11
-9754802.55 5135808.04 185.08
-9754802.60 5135801.10 184.54
-9754802.35 5135798.02 181.94
-9754793.24 5135807.72 187.89
-9754801.32 5135797.13 180.97
-9754790.08 5135797.96 187.81
-9754783.09 5135814.33 187.85
-9754787.63 5135822.38 190.00
-9754776.66 5135817.53 188.64
-9754780.21 5135814.55 187.83
-9754770.15 5135814.45 187.89
-9754766.67 5135817.63 187.90
-9754779.97 5135810.94 187.89
-9754786.53 5135797.87 188.55
-9754780.07 5135798.18 187.82
-9754776.41 5135797.90 188.07
-9754770.32 5135801.14 187.89
-9754763.48 5135804.56 188.01
-9754763.43 5135807.83 188.01
-9754763.48 5135801.30 188.02
-9754769.71 5135796.63 191.99
-9754756.92 5135820.88 185.73
-9754753.64 5135820.95 191.34
-9754756.96 5135814.49 185.74
-9754756.30 5135820.74 192.05
-9754756.93 5135817.67 185.74
-9754756.32 5135817.89 191.42
-9754753.93 5135822.16 185.81
-9754758.04 5135816.99 180.97
-9754754.98 5135817.03 185.77
-9754754.50 5135821.82 189.39
-9754749.75 5135820.73 188.66
-9754743.77 5135821.75 190.89
-9754743.96 5135817.84 188.58
-9754740.46 5135817.89 191.60
-9754740.45 5135814.52 188.81
-9754743.93 5135814.35 186.05
-9754744.02 5135821.50 181.77
-9754737.16 5135820.91 188.81
-9754744.05 5135814.53 188.44
-9754743.90 5135817.99 184.90
-9754737.19 5135814.43 188.78
-9754743.91 5135817.86 181.83
-9754760.17 5135811.11 184.90
-9754756.92 5135810.88 185.72
-9754758.13 5135811.11 180.92
-9754761.76 5135800.22 188.42
-9754753.66 5135807.83 185.78
-9754757.07 5135797.88 185.72
-9754757.03 5135801.39 185.71
-9754753.81 5135807.79 188.19
-9754756.39 5135804.64 191.95
-9754757.84 5135804.61 180.99
-9754756.94 5135797.71 188.73
-9754757.11 5135804.47 188.73
-9754759.13 5135798.19 185.46
-9754756.48 5135804.01 193.30
-9754755.03 5135801.53 185.74
-9754750.27 5135801.06 192.29
-9754740.48 5135811.09 191.36
-9754743.36 5135812.05 191.03
-9754745.50 5135812.97 190.91
-9754746.79 5135801.49 188.43
-9754748.48 5135803.89 192.26
-9754749.04 5135804.87 193.34
-9754743.85 5135804.49 187.94
-9754740.77 5135801.03 191.26
-9754743.77 5135797.67 188.52
-9754740.50 5135807.65 188.82
-9754740.53 5135797.92 188.82
-9754743.94 5135801.13 188.53
-9754737.19 5135795.86 188.75
-9754743.70 5135794.39 188.42
-9754740.54 5135794.51 191.17
-9754734.47 5135817.02 188.79
-9754730.70 5135817.67 188.80
-9754730.52 5135814.20 188.83
-9754724.14 5135820.85 188.88
-9754727.28 5135820.16 191.75
-9754723.92 5135820.78 191.43
-9754720.96 5135821.02 191.50
-9754714.18 5135821.13 188.88
-9754714.13 5135817.57 188.82
-9754723.88 5135810.99 191.21
-9754727.20 5135804.31 188.83
-9754727.28 5135794.60 188.84
-9754720.75 5135804.28 188.84
-9754717.20 5135807.86 188.81
-9754717.28 5135794.54 188.81
-9754710.75 5135801.27 188.87
-9754710.47 5135804.02 191.79
-9754710.74 5135798.02 191.70
-9754707.45 5135814.28 188.84
-9754707.68 5135821.09 188.86
-9754697.57 5135820.86 180.98
-9754697.72 5135817.65 191.12
-9754700.85 5135817.56 180.96
-9754694.41 5135821.08 181.02
-9754700.87 5135814.22 188.19
-9754698.28 5135814.63 185.09
-9754697.93 5135819.92 188.19
-9754695.58 5135814.07 185.48
-9754694.36 5135820.86 191.52
-9754698.07 5135816.42 184.99
-9754695.36 5135821.19 185.79
-9754696.00 5135821.41 193.42
-9754688.31 5135821.44 190.38
-9754691.50 5135821.02 188.10
-9754684.62 5135820.86 184.64
-9754687.63 5135820.98 188.25
-9754687.58 5135817.51 180.99
-9754690.66 5135817.33 190.04
-9754686.33 5135815.69 184.19
-9754681.38 5135814.21 180.92
-9754681.30 5135821.30 180.99
-9754692.41 5135815.67 188.99
-9754707.74 5135811.02 188.82
-9754704.15 5135811.04 188.94
-9754700.32 5135811.07 187.56
-9754700.75 5135811.27 185.34
-9754694.36 5135811.31 181.03
-9754707.72 5135807.47 188.81
-9754707.73 5135804.50 188.83
-9754707.49 5135797.72 188.84
-9754707.49 5135801.33 188.85
-9754700.25 5135797.06 187.81
-9754704.22 5135800.92 188.88
-9754696.78 5135804.84 184.95
-9754697.71 5135801.00 180.94
-9754701.05 5135794.29 184.94
-9754698.39 5135797.18 187.67
-9754704.21 5135807.73 188.90
-9754695.24 5135806.87 184.69
-9754681.14 5135810.95 180.93
-9754680.88 5135811.91 183.96
-9754687.99 5135800.95 181.01
-9754684.51 5135801.08 184.80
-9754681.24 5135801.54 185.21
-9754680.98 5135804.99 184.87
-9754684.40 5135806.98 184.07
-9754687.65 5135807.77 181.01
-9754683.46 5135794.82 184.87
-9754681.24 5135804.19 191.38
-9754684.14 5135801.16 187.06
-9754678.81 5135820.75 183.87
-9754674.56 5135820.96 181.07
-9754677.65 5135814.31 188.34
-9754674.45 5135817.38 195.17
-9754677.93 5135814.18 194.44
-9754677.48 5135814.01 191.48
-9754674.02 5135820.85 183.44
-9754668.61 5135820.42 184.53
-9754670.90 5135818.00 191.69
-9754665.16 5135821.04 184.06
-9754671.03 5135820.62 195.21
-9754671.44 5135818.41 183.58
-9754671.44 5135820.18 197.22
-9754667.57 5135814.33 189.91
-9754664.88 5135817.70 181.35
-9754673.25 5135819.39 190.65
-9754663.32 5135821.01 188.22
-9754663.12 5135814.26 184.81
-9754661.99 5135816.71 181.50
-9754662.68 5135814.15 191.21
-9754662.56 5135821.14 190.89
-9754662.78 5135817.40 190.71
-9754663.14 5135816.89 184.86
-9754662.91 5135820.34 188.39
-9754661.45 5135814.29 195.96
-9754662.86 5135820.48 185.45
-9754663.41 5135818.49 188.53
-9754663.20 5135820.80 192.19
-9754674.66 5135810.94 181.08
-9754677.99 5135812.03 196.65
-9754681.30 5135797.99 192.33
-9754681.37 5135807.38 191.59
-9754681.85 5135799.38 187.00
-9754680.80 5135805.62 194.34
-9754677.93 5135804.44 180.96
-9754675.05 5135804.69 194.74
-9754674.81 5135798.06 194.99
-9754677.36 5135798.00 192.18
-9754673.77 5135797.91 197.84
-9754674.54 5135808.75 195.27
-9754678.02 5135807.50 192.47
-9754674.26 5135801.12 198.30
-9754678.80 5135794.69 192.41
-9754674.28 5135805.40 197.19
-9754679.40 5135803.74 183.93
-9754676.55 5135804.99 196.62
-9754673.04 5135806.00 191.63
-9754675.96 5135799.78 189.86
-9754680.02 5135810.37 196.41
-9754671.52 5135811.77 195.42
-9754668.07 5135810.58 196.87
-9754664.82 5135810.73 197.72
-9754661.75 5135811.22 181.47
-9754662.67 5135810.94 184.90
-9754665.21 5135810.94 196.07
-9754663.10 5135810.12 184.53
-9754662.66 5135811.48 192.35
-9754663.17 5135812.36 188.46
-9754668.63 5135794.18 194.94
-9754667.77 5135797.47 197.67
-9754671.93 5135806.81 197.71
-9754671.12 5135794.94 197.60
-9754667.94 5135807.92 194.72
-9754671.50 5135804.65 181.16
-9754671.24 5135807.73 191.63
-9754667.73 5135800.88 195.85
-9754661.74 5135807.03 192.59
-9754662.53 5135797.95 188.22
-9754662.58 5135797.33 184.75
-9754661.51 5135807.79 195.95
-9754661.24 5135808.19 181.46
-9754661.79 5135800.60 192.62
-9754661.68 5135801.35 181.30
-9754663.07 5135805.25 184.90
-9754664.97 5135794.59 181.21
-9754662.67 5135804.78 188.33
-9754662.65 5135804.06 191.98
-9754663.08 5135806.80 184.05
-9754662.63 5135808.20 184.55
-9754665.43 5135796.76 197.50
-9754663.27 5135808.19 192.29
-9754663.08 5135806.33 189.26
-9755075.24 5135798.19 183.79
-9755076.70 5135793.67 185.54
-9755078.97 5135790.54 179.94
-9755078.42 5135781.37 180.02
-9755069.82 5135791.35 178.47
-9755066.57 5135791.12 177.74
-9755067.07 5135794.68 178.13
-9755063.27 5135794.76 176.53
