-9754767.05 5135540.80 180.94
-9754763.80 5135547.58 181.10
-9754753.54 5135547.51 181.11
-9754757.33 5135544.03 180.94
-9754740.23 5135547.46 181.15
-9754743.46 5135547.51 181.15
-9754747.28 5135543.97 180.99
-9754740.71 5135547.59 186.77
-9754760.07 5135531.01 180.96
-9754757.14 5135530.96 181.02
-9754763.85 5135537.61 180.95
-9754753.55 5135537.75 181.00
-9754746.85 5135527.98 181.18
-9754740.28 5135534.37 181.04
-9754744.07 5135540.71 181.06
-9754737.05 5135537.72 181.07
-9754750.18 5135523.95 190.24
-9754736.22 5135549.21 185.03
-9754736.49 5135544.20 186.60
-9754730.65 5135547.59 185.08
-9754730.80 5135547.71 181.20
-9754717.82 5135547.98 187.81
-9754717.25 5135547.63 181.24
-9754717.20 5135544.11 181.13
-9754720.74 5135544.08 181.13
-9754736.85 5135528.06 184.69
-9754737.15 5135530.90 181.22
-9754734.20 5135533.87 180.98
-9754733.71 5135524.52 191.89
-9754736.86 5135536.08 183.73
-9754733.77 5135537.64 181.11
-9754730.62 5135534.29 182.49
-9754727.34 5135534.31 181.08
-9754727.31 5135531.10 181.14
-9754730.59 5135531.15 181.11
-9754727.00 5135537.65 181.13
-9754717.31 5135527.78 181.10
-9754717.37 5135524.26 181.18
-9754714.11 5135524.25 181.11
-9754714.07 5135530.71 181.15
-9754723.78 5135537.60 181.13
-9754720.53 5135537.58 181.15
-9754701.02 5135547.57 181.30
-9754704.26 5135544.03 181.12
-9754684.48 5135547.41 181.23
-9754707.60 5135527.75 181.10
-9754701.15 5135527.71 181.30
-9754707.63 5135530.72 181.14
-9754697.60 5135530.91 181.29
-9754704.11 5135524.14 181.31
-9754694.30 5135530.92 181.34
-9754694.35 5135524.41 181.35
-9754691.04 5135534.18 181.19
-9754687.83 5135534.42 181.19
-9754687.53 5135531.14 181.35
-9754687.56 5135527.62 181.41
-9754684.35 5135524.63 181.38
-9754684.27 5135534.41 181.20
-9754687.44 5135540.66 181.33
-9754684.50 5135540.63 181.33
-9754681.27 5135544.47 181.28
-9754664.74 5135547.30 181.30
-9754681.06 5135530.86 181.36
-9754677.80 5135534.06 181.24
-9754678.08 5135527.85 181.42
-9754677.83 5135524.58 181.39
-9754681.04 5135537.34 181.26
-9754674.59 5135531.09 181.39
-9754674.59 5135527.81 181.37
-9754671.11 5135524.51 181.40
-9754671.31 5135534.36 181.18
-9754664.87 5135524.26 181.35
-9754661.59 5135537.57 181.19
-9754664.52 5135540.84 181.26
-9755017.43 5135524.73 177.34
-9755013.95 5135521.18 177.34
-9755004.00 5135511.27 178.33
-9755000.64 5135521.00 177.41
-9754997.22 5135511.62 177.60
-9754997.47 5135515.04 177.76
-9754997.46 5135517.47 177.71
-9755000.94 5135514.24 177.47
-9754988.41 5135514.50 178.26
-9755007.27 5135501.22 177.53
-9755004.08 5135497.87 178.49
-9754997.53 5135501.19 177.63
-9754997.09 5135497.82 178.00
-9755000.80 5135497.90 177.66
-9754974.74 5135520.92 177.39
-9754971.18 5135520.87 177.34
-9754981.02 5135511.11 177.48
-9754977.73 5135508.23 177.55
-9754971.24 5135508.14 177.55
-9754964.50 5135508.08 177.45
-9754981.26 5135517.69 177.38
-9754967.97 5135514.66 177.40
-9754971.23 5135517.93 177.40
-9754967.68 5135517.56 177.35
-9754964.42 5135517.90 177.30
-9754964.46 5135514.63 177.35
-9754961.19 5135521.05 177.99
-9754954.70 5135521.09 177.06
-9754961.23 5135511.33 178.11
-9754960.83 5135518.66 176.71
-9754957.93 5135508.05 177.18
-9754981.01 5135501.09 177.61
-9754977.79 5135504.89 177.61
-9754974.26 5135498.07 177.73
-9754974.56 5135501.65 177.69
-9754967.78 5135501.28 177.61
-9754954.46 5135504.73 177.31
-9754951.47 5135507.71 177.30
-9754945.00 5135510.90 177.27
-9754951.18 5135514.56 177.19
-9754951.17 5135517.77 177.14
-9754928.16 5135520.84 177.96
-9754941.76 5135511.19 177.24
-9754938.21 5135507.93 177.22
-9754941.77 5135514.49 177.19
-9754941.42 5135517.76 177.13
-9754938.12 5135517.77 177.07
-9754938.17 5135514.49 177.13
-9754927.88 5135517.94 178.00
-9754927.94 5135514.33 178.03
-9754951.27 5135501.51 177.40
-9754944.73 5135501.14 178.87
-9754944.74 5135498.31 178.38
-9754951.31 5135498.00 177.45
-9754948.27 5135504.76 177.36
-9754941.51 5135504.70 177.33
-9754941.84 5135497.92 177.43
-9754931.45 5135504.60 177.66
-9754935.04 5135501.12 177.29
-9754931.47 5135501.64 177.70
-9754925.21 5135521.11 178.54
-9754925.28 5135508.12 178.60
-9754918.49 5135520.69 179.88
-9754911.65 5135521.17 181.99
-9754918.82 5135507.73 180.00
-9754914.83 5135507.20 184.64
-9754908.51 5135507.91 180.97
-9754904.92 5135507.90 180.92
-9754921.31 5135515.02 179.15
-9754915.15 5135518.01 181.67
-9754918.79 5135517.44 180.03
-9754921.70 5135517.80 179.39
-9754915.12 5135514.69 181.76
-9754916.67 5135512.95 183.56
-9754911.75 5135517.91 182.03
-9754905.46 5135514.42 180.88
-9754902.00 5135507.86 180.86
-9754901.97 5135511.12 180.85
-9754925.17 5135500.94 178.46
-9754915.95 5135497.81 182.02
-9754915.04 5135504.54 185.06
-9754922.09 5135501.57 179.38
-9754911.78 5135504.59 182.08
-9754908.52 5135501.38 181.02
-9754904.99 5135501.31 180.94
-9754905.30 5135498.12 180.96
-9754901.78 5135501.35 180.86
-9754902.07 5135498.05 180.91
-9754898.41 5135521.23 180.76
-9754892.19 5135520.84 187.86
-9754892.33 5135521.53 185.36
-9754895.46 5135520.90 180.90
-9754898.63 5135523.75 185.36
-9754888.96 5135521.04 182.13
-9754892.14 5135521.21 181.07
-9754895.54 5135507.77 180.93
-9754891.75 5135507.80 181.14
-9754892.38 5135508.25 185.09
-9754898.67 5135514.71 180.78
-9754888.72 5135511.28 188.22
-9754892.12 5135517.16 184.34
-9754891.92 5135517.99 181.11
-9754891.99 5135511.43 181.12
-9754894.53 5135511.18 185.73
-9754892.04 5135514.44 188.35
-9754888.68 5135511.34 184.73
-9754895.48 5135514.51 180.92
-9754895.48 5135514.31 185.65
-9754892.00 5135514.57 181.08
-9754895.22 5135517.60 180.93
-9754888.62 5135514.50 181.98
-9754884.74 5135521.20 184.39
-9754885.52 5135507.93 182.93
-9754881.99 5135508.06 184.90
-9754885.00 5135511.07 184.54
-9754885.79 5135514.41 185.09
-9754886.42 5135511.12 187.77
-9754885.73 5135511.31 182.89
-9754878.74 5135517.58 184.84
-9754875.50 5135514.56 185.30
-9754875.48 5135511.34 185.21
-9754898.50 5135501.35 180.83
-9754898.56 5135498.07 180.85
-9754888.91 5135501.24 188.59
-9754893.09 5135499.09 185.57
-9754888.83 5135504.73 188.19
-9754888.81 5135497.97 188.25
-9754888.55 5135503.76 190.88
-9754895.56 5135501.32 180.92
-9754891.76 5135497.99 181.13
-9754892.02 5135501.51 181.09
-9754889.04 5135501.26 181.73
-9754895.73 5135499.30 185.36
-9754885.57 5135497.88 182.70
-9754882.02 5135501.54 184.67
-9754882.45 5135504.77 184.99
-9754875.59 5135498.01 185.20
-9754883.79 5135498.16 183.32
-9754868.96 5135520.80 184.97
-9754872.55 5135508.04 185.22
-9754858.98 5135521.26 185.88
-9754855.70 5135521.26 185.94
-9754852.51 5135520.96 185.93
-9754865.83 5135507.76 185.08
-9754849.26 5135507.91 185.35
-9754862.48 5135514.79 185.52
-9754859.00 5135510.94 185.88
-9754859.01 5135514.78 185.88
-9754862.78 5135517.74 185.45
-9754859.25 5135517.99 185.89
-9754862.59 5135510.99 185.48
-9754856.03 5135511.51 185.89
-9754848.92 5135517.69 185.32
-9754846.03 5135507.89 185.04
-9754872.25 5135504.80 185.22
-9754868.73 5135504.83 184.97
-9754868.77 5135501.27 184.97
-9754865.83 5135501.54 185.02
-9754862.29 5135504.78 185.51
-9754859.31 5135501.22 185.83
-9754862.33 5135498.23 185.48
-9754865.49 5135504.49 185.13
-9754859.01 5135504.71 185.89
-9754859.06 5135498.18 185.88
-9754856.10 5135501.45 185.82
-9754849.04 5135501.37 185.34
-9754852.54 5135501.41 185.90
-9754856.09 5135504.68 185.84
-9754836.27 5135521.21 190.65
-9754838.86 5135521.32 181.99
-9754832.73 5135521.20 190.66
-9754835.79 5135520.55 182.09
-9754837.88 5135521.36 187.87
-9754842.72 5135511.07 181.00
-9754837.02 5135508.34 185.50
-9754839.68 5135511.30 181.81
-9754836.56 5135511.28 191.68
-9754837.25 5135517.58 185.42
-9754837.11 5135511.22 185.51
-9754837.27 5135514.59 188.66
-9754837.24 5135514.57 185.45
-9754837.08 5135511.37 193.53
-9754832.49 5135514.53 193.49
-9754836.59 5135510.81 181.12
-9754837.36 5135517.44 182.40
-9754839.13 5135517.27 182.11
-9754837.78 5135512.67 183.51
-9754829.55 5135514.61 190.68
-9754825.92 5135517.89 191.52
-9754842.50 5135504.58 180.99
-9754837.11 5135504.82 188.40
-9754839.28 5135498.06 181.03
-9754835.76 5135504.88 191.30
-9754836.81 5135501.20 191.27
-9754836.76 5135497.95 188.04
-9754837.02 5135501.43 184.58
-9754836.12 5135498.41 181.19
-9754839.23 5135504.54 181.04
-9754837.03 5135501.12 188.31
-9754839.30 5135501.54 181.03
-9754832.88 5135504.17 193.53
-9754836.66 5135504.93 181.12
-9754837.15 5135501.51 181.80
-9754836.74 5135501.21 193.52
-9754829.32 5135501.30 190.69
-9754826.15 5135497.97 191.70
-9754822.73 5135501.41 181.24
-9754819.53 5135497.91 181.23
-9754824.36 5135502.53 192.20
-9754813.25 5135521.14 185.10
-9754809.80 5135521.23 188.00
-9754816.49 5135511.21 181.18
-9754812.81 5135511.30 184.98
-9754812.94 5135514.76 181.05
-9754810.15 5135513.65 185.11
-9754807.61 5135521.79 185.60
-9754806.49 5135507.63 181.98
-9754793.22 5135508.13 181.03
-9754806.46 5135514.37 180.85
-9754806.24 5135518.02 181.63
-9754806.47 5135511.47 180.87
-9754807.97 5135511.71 186.87
-9754793.55 5135511.07 181.04
-9754803.18 5135514.36 180.90
-9754799.99 5135514.66 180.89
-9754793.45 5135517.93 181.01
-9754802.96 5135511.15 180.90
-9754803.16 5135517.92 180.91
-9754816.24 5135504.36 181.16
-9754813.07 5135501.51 184.92
-9754813.30 5135501.43 181.06
-9754815.21 5135497.28 184.61
-9754809.58 5135501.39 185.05
-9754809.66 5135497.88 184.99
-9754809.46 5135501.07 181.08
-9754799.73 5135504.35 180.91
-9754793.12 5135501.06 185.05
-9754796.49 5135500.93 181.70
-9754793.19 5135501.53 181.03
-9754799.77 5135501.07 180.94
-9754796.50 5135497.99 182.36
-9754793.21 5135504.53 181.02
-9754782.69 5135521.11 191.71
-9754773.44 5135521.06 195.04
-9754789.99 5135508.04 181.09
-9754786.67 5135508.52 184.75
-9754786.71 5135508.04 181.30
-9754790.81 5135514.72 184.90
-9754786.46 5135514.58 181.16
-9754785.77 5135518.06 185.17
-9754786.43 5135518.42 181.66
-9754785.85 5135517.54 188.61
-9754785.89 5135511.31 187.71
-9754783.54 5135507.86 190.96
-9754779.75 5135507.85 190.95
-9754784.34 5135506.89 181.23
-9754776.53 5135507.94 195.07
-9754780.03 5135511.26 191.56
-9754783.25 5135514.39 190.92
-9754776.58 5135517.83 191.67
-9754773.63 5135517.95 194.90
-9754776.71 5135511.51 195.08
-9754773.27 5135514.48 194.21
-9754770.01 5135521.23 195.04
-9754766.50 5135507.69 195.02
-9754766.61 5135511.39 194.82
-9754766.80 5135517.71 195.05
-9754789.74 5135504.54 181.09
-9754785.59 5135504.44 185.17
-9754786.80 5135501.24 181.19
-9754785.59 5135505.03 188.42
-9754786.49 5135498.01 181.14
-9754785.65 5135501.85 191.68
-9754779.43 5135500.40 181.20
-9754783.62 5135501.53 188.44
-9754780.14 5135500.10 189.28
-9754776.67 5135504.66 191.75
-9754782.86 5135501.38 185.17
-9754776.52 5135501.25 191.46
-9754783.50 5135501.26 181.30
-9754776.10 5135500.49 181.16
-9754777.30 5135500.06 185.93
-9754784.88 5135504.09 188.48
-9754773.67 5135501.37 195.09
-9754774.28 5135499.91 188.09
-9754773.35 5135504.71 194.21
-9754773.18 5135499.39 191.17
-9754773.76 5135500.17 181.19
-9754774.34 5135500.05 184.54
-9754766.42 5135504.66 195.08
-9754766.36 5135501.34 194.96
-9754769.86 5135500.06 185.24
-9754766.87 5135499.39 195.08
-9754769.90 5135499.48 191.66
-9754770.24 5135499.81 188.47
-9754769.65 5135500.37 181.08
-9754766.88 5135499.64 189.16
-9754767.09 5135499.53 191.70
-9754756.74 5135508.06 183.96
-9754760.49 5135507.86 181.00
-9754756.58 5135511.16 182.15
-9754760.42 5135514.40 181.01
-9754758.98 5135511.89 183.61
-9754753.70 5135511.11 181.12
-9754750.35 5135520.99 185.02
-9754749.83 5135521.34 190.58
-9754740.45 5135521.17 191.62
-9754747.20 5135521.17 191.71
-9754744.40 5135507.98 182.17
-9754750.45 5135514.77 184.36
-9754750.12 5135517.65 185.09
-9754740.36 5135514.55 187.52
-9754747.03 5135514.83 190.71
-9754746.97 5135511.76 185.45
-9754743.42 5135514.60 186.95
-9754749.70 5135514.95 187.89
-9754747.18 5135513.12 181.12
-9754744.01 5135513.72 182.55
-9754740.83 5135513.76 184.34
-9754763.55 5135497.89 181.05
-9754753.79 5135504.81 184.42
-9754743.67 5135498.32 182.55
-9754744.61 5135497.84 185.55
-9754743.76 5135501.30 181.24
-9754743.89 5135502.22 187.99
-9754747.02 5135498.04 181.14
-9754739.79 5135503.26 180.90
-9754745.49 5135502.65 188.32
-9754734.09 5135504.71 188.52
-9754737.42 5135513.39 187.55
-9754737.32 5135512.48 190.31
-9754734.01 5135513.42 185.45
-9754733.75 5135514.71 191.17
-9754733.40 5135513.88 181.18
-9754736.35 5135516.04 193.45
-9754734.83 5135513.28 186.67
-9754717.63 5135520.49 185.20
-9754714.12 5135517.94 181.09
-9754722.05 5135517.96 191.42
-9754730.54 5135504.68 188.57
-9754730.68 5135510.43 188.28
-9754730.79 5135517.26 192.39
-9754731.00 5135513.68 185.75
-9754727.39 5135513.69 185.07
-9754720.81 5135507.97 188.09
-9754717.55 5135504.57 188.50
-9754720.80 5135504.51 188.20
-9754720.50 5135504.58 185.51
-9754716.76 5135503.95 184.77
-9754720.98 5135504.77 181.26
-9754714.25 5135504.71 181.83
-9754724.05 5135514.05 185.38
-9754714.15 5135514.45 181.07
-9754722.24 5135513.63 184.85
-9754714.28 5135510.74 185.98
-9754710.91 5135520.93 181.12
-9754714.42 5135504.76 185.12
-9754710.88 5135517.67 181.12
-9754733.95 5135503.62 181.36
-9754729.64 5135500.77 190.11
-9754731.70 5135503.00 181.20
-9754730.22 5135503.03 184.13
-9754728.61 5135499.41 190.08
-9754724.18 5135497.98 190.21
-9754717.51 5135501.41 184.99
-9754720.49 5135501.15 181.26
-9754717.29 5135497.96 181.24
-9754710.77 5135501.45 181.16
-9754710.97 5135504.37 181.15
-9754707.32 5135520.97 181.22
-9754697.62 5135521.16 181.33
-9754707.42 5135507.64 181.21
-9754705.31 5135507.06 184.49
-9754707.40 5135506.30 184.46
-9754700.93 5135508.11 181.34
-9754707.45 5135514.55 184.91
-9754700.96 5135511.11 181.38
-9754707.67 5135517.49 185.14
-9754700.87 5135514.37 181.35
-9754697.75 5135510.97 183.77
-9754697.32 5135506.95 185.06
-9754697.43 5135504.98 184.90
-9754684.55 5135521.02 181.74
-9754687.65 5135517.83 181.27
-9754694.23 5135504.52 181.31
-9754695.43 5135505.60 184.82
-9754684.43 5135508.07 181.16
-9754687.64 5135514.56 181.27
-9754690.93 5135511.37 181.27
-9754704.60 5135501.87 184.80
-9754704.28 5135498.11 181.37
-9754705.45 5135504.62 187.69
-9754707.49 5135494.55 185.05
-9754701.03 5135494.56 181.38
-9754694.25 5135497.74 181.31
-9754690.91 5135501.29 181.22
-9754690.96 5135497.72 181.27
-9754687.99 5135501.25 181.20
-9754684.78 5135501.22 181.15
-9754684.19 5135498.02 181.16
-9754688.04 5135494.44 181.23
-9754691.03 5135495.05 181.27
-9754677.89 5135518.10 181.26
-9754678.25 5135521.07 181.74
-9754677.68 5135507.76 181.21
-9754668.13 5135520.99 181.36
-9754674.68 5135518.04 181.29
-9754674.57 5135522.23 183.54
-9754661.66 5135517.67 181.37
-9754674.40 5135507.98 181.25
-9754671.16 5135508.00 181.33
-9754667.85 5135507.91 181.34
-9754671.48 5135504.74 181.31
-9754667.92 5135504.96 181.34
-9754674.67 5135511.28 181.22
-9754671.40 5135514.53 181.31
-9754674.69 5135511.10 184.65
-9754668.17 5135514.90 183.75
-9754672.43 5135510.96 183.79
-9754661.78 5135507.89 181.40
-9754664.40 5135507.91 181.40
-9754661.15 5135504.65 181.30
-9754664.62 5135514.43 181.38
-9754664.96 5135511.14 181.42
-9754660.35 5135509.48 184.44
-9754681.20 5135498.08 185.39
-9754684.27 5135494.71 181.18
-9754677.73 5135497.96 181.19
-9754674.45 5135498.24 181.27
-9754674.47 5135501.47 181.24
-9754667.94 5135501.12 181.35
-9754671.21 5135498.22 181.31
-9754671.52 5135501.17 181.29
-9754672.03 5135504.49 183.84
-9754674.81 5135494.73 181.26
-9754671.50 5135494.93 181.30
-9754662.26 5135498.10 183.75
-9754667.71 5135494.93 181.33
-9755004.05 5135491.52 178.54
-9755000.79 5135494.41 177.74
-9754994.31 5135494.54 177.76
-9754994.41 5135491.69 177.83
-9754997.71 5135481.31 177.92
-9754990.62 5135475.06 178.06
-9754987.88 5135481.31 178.46
-9754984.39 5135481.79 177.86
-9754980.81 5135491.27 177.77
-9754974.58 5135491.58 177.84
-9754971.07 5135491.23 177.81
-9754971.10 5135488.26 177.85
-9754960.96 5135494.76 178.34
-9754957.79 5135494.71 177.40
-9754980.92 5135475.01 177.99
-9754974.68 5135475.00 178.07
-9754977.65 5135478.55 177.99
-9754974.39 5135478.55 178.03
-9754971.14 5135478.49 177.99
-9754970.85 5135474.95 178.04
-9754967.91 5135481.46 177.90
-9754967.61 5135478.49 177.94
-9754964.40 5135471.66 178.01
-9754964.31 5135481.44 177.86
-9754964.36 5135478.46 177.91
-9754977.63 5135484.76 177.90
-9754974.33 5135485.02 177.93
-9754964.63 5135484.96 177.81
-9754961.14 5135471.61 177.89
-9754957.91 5135471.92 177.71
-9754957.55 5135481.70 177.59
-9754957.86 5135478.09 177.62
-9754957.84 5135484.95 177.53
-9754944.84 5135494.60 178.92
-9754951.62 5135494.69 177.49
-9754944.45 5135492.17 178.34
-9754954.86 5135488.18 177.53
-9754948.36 5135488.13 177.63
-9754944.55 5135488.12 177.61
-9754935.05 5135494.90 177.39
-9754938.36 5135491.37 177.50
-9754931.27 5135491.28 177.75
-9754928.04 5135494.80 178.28
-9754947.85 5135478.05 177.77
-9754944.60 5135474.83 177.82
-9754951.63 5135484.90 177.63
-9754941.43 5135471.81 177.83
-9754938.13 5135477.98 177.69
-9754931.66 5135478.57 177.73
-9754941.30 5135484.80 177.62
-9754928.35 5135478.51 178.29
-9754924.78 5135494.72 178.89
-9754924.84 5135488.29 178.96
-9754908.29 5135494.89 181.01
-9754908.32 5135491.30 181.03
-9754919.27 5135488.48 180.07
-9754905.05 5135488.33 180.99
-9754901.85 5135491.32 180.93
-9754902.09 5135494.83 180.92
-9754925.13 5135478.16 178.81
-9754924.94 5135474.95 178.88
-9754921.68 5135471.93 179.54
-9754919.04 5135481.72 179.19
-9754919.54 5135478.15 180.05
-9754919.34 5135470.70 180.07
-9754908.68 5135481.58 181.08
-9754911.86 5135477.99 181.70
-9754911.59 5135471.72 181.85
-9754911.89 5135481.53 181.32
-9754908.68 5135471.78 181.10
-9754921.72 5135483.04 181.75
-9754905.12 5135478.24 181.01
-9754901.87 5135481.50 180.95
-9754905.20 5135471.45 181.06
-9754901.97 5135471.75 181.01
-9754898.59 5135495.08 180.87
-9754892.04 5135494.95 185.50
-9754891.73 5135494.76 181.13
-9754894.72 5135494.75 187.34
-9754889.16 5135494.72 181.69
-9754895.34 5135491.53 180.98
-9754888.74 5135488.19 188.28
-9754895.11 5135488.57 185.66
-9754888.30 5135487.82 184.48
-9754895.31 5135488.18 180.95
-9754885.60 5135495.24 182.73
-9754885.91 5135491.62 182.80
-9754875.91 5135491.51 185.15
-9754886.02 5135488.04 182.58
-9754882.96 5135490.26 183.24
-9754888.84 5135475.11 188.43
-9754895.19 5135474.92 188.40
-9754889.35 5135474.73 190.17
-9754891.64 5135471.95 181.18
-9754888.73 5135481.75 185.36
-9754892.19 5135474.95 181.02
-9754895.07 5135472.03 188.41
-9754891.81 5135481.60 185.21
-9754888.48 5135475.02 184.77
-9754894.64 5135471.65 185.51
-9754888.89 5135471.59 188.35
-9754891.85 5135471.46 185.11
-9754888.98 5135471.56 181.69
-9754898.68 5135478.21 180.90
-9754892.11 5135481.41 181.03
-9754888.93 5135481.39 181.80
-9754888.80 5135471.44 185.09
-9754891.94 5135484.88 188.50
-9754888.35 5135485.32 184.99
-9754895.06 5135484.71 180.97
-9754889.02 5135484.51 190.69
-9754888.92 5135485.03 181.71
-9754885.66 5135481.70 182.53
-9754886.97 5135482.07 187.52
-9754886.80 5135473.76 190.12
-9754882.05 5135478.47 185.00
-9754875.45 5135474.98 185.20
-9754883.65 5135475.38 183.22
-9754875.44 5135471.98 185.21
-9754883.00 5135478.36 183.36
-9754883.17 5135481.27 183.28
-9754882.25 5135484.93 185.00
-9754883.02 5135485.19 183.34
-9754865.60 5135494.72 185.06
-9754862.30 5135494.91 185.49
-9754855.84 5135494.93 185.85
-9754852.32 5135491.34 185.90
-9754872.43 5135474.91 185.22
-9754869.20 5135475.22 185.14
-9754869.13 5135484.91 185.08
-9754865.68 5135478.13 184.97
-9754865.62 5135481.63 185.00
-9754862.44 5135481.68 185.36
-9754858.94 5135481.62 185.87
-9754848.89 5135474.80 185.41
-9754855.95 5135471.80 185.84
-9754848.95 5135471.79 185.45
-9754862.41 5135484.91 185.37
-9754865.64 5135484.97 185.00
-9754852.35 5135485.12 185.89
-9754855.68 5135485.11 185.83
-9754849.39 5135484.80 185.49
-9754845.83 5135491.61 185.02
-9754836.74 5135494.91 188.55
-9754836.74 5135491.32 182.02
-9754836.83 5135494.97 182.12
-9754836.70 5135491.35 191.60
-9754836.82 5135491.63 188.33
-9754829.35 5135494.81 190.68
-9754829.36 5135491.34 190.69
-9754837.83 5135495.51 190.45
-9754845.87 5135488.05 185.01
-9754839.30 5135487.95 180.99
-9754836.64 5135487.94 188.46
-9754836.17 5135488.52 191.20
-9754836.62 5135488.18 181.67
-9754831.02 5135488.99 193.50
-9754825.41 5135494.78 191.33
-9754826.10 5135491.54 190.70
-9754819.58 5135494.95 181.25
-9754824.01 5135491.68 192.21
-9754824.17 5135488.93 191.70
-9754842.35 5135481.75 180.84
-9754844.24 5135477.75 185.00
-9754845.90 5135484.79 184.98
-9754842.58 5135484.95 180.87
-9754836.16 5135471.77 181.41
-9754839.40 5135478.13 180.89
-9754839.37 5135474.92 180.92
-9754832.61 5135478.49 181.01
-9754836.19 5135474.90 181.02
-9754839.38 5135481.73 180.92
-9754832.74 5135471.75 190.65
-9754836.08 5135472.30 191.60
-9754836.61 5135484.65 188.16
-9754836.40 5135484.49 184.62
-9754832.78 5135484.37 185.25
-9754839.41 5135484.96 180.95
-9754832.88 5135484.63 181.13
-9754832.55 5135484.48 188.42
-9754829.92 5135484.48 188.02
-9754823.09 5135471.61 181.54
-9754826.11 5135478.15 181.07
-9754822.64 5135481.68 181.08
-9754819.65 5135475.08 181.09
-9754822.85 5135484.94 181.75
-9754812.91 5135491.32 188.10
-9754813.07 5135491.34 181.12
-9754813.11 5135494.65 181.07
-9754814.71 5135496.69 187.41
-9754809.49 5135491.48 184.70
-9754816.04 5135488.15 181.19
-9754813.09 5135488.11 181.09
-9754806.41 5135491.50 185.07
-9754806.73 5135494.71 188.57
-9754793.11 5135491.89 184.96
-9754793.27 5135494.77 181.03
-9754796.64 5135491.30 180.94
-9754793.02 5135488.21 181.08
-9754799.80 5135488.31 180.95
-9754796.67 5135488.15 182.09
-9754816.12 5135481.57 181.11
-9754816.39 5135478.07 181.12
-9754812.92 5135471.79 185.22
-9754813.15 5135485.11 181.12
-9754813.16 5135481.59 181.10
-9754812.97 5135471.57 181.12
-9754809.82 5135471.62 185.01
-9754810.01 5135471.76 181.11
-9754809.80 5135474.65 187.53
-9754816.44 5135468.28 181.16
-9754806.38 5135471.75 180.90
-9754812.85 5135468.39 184.63
-9754810.06 5135468.71 185.10
-9754806.79 5135473.04 186.94
-9754809.69 5135468.26 180.99
-9754806.40 5135468.41 182.30
-9754793.12 5135481.79 181.13
-9754793.11 5135471.70 181.03
-9754793.11 5135474.99 184.94
-9754799.87 5135481.80 180.97
-9754793.13 5135474.92 181.09
-9754796.66 5135474.97 180.93
-9754803.15 5135475.00 180.94
-9754802.87 5135468.49 180.92
-9754806.62 5135485.05 180.94
-9754796.57 5135484.70 182.05
-9754799.83 5135485.07 180.97
-9754790.06 5135494.73 181.11
-9754786.85 5135491.52 181.20
-9754783.62 5135491.46 181.34
-9754783.64 5135491.03 184.83
-9754783.60 5135491.37 188.00
-9754779.86 5135494.82 191.65
-9754783.60 5135494.39 188.00
-9754783.75 5135494.91 185.13
-9754776.97 5135491.50 192.58
-9754773.60 5135491.47 191.77
-9754789.80 5135488.26 181.15
-9754779.90 5135487.99 191.67
-9754783.48 5135487.92 191.31
-9754783.73 5135488.24 185.11
-9754773.62 5135488.20 191.82
-9754767.16 5135494.64 185.22
-9754767.66 5135493.54 188.35
-9754768.34 5135494.38 190.27
-9754793.17 5135468.42 181.03
-9754791.13 5135475.23 185.16
-9754790.16 5135474.91 181.16
-9754786.93 5135471.67 181.22
-9754789.82 5135481.70 181.16
-9754790.14 5135484.68 181.14
-9754786.59 5135484.98 181.19
-9754783.41 5135478.59 184.92
-9754783.26 5135482.11 181.58
-9754779.95 5135474.97 191.90
-9754783.46 5135471.69 184.99
-9754779.95 5135471.63 191.53
-9754783.38 5135471.69 181.80
-9754786.38 5135468.37 181.18
-9754783.36 5135474.83 181.85
-9754783.16 5135474.99 184.81
-9754779.89 5135478.26 191.43
-9754783.29 5135468.24 181.70
-9754783.41 5135468.46 184.83
-9754780.04 5135481.34 181.20
-9754776.86 5135481.32 181.19
-9754777.00 5135474.93 192.49
-9754783.38 5135482.47 190.86
-9754777.01 5135471.63 192.45
-9754773.46 5135481.59 181.73
-9754773.45 5135482.45 190.70
-9754783.40 5135484.61 181.80
-9754783.55 5135484.92 191.53
-9754783.13 5135482.08 184.47
-9754781.58 5135486.60 181.33
-9754773.37 5135484.98 191.73
-9754772.98 5135482.39 185.21
-9754777.60 5135482.37 186.71
-9754773.64 5135482.56 186.81
-9754766.74 5135471.63 191.75
-9754770.46 5135482.28 184.54
-9754767.88 5135478.22 190.19
-9754770.42 5135482.41 190.55
-9754767.76 5135485.23 188.31
-9754760.27 5135494.89 181.02
-9754760.02 5135488.10 181.04
-9754753.87 5135488.15 184.39
-9754750.36 5135491.22 181.13
-9754744.64 5135495.25 185.00
-9754749.54 5135494.45 181.87
-9754743.32 5135492.34 185.29
-9754747.30 5135494.52 181.87
-9754740.62 5135494.68 189.06
-9754744.38 5135495.09 182.67
-9754746.59 5135490.24 183.65
-9754746.78 5135488.24 181.22
-9754743.92 5135487.89 182.66
-9754767.63 5135468.26 188.26
-9754760.14 5135471.76 181.01
-9754760.14 5135468.26 181.01
-9754760.35 5135484.84 181.03
-9754757.11 5135485.02 181.77
-9754753.90 5135471.62 183.68
-9754753.73 5135481.68 183.73
-9754750.44 5135481.41 183.73
-9754750.60 5135481.76 181.18
-9754747.13 5135475.22 181.19
-9754747.14 5135478.16 181.62
-9754744.01 5135478.15 182.60
-9754744.21 5135478.02 185.21
-9754743.71 5135472.26 185.40
-9754743.61 5135471.73 181.23
-9754740.73 5135472.36 185.10
-9754748.40 5135481.94 183.78
-9754743.85 5135474.89 182.67
-9754740.73 5135482.27 188.15
-9754748.33 5135471.95 183.67
-9754749.05 5135468.77 181.58
-9754741.11 5135469.64 181.33
-9754750.62 5135484.62 184.22
-9754744.43 5135484.91 184.87
-9754743.97 5135484.48 182.74
-9754747.13 5135485.02 181.18
-9754737.49 5135492.22 185.13
-9754737.39 5135488.13 189.17
-9754731.10 5135493.56 181.37
-9754717.67 5135494.55 185.16
-9754717.53 5135494.94 181.21
-9754724.81 5135495.35 188.38
-9754724.44 5135495.41 190.13
-9754725.58 5135493.00 190.15
-9754730.63 5135488.04 189.24
-9754726.80 5135488.65 189.82
-9754714.02 5135488.11 181.16
-9754720.61 5135488.09 181.22
-9754737.15 5135475.09 189.12
-9754737.17 5135478.13 189.12
-9754737.55 5135482.41 185.12
-9754733.88 5135471.96 181.30
-9754736.58 5135473.92 181.25
-9754736.59 5135484.01 181.29
-9754730.43 5135471.90 181.29
-9754727.75 5135478.53 190.22
-9754727.97 5135485.10 190.45
-9754726.49 5135483.30 181.42
-9754724.24 5135471.01 190.13
-9754717.39 5135471.54 181.19
-9754717.56 5135474.78 185.18
-9754719.46 5135472.43 184.72
-9754720.54 5135474.82 181.30
-9754720.62 5135478.37 181.29
-9754714.16 5135468.30 182.18
-9754723.96 5135484.84 185.22
-9754717.53 5135485.23 181.27
-9754714.39 5135484.84 181.16
-9754710.56 5135471.50 181.16
-9754710.55 5135478.28 181.18
-9754710.53 5135481.54 181.18
-9754700.63 5135491.38 185.04
-9754707.55 5135491.33 181.15
-9754704.67 5135495.06 187.38
-9754705.30 5135492.46 187.13
-9754704.35 5135488.04 181.37
-9754707.05 5135486.68 184.97
-9754707.56 5135488.09 181.17
-9754697.55 5135487.98 181.33
-9754694.28 5135491.21 181.31
-9754691.06 5135491.53 181.26
-9754687.53 5135488.21 181.26
-9754694.01 5135488.27 181.32
-9754707.59 5135471.81 181.11
-9754704.13 5135471.44 181.37
-9754704.11 5135468.50 181.34
-9754704.22 5135481.61 184.95
-9754707.23 5135481.63 185.03
-9754707.35 5135474.69 181.12
-9754700.89 5135468.09 181.32
-9754709.54 5135480.35 186.69
-9754707.60 5135484.92 184.75
-9754704.38 5135484.50 187.42
-9754701.35 5135484.74 181.36
-9754694.36 5135475.29 181.33
-9754694.42 5135468.46 181.31
-9754687.57 5135468.40 181.21
-9754691.16 5135468.41 181.28
-9754684.59 5135478.14 181.21
-9754687.54 5135481.73 181.22
-9754684.36 5135468.66 181.16
-9754681.03 5135488.16 181.20
-9754668.04 5135491.35 181.33
-9754661.55 5135491.32 181.32
-9754674.55 5135488.14 181.29
-9754671.56 5135488.16 181.26
-9754668.06 5135488.11 181.30
-9754670.64 5135486.96 184.57
-9754671.34 5135484.89 181.23
-9754681.09 5135475.16 181.19
-9754681.05 5135481.67 181.18
-9754677.81 5135478.08 181.21
-9754677.82 5135484.96 181.23
-9754671.34 5135474.99 183.82
-9754668.15 5135475.24 184.34
-9754674.70 5135468.31 181.23
-9754668.14 5135474.81 181.25
-9754671.13 5135468.29 181.25
-9754664.82 5135478.07 181.32
-9754664.91 5135468.28 181.35
-9754664.24 5135480.77 184.28
-9754967.69 5135468.35 178.09
-9754960.93 5135468.33 177.95
-9754977.71 5135465.19 178.18
-9754971.23 5135461.89 178.24
-9754974.52 5135461.59 178.27
-9754977.77 5135451.86 178.36
-9754971.28 5135451.78 178.35
-9754977.74 5135455.43 178.30
-9754967.74 5135455.07 178.28
-9754957.96 5135465.09 177.80
-9754958.05 5135461.86 177.85
-9754957.78 5135452.04 177.98
-9754957.99 5135458.32 177.89
-9754981.06 5135448.37 178.34
-9754977.54 5135448.34 178.40
-9754961.34 5135448.56 178.23
-9754961.34 5135445.25 178.28
-9754957.77 5135445.24 178.08
-9754951.15 5135468.32 177.89
-9754944.69 5135468.26 177.92
-9754951.50 5135464.75 177.94
-9754948.23 5135465.00 177.96
-9754944.65 5135464.98 177.97
-9754944.74 5135461.80 178.01
-9754954.52 5135452.00 178.05
-9754951.52 5135452.03 178.10
-9754948.01 5135455.22 178.09
-9754948.25 5135458.29 178.05
-9754951.48 5135458.60 178.01
-9754944.73 5135458.51 178.07
-9754934.94 5135465.24 177.82
-9754938.22 5135461.73 177.94
-9754928.19 5135464.90 178.40
-9754938.26 5135455.19 178.01
-9754931.85 5135451.90 177.95
-9754935.00 5135458.45 177.92
-9754937.99 5135458.45 177.97
-9754928.28 5135452.12 178.49
-9754928.30 5135445.34 178.52
-9754924.95 5135468.40 178.77
-9754918.13 5135468.40 184.86
-9754919.03 5135468.95 181.52
-9754919.67 5135468.28 179.98
-9754911.99 5135468.23 181.36
-9754901.95 5135468.52 181.01
-9754925.27 5135455.10 178.77
-9754915.09 5135465.12 184.61
-9754921.69 5135465.12 179.41
-9754914.33 5135465.33 182.58
-9754919.70 5135465.05 180.05
-9754920.15 5135467.83 182.56
-9754919.39 5135461.79 179.89
-9754911.72 5135461.74 181.40
-9754908.78 5135464.96 181.12
-9754908.75 5135461.72 181.15
-9754914.70 5135451.95 180.73
-9754918.25 5135455.28 180.10
-9754921.80 5135458.59 179.44
-9754908.48 5135458.43 181.15
-9754905.23 5135461.94 181.10
-9754902.00 5135461.68 181.04
-9754902.06 5135451.86 181.09
-9754905.56 5135458.38 181.11
-9754914.80 5135445.45 180.74
-9754914.78 5135441.89 180.82
-9754905.32 5135445.41 181.18
-9754895.17 5135468.15 181.03
-9754892.20 5135468.13 181.08
-9754885.72 5135468.07 187.67
-9754879.23 5135468.21 185.11
-9754882.55 5135468.55 183.31
-9754895.15 5135465.45 181.05
-9754888.63 5135464.93 185.06
-9754892.29 5135464.86 181.07
-9754891.95 5135461.64 181.09
-9754888.82 5135461.84 181.68
-9754895.04 5135466.61 186.82
-9754892.13 5135461.83 188.39
-9754889.10 5135462.07 190.17
-9754895.10 5135455.13 185.56
-9754892.21 5135452.00 188.42
-9754898.84 5135455.08 181.02
-9754888.56 5135451.76 181.66
-9754891.97 5135451.75 181.16
-9754888.66 5135455.30 188.12
-9754892.07 5135455.15 181.11
-9754895.25 5135455.07 180.99
-9754888.50 5135448.44 181.66
-9754891.94 5135458.69 181.12
-9754895.00 5135458.36 181.08
-9754885.73 5135465.32 182.46
-9754885.28 5135465.19 183.88
-9754885.61 5135461.65 184.78
-9754882.30 5135464.71 183.20
-9754881.98 5135461.12 185.02
-9754882.52 5135461.77 183.15
-9754885.60 5135454.96 182.34
-9754885.56 5135448.80 182.42
-9754882.89 5135452.79 184.21
-9754878.95 5135455.18 185.05
-9754879.10 5135451.93 185.22
-9754884.93 5135448.24 184.23
-9754882.02 5135455.88 184.46
-9754875.84 5135455.07 185.01
-9754875.61 5135448.55 184.97
-9754885.30 5135458.29 182.43
-9754882.56 5135458.75 182.97
-9754902.11 5135441.87 181.12
-9754892.26 5135445.24 188.35
-9754888.55 5135445.66 188.40
-9754891.75 5135445.46 190.82
-9754895.29 5135445.33 181.03
-9754892.42 5135444.89 185.70
-9754888.59 5135445.30 181.66
-9754889.16 5135445.44 186.23
-9754892.24 5135442.09 188.12
-9754892.15 5135441.86 181.21
-9754888.52 5135442.29 181.73
-9754879.19 5135445.36 185.09
-9754885.34 5135441.92 182.42
-9754872.55 5135468.36 185.21
-9754862.52 5135468.63 185.32
-9754852.75 5135468.26 185.90
-9754848.92 5135468.51 185.47
-9754872.52 5135464.84 185.21
-9754869.05 5135461.57 185.20
-9754872.06 5135448.79 185.21
-9754872.01 5135452.03 185.23
-9754869.07 5135451.81 185.28
-9754868.82 5135448.81 185.17
-9754868.76 5135458.60 185.13
-9754859.24 5135461.49 185.89
-9754855.42 5135461.77 185.82
-9754862.24 5135455.31 185.28
-9754859.32 5135451.97 185.89
-9754862.31 5135448.81 185.27
-9754849.03 5135455.23 185.64
-9754852.58 5135451.91 185.89
-9754865.81 5135458.59 184.99
-9754862.53 5135458.56 185.28
-9754859.30 5135458.50 185.89
-9754855.46 5135458.51 185.80
-9754862.32 5135445.56 185.28
-9754859.11 5135445.20 185.89
-9754849.08 5135445.12 185.74
-9754849.12 5135441.85 185.75
-9754836.36 5135468.33 185.16
-9754836.53 5135468.57 182.10
-9754839.46 5135468.18 180.97
-9754836.36 5135468.49 191.15
-9754836.11 5135468.33 193.53
-9754829.50 5135468.44 190.68
-9754830.54 5135468.73 193.54
-9754845.97 5135465.01 184.80
-9754845.98 5135461.80 184.83
-9754835.84 5135465.27 191.60
-9754832.75 5135461.67 190.65
-9754846.08 5135448.74 184.99
-9754846.05 5135451.97 184.94
-9754842.54 5135451.81 180.96
-9754843.78 5135452.04 185.00
-9754842.47 5135458.36 180.94
-9754836.08 5135452.04 188.27
-9754836.15 5135451.96 185.10
-9754839.30 5135448.50 182.19
-9754835.79 5135448.48 188.41
-9754836.01 5135448.66 184.94
-9754839.24 5135455.02 181.04
-9754835.70 5135453.54 193.42
-9754829.35 5135451.86 190.66
-9754830.22 5135455.00 193.50
-9754836.02 5135458.28 188.65
-9754836.14 5135458.53 184.70
-9754836.07 5135458.03 181.82
-9754829.57 5135458.72 190.67
-9754823.75 5135462.16 191.72
-9754819.52 5135448.74 181.20
-9754823.57 5135450.09 191.71
-9754819.47 5135454.95 181.21
-9754819.48 5135458.49 181.23
-9754846.04 5135445.47 184.91
-9754843.47 5135442.04 185.02
-9754835.95 5135445.38 191.51
-9754836.01 5135444.95 182.02
-9754836.12 5135445.26 188.14
-9754835.96 5135442.55 191.61
-9754835.85 5135442.32 181.73
-9754832.72 5135442.43 193.51
-9754829.99 5135444.73 193.52
-9754819.56 5135442.22 181.20
-9754816.46 5135465.00 181.20
-9754812.98 5135465.05 181.08
-9754812.91 5135461.99 181.07
-9754809.26 5135462.06 185.18
-9754810.06 5135461.87 181.12
-9754815.95 5135455.20 181.15
-9754816.28 5135448.70 181.21
-9754812.77 5135452.00 181.05
-9754812.77 5135448.73 181.04
-9754809.83 5135451.96 181.03
-9754812.99 5135458.17 181.07
-9754810.17 5135456.32 184.32
-9754793.26 5135461.73 184.89
-9754793.47 5135465.16 181.04
-9754796.45 5135461.91 180.88
-9754804.57 5135462.52 185.66
-9754809.46 5135455.17 180.98
-9754809.52 5135448.68 181.05
-9754793.38 5135451.81 185.14
-9754796.55 5135452.17 180.86
-9754793.25 5135455.11 181.03
-9754792.96 5135451.82 181.01
-9754796.21 5135448.64 180.86
-9754799.75 5135455.44 180.90
-9754792.92 5135458.41 181.06
-9754806.30 5135442.12 180.82
-9754807.75 5135446.93 184.93
-9754793.66 5135444.96 181.58
-9754799.75 5135445.37 180.89
-9754792.80 5135442.20 185.25
-9754796.29 5135442.06 180.87
-9754786.39 5135464.83 181.18
-9754780.11 5135465.14 186.74
-9754780.20 5135465.14 184.79
-9754783.15 5135465.13 185.46
-9754776.83 5135465.58 190.95
-9754776.77 5135461.92 191.67
-9754777.01 5135465.03 181.23
-9754773.27 5135465.06 181.72
-9754773.25 5135465.40 184.87
-9754786.48 5135451.81 181.98
-9754789.86 5135448.63 185.02
-9754785.90 5135451.82 184.73
-9754786.46 5135448.73 181.65
-9754785.83 5135449.00 184.73
-9754786.69 5135458.60 181.68
-9754790.99 5135459.49 187.18
-9754783.79 5135451.53 187.73
-9754783.57 5135452.16 191.69
-9754783.90 5135448.04 187.92
-9754784.22 5135452.00 181.75
-9754783.90 5135455.27 185.22
-9754783.90 5135455.36 188.39
-9754783.72 5135455.15 191.68
-9754783.74 5135448.58 181.21
-9754773.57 5135451.91 195.03
-9754775.92 5135454.89 194.99
-9754773.68 5135449.06 195.01
-9754784.11 5135458.48 188.45
-9754783.96 5135458.95 184.89
-9754780.66 5135458.84 191.66
-9754780.84 5135459.52 181.32
-9754776.88 5135458.37 190.86
-9754776.19 5135458.97 194.98
-9754767.92 5135465.17 190.22
-9754770.09 5135452.00 194.20
-9754766.89 5135455.22 194.15
-9754766.92 5135451.99 194.20
-9754790.11 5135442.07 181.08
-9754789.89 5135442.00 185.05
-9754786.53 5135442.02 181.14
-9754783.56 5135445.66 188.46
-9754780.16 5135445.37 190.88
-9754783.72 5135445.10 191.66
-9754783.43 5135442.13 185.29
-9754783.32 5135442.02 181.25
-9754780.13 5135441.94 181.30
-9754780.36 5135442.01 185.11
-9754776.94 5135442.08 190.87
-9754775.05 5135444.82 191.84
-9754772.90 5135440.49 191.75
-9754766.89 5135445.40 194.14
-9754770.12 5135445.16 194.14
-9754764.41 5135461.53 194.89
-9754760.20 5135465.01 180.99
-9754756.97 5135462.28 181.69
-9754760.18 5135461.99 180.99
-9754753.76 5135465.30 184.47
-9754764.24 5135455.45 195.01
-9754760.23 5135451.93 180.96
-9754756.60 5135452.18 181.78
-9754760.27 5135448.70 180.96
-9754756.44 5135452.13 183.66
-9754764.79 5135458.74 195.04
-9754756.41 5135458.65 183.83
-9754753.74 5135451.89 181.08
-9754747.21 5135461.72 182.06
-9754747.19 5135465.02 181.57
-9754744.08 5135461.51 182.02
-9754740.19 5135462.39 188.18
-9754744.11 5135465.30 185.06
-9754743.71 5135462.44 188.05
-9754747.84 5135461.95 183.71
-9754750.22 5135452.19 181.12
-9754743.75 5135452.54 185.25
-9754740.55 5135452.07 181.86
-9754743.80 5135455.35 188.38
-9754746.06 5135451.00 184.31
-9754743.80 5135448.40 190.42
-9754739.96 5135449.32 188.26
-9754750.51 5135455.30 184.23
-9754743.80 5135458.31 184.85
-9754747.92 5135455.25 183.60
-9754756.51 5135445.25 184.01
-9754753.56 5135442.01 185.14
-9754747.94 5135444.75 187.79
-9754748.02 5135447.58 187.79
-9754743.58 5135441.90 191.79
-9754734.03 5135465.00 189.09
-9754733.71 5135461.90 181.28
-9754736.10 5135463.66 181.29
-9754737.11 5135448.40 191.05
-9754733.97 5135451.88 181.43
-9754736.44 5135453.87 181.59
-9754737.30 5135458.59 188.42
-9754730.07 5135462.50 188.57
-9754727.59 5135462.38 190.09
-9754727.47 5135461.86 181.25
-9754727.82 5135462.58 185.16
-9754729.01 5135462.89 190.07
-9754729.91 5135463.73 181.23
-9754717.48 5135465.28 181.19
-9754717.42 5135465.06 184.96
-9754720.72 5135461.78 181.24
-9754714.46 5135465.01 185.02
-9754720.66 5135465.05 181.25
-9754713.86 5135465.04 181.08
-9754730.36 5135452.57 184.65
-9754730.93 5135449.58 184.65
-9754732.89 5135450.64 190.28
-9754727.90 5135458.50 189.22
-9754717.55 5135451.73 188.57
-9754721.20 5135448.71 188.51
-9754717.57 5135451.93 181.22
-9754717.55 5135448.74 181.18
-9754713.96 5135448.71 181.01
-9754717.43 5135458.49 184.75
-9754720.75 5135454.94 188.45
-9754714.39 5135455.26 188.71
-9754714.36 5135458.51 185.40
-9754737.08 5135442.16 191.84
-9754730.63 5135441.75 191.62
-9754724.14 5135445.06 191.02
-9754717.57 5135441.92 181.15
-9754707.38 5135464.96 181.09
-9754700.94 5135461.64 181.34
-9754707.66 5135461.69 181.07
-9754697.67 5135465.17 181.34
-9754707.23 5135448.69 181.04
-9754701.01 5135452.15 181.34
-9754697.78 5135452.16 181.31
-9754704.19 5135458.39 181.27
-9754704.22 5135455.15 181.28
-9754702.21 5135459.49 184.33
-9754691.19 5135465.17 181.23
-9754687.66 5135465.14 181.17
-9754684.70 5135465.16 181.16
-9754694.51 5135452.16 181.32
-9754688.01 5135452.10 181.25
-9754684.76 5135448.50 181.22
-9754687.71 5135458.62 181.19
-9754684.41 5135458.59 181.12
-9754701.05 5135445.35 181.36
-9754704.02 5135442.14 181.26
-9754687.83 5135442.06 181.33
-9754684.25 5135442.03 181.32
-9754681.17 5135461.57 181.08
-9754677.92 5135465.04 181.15
-9754681.27 5135448.53 181.18
-9754681.21 5135455.33 181.13
-9754681.19 5135458.57 181.08
-9754677.93 5135458.29 181.12
-9754674.72 5135461.79 181.21
-9754668.19 5135463.42 185.00
-9754664.69 5135461.79 181.34
-9754661.43 5135461.73 181.34
-9754671.23 5135452.00 181.29
-9754671.51 5135448.74 181.29
-9754668.25 5135451.98 181.37
-9754671.44 5135458.30 184.44
-9754674.75 5135455.02 181.24
-9754668.49 5135458.76 183.88
-9754667.96 5135454.95 181.36
-9754667.93 5135458.17 181.35
-9754661.17 5135451.94 181.33
-9754661.47 5135448.71 181.38
-9754664.10 5135458.93 184.34
-9754664.95 5135458.77 181.38
-9754681.31 5135442.02 181.28
-9754671.53 5135441.94 181.28
-9754666.87 5135444.45 183.69
-9754977.65 5135435.27 178.56
-9754958.11 5135435.15 178.19
-9754957.83 5135439.01 178.14
-9754974.74 5135428.77 178.67
-9754961.14 5135425.67 178.52
-9754957.63 5135422.10 178.35
-9754957.85 5135428.65 178.27
-9754951.04 5135441.96 178.25
-9754948.12 5135435.36 178.36
-9754941.64 5135435.64 178.32
-9754941.64 5135438.91 178.29
-9754934.88 5135438.62 178.20
-9754934.87 5135432.38 178.27
-9754928.38 5135438.55 178.50
-9754928.35 5135441.81 178.53
-9754954.35 5135425.38 178.41
-9754947.89 5135425.64 178.48
-9754951.13 5135422.09 178.49
-9754947.87 5135428.84 178.44
-9754951.44 5135415.26 178.56
-9754941.10 5135428.85 178.40
-9754941.39 5135425.55 178.45
-9754931.36 5135428.78 178.27
-9754934.69 5135419.00 178.45
-9754938.13 5135428.82 178.38
-9754928.13 5135425.54 178.64
-9754928.21 5135418.68 178.69
-9754924.84 5135435.49 178.95
-9754924.83 5135431.99 179.02
-9754918.07 5135441.97 180.24
-9754917.82 5135435.45 180.27
-9754921.87 5135438.76 179.48
-9754914.81 5135435.65 180.75
-9754918.39 5135432.17 180.23
-9754908.69 5135432.09 181.24
-9754901.85 5135438.56 181.11
-9754928.22 5135415.71 178.69
-9754917.85 5135422.36 180.29
-9754921.97 5135422.45 179.54
-9754918.75 5135419.20 180.07
-9754921.71 5135415.94 179.54
-9754915.13 5135428.88 180.77
-9754908.46 5135422.29 181.30
-9754911.69 5135415.54 181.43
-9754908.35 5135428.82 181.26
-9754908.47 5135415.52 181.30
-9754905.22 5135422.30 181.23
-9754905.19 5135415.75 181.25
-9754898.36 5135435.29 181.10
-9754891.82 5135432.06 188.52
-9754888.66 5135435.53 181.64
-9754891.26 5135435.42 185.22
-9754891.70 5135431.56 185.04
-9754891.88 5135435.30 181.22
-9754898.90 5135438.59 181.08
-9754888.60 5135438.76 181.66
-9754892.13 5135438.75 181.19
-9754888.93 5135432.33 184.97
-9754895.13 5135432.18 190.31
-9754878.59 5135438.69 185.08
-9754875.63 5135435.57 184.82
-9754885.51 5135432.18 188.24
-9754882.43 5135432.15 182.92
-9754875.65 5135432.36 184.90
-9754898.47 5135419.03 181.11
-9754895.21 5135418.71 181.01
-9754891.93 5135428.62 188.82
-9754892.55 5135425.35 184.81
-9754888.78 5135415.77 191.88
-9754892.10 5135415.47 188.20
-9754891.97 5135418.88 188.24
-9754888.76 5135429.02 188.85
-9754891.93 5135422.15 181.25
-9754888.64 5135422.16 181.60
-9754898.69 5135425.54 181.11
-9754888.65 5135425.67 181.67
-9754888.82 5135415.69 181.48
-9754895.17 5135415.67 181.07
-9754898.66 5135428.80 181.09
-9754882.18 5135422.09 182.89
-9754885.46 5135415.57 182.34
-9754881.29 5135419.00 184.44
-9754878.76 5135415.90 184.87
-9754875.69 5135425.50 184.89
-9754882.37 5135416.23 184.06
-9754872.11 5135438.79 185.21
-9754872.13 5135435.48 185.20
-9754868.85 5135438.77 185.20
-9754872.14 5135428.74 185.21
-9754859.13 5135435.43 185.87
-9754862.38 5135438.73 185.24
-9754849.15 5135435.36 185.80
-9754848.82 5135432.09 185.76
-9754852.42 5135428.59 185.89
-9754849.16 5135428.88 185.88
-9754872.46 5135425.75 185.21
-9754872.23 5135422.20 185.20
-9754868.99 5135418.90 185.26
-9754865.68 5135425.40 185.04
-9754865.75 5135415.65 184.99
-9754859.23 5135419.14 185.89
-9754855.71 5135422.34 185.89
-9754855.96 5135425.37 185.89
-9754852.58 5135415.83 185.90
-9754848.96 5135415.83 185.87
-9754845.83 5135435.70 185.03
-9754842.85 5135435.51 182.04
-9754843.50 5135438.54 185.02
-9754842.54 5135438.53 180.98
-9754843.35 5135432.12 185.03
-9754835.87 5135435.33 185.07
-9754835.84 5135432.16 181.54
-9754833.69 5135438.27 181.39
-9754829.77 5135431.98 193.53
-9754843.33 5135428.55 185.01
-9754833.34 5135429.32 191.58
-9754835.39 5135428.73 192.19
-9754826.18 5135432.33 190.71
-9754819.64 5135438.98 181.21
-9754846.00 5135415.52 185.18
-9754843.22 5135425.25 185.00
-9754840.48 5135419.62 184.49
-9754833.26 5135426.48 191.73
-9754835.54 5135426.71 188.51
-9754835.91 5135415.74 181.04
-9754835.77 5135426.69 184.84
-9754832.61 5135426.80 188.15
-9754829.05 5135422.45 181.70
-9754826.18 5135419.16 181.09
-9754822.93 5135418.86 181.10
-9754829.76 5135415.61 181.05
-9754823.65 5135426.64 191.71
-9754816.36 5135438.63 181.19
-9754812.79 5135438.64 181.07
-9754813.15 5135432.13 181.02
-9754809.59 5135435.64 181.03
-9754803.12 5135438.56 180.88
-9754796.54 5135438.88 180.89
-9754799.81 5135435.61 180.91
-9754796.35 5135432.29 180.93
-9754799.88 5135432.34 180.94
-9754796.63 5135435.62 180.91
-9754803.41 5135428.79 180.92
-9754793.11 5135428.73 180.95
-9754819.72 5135415.59 181.10
-9754816.20 5135415.69 181.50
-9754812.94 5135419.08 182.19
-9754812.87 5135415.78 182.10
-9754809.41 5135415.52 181.05
-9754809.35 5135422.72 184.85
-9754809.65 5135419.08 181.04
-9754809.45 5135418.89 185.14
-9754803.44 5135425.53 180.93
-9754793.48 5135419.01 180.99
-9754796.68 5135425.56 180.99
-9754799.70 5135415.44 180.95
-9754803.91 5135423.02 186.53
-9754799.94 5135422.27 180.99
-9754790.09 5135438.80 181.07
-9754785.27 5135437.98 184.11
-9754780.85 5135438.00 184.37
-9754783.60 5135438.78 181.17
-9754780.12 5135435.44 181.13
-9754783.12 5135435.47 181.09
-9754779.58 5135439.52 191.69
-9754776.74 5135438.74 182.08
-9754780.12 5135440.06 189.20
-9754776.38 5135431.97 184.89
-9754773.50 5135431.89 185.04
-9754773.38 5135439.69 195.04
-9754775.79 5135440.02 184.60
-9754780.52 5135441.55 187.72
-9754776.97 5135440.61 189.27
-9754777.34 5135440.68 182.01
-9754772.91 5135440.52 186.09
-9754773.24 5135429.07 185.12
-9754773.64 5135429.02 180.90
-9754776.90 5135429.00 180.83
-9754773.79 5135429.20 187.42
-9754770.03 5135439.03 181.16
-9754767.25 5135439.77 185.15
-9754769.55 5135439.85 187.85
-9754766.80 5135439.00 181.11
-9754770.10 5135439.93 191.41
-9754767.11 5135440.07 188.47
-9754769.73 5135440.59 181.05
-9754767.32 5135440.44 188.47
-9754768.34 5135440.47 192.02
-9754771.07 5135429.14 184.70
-9754786.35 5135425.44 180.93
-9754780.16 5135425.41 180.91
-9754783.44 5135418.93 180.94
-9754783.08 5135422.20 180.97
-9754779.89 5135418.92 180.92
-9754779.91 5135415.93 180.85
-9754773.70 5135425.39 180.89
-9754776.99 5135415.65 180.83
-9754766.63 5135422.11 180.96
-9754770.13 5135425.36 180.92
-9754770.63 5135415.19 186.95
-9754763.25 5135438.64 181.02
-9754763.62 5135435.68 181.01
-9754764.24 5135439.93 191.19
-9754760.29 5135438.59 180.98
-9754753.90 5135432.10 181.05
-9754753.84 5135436.13 183.66
-9754753.58 5135435.63 181.12
-9754750.33 5135432.38 181.02
-9754750.07 5135436.10 183.71
-9754747.09 5135432.12 184.75
-9754740.45 5135437.92 181.13
-9754743.59 5135439.13 184.99
-9754743.31 5135438.76 181.55
-9754740.09 5135438.08 188.24
-9754743.87 5135438.59 191.03
-9754743.29 5135438.47 188.05
-9754740.40 5135437.71 185.03
-9754748.02 5135439.49 188.08
-9754741.23 5135428.97 184.58
-9754743.60 5135428.78 180.97
-9754766.02 5135415.00 185.09
-9754756.91 5135419.05 180.94
-9754760.43 5135419.07 180.92
-9754756.85 5135425.62 180.96
-9754764.01 5135415.53 187.19
-9754756.91 5135415.21 181.03
-9754753.68 5135415.46 181.04
-9754753.61 5135422.33 180.98
-9754747.15 5135425.56 180.98
-9754740.58 5135415.73 188.31
-9754737.15 5135438.29 185.31
-9754737.59 5135437.84 181.24
-9754733.78 5135438.44 191.84
-9754734.02 5135437.90 182.15
-9754733.78 5135438.00 188.21
-9754730.65 5135438.55 191.04
-9754727.29 5135439.71 190.63
-9754727.09 5135439.72 185.17
-9754723.82 5135439.48 190.39
-9754717.29 5135432.44 181.15
-9754717.31 5135432.32 183.85
-9754731.65 5135430.12 184.06
-9754717.63 5135428.92 181.10
-9754714.07 5135438.66 181.06
-9754737.42 5135422.49 181.05
-9754733.84 5135422.19 181.05
-9754734.82 5135414.81 184.80
-9754730.33 5135425.42 181.05
-9754730.61 5135422.23 181.05
-9754727.24 5135415.54 188.17
-9754727.45 5135415.38 181.14
-9754723.90 5135419.16 181.05
-9754720.63 5135422.41 181.10
-9754717.44 5135415.93 181.15
-9754714.24 5135415.67 184.90
-9754713.89 5135422.08 181.11
-9754713.95 5135419.14 181.06
-9754714.20 5135415.62 181.19
-9754712.31 5135439.53 186.63
-9754704.32 5135438.88 181.26
-9754704.57 5135435.70 184.30
-9754701.02 5135438.54 181.22
-9754707.29 5135432.09 181.12
-9754703.77 5135438.08 184.35
-9754684.60 5135432.31 184.88
-9754691.08 5135432.29 181.25
-9754684.28 5135435.50 181.31
-9754687.55 5135432.26 181.31
-9754694.32 5135435.59 181.26
-9754684.60 5135428.98 181.19
-9754700.61 5135422.29 181.16
-9754697.63 5135425.24 181.18
-9754697.64 5135422.29 181.18
-9754697.40 5135415.77 181.20
-9754687.93 5135418.97 181.17
-9754691.20 5135419.00 181.14
-9754687.87 5135425.50 181.23
-9754681.09 5135435.48 181.29
-9754677.77 5135439.02 181.21
-9754674.29 5135432.38 185.15
-9754671.58 5135438.65 181.28
-9754671.02 5135435.39 181.24
-9754661.58 5135435.37 181.18
-9754661.31 5135432.41 181.23
-9754661.28 5135438.92 181.30
-9754674.42 5135415.89 181.15
-9754671.43 5135415.55 181.18
-9754668.12 5135422.43 181.19
