-9755870.45 5135314.50 186.62
-9755863.96 5135313.54 186.76
-9755860.79 5135313.56 186.80
-9755857.19 5135313.58 186.86
-9755857.53 5135310.31 186.88
-9755870.82 5135320.10 186.80
-9755863.89 5135326.60 186.79
-9755860.74 5135326.88 186.82
-9755857.55 5135320.35 186.87
-9755854.13 5135336.62 187.11
-9755827.65 5135329.89 181.37
-9755831.14 5135330.20 181.32
-9755847.62 5135333.23 181.23
-9755840.57 5135336.52 181.38
-9755827.64 5135336.43 181.94
-9755834.37 5135333.57 181.90
-9755837.99 5135337.85 184.13
-9755853.89 5135316.77 187.11
-9755853.93 5135326.87 187.05
-9755850.96 5135313.19 181.23
-9755844.22 5135313.44 181.30
-9755847.39 5135313.36 183.51
-9755840.94 5135316.69 181.31
-9755831.24 5135313.57 181.95
-9755837.74 5135313.37 181.40
-9755831.03 5135313.42 184.38
-9755834.24 5135310.13 181.41
-9755828.60 5135309.79 184.96
-9755827.78 5135310.38 181.44
-9755844.45 5135326.76 181.16
-9755841.25 5135323.47 181.17
-9755850.91 5135319.96 181.23
-9755844.12 5135323.46 181.11
-9755847.65 5135326.52 181.19
-9755834.43 5135319.89 181.36
-9755837.39 5135323.19 181.29
-9755827.95 5135323.68 181.42
-9755827.90 5135319.89 181.44
-9755824.38 5135329.89 181.40
-9755824.62 5135336.55 182.13
-9755817.65 5135326.62 181.47
-9755817.86 5135329.83 181.44
-9755808.14 5135330.08 181.57
-9755801.36 5135330.06 181.62
-9755801.69 5135326.78 181.65
-9755798.48 5135326.80 181.67
-9755817.88 5135336.37 182.09
-9755821.11 5135333.15 181.43
-9755814.36 5135336.64 181.53
-9755821.36 5135336.71 181.47
-9755817.89 5135333.39 181.43
-9755808.12 5135333.32 181.55
-9755824.66 5135326.92 181.42
-9755824.75 5135316.58 181.50
-9755818.03 5135317.14 181.44
-9755821.30 5135310.50 181.40
-9755824.49 5135310.24 181.56
-9755814.98 5135316.97 184.17
-9755811.50 5135313.56 188.17
-9755811.58 5135316.70 188.11
-9755807.39 5135313.65 185.17
-9755811.19 5135310.29 181.47
-9755808.24 5135316.99 185.11
-9755801.20 5135313.49 181.49
-9755811.41 5135313.79 184.36
-9755811.20 5135313.53 181.83
-9755811.25 5135315.92 190.84
-9755806.35 5135315.66 187.16
-9755814.77 5135319.99 183.45
-9755821.23 5135320.41 181.44
-9755817.65 5135320.03 181.44
-9755814.36 5135323.33 181.50
-9755821.15 5135326.94 181.44
-9755808.18 5135323.27 181.60
-9755804.70 5135323.45 183.53
-9755802.08 5135321.09 183.88
-9755797.93 5135323.20 188.20
-9755798.19 5135316.70 181.46
-9755797.94 5135310.18 181.53
-9755788.08 5135330.27 181.78
-9755788.16 5135326.60 185.04
-9755785.03 5135326.81 184.96
-9755774.91 5135326.70 188.40
-9755785.36 5135329.94 181.81
-9755774.97 5135326.89 192.83
-9755778.26 5135329.84 185.08
-9755784.90 5135327.51 188.17
-9755774.64 5135330.21 191.79
-9755778.39 5135329.69 188.30
-9755778.23 5135326.09 185.05
-9755785.44 5135326.65 182.28
-9755782.25 5135330.53 182.99
-9755782.86 5135326.62 183.37
-9755771.96 5135330.02 183.52
-9755771.60 5135329.87 191.73
-9755788.07 5135333.39 184.28
-9755788.06 5135332.21 181.72
-9755791.62 5135333.32 181.76
-9755791.64 5135336.65 184.30
-9755788.12 5135336.65 184.29
-9755778.50 5135339.08 194.62
-9755784.84 5135333.15 184.27
-9755784.44 5135335.86 192.10
-9755785.20 5135332.51 181.96
-9755784.80 5135336.61 184.19
-9755782.02 5135333.31 191.93
-9755777.92 5135336.28 197.81
-9755780.26 5135337.69 199.61
-9755781.80 5135334.07 188.04
-9755771.89 5135333.33 183.69
-9755771.72 5135333.26 198.14
-9755770.91 5135332.16 188.22
-9755768.38 5135330.08 188.50
-9755768.59 5135326.56 184.65
-9755768.41 5135326.78 190.78
-9755768.37 5135333.33 185.88
-9755768.78 5135330.45 195.42
-9755768.34 5135333.32 191.56
-9755768.48 5135336.85 200.28
-9755771.51 5135336.60 201.08
-9755788.16 5135313.40 181.56
-9755788.14 5135316.97 181.63
-9755790.81 5135317.04 188.51
-9755787.96 5135316.35 185.99
-9755778.19 5135313.54 184.30
-9755785.03 5135313.67 188.74
-9755781.51 5135316.58 188.43
-9755784.68 5135313.38 181.71
-9755775.70 5135313.67 188.51
-9755785.13 5135317.20 188.85
-9755778.51 5135314.00 188.57
-9755775.00 5135318.10 184.74
-9755775.36 5135310.14 192.39
-9755775.37 5135315.51 182.06
-9755781.70 5135310.40 182.18
-9755781.65 5135316.76 184.10
-9755785.01 5135310.12 181.69
-9755785.17 5135317.25 185.05
-9755771.66 5135316.45 183.08
-9755791.38 5135323.48 181.69
-9755795.51 5135323.21 185.04
-9755788.70 5135323.57 185.29
-9755788.22 5135323.19 181.85
-9755790.90 5135320.23 188.15
-9755788.32 5135320.06 191.18
-9755791.44 5135322.72 185.34
-9755788.13 5135317.29 193.59
-9755778.80 5135320.32 191.40
-9755781.36 5135320.32 183.21
-9755774.41 5135323.36 185.18
-9755778.11 5135323.43 183.36
-9755775.13 5135324.13 183.36
-9755776.35 5135325.14 183.37
-9755771.50 5135323.54 188.20
-9755771.07 5135320.01 183.36
-9755768.78 5135317.55 185.17
-9755768.85 5135310.47 190.61
-9755768.84 5135320.06 188.35
-9755768.39 5135319.48 183.37
-9755768.55 5135323.83 184.79
-9755765.11 5135329.99 184.57
-9755761.84 5135326.65 185.95
-9755755.45 5135329.82 185.68
-9755751.87 5135330.18 185.68
-9755748.22 5135326.86 185.82
-9755745.69 5135330.15 185.71
-9755765.22 5135336.55 198.06
-9755748.57 5135336.61 185.61
-9755755.11 5135333.42 185.68
-9755748.60 5135333.11 185.64
-9755752.12 5135336.71 185.57
-9755765.55 5135316.85 188.93
-9755762.03 5135316.66 188.37
-9755765.78 5135317.24 191.54
-9755765.33 5135315.48 181.97
-9755762.89 5135315.28 181.99
-9755758.50 5135316.58 185.81
-9755748.43 5135313.48 187.10
-9755755.26 5135310.34 185.43
-9755758.47 5135316.95 188.56
-9755749.05 5135316.78 185.79
-9755752.00 5135310.07 185.60
-9755764.67 5135320.47 184.68
-9755764.92 5135323.66 184.79
-9755765.24 5135319.97 188.14
-9755758.71 5135320.29 188.29
-9755751.95 5135320.36 185.69
-9755755.20 5135320.69 185.86
-9755759.63 5135322.92 188.24
-9755749.01 5135322.91 186.84
-9755751.73 5135321.17 186.93
-9755748.27 5135326.76 186.68
-9755754.35 5135320.39 186.77
-9755745.13 5135323.57 185.81
-9755745.55 5135310.34 185.64
-9755739.05 5135310.22 185.64
-9755739.36 5135311.44 187.03
-9755722.40 5135326.72 185.82
-9755725.58 5135330.01 185.83
-9755719.08 5135336.80 185.71
-9755715.64 5135326.42 185.72
-9755712.64 5135329.98 185.54
-9755712.29 5135333.53 185.45
-9755715.60 5135333.23 185.66
-9755735.75 5135313.44 185.71
-9755735.48 5135309.92 185.66
-9755729.02 5135310.19 185.75
-9755722.47 5135316.96 185.86
-9755719.00 5135313.38 185.85
-9755718.97 5135310.15 185.87
-9755735.39 5135319.97 185.80
-9755735.56 5135324.47 192.16
-9755735.98 5135327.32 192.10
-9755728.99 5135319.98 185.82
-9755732.18 5135319.96 185.77
-9755722.20 5135319.92 185.85
-9755712.48 5135313.63 185.69
-9755712.50 5135310.38 185.72
-9755709.25 5135313.35 185.51
-9755708.91 5135310.07 185.49
-9755712.37 5135323.43 185.58
-9755709.18 5135319.85 185.46
-9755696.19 5135330.16 185.34
-9755692.55 5135330.12 185.34
-9755695.01 5135326.99 186.78
-9755695.77 5135336.67 185.32
-9755705.88 5135333.17 185.33
-9755694.94 5135336.92 186.82
-9755699.78 5135332.16 186.71
-9755698.89 5135331.33 187.33
-9755693.03 5135332.97 186.79
-9755692.93 5135336.95 186.97
-9755689.13 5135326.78 186.95
-9755685.50 5135326.93 186.88
-9755685.59 5135330.03 186.89
-9755683.50 5135326.69 187.12
-9755680.00 5135326.71 187.13
-9755683.60 5135336.59 186.89
-9755689.27 5135333.06 186.95
-9755683.79 5135333.26 186.97
-9755685.61 5135336.58 186.89
-9755679.73 5135332.74 186.97
-9755679.89 5135336.55 186.97
-9755705.97 5135313.89 185.40
-9755695.95 5135316.85 185.29
-9755692.75 5135316.80 185.25
-9755692.82 5135310.24 185.30
-9755699.48 5135320.08 185.34
-9755694.73 5135316.73 186.67
-9755692.98 5135319.99 185.31
-9755692.64 5135323.34 185.31
-9755694.18 5135316.52 186.68
-9755689.48 5135313.53 185.29
-9755689.52 5135310.30 185.28
-9755682.71 5135310.31 185.29
-9755685.92 5135310.27 185.23
-9755683.39 5135313.93 187.05
-9755689.12 5135317.32 186.93
-9755683.02 5135317.19 186.85
-9755679.74 5135313.78 187.05
-9755679.34 5135310.51 187.02
-9755689.44 5135323.58 185.28
-9755686.20 5135320.28 185.25
-9755689.17 5135323.54 186.98
-9755689.08 5135320.17 187.17
-9755686.16 5135323.29 185.22
-9755685.36 5135319.87 187.03
-9755682.89 5135319.63 186.88
-9755685.40 5135323.83 186.95
-9755680.32 5135320.64 187.13
-9755679.73 5135324.02 186.97
-9755676.11 5135326.77 185.19
-9755672.82 5135330.02 185.20
-9755672.83 5135326.70 186.90
-9755676.09 5135333.19 187.04
-9755672.84 5135336.29 185.22
-9755673.15 5135336.71 186.93
-9755669.54 5135336.38 186.82
-9755673.11 5135333.00 185.18
-9755669.20 5135330.11 186.84
-9755669.08 5135333.53 186.89
-9755663.17 5135329.66 185.11
-9755649.90 5135326.89 185.32
-9755653.07 5135330.17 185.21
-9755650.53 5135330.21 186.97
-9755659.59 5135333.18 185.23
-9755653.12 5135336.42 185.22
-9755670.25 5135310.14 185.16
-9755673.09 5135309.93 187.05
-9755669.70 5135316.69 185.22
-9755677.16 5135310.44 186.97
-9755677.31 5135323.38 186.89
-9755676.14 5135320.00 185.20
-9755669.66 5135319.91 185.20
-9755666.41 5135320.21 185.13
-9755666.45 5135323.21 185.14
-9755666.48 5135316.95 186.87
-9755662.95 5135313.41 186.78
-9755656.19 5135310.14 185.27
-9755662.88 5135310.30 186.88
-9755656.17 5135313.63 185.24
-9755659.70 5135316.91 185.23
-9755650.06 5135310.49 186.91
-9755659.62 5135323.70 185.24
-9755663.13 5135323.49 185.09
-9755656.70 5135323.42 185.23
-9755662.92 5135323.04 187.05
-9755662.65 5135316.97 186.86
-9755656.13 5135320.14 185.24
-9755653.20 5135317.15 185.20
-9755649.97 5135316.74 186.96
-9755649.95 5135323.37 185.29
-9755646.73 5135327.07 187.07
-9755639.91 5135326.90 185.10
-9755646.73 5135336.29 186.97
-9755646.74 5135330.42 187.02
-9755639.83 5135333.43 185.03
-9755629.61 5135327.00 187.01
-9755620.12 5135326.73 185.28
-9755633.68 5135330.08 185.23
-9755629.76 5135336.75 186.95
-9755633.64 5135333.35 185.24
-9755633.45 5135333.29 187.04
-9755629.56 5135330.57 186.99
-9755632.64 5135338.61 186.85
-9755623.60 5135333.26 185.22
-9755620.36 5135329.99 185.29
-9755643.16 5135316.80 185.50
-9755646.49 5135320.02 186.99
-9755646.50 5135323.35 187.02
-9755636.74 5135310.31 185.08
-9755636.70 5135313.52 185.09
-9755633.19 5135310.27 185.26
-9755630.25 5135310.31 187.13
-9755626.98 5135310.19 185.32
-9755620.26 5135310.14 185.29
-9755629.86 5135323.30 185.26
-9755633.16 5135317.05 185.26
-9755636.40 5135316.79 185.07
-9755633.17 5135323.50 186.98
-9755629.86 5135320.00 185.27
-9755633.14 5135319.98 185.27
-9755629.66 5135316.94 186.91
-9755616.84 5135330.04 184.84
-9755610.02 5135326.63 181.05
-9755603.84 5135326.86 181.09
-9755610.62 5135329.92 181.07
-9755600.30 5135330.34 181.19
-9755603.83 5135336.64 181.04
-9755600.26 5135336.62 181.10
-9755593.84 5135333.38 184.95
-9755597.34 5135336.58 181.09
-9755596.74 5135333.48 185.69
-9755590.54 5135330.34 181.27
-9755597.03 5135329.78 181.28
-9755591.58 5135328.17 184.79
-9755617.01 5135310.15 184.88
-9755613.40 5135310.25 181.99
-9755614.67 5135313.46 184.61
-9755616.92 5135323.54 184.88
-9755616.94 5135316.72 184.85
-9755614.50 5135316.30 184.42
-9755603.63 5135313.50 181.12
-9755603.58 5135323.36 181.11
-9755606.90 5135316.57 181.09
-9755610.61 5135323.40 181.06
-9755607.39 5135323.36 181.08
-9755600.08 5135323.23 181.08
-9755597.21 5135316.80 181.10
-9755596.93 5135320.11 181.06
-9755593.87 5135323.18 181.10
-9755590.43 5135319.96 181.08
-9755587.29 5135336.78 181.07
-9755584.05 5135326.80 181.29
-9755580.88 5135326.68 185.30
-9755577.46 5135326.65 184.98
-9755578.00 5135327.22 187.43
-9755570.58 5135326.66 181.26
-9755584.02 5135330.08 184.84
-9755584.09 5135336.56 181.07
-9755580.63 5135333.06 184.86
-9755577.16 5135333.84 188.38
-9755583.80 5135330.05 181.29
-9755583.81 5135333.53 181.28
-9755583.59 5135332.99 185.32
-9755580.52 5135336.54 181.10
-9755575.22 5135332.42 185.04
-9755574.09 5135336.68 188.21
-9755573.81 5135330.24 188.02
-9755567.58 5135330.21 181.30
-9755571.57 5135333.32 190.79
-9755570.82 5135330.14 188.61
-9755560.82 5135329.86 181.27
-9755571.23 5135331.26 189.97
-9755587.13 5135320.28 181.08
-9755580.45 5135310.12 180.98
-9755580.47 5135313.80 181.00
-9755583.92 5135310.14 181.01
-9755577.13 5135310.07 180.97
-9755577.07 5135313.40 180.96
-9755573.86 5135313.66 180.95
-9755574.17 5135310.11 180.95
-9755567.41 5135313.55 180.93
-9755567.38 5135310.32 180.95
-9755580.96 5135323.87 184.53
-9755583.58 5135324.15 184.83
-9755583.85 5135316.72 181.05
-9755575.62 5135324.94 185.65
-9755577.37 5135319.95 180.99
-9755567.28 5135323.30 181.05
-9755560.72 5135323.36 181.05
-9755554.43 5135326.75 185.23
-9755547.80 5135326.85 184.53
-9755547.90 5135326.82 181.25
-9755534.58 5135326.52 185.15
-9755534.63 5135326.67 181.15
-9755554.44 5135330.05 188.42
-9755557.29 5135330.10 181.26
-9755557.27 5135329.64 185.73
-9755551.09 5135330.12 184.93
-9755554.54 5135333.17 185.80
-9755551.06 5135330.35 188.53
-9755554.40 5135329.79 184.65
-9755557.57 5135336.41 181.23
-9755557.53 5135333.37 181.29
-9755547.64 5135330.07 188.05
-9755554.38 5135329.82 181.33
-9755547.59 5135330.15 181.27
-9755538.06 5135333.29 188.23
-9755541.36 5135329.78 181.30
-9755538.72 5135333.84 191.03
-9755537.89 5135336.83 190.76
-9755537.48 5135336.55 181.26
-9755541.06 5135333.56 181.29
-9755544.00 5135333.42 184.90
-9755537.78 5135330.00 181.27
-9755544.39 5135329.59 184.30
-9755534.77 5135333.05 181.28
-9755531.32 5135327.20 185.15
-9755531.55 5135333.54 181.22
-9755551.08 5135310.20 181.02
-9755557.71 5135313.57 180.99
-9755547.64 5135313.46 181.01
-9755537.88 5135310.50 180.96
-9755554.06 5135323.32 181.08
-9755554.09 5135316.79 181.05
-9755557.34 5135316.85 181.02
-9755550.85 5135316.45 181.04
-9755541.12 5135319.95 181.02
-9755537.90 5135320.25 181.01
-9755540.86 5135316.68 180.98
-9755542.19 5135323.47 185.24
-9755534.58 5135316.70 180.93
-9755534.81 5135323.47 181.03
-9755530.68 5135323.66 185.25
-9755531.10 5135323.37 181.02
-9755532.27 5135324.71 186.78
-9755525.47 5135327.32 184.94
-9755528.49 5135327.24 187.81
-9755521.31 5135326.69 181.06
-9755525.85 5135327.48 186.93
-9755517.80 5135326.95 181.13
-9755508.08 5135326.58 181.05
-9755524.71 5135330.03 185.09
-9755527.96 5135330.14 187.97
-9755525.27 5135333.48 185.46
-9755528.00 5135336.22 185.11
-9755521.30 5135329.96 181.26
-9755521.49 5135333.49 181.69
-9755525.84 5135333.53 186.81
-9755518.06 5135333.45 181.29
-9755514.83 5135329.89 181.30
-9755514.81 5135333.46 181.31
-9755518.08 5135329.88 181.29
-9755507.98 5135336.66 181.12
-9755519.47 5135331.50 186.03
-9755521.43 5135313.37 181.02
-9755518.08 5135310.07 181.07
-9755515.02 5135310.34 181.07
-9755511.31 5135310.38 181.08
-9755527.87 5135316.96 180.93
-9755524.52 5135317.00 180.98
-9755521.31 5135316.93 181.02
-9755518.09 5135323.40 181.07
-9755511.63 5135320.09 181.07
-9755514.50 5135323.33 181.07
-9755511.69 5135316.78 181.09
-9755508.10 5135316.78 181.08
-9755508.06 5135320.11 181.06
-9755504.95 5135313.49 181.11
-9755505.07 5135323.58 181.08
-9755923.60 5135304.09 181.18
-9755916.77 5135303.49 180.83
-9755920.33 5135310.26 187.68
-9755923.29 5135306.75 180.85
-9755917.07 5135307.03 180.80
-9755918.25 5135307.84 183.49
-9755919.86 5135284.03 180.77
-9755919.80 5135290.51 180.81
-9755913.82 5135303.34 181.68
-9755910.68 5135304.41 185.37
-9755906.71 5135303.42 180.75
-9755909.99 5135303.48 180.77
-9755910.39 5135306.75 191.37
-9755913.56 5135310.20 188.65
-9755913.51 5135309.98 180.79
-9755906.78 5135310.24 187.99
-9755910.28 5135307.05 180.75
-9755906.84 5135306.81 191.53
-9755910.41 5135306.68 185.00
-9755911.86 5135307.72 193.64
-9755912.17 5135310.66 193.33
-9755903.49 5135303.69 181.54
-9755903.62 5135303.90 188.49
-9755897.06 5135303.74 180.77
-9755893.90 5135309.75 181.70
-9755903.79 5135310.20 191.52
-9755893.83 5135307.00 188.54
-9755900.87 5135310.45 185.11
-9755903.42 5135306.90 188.27
-9755903.49 5135306.88 182.11
-9755893.92 5135310.06 190.63
-9755893.68 5135306.67 185.02
-9755904.01 5135306.64 193.29
-9755901.73 5135307.60 191.48
-9755887.19 5135310.22 180.75
-9755890.21 5135307.19 180.73
-9755887.07 5135307.18 180.77
-9755913.70 5135287.46 188.14
-9755910.77 5135284.11 188.48
-9755913.66 5135290.42 181.98
-9755913.32 5135284.16 188.55
-9755909.97 5135284.02 191.63
-9755913.11 5135290.52 185.15
-9755909.86 5135287.15 180.79
-9755910.16 5135283.87 180.77
-9755910.06 5135289.57 188.56
-9755906.96 5135284.61 181.09
-9755907.31 5135289.52 194.02
-9755906.92 5135300.28 185.17
-9755906.91 5135300.47 191.58
-9755913.26 5135297.49 184.62
-9755910.03 5135296.93 180.80
-9755913.68 5135293.90 188.06
-9755907.18 5135293.96 181.02
-9755914.17 5135297.02 181.58
-9755909.43 5135297.12 185.45
-9755910.14 5135297.01 188.73
-9755906.84 5135300.52 188.31
-9755907.23 5135293.75 184.96
-9755910.40 5135294.06 184.81
-9755903.72 5135287.12 191.58
-9755904.14 5135284.25 194.09
-9755903.61 5135290.38 182.08
-9755896.82 5135290.64 180.76
-9755900.07 5135291.57 185.74
-9755898.34 5135283.35 186.23
-9755903.59 5135280.68 191.36
-9755904.51 5135289.32 193.58
-9755900.96 5135281.17 190.62
-9755900.41 5135280.68 180.74
-9755898.55 5135283.74 187.31
-9755890.09 5135287.37 180.70
-9755887.12 5135290.54 180.77
-9755887.28 5135280.56 191.41
-9755886.63 5135283.97 188.02
-9755889.87 5135281.88 190.95
-9755890.42 5135280.25 180.81
-9755890.67 5135280.11 185.15
-9755903.56 5135300.30 182.12
-9755903.60 5135297.19 181.70
-9755904.08 5135296.92 192.03
-9755903.50 5135293.50 191.52
-9755903.63 5135300.46 188.37
-9755903.52 5135293.78 181.73
-9755893.40 5135300.16 185.28
-9755897.04 5135297.17 180.77
-9755887.09 5135300.10 180.79
-9755890.28 5135300.35 180.75
-9755890.33 5135296.87 180.65
-9755887.10 5135297.14 180.77
-9755887.16 5135300.13 185.46
-9755880.48 5135303.54 181.44
-9755884.48 5135304.96 186.43
-9755884.16 5135305.50 185.44
-9755883.77 5135306.93 186.93
-9755880.63 5135305.61 184.40
-9755880.20 5135305.81 181.06
-9755876.72 5135303.48 181.63
-9755870.29 5135299.80 189.85
-9755857.38 5135303.76 188.48
-9755857.58 5135300.41 188.49
-9755867.31 5135306.80 186.94
-9755877.62 5135305.63 181.39
-9755870.87 5135305.71 186.42
-9755872.55 5135305.62 185.62
-9755864.26 5135305.68 186.37
-9755861.02 5135305.97 185.92
-9755880.21 5135290.43 182.18
-9755880.35 5135286.97 181.41
-9755879.48 5135283.49 184.77
-9755880.43 5135280.61 181.95
-9755880.12 5135280.78 187.66
-9755883.53 5135297.10 180.89
-9755879.92 5135301.94 183.47
-9755878.26 5135287.11 185.41
-9755867.46 5135283.88 187.96
-9755867.45 5135290.31 190.44
-9755873.85 5135285.46 181.01
-9755874.03 5135285.89 181.28
-9755870.66 5135290.01 190.48
-9755869.96 5135286.01 181.87
-9755877.49 5135288.28 189.99
-9755870.73 5135280.70 188.75
-9755874.34 5135285.82 184.71
-9755873.95 5135280.66 188.71
-9755868.23 5135285.70 184.56
-9755866.92 5135285.99 181.51
-9755867.48 5135288.54 189.99
-9755878.88 5135288.75 190.05
-9755864.21 5135286.80 189.27
-9755863.89 5135290.26 190.48
-9755861.25 5135290.30 190.29
-9755860.67 5135283.87 187.99
-9755863.54 5135286.04 182.10
-9755860.89 5135286.31 181.30
-9755860.96 5135286.81 189.24
-9755857.69 5135290.66 188.88
-9755877.11 5135300.47 190.13
-9755877.48 5135297.05 180.99
-9755867.13 5135294.21 188.92
-9755870.66 5135296.93 188.84
-9755874.14 5135296.75 181.08
-9755874.17 5135296.94 188.85
-9755867.38 5135297.05 188.82
-9755867.11 5135300.39 190.13
-9755878.90 5135300.22 190.06
-9755870.64 5135296.47 181.64
-9755867.18 5135296.88 181.09
-9755870.35 5135296.53 184.22
-9755864.21 5135291.58 189.95
-9755857.59 5135296.95 181.03
-9755860.23 5135297.08 181.25
-9755860.61 5135296.89 188.79
-9755866.42 5135296.56 183.73
-9755854.02 5135303.67 182.49
-9755854.38 5135300.40 182.49
-9755853.67 5135307.07 187.09
-9755847.51 5135303.39 181.16
-9755850.78 5135303.70 181.11
-9755841.03 5135303.35 181.34
-9755837.58 5135300.18 185.18
-9755837.75 5135303.40 184.75
-9755831.97 5135300.35 185.24
-9755844.27 5135307.17 181.35
-9755850.84 5135306.92 181.78
-9755841.18 5135306.91 181.56
-9755831.34 5135307.13 181.65
-9755834.25 5135307.13 181.49
-9755827.77 5135306.80 181.12
-9755854.15 5135287.04 182.48
-9755854.15 5135290.64 182.48
-9755854.14 5135286.78 179.71
-9755854.07 5135296.88 181.07
-9755840.98 5135287.00 181.86
-9755844.13 5135280.41 184.14
-9755840.87 5135290.65 181.69
-9755851.25 5135290.55 182.11
-9755841.16 5135280.66 185.24
-9755834.49 5135286.66 181.10
-9755837.84 5135290.41 185.47
-9755837.68 5135280.65 185.43
-9755827.81 5135290.50 180.98
-9755831.20 5135280.38 183.92
-9755850.84 5135293.72 181.08
-9755847.57 5135297.18 181.06
-9755851.20 5135294.23 183.58
-9755840.81 5135297.59 184.15
-9755834.50 5135297.09 181.12
-9755837.56 5135293.39 184.31
-9755837.85 5135297.09 181.11
-9755831.94 5135297.27 183.92
-9755831.99 5135293.42 184.33
-9755821.01 5135303.79 181.24
-9755804.52 5135300.18 181.44
-9755804.83 5135303.44 181.48
-9755811.26 5135300.51 181.40
-9755804.69 5135300.37 184.94
-9755808.07 5135303.44 181.45
-9755824.24 5135307.10 181.19
-9755811.27 5135306.77 181.45
-9755798.25 5135306.94 181.52
-9755798.16 5135300.16 184.75
-9755824.56 5135284.04 181.00
-9755818.85 5135280.99 187.83
-9755824.37 5135287.25 181.04
-9755818.61 5135287.15 188.03
-9755814.40 5135287.01 192.07
-9755819.96 5135288.33 191.85
-9755824.27 5135287.27 186.79
-9755818.86 5135284.23 188.45
-9755822.68 5135290.12 181.15
-9755824.22 5135284.33 186.79
-9755814.70 5135284.04 190.95
-9755819.05 5135286.92 184.58
-9755818.72 5135291.19 185.27
-9755821.14 5135280.38 181.15
-9755817.60 5135280.69 181.39
-9755807.84 5135290.36 191.23
-9755811.21 5135286.93 192.00
-9755802.03 5135286.78 189.77
-9755804.66 5135286.90 191.93
-9755804.69 5135284.07 190.92
-9755801.47 5135280.61 188.28
-9755804.91 5135280.66 181.61
-9755814.71 5135280.37 181.58
-9755802.97 5135283.81 190.87
-9755811.18 5135280.59 189.76
-9755808.22 5135281.21 184.25
-9755821.01 5135297.01 181.18
-9755814.81 5135296.97 181.40
-9755820.72 5135295.48 183.44
-9755804.88 5135297.17 185.15
-9755808.10 5135294.17 189.81
-9755804.64 5135293.19 190.26
-9755807.08 5135296.75 187.09
-9755806.56 5135300.06 186.01
-9755798.46 5135293.79 184.81
-9755798.20 5135287.14 181.36
-9755798.14 5135290.32 181.90
-9755788.23 5135303.59 181.44
-9755785.01 5135300.37 181.44
-9755781.59 5135300.35 191.93
-9755778.37 5135303.40 191.25
-9755784.65 5135303.19 187.90
-9755783.93 5135303.49 191.13
-9755791.50 5135306.89 181.52
-9755785.30 5135306.88 181.60
-9755778.28 5135306.85 191.27
-9755782.58 5135306.94 181.86
-9755783.50 5135305.38 184.45
-9755794.87 5135287.37 181.38
-9755791.33 5135280.54 181.33
-9755785.10 5135287.04 181.35
-9755785.15 5135283.79 181.34
-9755782.50 5135290.69 184.70
-9755781.33 5135284.26 190.96
-9755784.49 5135290.60 184.59
-9755782.89 5135282.88 188.17
-9755778.34 5135290.35 191.49
-9755782.76 5135283.23 184.61
-9755782.63 5135288.95 181.30
-9755774.94 5135280.76 181.78
-9755771.65 5135284.40 190.91
-9755791.82 5135296.87 181.44
-9755791.51 5135293.62 181.43
-9755788.30 5135296.76 181.40
-9755796.43 5135297.44 186.80
-9755783.02 5135297.20 187.93
-9755775.08 5135296.94 188.13
-9755783.06 5135298.92 184.83
-9755775.13 5135297.12 184.74
-9755775.18 5135297.12 192.36
-9755778.30 5135296.67 181.85
-9755777.37 5135296.73 188.61
-9755783.50 5135296.95 184.37
-9755775.05 5135296.80 181.84
-9755783.35 5135298.71 184.43
-9755771.78 5135297.08 184.40
-9755771.84 5135297.17 181.81
-9755768.21 5135296.94 181.80
-9755769.81 5135297.15 187.90
-9755771.40 5135296.90 188.62
-9755761.70 5135303.13 184.78
-9755761.65 5135307.52 185.25
-9755761.81 5135306.98 188.46
-9755765.22 5135307.23 184.52
-9755752.45 5135304.11 187.00
-9755753.14 5135307.31 186.95
-9755739.03 5135307.01 185.61
-9755765.15 5135287.09 185.13
-9755761.61 5135283.88 184.75
-9755765.24 5135280.37 181.70
-9755761.92 5135290.31 191.44
-9755755.18 5135287.13 184.76
-9755758.88 5135284.51 183.88
-9755758.58 5135287.14 191.44
-9755758.93 5135287.48 188.03
-9755758.60 5135287.77 185.61
-9755758.64 5135283.88 182.87
-9755752.39 5135287.26 185.18
-9755758.92 5135280.63 182.19
-9755755.35 5135281.02 185.24
-9755752.09 5135280.77 184.82
-9755756.02 5135279.97 182.62
-9755748.91 5135290.50 185.45
-9755762.18 5135293.52 185.03
-9755765.32 5135297.11 184.81
-9755766.82 5135297.66 189.97
-9755748.64 5135290.79 186.82
-9755755.03 5135293.76 184.74
-9755758.27 5135297.07 184.65
-9755755.32 5135296.99 185.25
-9755758.76 5135293.77 190.62
-9755756.36 5135292.21 191.71
-9755752.83 5135299.30 186.82
-9755745.31 5135296.93 185.52
-9755741.87 5135280.68 185.44
-9755738.84 5135290.38 185.49
-9755742.33 5135293.66 185.50
-9755719.34 5135300.64 185.82
-9755725.51 5135306.93 185.79
-9755712.59 5135300.32 185.75
-9755709.30 5135300.57 185.63
-9755732.51 5135287.14 185.72
-9755725.57 5135287.34 185.68
-9755732.21 5135283.81 185.85
-9755732.11 5135287.32 188.12
-9755729.43 5135286.99 188.13
-9755725.63 5135283.70 187.09
-9755728.80 5135290.33 185.66
-9755729.11 5135289.96 187.54
-9755729.29 5135289.95 199.58
-9755718.90 5135280.81 185.78
-9755732.46 5135293.89 185.52
-9755729.34 5135289.51 201.32
-9755722.32 5135296.83 185.71
-9755729.11 5135296.84 185.62
-9755722.64 5135293.58 185.68
-9755730.02 5135289.74 190.57
-9755730.71 5135290.03 201.07
-9755719.13 5135293.54 185.75
-9755715.87 5135287.30 185.77
-9755712.40 5135280.78 185.78
-9755712.32 5135290.56 185.75
-9755709.38 5135290.50 185.69
-9755692.56 5135300.32 185.34
-9755692.69 5135303.48 185.35
-9755706.03 5135306.80 185.42
-9755696.02 5135307.07 185.32
-9755699.25 5135306.80 185.38
-9755694.03 5135310.32 186.80
-9755692.19 5135307.35 185.72
-9755693.72 5135303.46 187.16
-9755686.31 5135300.51 185.28
-9755688.70 5135300.36 187.07
-9755685.10 5135303.44 186.93
-9755685.06 5135301.30 187.01
-9755688.90 5135303.38 187.04
-9755679.52 5135300.22 186.98
-9755689.54 5135306.94 185.31
-9755688.90 5135306.89 187.06
-9755685.05 5135306.88 186.97
-9755683.08 5135303.90 186.99
-9755679.32 5135307.23 187.00
-9755702.33 5135287.23 185.53
-9755705.87 5135280.73 185.74
-9755699.34 5135287.18 185.42
-9755695.83 5135287.20 185.44
-9755705.81 5135283.72 185.69
-9755699.02 5135290.51 185.40
-9755706.11 5135293.46 185.58
-9755706.11 5135297.00 185.56
-9755699.30 5135297.25 185.38
-9755695.78 5135293.99 185.41
-9755696.07 5135297.29 185.39
-9755705.83 5135290.24 185.58
-9755692.51 5135296.93 185.34
-9755692.52 5135293.79 185.33
-9755692.93 5135290.47 185.34
-9755682.56 5135283.87 185.32
-9755679.66 5135280.61 185.30
-9755682.59 5135293.72 185.32
-9755688.60 5135294.01 187.19
-9755682.88 5135290.70 185.29
-9755684.59 5135296.85 187.01
-9755683.20 5135296.77 187.03
-9755688.87 5135296.92 187.02
-9755679.29 5135293.90 187.03
-9755679.37 5135290.34 185.29
-9755679.26 5135297.11 187.10
-9755673.75 5135300.67 187.48
-9755676.47 5135300.39 187.12
-9755676.55 5135303.67 185.24
-9755669.50 5135303.92 185.23
-9755666.52 5135303.53 186.96
-9755663.05 5135300.62 185.16
-9755662.76 5135300.29 187.10
-9755653.04 5135300.30 185.27
-9755649.82 5135300.60 186.77
-9755660.05 5135303.59 185.25
-9755650.06 5135303.71 185.20
-9755676.08 5135287.07 185.28
-9755669.91 5135287.34 185.25
-9755672.82 5135283.74 187.05
-9755676.70 5135284.09 186.96
-9755666.39 5135287.04 185.16
-9755666.39 5135284.06 185.17
-9755666.10 5135280.81 185.18
-9755666.36 5135287.61 187.15
-9755672.87 5135290.55 187.02
-9755676.12 5135290.33 185.26
-9755669.51 5135293.60 185.25
-9755671.07 5135290.77 186.94
-9755672.81 5135297.02 187.00
-9755666.34 5135290.30 185.16
-9755662.82 5135280.48 185.23
-9755659.62 5135280.49 185.27
-9755662.23 5135287.29 187.05
-9755663.37 5135290.27 185.16
-9755663.08 5135297.49 187.11
-9755662.93 5135290.61 187.14
-9755663.14 5135293.93 185.18
-9755653.10 5135290.83 185.24
-9755649.79 5135290.39 186.93
-9755653.30 5135297.29 185.23
-9755653.30 5135293.77 185.24
-9755649.68 5135297.33 185.35
-9755650.12 5135296.90 186.90
-9755643.25 5135307.06 185.53
-9755640.03 5135307.01 185.23
-9755636.75 5135300.23 185.06
-9755632.98 5135300.46 187.03
-9755626.51 5135300.43 185.34
-9755636.45 5135303.48 185.07
-9755633.24 5135303.49 186.97
-9755633.56 5135303.46 185.21
-9755630.01 5135303.65 185.29
-9755633.40 5135306.68 187.08
-9755629.35 5135306.78 187.03
-9755623.22 5135303.67 185.29
-9755620.24 5135307.16 185.30
-9755646.62 5135283.94 185.36
-9755643.36 5135283.90 185.56
-9755646.67 5135280.86 187.32
-9755640.13 5135283.96 185.42
-9755640.16 5135280.69 185.41
-9755640.11 5135290.47 185.34
-9755633.32 5135287.12 185.24
-9755629.72 5135286.75 187.16
-9755623.63 5135280.60 185.33
-9755626.92 5135280.29 185.32
-9755628.18 5135283.64 187.11
-9755628.34 5135280.60 187.08
-9755628.33 5135287.53 187.12
-9755633.26 5135296.94 185.24
-9755633.31 5135293.70 185.22
-9755636.80 5135297.22 185.06
-9755632.68 5135293.91 187.02
-9755632.98 5135296.85 187.03
-9755623.53 5135290.35 185.32
-9755620.29 5135297.16 185.29
-9755613.77 5135300.27 181.26
-9755614.19 5135303.12 184.66
-9755610.19 5135300.25 181.07
-9755603.79 5135300.54 181.11
-9755600.14 5135300.24 181.11
-9755593.63 5135300.15 181.07
-9755597.17 5135300.57 181.12
-9755607.26 5135307.03 181.12
-9755610.81 5135307.27 182.08
-9755607.02 5135303.84 181.13
-9755603.93 5135306.82 181.11
-9755597.14 5135306.92 181.09
-9755614.21 5135283.83 184.52
-9755616.80 5135293.88 184.88
-9755614.40 5135297.12 184.56
-9755607.34 5135283.96 181.09
-9755610.29 5135287.24 181.06
-9755597.05 5135280.65 181.07
-9755590.56 5135283.55 181.02
-9755600.56 5135280.65 181.12
-9755594.12 5135284.14 181.20
-9755593.77 5135293.85 181.14
-9755596.98 5135297.22 181.10
-9755590.52 5135297.19 181.09
-9755587.18 5135300.33 181.06
-9755587.18 5135307.02 181.02
-9755577.20 5135300.60 181.00
-9755571.00 5135300.26 180.98
-9755584.23 5135303.65 181.04
-9755580.46 5135303.56 180.99
-9755564.21 5135306.74 180.95
-9755560.96 5135303.54 181.00
-9755587.36 5135283.57 181.05
-9755577.27 5135284.05 181.04
-9755580.76 5135287.06 181.03
-9755577.61 5135280.60 181.05
-9755567.54 5135286.94 181.04
-9755574.10 5135280.53 181.02
-9755564.37 5135283.70 181.04
-9755574.36 5135286.99 181.03
-9755564.06 5135287.25 181.06
-9755570.77 5135287.23 181.05
-9755560.72 5135287.21 181.03
-9755560.54 5135280.73 181.01
-9755574.25 5135297.13 181.05
-9755573.99 5135293.79 181.03
-9755570.96 5135290.22 181.06
-9755571.04 5135297.09 181.03
-9755567.46 5135290.47 181.08
-9755557.50 5135300.22 181.04
-9755554.41 5135300.52 181.06
-9755557.45 5135303.73 181.04
-9755547.88 5135306.73 181.03
-9755537.88 5135307.02 180.99
-9755531.21 5135300.41 181.04
-9755531.50 5135303.63 181.01
-9755531.46 5135306.69 180.97
-9755554.05 5135280.65 181.05
-9755551.05 5135283.85 181.08
-9755547.50 5135283.65 181.10
-9755544.55 5135283.85 181.09
-9755541.00 5135283.82 181.04
-9755541.05 5135280.68 181.00
-9755534.56 5135280.84 180.99
-9755534.31 5135284.11 181.04
-9755557.75 5135290.49 181.09
-9755550.97 5135297.21 181.09
-9755541.23 5135290.64 181.08
-9755534.43 5135297.11 181.05
-9755534.42 5135290.59 181.08
-9755531.01 5135287.33 181.03
-9755531.03 5135280.51 180.96
-9755531.32 5135290.66 181.07
-9755514.65 5135300.29 181.09
-9755527.71 5135303.86 181.04
-9755518.32 5135303.84 181.08
-9755511.64 5135306.82 181.10
-9755514.72 5135303.61 181.06
-9755504.88 5135300.23 181.14
-9755504.91 5135306.70 181.14
-9755527.81 5135284.05 181.02
-9755524.51 5135287.00 181.01
-9755521.29 5135284.01 181.00
-9755514.80 5135283.72 181.03
-9755508.34 5135280.36 181.09
-9755528.21 5135297.11 181.09
-9755528.02 5135290.33 181.04
-9755521.48 5135297.12 181.07
-9755528.94 5135293.85 186.59
-9755521.50 5135290.54 181.04
-9755530.10 5135294.11 186.58
-9755514.78 5135290.53 181.06
-9755504.74 5135287.15 181.13
-9755504.74 5135290.14 181.15
-9755923.23 5135279.95 189.16
-9755923.16 5135260.01 182.29
-9755919.65 5135260.09 185.09
-9755919.78 5135260.08 182.11
-9755920.10 5135264.33 188.72
-9755916.83 5135260.84 187.98
-9755916.63 5135260.06 181.84
-9755916.86 5135260.08 185.38
-9755920.16 5135270.17 188.35
-9755920.90 5135274.91 190.14
-9755917.25 5135270.50 181.79
-9755910.03 5135278.28 188.20
-9755910.18 5135277.14 180.75
-9755905.92 5135276.81 188.64
-9755907.33 5135273.92 191.54
-9755909.71 5135280.30 193.69
-9755903.32 5135277.68 181.72
-9755896.94 5135277.09 180.69
-9755903.43 5135274.50 181.91
-9755890.45 5135277.25 180.82
-9755887.05 5135278.26 185.75
-9755887.31 5135273.93 188.22
-9755890.90 5135274.12 185.32
-9755896.94 5135280.75 188.49
-9755896.90 5135280.62 180.72
-9755903.91 5135280.60 181.69
-9755894.06 5135279.77 185.43
-9755904.20 5135278.64 186.64
-9755887.12 5135280.82 180.78
-9755910.25 5135264.40 180.73
-9755909.95 5135270.60 180.75
-9755906.73 5135267.66 180.66
-9755909.26 5135270.71 185.32
-9755906.73 5135274.47 188.52
-9755909.41 5135267.83 190.14
-9755896.94 5135260.80 180.65
-9755900.25 5135260.78 180.63
-9755903.53 5135260.86 180.47
-9755896.98 5135264.03 180.67
-9755893.75 5135261.12 184.82
-9755893.82 5135260.94 188.31
-9755903.02 5135263.16 187.08
-9755893.82 5135260.70 181.66
-9755893.46 5135261.17 190.52
-9755893.83 5135264.35 182.07
-9755890.02 5135260.76 181.99
-9755890.27 5135260.87 188.23
-9755890.58 5135263.41 185.27
-9755887.44 5135260.93 188.47
-9755890.61 5135264.15 188.38
-9755903.50 5135270.77 191.72
-9755903.82 5135270.39 188.59
-9755903.64 5135267.49 188.21
-9755900.16 5135270.52 180.69
-9755880.17 5135277.13 187.68
-9755867.49 5135277.34 188.19
-9755877.20 5135277.21 188.19
-9755870.75 5135276.26 181.07
-9755867.61 5135276.32 181.06
-9755870.74 5135273.85 188.24
-9755878.77 5135277.42 185.84
-9755860.71 5135277.36 188.16
-9755863.90 5135276.28 181.06
-9755864.25 5135277.37 188.20
-9755857.49 5135276.45 180.99
-9755861.04 5135276.24 181.07
-9755878.73 5135280.28 182.47
-9755883.62 5135260.56 187.89
-9755883.59 5135261.03 185.96
-9755884.01 5135264.18 180.80
-9755879.66 5135270.89 185.46
-9755880.50 5135270.99 181.08
-9755880.20 5135267.73 181.37
-9755878.73 5135261.36 184.79
-9755864.07 5135261.08 189.35
-9755857.60 5135264.02 188.30
-9755873.79 5135265.99 181.23
-9755877.27 5135267.35 188.69
-9755874.02 5135267.30 188.65
-9755878.83 5135271.52 185.14
-9755870.78 5135265.94 181.02
-9755878.74 5135270.86 182.82
-9755864.03 5135267.32 188.48
-9755860.73 5135266.21 181.50
-9755850.56 5135274.00 182.06
-9755844.18 5135277.51 184.99
-9755834.12 5135274.74 180.96
-9755827.97 5135274.25 180.91
-9755827.95 5135277.25 180.92
-9755834.41 5135273.89 184.09
-9755847.51 5135260.72 181.08
-9755840.89 5135263.93 181.81
-9755852.48 5135263.47 183.46
-9755837.80 5135260.80 185.14
-9755837.76 5135263.81 183.98
-9755827.73 5135260.95 180.90
-9755830.89 5135264.10 181.98
-9755831.61 5135263.77 184.07
-9755827.96 5135264.20 180.89
-9755844.47 5135270.52 181.05
-9755840.94 5135270.61 185.21
-9755840.92 5135267.69 184.22
-9755834.18 5135267.64 184.16
-9755837.19 5135266.50 181.08
-9755831.31 5135267.67 184.14
-9755834.42 5135266.50 181.04
-9755831.25 5135271.09 185.17
-9755827.63 5135270.73 180.89
-9755824.65 5135277.23 180.99
-9755821.18 5135277.40 183.85
-9755818.59 5135276.98 184.89
-9755818.28 5135274.50 187.69
-9755814.50 5135277.26 191.43
-9755818.27 5135273.68 184.63
-9755817.43 5135277.29 190.28
-9755823.82 5135274.12 183.72
-9755804.61 5135274.27 191.18
-9755808.00 5135274.02 191.50
-9755804.69 5135276.92 190.84
-9755802.79 5135274.30 191.22
-9755808.02 5135277.13 191.46
-9755814.41 5135280.83 184.26
-9755814.26 5135278.53 194.28
-9755797.90 5135277.32 181.26
-9755821.61 5135259.88 182.17
-9755821.38 5135260.76 184.30
-9755818.04 5135263.06 190.09
-9755807.83 5135260.83 191.05
-9755811.25 5135260.67 190.98
-9755802.80 5135260.39 191.19
-9755804.57 5135264.27 189.63
-9755821.44 5135270.37 181.49
-9755821.21 5135267.21 181.16
-9755814.50 5135266.39 187.70
-9755820.41 5135267.78 185.06
-9755823.28 5135271.46 184.90
-9755815.11 5135266.71 181.54
-9755819.74 5135267.03 187.58
-9755811.13 5135266.50 188.10
-9755811.09 5135266.45 181.59
-9755808.26 5135266.33 185.17
-9755798.24 5135263.98 181.15
-9755797.89 5135267.22 182.16
-9755788.39 5135277.30 181.27
-9755774.92 5135276.42 190.32
-9755784.01 5135274.32 185.38
-9755782.70 5135276.95 188.84
-9755782.18 5135273.99 181.41
-9755778.18 5135274.95 190.35
-9755784.88 5135277.58 181.30
-9755782.60 5135277.76 185.00
-9755778.48 5135277.67 189.52
-9755770.05 5135275.46 189.98
-9755769.94 5135277.99 190.00
-9755791.50 5135263.95 181.20
-9755794.69 5135263.97 181.18
-9755788.19 5135264.29 181.15
-9755784.73 5135260.68 181.74
-9755781.75 5135260.79 185.61
-9755778.29 5135260.07 188.25
-9755781.49 5135264.35 185.54
-9755775.08 5135261.11 186.37
-9755778.46 5135264.30 185.58
-9755794.65 5135270.50 181.24
-9755775.22 5135273.49 189.42
-9755774.94 5135266.85 181.93
-9755781.70 5135270.97 188.38
-9755775.53 5135270.65 186.54
-9755778.93 5135267.10 181.67
-9755772.74 5135261.04 189.73
-9755771.69 5135267.25 182.13
-9755772.14 5135266.41 188.34
-9755767.89 5135270.88 188.84
-9755771.70 5135267.49 190.58
-9755772.02 5135266.93 184.46
-9755770.06 5135271.05 190.13
-9755766.67 5135274.09 188.37
-9755766.76 5135277.06 188.39
-9755748.68 5135274.02 188.34
-9755752.25 5135274.25 183.23
-9755753.96 5135275.62 186.99
-9755738.64 5135277.37 185.45
-9755766.47 5135263.90 188.17
-9755755.18 5135260.78 182.05
-9755749.23 5135260.94 183.17
-9755755.22 5135264.29 182.08
-9755758.70 5135264.34 181.84
-9755750.52 5135262.97 184.29
-9755752.05 5135267.17 184.22
-9755749.21 5135266.88 183.25
-9755751.93 5135271.08 183.95
-9755745.14 5135264.12 184.90
-9755745.61 5135270.61 185.33
-9755739.00 5135264.34 185.37
-9755735.42 5135273.82 185.47
-9755722.14 5135277.55 185.76
-9755728.92 5135277.15 188.20
-9755726.51 5135276.86 188.27
-9755729.51 5135276.90 185.72
-9755718.90 5135273.74 185.79
-9755730.93 5135277.95 188.07
-9755709.15 5135277.48 185.77
-9755732.22 5135260.75 185.43
-9755722.55 5135260.85 188.57
-9755725.51 5135260.67 185.65
-9755719.26 5135260.69 185.79
-9755730.19 5135267.56 185.61
-9755731.60 5135268.22 188.10
-9755732.22 5135270.53 185.54
-9755731.00 5135270.78 187.41
-9755722.83 5135263.87 188.56
-9755723.25 5135268.04 188.58
-9755715.69 5135270.71 185.84
-9755712.50 5135264.18 185.88
-9755692.68 5135273.88 185.38
-9755689.17 5135273.83 185.38
-9755679.43 5135273.78 185.34
-9755689.43 5135277.07 185.40
-9755682.57 5135277.05 185.33
-9755679.40 5135276.99 185.34
-9755695.97 5135260.87 185.48
-9755702.44 5135267.43 185.74
-9755705.71 5135264.18 185.82
-9755699.16 5135267.38 185.56
-9755695.92 5135270.62 185.45
-9755702.69 5135270.93 185.75
-9755702.73 5135264.14 185.75
-9755705.73 5135267.42 185.80
-9755692.69 5135264.13 185.43
-9755689.50 5135260.83 185.46
-9755689.50 5135264.07 185.43
-9755686.21 5135267.28 185.38
-9755679.44 5135270.87 185.35
-9755672.97 5135273.95 187.16
-9755669.65 5135277.32 185.26
-9755675.83 5135276.95 187.19
-9755676.18 5135277.33 185.28
-9755666.39 5135277.01 185.18
-9755649.68 5135277.67 187.35
-9755670.42 5135260.33 187.02
-9755672.67 5135260.93 186.95
-9755675.99 5135260.66 186.95
-9755673.20 5135264.25 185.35
-9755672.46 5135267.42 187.07
-9755676.12 5135267.29 185.31
-9755669.72 5135267.21 185.28
-9755676.14 5135264.22 186.99
-9755676.16 5135267.46 186.99
-9755670.65 5135267.75 187.02
-9755661.96 5135261.15 186.94
-9755661.29 5135260.59 186.96
-9755653.25 5135260.92 185.30
-9755661.23 5135264.12 187.18
-9755663.29 5135267.19 187.14
-9755650.03 5135264.13 185.36
-9755649.91 5135270.61 185.35
-9755649.95 5135267.14 185.37
-9755649.64 5135270.54 187.09
-9755643.14 5135273.85 185.58
-9755646.69 5135274.17 185.36
-9755639.94 5135273.84 185.39
-9755646.66 5135277.46 185.38
-9755632.80 5135273.58 187.01
-9755628.96 5135273.44 187.01
-9755623.44 5135273.75 185.37
-9755628.24 5135274.50 187.03
-9755630.19 5135277.07 185.30
-9755628.93 5135277.68 187.02
-9755623.37 5135277.00 185.33
-9755626.86 5135277.34 185.32
-9755620.13 5135277.27 185.32
-9755650.04 5135260.71 187.14
-9755643.41 5135270.93 185.59
-9755646.69 5135270.63 185.40
-9755646.51 5135267.56 187.05
-9755639.63 5135267.33 185.33
-9755639.94 5135270.60 185.45
-9755628.01 5135260.42 187.05
-9755620.47 5135260.73 185.34
-9755636.95 5135264.05 185.06
-9755633.44 5135267.31 185.17
-9755632.31 5135263.91 187.10
-9755632.59 5135271.06 187.04
-9755628.73 5135271.10 187.02
-9755626.98 5135267.30 185.29
-9755619.91 5135270.74 185.32
-9755628.43 5135270.82 187.02
-9755616.89 5135277.27 184.94
-9755613.94 5135277.63 184.36
-9755607.20 5135273.84 181.09
-9755593.87 5135274.07 181.27
-9755600.35 5135277.10 181.12
-9755614.09 5135260.78 184.69
-9755616.90 5135270.49 184.98
-9755613.99 5135270.37 184.67
-9755607.23 5135260.48 181.06
-9755597.17 5135260.67 181.09
-9755607.16 5135264.14 181.08
-9755603.67 5135270.59 181.10
-9755603.70 5135264.06 181.10
-9755593.94 5135264.29 181.28
-9755600.41 5135264.10 181.10
-9755596.85 5135270.92 181.06
-9755600.39 5135270.53 181.12
-9755590.24 5135264.11 185.35
-9755590.35 5135264.00 181.23
-9755592.00 5135262.55 186.70
-9755590.72 5135270.52 181.27
-9755587.13 5135274.08 181.09
-9755587.59 5135277.37 181.07
-9755564.41 5135273.81 181.00
-9755570.54 5135273.73 180.99
-9755577.36 5135277.30 181.00
-9755570.60 5135277.21 180.99
-9755564.09 5135277.15 180.99
-9755587.47 5135260.88 184.82
-9755588.60 5135260.19 187.33
-9755587.17 5135267.59 181.10
-9755587.44 5135264.24 181.07
-9755570.65 5135260.64 180.92
-9755567.45 5135260.56 180.96
-9755564.13 5135260.69 180.97
-9755580.87 5135270.77 181.03
-9755580.91 5135264.23 181.01
-9755574.14 5135267.48 180.95
-9755574.10 5135270.47 180.98
-9755567.44 5135264.12 180.94
-9755570.52 5135267.45 180.94
-9755564.12 5135263.84 180.96
-9755564.12 5135267.73 180.95
-9755560.87 5135270.58 180.97
-9755560.93 5135263.84 180.98
-9755547.76 5135273.76 181.07
-9755537.86 5135274.08 181.00
-9755557.58 5135277.10 181.02
-9755544.62 5135277.11 181.05
-9755534.61 5135277.58 180.98
-9755550.89 5135260.57 181.08
-9755537.71 5135261.05 180.97
-9755544.46 5135261.04 181.07
-9755550.90 5135270.81 181.05
-9755557.61 5135270.65 181.02
-9755551.10 5135264.10 181.02
-9755544.40 5135270.53 181.07
-9755537.61 5135270.82 181.01
-9755537.97 5135264.27 180.98
-9755544.44 5135264.08 181.06
-9755541.15 5135263.76 181.05
-9755531.19 5135260.72 180.95
-9755511.38 5135273.93 181.06
-9755504.83 5135273.79 181.11
-9755527.92 5135260.66 180.98
-9755521.10 5135260.70 181.00
-9755524.65 5135264.26 180.97
-9755527.90 5135264.27 180.93
-9755524.64 5135267.19 180.94
-9755521.36 5135264.00 180.99
-9755521.40 5135267.48 180.99
-9755511.69 5135270.69 181.09
-9755518.06 5135270.66 181.01
-9755508.12 5135264.08 181.12
-9755508.11 5135267.42 181.11
-9755504.83 5135264.12 181.11
-9755919.91 5135678.96 180.85
-9755923.40 5135680.44 187.70
-9755910.16 5135675.95 180.95
-9755900.38 5135675.91 180.93
-9755896.86 5135679.15 180.89
-9755899.58 5135677.73 189.60
-9755910.14 5135672.71 180.92
-9755906.95 5135672.66 180.93
-9755903.77 5135669.37 180.90
-9755900.47 5135672.65 180.93
-9755867.15 5135679.29 180.82
-9755873.93 5135678.99 180.83
-9755876.94 5135669.24 180.76
-9755870.66 5135669.55 180.73
-9755864.13 5135672.75 180.84
-9755850.94 5135676.16 180.88
-9755850.50 5135668.75 186.56
-9755837.94 5135672.62 180.83
-9755830.86 5135672.58 180.81
-9755824.70 5135672.54 180.76
-9755818.19 5135672.50 180.69
-9755807.92 5135669.51 180.40
-9755804.98 5135669.43 180.35
-9755791.31 5135676.22 180.11
-9755788.11 5135675.87 180.04
-9755778.33 5135676.11 180.37
-9755791.28 5135680.10 180.07
-9755774.76 5135676.41 182.05
-9755774.78 5135676.78 184.56
-9755788.20 5135669.31 179.98
-9755771.39 5135672.94 184.93
-9755771.73 5135669.09 185.12
-9755776.89 5135668.17 181.12
-9755745.34 5135679.24 185.25
-9755751.87 5135679.24 185.36
-9755735.69 5135675.97 184.97
-9755758.71 5135672.51 185.28
-9755758.67 5135669.27 185.33
-9755745.41 5135672.74 185.29
-9755748.69 5135666.20 185.29
-9755735.38 5135672.71 184.98
-9755737.77 5135673.79 187.42
-9755718.92 5135676.12 185.03
-9755725.39 5135675.90 185.08
-9755715.54 5135676.00 186.97
-9755732.15 5135679.20 185.00
-9755712.39 5135676.05 185.11
-9755712.38 5135679.37 185.10
-9755728.87 5135672.59 185.05
-9755702.64 5135676.01 185.12
-9755699.47 5135672.75 185.04
-9755692.57 5135675.96 185.04
-9755699.54 5135675.64 186.71
-9755691.71 5135675.77 186.68
-9755692.61 5135679.25 185.03
-9755695.73 5135679.17 186.73
-9755691.90 5135678.90 186.76
-9755689.34 5135679.27 185.03
-9755686.16 5135675.97 185.08
-9755682.89 5135675.98 185.04
-9755679.39 5135675.92 185.05
-9755681.41 5135675.80 186.79
-9755679.63 5135675.88 186.78
-9755676.04 5135672.72 185.05
-9755685.86 5135679.18 186.81
-9755682.07 5135679.33 186.68
-9755695.33 5135669.35 186.86
-9755702.68 5135666.28 185.10
-9755701.20 5135672.71 186.78
-9755699.15 5135665.91 185.05
-9755696.23 5135666.24 184.94
-9755701.00 5135669.50 186.75
-9755692.05 5135668.47 187.19
-9755691.65 5135672.56 186.69
-9755689.69 5135669.26 186.74
-9755689.38 5135666.21 185.01
-9755682.90 5135669.41 185.03
-9755681.44 5135669.30 186.82
-9755682.87 5135666.11 185.03
-9755679.68 5135666.05 186.85
-9755676.24 5135672.86 186.98
-9755666.39 5135676.09 185.08
-9755663.16 5135675.83 185.15
-9755669.62 5135679.40 184.97
-9755676.03 5135679.34 186.78
-9755663.07 5135679.35 185.18
-9755656.35 5135676.05 185.13
-9755656.40 5135672.54 185.15
-9755659.62 5135672.54 185.10
-9755659.65 5135676.06 185.11
-9755653.13 5135675.91 187.02
-9755656.69 5135676.07 187.06
-9755646.65 5135676.02 185.18
-9755656.64 5135679.58 186.87
-9755675.97 5135669.38 186.77
-9755669.68 5135669.34 184.96
-9755663.18 5135669.26 185.16
-9755659.67 5135669.27 185.13
-9755656.48 5135665.99 185.12
-9755653.20 5135669.25 185.13
-9755653.17 5135669.39 186.84
-9755653.21 5135665.91 186.83
-9755646.68 5135669.24 185.13
-9755646.64 5135666.24 185.12
-9755640.13 5135679.60 186.99
-9755630.11 5135675.95 184.98
-9755626.90 5135675.89 185.10
-9755635.97 5135675.89 186.89
-9755623.61 5135672.64 184.90
-9755623.24 5135672.51 179.85
-9755617.11 5135676.10 179.92
-9755626.90 5135679.18 185.09
-9755636.09 5135679.14 186.88
-9755623.34 5135678.98 180.97
-9755623.36 5135675.80 179.81
-9755639.71 5135669.30 187.17
-9755633.40 5135669.42 185.12
-9755635.62 5135669.34 187.10
-9755622.52 5135669.91 182.19
-9755623.58 5135669.22 180.03
-9755617.75 5135666.57 180.07
-9755621.89 5135665.94 181.46
-9755610.67 5135672.83 179.94
-9755613.87 5135679.32 179.98
-9755587.12 5135672.94 180.34
-9755600.83 5135679.26 180.17
-9755607.62 5135676.12 180.86
-9755605.37 5135678.68 180.07
-9755609.37 5135676.01 180.91
-9755597.07 5135679.21 180.24
-9755587.34 5135676.21 180.44
-9755600.32 5135669.15 180.08
-9755599.61 5135666.07 181.57
-9755596.86 5135666.13 181.55
-9755591.01 5135665.55 181.66
-9755587.08 5135665.81 180.73
-9755583.36 5135676.48 181.64
-9755580.59 5135675.88 181.95
-9755577.30 5135676.12 181.53
-9755557.87 5135676.03 180.87
-9755583.83 5135666.08 180.74
-9755577.39 5135666.06 180.89
-9755560.56 5135669.52 180.87
-9755557.58 5135669.48 180.89
-9755550.83 5135672.45 180.81
-9755547.83 5135675.93 180.93
-9755544.27 5135675.91 180.92
-9755537.85 5135675.66 180.90
-9755547.61 5135666.20 185.33
-9755534.34 5135669.35 180.95
-9755541.21 5135671.85 183.93
-9755504.79 5135672.75 181.04
-9755518.34 5135675.73 180.91
-9755524.59 5135665.74 181.04
-9755508.04 5135665.88 181.08
-9755920.31 5135649.69 181.04
-9755916.79 5135649.63 180.87
-9755919.03 5135649.91 185.65
-9755919.43 5135655.91 187.90
-9755919.21 5135656.30 195.07
-9755919.10 5135656.23 184.80
-9755919.33 5135659.49 185.28
-9755919.21 5135653.13 194.95
-9755922.99 5135659.82 195.79
-9755916.80 5135652.85 180.86
-9755916.82 5135655.84 180.85
-9755919.49 5135659.23 194.87
-9755916.70 5135662.72 180.72
-9755915.90 5135656.94 183.98
-9755913.26 5135656.16 180.71
-9755915.13 5135657.33 187.20
-9755915.85 5135658.30 184.11
-9755915.06 5135656.56 184.00
-9755913.41 5135657.78 189.29
-9755920.26 5135666.24 180.66
-9755923.78 5135663.69 183.51
-9755923.55 5135664.96 183.60
-9755919.09 5135646.11 184.98
-9755919.17 5135646.53 191.72
-9755923.40 5135645.66 180.87
-9755920.30 5135646.19 180.85
-9755919.10 5135639.52 191.64
-9755919.17 5135639.50 187.90
-9755919.25 5135643.14 187.86
-9755916.58 5135643.21 180.86
-9755920.11 5135638.98 181.05
-9755916.57 5135639.79 180.87
-9755923.26 5135639.25 180.88
-9755913.42 5135639.83 188.07
-9755913.33 5135639.81 180.80
-9755916.55 5135643.08 185.42
