-9755109.53 5136100.96 181.47
-9755106.29 5136100.99 180.80
-9755108.74 5136102.08 185.40
-9755113.93 5136101.52 184.08
-9755093.01 5136094.60 181.64
-9755083.44 5136097.84 181.73
-9755092.45 5136098.30 179.47
-9755083.26 5136097.73 177.86
-9755086.19 5136097.65 178.47
-9755096.24 5136100.92 181.02
-9755290.63 5136087.82 180.92
-9755300.75 5136074.86 180.87
-9755297.48 5136074.55 180.87
-9755297.23 5136071.29 180.88
-9755294.00 5136071.27 180.85
-9755290.72 5136077.80 180.86
-9755290.94 5136084.57 180.88
-9755280.72 5136071.20 180.80
-9755280.96 5136078.03 180.78
-9755277.42 5136077.97 180.79
-9755274.21 5136077.97 180.75
-9755251.11 5136087.70 191.58
-9755256.86 5136088.65 196.62
-9755267.43 5136078.20 180.78
-9755264.50 5136071.43 180.75
-9755264.48 5136077.92 180.81
-9755263.35 5136085.14 191.95
-9755261.21 5136074.94 180.80
-9755254.41 5136081.45 191.72
-9755259.84 5136084.33 193.39
-9755250.70 5136078.90 190.64
-9755248.92 5136085.82 193.72
-9755241.45 5136084.63 180.72
-9755241.21 5136074.82 180.69
-9755247.95 5136077.82 180.92
-9755241.46 5136084.48 190.14
-9755238.22 5136074.50 180.80
-9755237.97 5136071.26 180.79
-9755241.79 5136081.86 189.42
-9755224.91 5136084.47 180.87
-9755227.87 5136087.77 180.70
-9755227.35 5136087.14 187.53
-9755221.68 5136084.46 181.06
-9755220.86 5136074.74 187.17
-9755231.47 5136077.74 180.78
-9755218.41 5136084.74 181.30
-9755224.93 5136081.24 180.86
-9755228.23 5136081.07 190.84
-9755227.10 5136078.35 187.46
-9755228.04 5136077.27 190.49
-9755227.25 5136084.83 187.64
-9755226.44 5136083.17 189.77
-9755218.18 5136070.88 185.07
-9755218.26 5136081.09 185.02
-9755218.76 5136078.55 185.44
-9755217.19 5136085.19 183.44
-9755211.75 5136071.36 181.48
-9755215.20 5136071.22 184.82
-9755204.95 5136071.59 181.27
-9755202.02 5136074.88 181.23
-9755214.99 5136077.88 185.11
-9755214.83 5136080.92 184.33
-9755217.23 5136085.15 191.03
-9755191.87 5136084.62 181.23
-9755198.44 5136074.52 181.20
-9755188.74 5136071.23 181.12
-9755195.15 5136078.04 181.21
-9755198.68 5136081.37 181.25
-9755175.65 5136084.50 181.24
-9755182.21 5136071.54 181.15
-9755162.41 5136084.40 181.27
-9755149.17 5136084.63 181.24
-9755158.90 5136081.15 181.25
-9755155.68 5136074.58 181.20
-9755155.96 5136071.32 181.20
-9755152.20 5136071.62 181.16
-9755155.65 5136078.17 181.21
-9755155.40 5136081.04 181.24
-9755149.18 5136081.37 181.22
-9755132.63 5136084.51 181.23
-9755145.66 5136074.55 181.12
-9755142.48 5136071.25 181.12
-9755145.94 5136078.06 181.15
-9755142.62 5136081.33 181.19
-9755145.89 5136081.37 181.20
-9755135.92 5136074.48 181.16
-9755135.66 5136081.29 181.20
-9755119.06 5136087.56 184.70
-9755119.59 5136084.44 181.54
-9755116.17 5136084.59 184.87
-9755122.69 5136074.70 181.23
-9755109.38 5136084.67 187.62
-9755112.03 5136085.41 186.87
-9755099.92 5136084.36 180.95
-9755109.45 5136078.04 185.23
-9755106.43 5136081.08 188.21
-9755091.20 5136087.87 184.59
-9755300.78 5136064.80 180.85
-9755297.56 5136064.80 180.83
-9755287.52 5136067.95 180.84
-9755300.89 5136057.99 180.83
-9755300.82 5136061.56 180.82
-9755300.92 5136054.76 180.88
-9755297.60 5136057.96 180.80
-9755294.07 5136061.50 180.82
-9755297.61 5136055.01 180.83
-9755290.82 5136054.69 180.83
-9755283.98 5136067.98 180.81
-9755273.34 5136067.72 188.09
-9755270.73 5136068.18 180.69
-9755270.40 5136067.68 191.65
-9755270.42 5136068.69 184.95
-9755272.90 5136068.28 186.65
-9755273.78 5136064.90 187.33
-9755270.68 5136065.10 185.50
-9755284.29 5136058.19 180.79
-9755274.31 5136061.41 180.69
-9755274.01 5136054.86 180.67
-9755271.04 5136061.40 180.64
-9755270.89 5136054.93 188.30
-9755272.64 5136058.72 192.05
-9755267.53 5136071.45 188.25
-9755267.49 5136064.90 180.71
-9755264.55 5136071.33 188.53
-9755267.90 5136064.83 188.71
-9755263.97 5136065.11 188.14
-9755264.26 5136064.92 180.82
-9755262.87 5136067.05 195.13
-9755261.55 5136067.53 188.33
-9755261.25 5136068.13 180.81
-9755257.24 5136070.13 187.44
-9755268.36 5136055.32 191.16
-9755268.03 5136061.63 195.15
-9755267.50 5136058.40 180.64
-9755267.87 5136061.39 188.47
-9755264.06 5136061.59 194.94
-9755264.25 5136064.36 185.17
-9755267.38 5136054.81 188.10
-9755267.61 5136060.52 185.55
-9755269.44 5136060.58 196.62
-9755268.68 5136054.87 186.21
-9755266.10 5136064.60 185.43
-9755267.21 5136059.45 184.78
-9755254.94 5136057.96 191.80
-9755254.61 5136054.14 188.28
-9755257.76 5136058.87 195.38
-9755255.30 5136057.43 188.02
-9755258.08 5136061.61 180.81
-9755254.36 5136061.61 191.27
-9755254.57 5136054.78 180.89
-9755260.20 5136058.65 196.60
-9755253.48 5136055.17 196.94
-9755256.13 5136064.25 188.56
-9755241.94 5136067.26 191.23
-9755247.80 5136070.42 187.96
-9755247.99 5136068.04 180.95
-9755250.64 5136064.39 187.96
-9755251.26 5136064.86 180.97
-9755244.78 5136068.00 180.80
-9755245.19 5136064.03 188.03
-9755238.00 5136068.26 180.76
-9755237.72 5136064.70 180.78
-9755234.76 5136064.44 180.78
-9755247.88 5136058.37 198.23
-9755245.52 5136062.25 198.06
-9755250.86 5136055.36 197.74
-9755241.73 5136057.22 194.68
-9755247.94 5136054.83 197.17
-9755251.81 5136055.54 187.79
-9755251.68 5136053.96 192.01
-9755243.99 5136055.07 188.65
-9755245.13 5136059.20 197.00
-9755241.65 5136055.33 186.22
-9755237.73 5136054.64 180.76
-9755238.36 5136064.12 187.76
-9755231.50 5136064.68 180.73
-9755224.64 5136067.70 185.16
-9755222.03 5136068.49 180.85
-9755218.36 5136068.03 188.27
-9755217.34 5136068.80 185.00
-9755231.55 5136058.17 180.76
-9755231.54 5136061.45 180.74
-9755228.31 5136054.93 180.68
-9755221.62 5136054.97 185.32
-9755224.84 5136061.85 189.36
-9755227.33 5136058.30 189.52
-9755224.59 5136058.87 189.27
-9755218.29 5136061.46 185.29
-9755218.47 5136055.57 185.42
-9755221.34 5136063.11 186.96
-9755218.03 5136055.13 181.23
-9755212.59 5136067.61 185.13
-9755211.47 5136068.12 181.47
-9755208.20 5136068.09 181.31
-9755213.27 5136064.72 184.16
-9755217.51 5136069.54 181.30
-9755201.69 5136068.08 181.24
-9755214.81 5136054.81 185.82
-9755208.55 5136061.56 181.31
-9755214.53 5136056.99 184.40
-9755208.32 5136054.80 181.32
-9755212.96 5136061.50 183.42
-9755188.47 5136064.73 181.13
-9755198.24 5136061.52 181.21
-9755178.69 5136067.93 181.16
-9755175.22 5136064.89 181.17
-9755168.75 5136054.85 181.26
-9755172.35 5136054.88 181.22
-9755158.74 5136064.51 181.22
-9755149.26 5136068.07 181.15
-9755142.52 5136061.53 181.12
-9755294.13 5136044.89 180.89
-9755287.33 5136048.16 180.80
-9755287.61 5136051.40 180.82
-9755290.87 5136044.91 180.88
-9755287.67 5136044.90 180.83
-9755300.33 5136041.72 180.92
-9755300.64 5136038.43 180.92
-9755284.08 5136051.38 180.80
-9755277.92 5136045.03 188.54
-9755277.01 5136045.09 190.75
-9755277.17 5136048.42 191.74
-9755277.64 5136044.82 180.73
-9755274.05 5136048.96 186.64
-9755277.29 5136051.63 180.74
-9755274.03 5136048.35 188.30
-9755274.20 5136044.81 188.74
-9755274.49 5136050.12 191.00
-9755271.03 5136044.92 194.76
-9755269.63 5136048.22 185.15
-9755271.25 5136050.92 186.54
-9755284.14 5136041.88 180.87
-9755277.37 5136041.84 180.74
-9755277.41 5136038.33 180.78
-9755274.10 5136041.53 180.66
-9755274.24 5136041.75 194.95
-9755270.99 5136038.44 194.83
-9755271.64 5136041.44 192.68
-9755276.99 5136044.54 186.26
-9755268.86 5136047.63 192.69
-9755267.51 5136044.15 196.90
-9755254.38 5136051.33 191.38
-9755261.39 5136051.85 180.80
-9755254.56 5136048.68 191.52
-9755254.45 5136047.38 187.70
-9755254.08 5136051.43 194.75
-9755254.95 5136052.31 188.47
-9755254.42 5136045.09 191.89
-9755253.89 5136045.18 194.84
-9755254.41 5136045.15 188.17
-9755254.35 5136045.25 180.90
-9755256.74 5136045.23 186.28
-9755257.82 5136051.53 180.80
-9755254.33 5136048.49 180.88
-9755256.67 5136052.93 191.22
-9755267.38 5136038.50 180.72
-9755267.16 5136041.67 195.42
-9755268.48 5136039.49 186.00
-9755263.99 5136041.65 189.07
-9755264.49 5136038.43 192.01
-9755265.41 5136041.86 192.32
-9755264.40 5136041.48 180.77
-9755254.72 5136041.24 191.68
-9755260.67 5136041.55 188.84
-9755261.56 5136041.06 194.70
-9755256.56 5136038.51 186.01
-9755257.16 5136041.62 185.65
-9755254.49 5136042.57 194.00
-9755253.89 5136037.67 185.81
-9755244.59 5136051.54 194.63
-9755247.99 5136048.06 190.88
-9755247.93 5136044.89 194.23
-9755247.84 5136044.95 192.18
-9755247.96 5136048.37 195.10
-9755244.60 5136051.29 189.21
-9755251.48 5136051.83 197.42
-9755245.58 5136046.33 194.27
-9755251.31 5136050.60 185.50
-9755248.18 5136050.96 185.75
-9755250.94 5136049.85 196.90
-9755245.22 5136054.76 186.01
-9755237.78 5136051.73 180.74
-9755238.18 5136051.46 187.49
-9755239.07 5136049.01 186.33
-9755251.27 5136038.66 194.49
-9755251.31 5136041.66 194.82
-9755244.07 5136041.29 189.63
-9755251.33 5136041.58 191.76
-9755245.10 5136038.78 194.44
-9755245.70 5136041.66 194.24
-9755237.84 5136041.66 180.71
-9755231.32 5136048.14 180.70
-9755231.35 5136044.87 180.70
-9755228.12 5136048.16 184.82
-9755228.33 5136051.60 180.66
-9755227.22 5136045.52 184.21
-9755228.06 5136048.14 180.65
-9755224.33 5136045.29 189.43
-9755224.62 5136049.22 189.30
-9755227.46 5136050.89 189.49
-9755229.80 5136051.19 185.45
-9755218.14 5136048.31 188.24
-9755221.12 5136044.94 190.45
-9755228.14 5136041.91 180.60
-9755221.35 5136038.03 180.77
-9755224.53 5136041.71 185.74
-9755224.59 5136038.26 180.74
-9755221.44 5136041.71 188.13
-9755224.90 5136041.56 180.72
-9755215.16 5136051.53 188.17
-9755218.10 5136046.86 190.10
-9755216.14 5136044.92 190.31
-9755213.16 5136046.93 187.81
-9755204.78 5136048.52 181.30
-9755211.64 5136041.49 186.50
-9755205.11 5136041.39 181.30
-9755185.05 5136048.37 181.25
-9755198.61 5136041.64 181.23
-9755291.02 5136028.62 181.05
-9755293.92 5136031.87 181.02
-9755293.98 5136025.36 181.05
-9755294.20 5136035.42 180.97
-9755297.22 5136021.81 181.05
-9755277.48 5136025.26 180.98
-9755274.21 5136025.24 180.87
-9755277.16 5136036.42 191.01
-9755273.91 5136035.56 194.23
-9755270.80 5136032.68 191.93
-9755270.58 5136034.13 188.97
-9755272.80 5136033.27 193.31
-9755284.26 5136022.05 181.02
-9755266.99 5136034.53 188.86
-9755261.07 5136025.19 191.43
-9755254.54 5136028.35 194.25
-9755257.84 5136031.53 191.80
-9755257.41 5136024.73 183.78
-9755258.23 5136025.26 191.20
-9755260.98 5136028.03 183.82
-9755258.41 5136031.89 189.06
-9755261.23 5136035.03 189.26
-9755255.22 5136035.57 185.52
-9755253.76 5136036.31 188.76
-9755248.32 5136025.13 187.72
-9755248.40 5136031.78 194.00
-9755244.53 5136028.51 194.39
-9755251.56 5136028.92 194.17
-9755247.95 5136031.62 188.39
-9755250.56 5136035.00 191.40
-9755251.01 5136035.14 194.96
-9755241.65 5136034.34 190.67
-9755248.59 5136034.36 185.59
-9755234.62 5136035.08 180.73
-9755241.43 5136033.63 186.35
-9755221.45 5136034.75 185.92
-9755300.48 5136018.59 181.02
-9755297.24 5136018.56 181.05
-9755287.51 5136018.53 181.07
-9755303.76 5136064.81 180.85
-9755303.87 5135995.82 180.75
-9755296.67 5135991.86 201.20
-9755290.15 5135992.75 195.34
-9755287.63 5135992.43 180.86
-9755287.70 5135992.16 201.41
-9755283.96 5135992.10 194.85
-9755258.32 5135991.96 194.93
-9755258.19 5135992.24 188.69
-9755260.87 5135992.31 181.01
-9755247.89 5135992.28 180.95
-9755241.68 5135992.48 180.76
-9755244.72 5135992.13 188.37
-9755241.78 5135991.60 188.18
-9755303.68 5136025.39 180.96
-9755303.78 5136011.81 180.95
-9755303.67 5135982.73 194.98
-9755304.67 5135985.81 197.72
-9755304.02 5135986.48 190.92
-9755302.48 5135982.33 197.96
-9755303.87 5135978.95 191.15
-9755303.96 5135926.51 181.26
-9755303.78 5135909.91 181.23
-9755421.92 5135992.26 188.16
-9755498.17 5135992.21 180.66
-9755495.26 5135985.70 180.83
-9755495.24 5135989.23 180.83
-9755501.62 5135962.63 180.68
-9755478.56 5135966.02 180.94
-9755478.39 5135972.31 192.26
-9755488.30 5135969.33 180.89
-9755485.34 5135970.39 184.67
-9755478.59 5135968.85 185.37
-9755484.16 5135971.89 187.27
-9755474.77 5135968.97 185.03
-9755491.39 5135992.41 180.92
-9755490.56 5135992.55 185.16
-9755491.73 5135989.18 180.95
-9755475.26 5135985.55 180.90
-9755471.25 5135966.03 194.48
-9755471.72 5135975.78 180.93
-9755464.77 5135972.33 187.68
-9755465.27 5135965.80 187.91
-9755471.68 5135988.77 180.88
-9755491.89 5135963.02 183.65
-9755471.57 5135963.22 191.80
-9755458.82 5135965.71 191.45
-9755457.69 5135966.47 193.56
-9755464.67 5135969.37 189.10
-9755458.93 5135969.22 191.89
-9755454.97 5135975.69 194.51
-9755453.32 5135975.86 194.22
-9755448.92 5135968.76 194.37
-9755448.54 5135965.83 189.04
-9755455.47 5135989.28 180.84
-9755458.76 5135982.50 180.87
-9755455.19 5135982.21 180.89
-9755461.96 5135989.00 180.84
-9755458.69 5135988.99 180.84
-9755442.16 5135966.20 197.38
-9755445.72 5135969.18 194.77
-9755445.60 5135969.28 191.24
-9755439.15 5135965.82 189.78
-9755445.59 5135969.12 184.95
-9755439.33 5135972.68 184.97
-9755445.32 5135969.16 197.13
-9755444.93 5135972.49 191.27
-9755444.95 5135966.92 196.72
-9755441.24 5135975.69 196.57
-9755435.59 5135965.73 188.61
-9755435.52 5135969.09 184.96
-9755436.16 5135965.90 194.60
-9755435.42 5135966.81 184.74
-9755438.92 5135985.92 180.88
-9755442.52 5135985.70 180.88
-9755445.45 5135988.94 180.87
-9755435.96 5135988.89 180.86
-9755462.26 5135962.65 191.41
-9755462.10 5135962.58 188.50
-9755458.91 5135962.30 187.35
-9755455.05 5135963.12 192.06
-9755451.57 5135962.70 191.31
-9755462.06 5135962.37 185.30
-9755459.50 5135964.15 193.52
-9755448.92 5135962.70 191.45
-9755441.95 5135962.51 194.68
-9755438.88 5135962.82 193.79
-9755442.30 5135962.85 180.90
-9755439.12 5135962.56 180.91
-9755439.18 5135962.63 191.25
-9755435.61 5135962.70 194.47
-9755435.69 5135962.34 191.36
-9755432.35 5135965.75 185.22
-9755432.07 5135966.32 194.39
-9755425.50 5135966.00 181.02
-9755425.31 5135968.96 197.81
-9755428.95 5135967.04 185.78
-9755429.08 5135978.54 191.47
-9755432.60 5135970.99 188.02
-9755425.99 5135973.82 191.13
-9755428.96 5135977.92 188.65
-9755424.35 5135968.25 189.83
-9755422.53 5135966.03 181.03
-9755422.23 5135970.16 187.45
-9755426.11 5135988.70 195.18
-9755435.60 5135982.38 198.53
-9755432.43 5135981.75 200.86
-9755429.06 5135982.20 194.86
-9755429.32 5135989.11 195.22
-9755432.38 5135985.80 195.15
-9755428.74 5135989.75 198.05
-9755429.07 5135989.62 191.68
-9755432.17 5135985.90 180.86
-9755422.45 5135988.82 180.77
-9755419.02 5135965.95 181.03
-9755415.76 5135965.95 181.04
-9755412.70 5135971.57 191.28
-9755412.48 5135969.21 180.96
-9755405.69 5135978.95 180.87
-9755419.55 5135988.78 188.23
-9755416.30 5135986.10 187.67
-9755409.20 5135982.22 180.80
-9755425.86 5135962.76 180.97
-9755422.57 5135962.43 181.00
-9755398.73 5135976.20 190.50
-9755402.62 5135972.54 197.96
-9755398.34 5135972.80 185.85
-9755398.60 5135972.79 195.90
-9755402.51 5135969.17 191.29
-9755398.52 5135972.55 191.53
-9755396.15 5135972.51 198.44
-9755401.12 5135971.54 191.61
-9755399.04 5135975.78 196.02
-9755395.79 5135972.45 189.27
-9755395.83 5135976.07 195.30
-9755395.61 5135975.97 185.50
-9755401.46 5135975.95 196.86
-9755396.59 5135966.86 185.49
-9755396.17 5135972.26 200.74
-9755395.91 5135982.45 180.88
-9755406.07 5135980.42 191.43
-9755392.67 5135966.23 194.52
-9755392.98 5135966.10 197.50
-9755386.84 5135965.61 195.00
-9755386.10 5135969.29 195.00
-9755392.43 5135974.72 188.75
-9755389.90 5135972.68 198.56
-9755393.22 5135975.71 198.07
-9755386.27 5135972.57 180.88
-9755389.39 5135969.33 192.15
-9755386.24 5135969.05 180.95
-9755392.76 5135972.79 184.51
-9755391.05 5135975.89 192.58
-9755390.56 5135971.62 191.79
-9755391.12 5135975.87 194.02
-9755384.37 5135965.96 196.00
-9755383.04 5135972.57 180.90
-9755382.53 5135972.74 185.81
-9755379.63 5135969.18 188.43
-9755382.75 5135972.24 187.36
-9755381.63 5135970.10 185.06
-9755379.83 5135966.55 184.77
-9755379.78 5135979.08 180.85
-9755394.17 5135986.88 187.18
-9755389.39 5135988.93 180.80
-9755392.69 5135985.42 180.83
-9755379.51 5135985.87 193.85
-9755375.40 5135984.37 188.40
-9755379.42 5135983.97 188.41
-9755399.09 5135963.68 194.44
-9755401.54 5135963.00 193.52
-9755404.70 5135963.59 191.97
-9755389.97 5135961.94 194.94
-9755392.83 5135962.69 197.55
-9755386.01 5135962.49 181.08
-9755392.90 5135963.41 201.17
-9755394.68 5135963.09 197.36
-9755384.50 5135962.63 196.91
-9755373.80 5135979.19 185.24
-9755376.32 5135966.74 188.01
-9755372.87 5135975.84 191.43
-9755373.03 5135972.39 185.33
-9755373.23 5135979.05 180.88
-9755373.44 5135968.70 187.55
-9755375.32 5135978.62 191.09
-9755370.59 5135976.15 185.70
-9755374.82 5135973.27 190.00
-9755369.31 5135968.90 187.44
-9755369.84 5135977.83 193.26
-9755373.30 5135982.68 191.06
-9755373.03 5135988.69 194.33
-9755376.00 5135988.68 189.85
-9755370.55 5135989.73 185.96
-9755369.70 5135982.31 180.82
-9755370.05 5135983.02 186.00
-9755363.31 5135965.64 181.13
-9755350.05 5135965.85 181.16
-9755366.83 5135975.62 190.69
-9755366.66 5135969.15 188.24
-9755366.56 5135975.34 188.59
-9755356.60 5135975.65 188.22
-9755356.52 5135969.12 181.01
-9755366.77 5135978.46 190.71
-9755363.96 5135967.22 188.03
-9755362.88 5135972.62 189.99
-9755357.13 5135978.18 185.72
-9755356.81 5135976.33 185.49
-9755356.79 5135975.65 180.93
-9755357.19 5135967.37 187.98
-9755353.58 5135969.17 181.00
-9755346.47 5135972.39 181.01
-9755350.19 5135978.71 185.66
-9755349.64 5135977.20 190.34
-9755346.50 5135972.56 191.25
-9755346.73 5135972.36 195.21
-9755348.69 5135977.43 197.00
-9755354.81 5135970.51 188.52
-9755354.77 5135970.83 185.94
-9755367.33 5135989.29 188.37
-9755363.47 5135985.49 180.87
-9755366.50 5135982.59 180.82
-9755363.17 5135988.76 180.81
-9755366.91 5135991.96 191.55
-9755350.07 5135985.80 191.58
-9755346.81 5135985.63 194.58
-9755346.84 5135982.32 191.76
-9755347.19 5135982.25 195.36
-9755349.70 5135979.78 187.54
-9755351.72 5135988.04 191.43
-9755366.55 5135962.42 181.14
-9755346.82 5135962.29 181.18
-9755343.28 5135976.10 184.72
-9755343.80 5135976.88 191.08
-9755342.65 5135974.75 197.50
-9755343.33 5135988.51 194.77
-9755343.02 5135981.58 197.23
-9755333.84 5135966.06 181.15
-9755333.28 5135969.22 185.04
-9755333.47 5135975.93 185.13
-9755333.43 5135975.51 180.96
-9755341.06 5135970.85 192.69
-9755330.05 5135972.60 181.00
-9755324.13 5135975.41 187.71
-9755322.83 5135972.34 185.67
-9755327.20 5135973.16 188.13
-9755327.02 5135975.75 188.25
-9755326.88 5135979.68 185.77
-9755323.72 5135975.85 185.28
-9755323.75 5135975.74 180.96
-9755327.18 5135978.77 188.47
-9755326.95 5135975.76 180.93
-9755317.29 5135972.50 181.02
-9755317.27 5135966.26 181.09
-9755340.11 5135982.47 191.51
-9755340.33 5135985.83 191.56
-9755333.81 5135985.85 194.76
-9755330.26 5135985.69 191.56
-9755336.80 5135985.60 194.23
-9755333.98 5135988.98 184.50
-9755330.69 5135982.61 193.61
-9755336.89 5135980.36 193.47
-9755341.51 5135981.30 197.24
-9755327.04 5135982.39 191.48
-9755327.08 5135982.17 188.24
-9755323.69 5135985.93 188.41
-9755326.95 5135985.69 191.84
-9755320.60 5135982.31 188.03
-9755317.34 5135985.45 184.64
-9755323.89 5135988.56 185.42
-9755320.23 5135988.26 185.36
-9755319.86 5135980.29 187.48
-9755317.81 5135980.32 185.13
-9755324.35 5135983.37 191.08
-9755324.36 5135980.51 187.82
-9755330.89 5135982.47 185.25
-9755318.60 5135982.94 191.69
-9755317.30 5135962.70 181.16
-9755316.42 5135978.86 192.59
-9755316.79 5135987.47 188.21
-9755313.73 5135965.93 181.01
-9755307.48 5135975.70 181.01
-9755310.85 5135972.12 191.92
-9755307.10 5135975.81 191.40
-9755313.27 5135975.64 195.60
-9755310.62 5135975.62 201.58
-9755306.13 5135970.27 196.79
-9755307.05 5135968.96 191.58
-9755307.53 5135969.54 193.85
-9755314.46 5135973.67 192.46
-9755311.77 5135977.26 192.19
-9755307.21 5135978.94 181.03
-9755310.38 5135979.00 194.48
-9755313.76 5135982.50 188.27
-9755313.79 5135985.48 191.55
-9755313.96 5135989.09 180.79
-9755310.54 5135985.50 188.51
-9755306.66 5135982.33 201.91
-9755310.46 5135982.44 184.85
-9755313.63 5135988.46 187.52
-9755303.87 5135978.90 198.56
-9755305.86 5135989.21 196.19
-9755306.07 5135984.02 187.80
-9755310.24 5135962.40 181.15
-9755501.67 5135946.06 180.66
-9755498.48 5135946.31 180.61
-9755494.94 5135942.73 180.61
-9755495.18 5135952.76 180.70
-9755491.42 5135939.47 180.90
-9755494.71 5135936.25 180.72
-9755484.41 5135939.53 185.50
-9755478.49 5135939.37 181.14
-9755485.96 5135939.96 188.44
-9755481.93 5135945.90 180.82
-9755481.65 5135942.74 187.87
-9755488.55 5135942.89 188.19
-9755488.72 5135949.27 180.79
-9755478.71 5135945.91 180.87
-9755485.38 5135952.41 180.91
-9755485.55 5135942.65 187.00
-9755478.42 5135942.91 180.88
-9755488.13 5135946.23 180.68
-9755479.95 5135942.05 190.43
-9755476.69 5135940.01 188.42
-9755481.47 5135960.61 187.65
-9755481.83 5135959.22 180.87
-9755471.93 5135939.35 180.98
-9755465.39 5135949.66 181.03
-9755465.40 5135952.57 181.02
-9755465.10 5135946.09 180.98
-9755471.91 5135959.39 188.40
-9755494.68 5135932.97 180.70
-9755478.60 5135936.75 188.20
-9755478.40 5135936.24 185.29
-9755478.48 5135936.11 181.12
-9755478.77 5135933.15 181.13
-9755476.47 5135936.23 185.61
-9755476.57 5135937.21 187.83
-9755471.74 5135936.10 181.06
-9755461.97 5135939.56 181.02
-9755458.67 5135939.57 181.03
-9755458.98 5135943.15 181.00
-9755462.18 5135942.52 181.00
-9755458.94 5135946.07 180.98
-9755452.22 5135942.43 181.22
-9755455.68 5135952.86 181.01
-9755448.91 5135952.50 181.02
-9755464.66 5135961.61 185.45
-9755464.25 5135959.51 186.53
-9755452.43 5135956.10 181.01
-9755462.28 5135960.04 188.96
-9755462.50 5135959.25 191.70
-9755445.35 5135946.27 181.11
-9755438.86 5135949.51 181.03
-9755443.44 5135942.59 183.42
-9755435.90 5135949.55 181.03
-9755445.08 5135960.40 191.81
-9755446.18 5135960.73 187.90
-9755437.95 5135959.58 189.75
-9755465.20 5135932.77 181.19
-9755455.19 5135936.23 181.09
-9755455.22 5135933.04 181.19
-9755461.96 5135933.04 181.17
-9755459.02 5135936.33 181.11
-9755449.01 5135932.99 181.41
-9755445.46 5135936.49 181.43
-9755432.48 5135939.67 181.25
-9755422.39 5135939.63 181.28
-9755425.68 5135942.66 180.99
-9755429.15 5135942.63 180.96
-9755428.87 5135949.47 181.07
-9755422.66 5135949.70 181.12
-9755422.42 5135942.58 181.05
-9755425.84 5135959.20 181.05
-9755429.77 5135960.71 191.84
-9755422.67 5135955.88 181.14
-9755416.18 5135946.09 181.12
-9755409.37 5135949.62 181.16
-9755409.40 5135942.80 181.03
-9755405.86 5135942.73 181.07
-9755405.83 5135949.62 181.18
-9755405.81 5135952.87 181.19
-9755419.40 5135959.19 181.09
-9755415.82 5135959.17 181.10
-9755409.06 5135956.15 181.19
-9755405.80 5135959.11 181.14
-9755432.51 5135936.44 181.47
-9755422.47 5135936.40 181.44
-9755415.98 5135936.00 181.46
-9755412.76 5135933.07 181.41
-9755419.22 5135936.02 181.50
-9755412.73 5135935.98 181.42
-9755402.93 5135942.81 181.09
-9755396.13 5135949.23 181.18
-9755399.34 5135959.04 181.17
-9755402.90 5135956.10 181.19
-9755396.05 5135959.01 181.17
-9755389.37 5135946.23 181.20
-9755389.65 5135949.49 181.22
-9755382.90 5135949.47 181.26
-9755379.66 5135942.68 181.15
-9755389.48 5135959.58 195.21
-9755389.49 5135960.03 196.86
-9755392.10 5135960.64 195.78
-9755379.87 5135959.20 181.25
-9755379.61 5135955.98 181.30
-9755402.71 5135936.23 181.54
-9755396.25 5135936.52 181.52
-9755386.19 5135932.86 181.53
-9755382.94 5135936.12 181.56
-9755379.69 5135936.13 181.53
-9755379.73 5135932.88 181.52
-9755369.60 5135949.67 181.24
-9755373.38 5135959.47 181.24
-9755373.09 5135955.91 181.30
-9755369.81 5135959.17 181.23
-9755356.70 5135939.84 181.57
-9755366.40 5135946.35 181.19
-9755363.15 5135942.52 181.33
-9755359.92 5135949.04 181.26
-9755356.89 5135952.84 181.30
-9755353.33 5135952.88 181.30
-9755363.08 5135955.93 181.28
-9755350.08 5135959.04 181.25
-9755366.72 5135936.02 181.57
-9755363.21 5135933.07 181.57
-9755340.44 5135949.49 181.27
-9755327.18 5135945.92 181.19
-9755323.62 5135949.47 181.24
-9755320.39 5135942.89 181.34
-9755330.36 5135952.98 181.29
-9755326.89 5135949.43 181.24
-9755340.06 5135956.00 181.29
-9755330.34 5135955.98 181.28
-9755323.57 5135959.20 181.23
-9755340.21 5135936.17 181.65
-9755333.43 5135936.13 181.60
-9755330.19 5135936.40 181.59
-9755323.70 5135933.10 181.47
-9755310.68 5135939.31 181.52
-9755310.64 5135949.34 181.19
-9755304.15 5135949.59 181.17
-9755313.88 5135952.63 181.26
-9755313.66 5135936.03 181.59
-9755501.85 5135922.92 180.68
-9755501.28 5135913.18 180.71
-9755498.31 5135922.94 180.59
-9755494.86 5135913.16 180.64
-9755498.23 5135929.78 180.52
-9755501.59 5135910.23 180.72
-9755501.63 5135906.62 180.74
-9755488.34 5135913.08 180.97
-9755491.58 5135916.34 180.74
-9755488.28 5135919.60 180.87
-9755478.53 5135922.74 181.09
-9755475.00 5135923.34 181.17
-9755475.33 5135919.51 181.21
-9755475.01 5135926.33 181.14
-9755491.51 5135929.69 180.87
-9755488.26 5135929.68 181.02
-9755474.96 5135929.60 181.09
-9755472.05 5135926.30 181.21
-9755468.53 5135916.51 181.22
-9755471.76 5135929.59 181.17
-9755494.86 5135909.84 180.67
-9755494.88 5135903.05 180.72
-9755491.62 5135903.36 180.78
-9755481.86 5135910.27 181.81
-9755481.59 5135906.50 181.23
-9755478.34 5135906.78 181.27
-9755475.40 5135906.45 181.20
-9755475.11 5135910.03 181.19
-9755468.59 5135909.96 181.15
-9755468.64 5135906.67 181.15
-9755468.66 5135903.21 181.15
-9755465.30 5135920.02 181.22
-9755465.31 5135916.46 181.19
-9755452.08 5135916.37 181.21
-9755462.09 5135923.03 181.26
-9755458.55 5135919.69 181.21
-9755455.29 5135923.24 181.22
-9755452.02 5135919.68 181.22
-9755458.52 5135923.24 181.25
-9755459.03 5135929.80 181.25
-9755452.27 5135929.72 181.30
-9755445.55 5135919.95 181.23
-9755438.82 5135916.38 181.21
-9755445.56 5135922.86 181.24
-9755445.60 5135916.70 181.23
-9755439.32 5135926.38 181.31
-9755439.01 5135929.61 181.48
-9755435.48 5135926.37 181.32
-9755435.43 5135929.60 181.44
-9755465.38 5135903.17 181.13
-9755462.10 5135906.74 181.11
-9755453.05 5135907.04 192.66
-9755458.58 5135903.40 181.12
-9755448.84 5135910.14 181.19
-9755438.84 5135906.53 181.20
-9755442.10 5135909.79 181.22
-9755438.83 5135909.79 181.21
-9755429.07 5135913.37 181.14
-9755425.79 5135916.52 181.16
-9755429.01 5135922.80 181.24
-9755425.81 5135919.54 181.18
-9755425.78 5135926.06 181.29
-9755432.56 5135926.35 181.31
-9755422.53 5135923.00 181.24
-9755429.00 5135929.61 181.42
-9755419.00 5135916.49 181.14
-9755418.97 5135919.77 181.19
-9755416.08 5135926.57 181.30
-9755409.26 5135923.27 181.23
-9755419.27 5135929.56 181.41
-9755413.04 5135929.76 181.35
-9755409.20 5135929.74 181.35
-9755432.32 5135906.46 181.14
-9755429.36 5135909.77 181.13
-9755435.58 5135906.58 181.16
-9755425.87 5135906.49 181.09
-9755425.86 5135903.19 181.11
-9755422.60 5135903.23 181.10
-9755415.87 5135906.76 181.12
-9755412.90 5135906.70 181.14
-9755419.06 5135906.72 181.08
-9755409.07 5135909.95 181.14
-9755396.01 5135913.13 181.18
-9755402.80 5135916.43 181.16
-9755402.82 5135919.70 181.18
-9755395.99 5135916.40 181.19
-9755402.73 5135929.75 181.37
-9755389.61 5135913.41 181.13
-9755393.09 5135916.36 181.15
-9755393.06 5135922.90 181.23
-9755386.28 5135919.61 181.15
-9755386.24 5135926.36 181.27
-9755386.30 5135916.59 181.13
-9755379.80 5135919.52 181.14
-9755379.78 5135926.37 181.25
-9755386.22 5135929.65 181.41
-9755376.50 5135929.86 181.43
-9755406.15 5135903.46 181.15
-9755406.09 5135906.67 181.15
-9755393.11 5135906.60 181.16
-9755389.37 5135903.30 181.16
-9755379.87 5135910.03 181.09
-9755379.69 5135903.27 181.09
-9755376.53 5135919.56 181.13
-9755373.03 5135919.52 181.13
-9755369.75 5135923.30 181.19
-9755372.94 5135929.84 181.43
-9755363.30 5135913.27 181.13
-9755359.77 5135916.51 181.17
-9755363.31 5135920.05 181.16
-9755366.82 5135922.98 181.18
-9755353.27 5135922.91 181.25
-9755353.51 5135919.69 181.22
-9755363.13 5135929.39 181.78
-9755356.45 5135929.52 181.40
-9755349.98 5135929.75 181.38
-9755353.50 5135929.75 181.40
-9755376.39 5135903.50 181.09
-9755363.08 5135906.69 181.13
-9755353.36 5135903.70 181.26
-9755349.21 5135908.07 192.73
-9755346.84 5135913.14 181.22
-9755347.02 5135919.69 181.21
-9755343.30 5135916.68 181.17
-9755343.51 5135919.89 181.20
-9755333.82 5135916.65 181.14
-9755340.24 5135926.43 181.26
-9755323.49 5135919.53 181.16
-9755327.00 5135919.83 181.15
-9755323.83 5135913.03 181.10
-9755320.56 5135916.59 181.14
-9755326.97 5135926.38 181.23
-9755336.97 5135929.63 181.38
-9755320.44 5135929.54 181.34
-9755343.32 5135910.15 181.17
-9755340.39 5135903.31 181.14
-9755336.55 5135903.37 181.12
-9755330.00 5135909.76 181.05
-9755326.79 5135906.51 181.08
-9755323.56 5135903.24 181.10
-9755327.10 5135903.21 181.09
-9755317.06 5135913.28 181.13
-9755313.49 5135912.95 181.18
-9755310.48 5135922.95 181.24
-9755313.91 5135926.30 181.26
-9755307.22 5135929.75 181.35
-9755313.87 5135903.22 181.17
-9755310.62 5135903.37 181.22
-9755498.28 5135880.28 180.74
-9755498.31 5135873.45 180.77
-9755491.76 5135886.48 180.79
-9755495.66 5135886.09 187.16
-9755488.49 5135887.04 181.05
-9755484.48 5135886.47 184.88
-9755485.24 5135887.00 181.28
-9755481.75 5135886.64 181.43
-9755495.21 5135893.56 180.70
-9755494.92 5135899.77 180.74
-9755485.20 5135896.78 181.23
-9755488.41 5135899.77 181.02
-9755486.13 5135890.17 183.59
-9755486.12 5135892.48 183.97
-9755471.72 5135886.97 181.27
-9755468.69 5135886.87 181.25
-9755471.67 5135893.46 181.21
-9755471.91 5135890.14 181.24
-9755471.96 5135896.67 181.20
-9755468.64 5135899.94 181.18
-9755491.48 5135883.47 180.80
-9755494.74 5135883.51 180.73
-9755494.80 5135873.77 180.74
-9755491.48 5135876.60 182.31
-9755484.70 5135884.39 184.26
-9755488.26 5135873.39 181.10
-9755485.02 5135880.16 181.26
-9755481.79 5135877.13 181.42
-9755478.79 5135880.41 181.35
-9755483.39 5135883.97 183.99
-9755481.77 5135873.62 181.41
-9755475.29 5135873.89 181.21
-9755468.51 5135876.85 181.16
-9755468.76 5135883.63 181.23
-9755465.36 5135899.91 181.13
-9755458.92 5135896.63 181.15
-9755458.64 5135893.63 181.19
-9755455.71 5135893.36 181.17
-9755458.89 5135900.14 181.14
-9755448.68 5135886.78 181.25
-9755448.92 5135896.87 181.19
-9755448.95 5135893.29 181.22
-9755445.76 5135886.72 181.26
-9755445.19 5135890.03 181.27
-9755452.06 5135873.76 181.18
-9755452.30 5135877.01 181.19
-9755448.66 5135883.56 181.24
-9755448.76 5135876.70 181.20
-9755445.25 5135876.97 181.23
-9755442.00 5135876.97 181.26
-9755425.93 5135893.16 181.20
-9755435.69 5135893.25 181.23
-9755422.75 5135890.21 181.23
-9755415.96 5135886.92 181.24
-9755412.43 5135886.92 181.23
-9755419.19 5135889.89 181.24
-9755415.96 5135889.88 181.24
-9755415.65 5135893.39 181.19
-9755412.66 5135893.42 181.19
-9755409.73 5135896.61 181.15
-9755409.45 5135890.07 181.22
-9755429.23 5135880.16 181.22
-9755425.76 5135877.15 181.17
-9755432.45 5135883.44 181.26
-9755412.70 5135880.36 181.19
-9755419.22 5135880.36 181.19
-9755415.70 5135883.64 181.23
-9755416.03 5135880.39 181.17
-9755402.94 5135893.61 181.22
-9755406.17 5135896.85 181.16
-9755399.14 5135890.32 181.27
-9755396.18 5135893.27 181.24
-9755395.92 5135886.73 181.28
-9755396.18 5135890.04 181.25
-9755389.45 5135886.77 181.26
-9755379.69 5135886.66 181.23
-9755382.89 5135899.75 181.12
-9755399.28 5135873.47 181.22
-9755402.75 5135880.26 181.22
-9755402.83 5135873.79 181.18
-9755405.94 5135880.28 181.19
-9755396.24 5135873.40 181.22
-9755393.03 5135876.69 181.23
-9755386.21 5135883.49 181.25
-9755389.52 5135883.44 181.24
-9755372.94 5135886.63 181.26
-9755373.19 5135893.47 181.18
-9755362.97 5135883.60 181.23
-9755360.01 5135883.88 181.23
-9755353.22 5135883.27 181.24
-9755350.21 5135883.50 181.25
-9755366.70 5135890.19 181.25
-9755366.35 5135899.92 181.14
-9755359.90 5135886.58 181.26
-9755363.11 5135900.19 181.16
-9755353.12 5135890.12 181.28
-9755356.72 5135886.86 181.27
-9755353.12 5135896.59 181.25
-9755356.38 5135900.18 181.22
-9755353.34 5135900.18 181.25
-9755350.16 5135900.15 181.24
-9755372.94 5135876.80 181.15
-9755363.33 5135873.85 181.15
-9755353.24 5135877.01 181.21
-9755349.97 5135873.74 181.22
-9755346.72 5135890.29 181.25
-9755336.69 5135883.48 181.19
-9755330.20 5135883.71 181.21
-9755336.90 5135887.04 181.26
-9755340.12 5135896.80 181.15
-9755326.90 5135890.19 181.21
-9755320.49 5135886.70 181.25
-9755323.91 5135896.75 181.13
-9755323.70 5135889.85 181.21
-9755320.44 5135893.15 181.17
-9755336.62 5135900.07 181.12
-9755333.32 5135900.02 181.12
-9755330.10 5135900.01 181.09
-9755326.85 5135899.98 181.09
-9755346.72 5135877.02 181.18
-9755340.23 5135880.27 181.16
-9755323.77 5135876.59 181.12
-9755326.97 5135880.16 181.17
-9755330.27 5135873.91 181.10
-9755316.83 5135899.91 181.16
-9755307.26 5135883.58 181.23
-9755310.46 5135883.29 181.23
-9755313.68 5135890.09 181.24
-9755310.71 5135886.88 181.24
-9755310.37 5135896.63 181.21
-9755307.15 5135886.56 181.24
-9755307.12 5135900.15 181.21
-9755501.84 5135870.51 180.79
-9755501.61 5135866.96 180.79
-9755501.61 5135860.50 180.80
-9755498.01 5135866.99 180.79
-9755501.40 5135847.15 180.80
-9755501.33 5135853.93 180.81
-9755498.17 5135850.35 180.69
-9755493.41 5135860.03 184.48
-9755485.43 5135860.37 185.41
-9755491.60 5135866.92 180.87
-9755491.50 5135864.10 183.64
-9755491.42 5135869.99 184.06
-9755488.44 5135863.60 181.96
-9755485.17 5135863.82 185.06
-9755488.98 5135870.36 181.98
-9755481.90 5135863.66 185.06
-9755488.56 5135870.28 184.48
-9755488.96 5135864.09 184.38
-9755482.08 5135870.17 185.09
-9755482.16 5135870.34 181.85
-9755490.33 5135860.35 187.09
-9755475.37 5135860.62 181.19
-9755475.06 5135863.81 181.20
-9755471.88 5135867.38 181.18
-9755468.55 5135867.30 181.13
-9755494.96 5135843.84 180.66
-9755481.64 5135847.38 184.84
-9755487.86 5135847.47 188.10
-9755481.65 5135847.17 188.12
-9755479.86 5135845.61 187.71
-9755494.98 5135857.21 185.39
-9755491.63 5135854.02 185.24
-9755491.15 5135853.50 187.18
-9755494.24 5135854.79 186.80
-9755481.95 5135850.14 187.92
-9755481.89 5135850.68 185.26
-9755488.50 5135854.17 187.87
-9755485.10 5135853.80 181.30
-9755488.47 5135850.59 181.02
-9755478.44 5135850.55 181.34
-9755481.67 5135853.80 181.41
-9755482.36 5135857.23 185.77
-9755486.13 5135856.46 187.99
-9755481.64 5135857.32 181.40
-9755479.35 5135849.36 184.94
-9755475.10 5135857.29 181.21
-9755475.16 5135847.01 181.20
-9755471.87 5135857.30 181.18
-9755468.62 5135857.31 181.16
-9755468.66 5135854.06 181.17
-9755462.15 5135860.56 181.09
-9755465.35 5135870.29 181.12
-9755452.02 5135867.23 181.17
-9755448.82 5135867.22 181.22
-9755445.60 5135860.41 181.23
-9755442.09 5135863.69 181.28
-9755445.64 5135863.61 181.23
-9755439.09 5135870.10 181.28
-9755439.17 5135867.20 181.26
-9755465.17 5135847.49 181.22
-9755465.19 5135850.46 181.17
-9755461.90 5135850.76 181.17
-9755455.65 5135856.98 181.13
-9755452.07 5135857.18 181.17
-9755455.33 5135853.68 181.15
-9755458.64 5135857.18 181.14
-9755448.96 5135847.10 181.24
-9755448.87 5135850.65 181.21
-9755438.93 5135843.78 181.27
-9755435.82 5135860.67 181.24
-9755429.35 5135860.60 181.18
-9755422.65 5135860.59 181.15
-9755429.06 5135863.54 181.17
-9755435.79 5135870.69 181.25
-9755432.27 5135863.90 181.19
-9755425.81 5135863.81 181.14
-9755419.05 5135860.57 181.15
-9755416.08 5135870.65 181.12
-9755419.02 5135863.56 181.09
-9755429.14 5135857.08 181.18
-9755432.37 5135854.10 181.20
-9755425.87 5135850.54 181.22
-9755429.15 5135850.82 181.21
-9755419.40 5135847.22 181.24
-9755419.13 5135850.77 181.20
-9755416.19 5135853.97 181.18
-9755409.39 5135853.95 181.19
-9755406.13 5135857.20 181.17
-9755396.39 5135860.45 181.22
-9755399.58 5135863.70 181.18
-9755402.52 5135870.49 181.18
-9755402.83 5135867.24 181.16
-9755399.55 5135870.52 181.21
-9755402.55 5135863.99 181.16
-9755396.33 5135866.91 181.23
-9755386.31 5135860.61 181.16
-9755386.40 5135857.11 181.15
-9755379.86 5135857.08 181.15
-9755383.10 5135857.13 181.13
-9755383.11 5135860.30 181.15
-9755392.80 5135870.18 181.20
-9755389.82 5135863.91 181.16
-9755393.12 5135863.67 181.20
-9755383.06 5135867.17 181.13
-9755379.82 5135863.55 181.11
-9755406.20 5135844.21 181.23
-9755400.99 5135845.03 192.25
-9755396.43 5135844.09 181.25
-9755402.83 5135853.94 181.21
-9755399.67 5135850.69 181.24
-9755396.17 5135847.10 181.24
-9755396.16 5135850.73 181.24
-9755389.67 5135843.81 181.23
-9755392.58 5135850.66 181.22
-9755392.87 5135854.17 181.22
-9755386.12 5135847.31 181.24
-9755382.83 5135850.56 181.18
-9755373.30 5135866.78 181.12
-9755369.76 5135870.29 181.12
-9755366.60 5135857.25 181.17
-9755363.28 5135867.01 181.15
-9755356.49 5135870.26 181.19
-9755356.85 5135863.74 181.20
-9755372.89 5135844.29 181.19
-9755376.42 5135850.57 181.19
-9755369.66 5135847.53 181.21
-9755366.70 5135843.88 181.19
-9755363.41 5135843.95 181.19
-9755366.65 5135850.51 181.18
-9755363.11 5135854.02 181.19
-9755360.16 5135847.47 181.23
-9755356.29 5135853.94 181.22
-9755350.16 5135847.16 181.24
-9755346.81 5135863.67 181.17
-9755343.56 5135867.18 181.14
-9755343.58 5135863.63 181.13
-9755323.85 5135857.01 181.15
-9755330.05 5135857.10 181.16
-9755340.06 5135863.98 181.11
-9755337.12 5135863.60 181.10
-9755326.77 5135860.29 181.14
-9755330.34 5135860.32 181.12
-9755330.56 5135867.14 181.08
-9755326.88 5135843.77 181.18
-9755320.31 5135850.80 181.20
-9755313.81 5135857.04 181.18
-9755307.35 5135863.76 181.23
-9755310.59 5135863.76 181.20
-9755307.29 5135870.59 181.21
-9755313.95 5135843.98 181.22
-9755307.15 5135843.94 181.23
-9755310.39 5135847.44 181.23
-9755310.37 5135850.42 181.24
-9755307.04 5135853.96 181.25
-9755313.56 5135850.45 181.22
-9755502.03 5135840.65 180.79
-9755498.26 5135834.39 180.76
-9755501.83 5135821.10 180.78
-9755501.53 5135827.30 180.77
-9755501.53 5135824.31 180.79
-9755498.06 5135817.47 180.75
-9755498.36 5135814.59 180.76
-9755498.37 5135820.78 180.76
-9755498.23 5135830.85 180.75
-9755479.44 5135833.17 186.96
-9755482.09 5135834.28 181.37
-9755491.26 5135840.93 185.37
-9755492.16 5135840.53 187.40
-9755485.01 5135840.87 184.85
-9755487.93 5135840.19 188.23
-9755488.52 5135840.64 184.69
-9755485.29 5135840.44 188.42
-9755482.50 5135841.00 185.80
-9755482.42 5135837.64 187.82
-9755481.68 5135837.78 181.39
-9755485.31 5135837.54 187.57
-9755481.68 5135840.47 181.39
-9755478.16 5135840.77 181.34
-9755481.45 5135841.67 187.02
-9755475.20 5135837.49 181.20
-9755475.24 5135834.21 181.19
-9755468.74 5135837.46 181.19
-9755494.86 5135817.77 180.69
-9755495.41 5135814.23 180.68
-9755488.32 5135817.73 181.04
-9755485.18 5135817.60 183.80
-9755481.52 5135817.68 181.40
-9755485.40 5135814.90 184.50
-9755481.85 5135814.65 181.40
-9755478.65 5135814.39 181.38
-9755482.51 5135813.99 183.83
-9755482.09 5135821.23 181.42
-9755475.37 5135817.67 181.21
-9755494.74 5135824.00 180.70
-9755495.09 5135827.51 180.68
-9755491.50 5135831.08 180.87
-9755482.09 5135830.60 185.19
-9755478.33 5135827.53 185.57
-9755479.24 5135831.04 185.29
-9755488.28 5135824.05 184.60
-9755485.10 5135827.74 188.32
-9755481.96 5135827.51 188.13
-9755485.01 5135830.86 188.64
-9755479.61 5135830.71 187.71
-9755484.97 5135825.61 188.52
-9755478.53 5135830.99 181.35
-9755488.53 5135828.12 187.85
-9755478.83 5135824.47 181.38
-9755480.13 5135824.85 185.43
-9755475.53 5135827.41 181.22
-9755468.58 5135824.13 181.13
-9755468.75 5135830.65 181.13
-9755472.08 5135827.41 181.19
-9755468.87 5135827.39 181.15
-9755465.20 5135834.15 181.14
-9755455.23 5135833.87 181.13
-9755452.22 5135834.09 181.15
-9755458.76 5135830.60 181.09
-9755452.16 5135837.35 181.18
-9755452.19 5135840.88 181.23
-9755442.50 5135834.10 181.24
-9755462.10 5135814.26 181.14
-9755458.60 5135814.31 181.15
-9755462.01 5135821.09 181.08
-9755452.03 5135821.10 181.14
-9755448.52 5135817.54 181.17
-9755458.77 5135827.61 181.10
-9755452.01 5135824.32 181.14
-9755448.76 5135820.70 181.16
-9755449.05 5135824.30 181.15
-9755442.04 5135817.42 181.22
-9755439.04 5135820.68 181.21
-9755432.48 5135833.96 181.19
-9755435.41 5135840.82 181.24
-9755422.69 5135840.74 181.18
-9755422.50 5135830.98 181.14
-9755418.92 5135834.16 181.15
-9755415.95 5135840.41 181.19
-9755415.96 5135834.19 181.13
-9755408.92 5135834.08 181.15
-9755429.04 5135814.13 181.17
-9755429.40 5135817.69 181.18
-9755432.27 5135814.44 181.20
-9755432.24 5135824.19 181.19
-9755426.11 5135827.71 181.15
-9755429.04 5135821.20 181.15
-9755435.54 5135820.96 181.21
-9755415.82 5135817.90 181.13
-9755409.36 5135814.30 181.18
-9755415.76 5135824.37 181.09
-9755415.77 5135827.73 181.08
-9755406.30 5135830.84 181.16
-9755406.27 5135834.13 181.15
-9755399.77 5135840.58 181.25
-9755399.53 5135834.10 181.21
-9755396.28 5135834.04 181.22
-9755392.97 5135837.31 181.22
-9755386.20 5135834.02 181.16
-9755382.91 5135840.74 181.19
-9755379.71 5135840.80 181.18
-9755399.29 5135817.49 181.20
-9755406.00 5135824.35 181.14
-9755402.78 5135824.06 181.19
-9755399.31 5135824.27 181.22
-9755405.77 5135820.81 181.16
-9755402.79 5135821.10 181.19
-9755389.55 5135817.44 181.15
-9755385.96 5135824.23 181.12
-9755383.02 5135824.48 181.11
-9755379.77 5135827.74 181.09
-9755376.26 5135831.02 181.11
-9755373.26 5135830.93 181.10
-9755373.21 5135837.23 181.15
-9755356.51 5135830.86 181.19
-9755359.93 5135840.36 181.19
-9755363.18 5135834.16 181.14
-9755366.40 5135840.94 181.18
-9755353.16 5135834.37 181.23
-9755349.95 5135837.31 181.23
-9755376.30 5135814.38 181.15
-9755369.80 5135817.61 181.13
-9755373.03 5135824.15 181.05
-9755372.98 5135821.17 181.11
-9755376.21 5135820.95 181.12
-9755369.71 5135827.69 181.06
-9755353.29 5135814.27 181.23
-9755350.07 5135814.53 181.23
-9755366.52 5135827.69 181.10
-9755359.78 5135820.87 181.16
-9755366.76 5135824.14 181.09
-9755359.75 5135824.34 181.15
-9755356.76 5135824.38 181.19
-9755350.00 5135824.03 181.21
-9755350.00 5135827.29 181.20
-9755343.45 5135834.04 181.14
-9755340.16 5135840.85 181.17
-9755336.99 5135840.83 181.15
-9755336.66 5135834.01 181.12
-9755326.96 5135840.76 181.16
-9755320.38 5135840.42 181.15
-9755330.17 5135834.01 181.11
-9755323.67 5135837.49 181.15
-9755346.84 5135817.82 181.18
-9755343.59 5135814.23 181.16
-9755346.82 5135821.04 181.18
-9755343.20 5135827.56 181.12
-9755343.23 5135820.71 181.15
-9755343.26 5135823.97 181.13
-9755320.27 5135817.59 181.12
-9755323.84 5135814.19 181.15
-9755330.26 5135817.73 181.10
-9755340.27 5135824.26 181.10
-9755326.71 5135824.21 181.09
-9755326.95 5135827.74 181.08
-9755320.21 5135824.15 181.12
-9755316.88 5135834.22 181.16
-9755307.23 5135830.91 181.23
-9755310.77 5135834.12 181.22
-9755310.45 5135837.38 181.22
-9755313.98 5135834.20 181.19
-9755310.41 5135840.68 181.23
-9755307.21 5135837.69 181.22
-9755307.17 5135840.71 181.23
-9755313.76 5135817.55 181.16
-9755307.21 5135817.84 181.21
-9755310.49 5135814.32 181.19
-9755307.31 5135814.30 181.22
-9755313.98 5135827.62 181.17
-9755310.53 5135820.85 181.20
-9755314.02 5135824.39 181.18
-9755310.53 5135824.03 181.19
-9755313.76 5135821.15 181.18
-9755501.63 5135810.74 180.78
-9755498.05 5135810.99 180.76
-9755501.45 5135791.49 180.81
-9755501.39 5135800.96 180.80
-9755501.50 5135784.64 180.83
-9755498.27 5135784.92 180.83
-9755498.10 5135801.21 180.76
-9755498.17 5135798.23 180.79
-9755498.39 5135804.17 180.76
-9755494.87 5135808.01 180.73
-9755495.11 5135810.97 180.72
-9755492.71 5135812.31 184.65
-9755485.17 5135811.17 181.25
-9755488.39 5135808.43 184.10
-9755484.57 5135808.11 184.14
-9755485.48 5135811.03 183.69
-9755468.94 5135804.53 181.23
-9755472.15 5135811.03 181.20
-9755491.76 5135788.11 180.86
-9755495.00 5135784.61 180.76
-9755494.99 5135794.68 180.75
-9755482.02 5135788.05 181.37
-9755485.00 5135791.12 185.15
-9755478.45 5135788.25 181.77
-9755478.56 5135785.02 181.85
-9755485.04 5135794.76 184.61
-9755481.95 5135794.85 181.39
-9755475.17 5135791.28 181.20
-9755494.93 5135801.21 180.72
-9755481.86 5135801.40 181.44
-9755487.32 5135795.32 184.12
-9755487.24 5135797.08 183.89
-9755475.19 5135797.75 181.21
-9755468.75 5135787.98 181.15
-9755471.99 5135791.29 181.19
-9755471.93 5135794.50 181.19
-9755468.68 5135801.30 181.20
-9755465.36 5135811.12 181.17
-9755462.20 5135807.73 181.19
-9755438.88 5135804.39 181.29
-9755438.89 5135807.98 181.27
-9755465.42 5135791.25 181.14
-9755465.23 5135784.48 181.12
-9755455.51 5135787.92 181.11
-9755452.20 5135787.66 181.16
-9755458.68 5135788.23 181.10
-9755462.16 5135791.26 181.11
-9755458.76 5135784.39 181.06
-9755462.00 5135784.69 181.10
-9755455.50 5135784.99 181.10
-9755451.94 5135784.40 181.14
-9755449.02 5135791.09 181.15
-9755465.49 5135797.76 181.16
-9755462.22 5135801.29 181.17
-9755458.59 5135801.27 181.18
-9755448.97 5135794.41 181.16
-9755442.23 5135794.36 181.22
-9755442.11 5135801.10 181.24
-9755438.71 5135794.68 181.24
-9755445.68 5135794.65 181.19
-9755432.41 5135804.67 181.29
-9755425.85 5135804.60 181.25
-9755422.66 5135804.59 181.25
-9755429.13 5135807.91 181.24
-9755425.83 5135811.16 181.19
-9755422.62 5135807.82 181.21
-9755419.36 5135804.59 181.24
-9755412.61 5135804.25 181.25
-9755409.44 5135804.51 181.25
-9755415.82 5135811.11 181.19
-9755412.56 5135811.12 181.20
-9755429.23 5135788.04 181.13
-9755432.47 5135791.37 181.19
-9755435.69 5135791.61 181.23
-9755422.47 5135787.99 181.10
-9755432.41 5135801.08 181.25
-9755422.64 5135797.82 181.16
-9755422.42 5135801.36 181.20
-9755415.70 5135787.94 181.13
-9755415.92 5135791.30 181.16
-9755409.46 5135787.93 181.11
-9755419.10 5135801.08 181.21
-9755412.62 5135797.75 181.20
-9755415.64 5135798.04 181.19
-9755412.69 5135794.53 181.19
-9755409.44 5135797.73 181.17
-9755402.87 5135811.00 181.24
-9755399.34 5135807.73 181.25
-9755396.11 5135810.95 181.24
-9755392.86 5135804.42 181.26
-9755383.11 5135807.67 181.23
-9755402.97 5135787.91 181.11
-9755405.67 5135784.65 181.16
-9755396.21 5135788.17 181.16
-9755405.88 5135797.72 181.13
-9755402.66 5135794.42 181.08
-9755386.49 5135784.60 181.16
-9755383.25 5135784.80 181.18
-9755392.92 5135797.63 181.20
-9755389.67 5135794.64 181.19
-9755382.87 5135794.61 181.10
-9755373.08 5135804.59 181.23
-9755376.28 5135807.86 181.22
-9755366.62 5135804.60 181.24
-9755363.38 5135804.55 181.24
-9755350.13 5135804.22 181.23
-9755366.59 5135810.86 181.21
-9755360.14 5135807.81 181.24
-9755356.57 5135807.73 181.66
-9755372.96 5135790.99 181.17
-9755373.17 5135788.01 181.18
-9755373.23 5135784.78 181.21
-9755376.16 5135794.54 181.10
-9755369.90 5135798.06 181.18
-9755369.66 5135794.54 181.17
-9755363.18 5135788.02 181.17
-9755366.70 5135787.98 181.18
-9755356.37 5135791.49 181.10
-9755356.42 5135787.96 181.17
-9755353.44 5135791.17 181.12
-9755349.88 5135787.89 181.16
-9755349.97 5135784.33 181.22
-9755363.40 5135794.74 181.11
-9755356.66 5135801.32 181.16
-9755356.70 5135794.78 181.07
-9755343.29 5135804.40 181.22
-9755343.60 5135810.97 181.21
-9755336.56 5135804.47 181.20
-9755320.31 5135804.59 181.21
-9755326.81 5135804.36 181.19
-9755330.37 5135804.68 181.19
-9755340.36 5135810.97 181.18
-9755330.05 5135807.92 181.20
-9755320.57 5135810.84 181.18
-9755320.35 5135807.88 181.21
-9755330.34 5135811.20 181.18
-9755346.70 5135787.88 181.16
-9755343.69 5135787.91 181.16
-9755343.41 5135791.09 181.16
-9755346.63 5135797.95 181.16
-9755340.13 5135791.36 181.14
-9755330.17 5135784.52 181.15
-9755340.18 5135801.45 181.18
-9755320.36 5135798.12 181.18
-9755323.87 5135797.74 181.11
-9755330.14 5135794.32 181.05
-9755320.09 5135801.37 181.20
-9755330.06 5135798.17 181.06
-9755317.39 5135811.10 181.22
-9755317.20 5135807.57 181.69
-9755313.83 5135811.05 181.22
-9755307.08 5135810.80 181.22
-9755310.57 5135807.55 181.25
-9755317.14 5135791.24 181.16
-9755313.69 5135791.26 181.14
-9755313.88 5135801.27 181.19
-9755310.60 5135794.80 181.14
-9755306.81 5135798.05 181.11
-9755501.81 5135778.12 180.83
-9755501.77 5135781.68 180.83
-9755501.35 5135758.28 180.80
-9755501.89 5135765.11 180.82
-9755498.40 5135761.51 180.82
-9755498.33 5135765.06 180.84
-9755491.53 5135778.05 180.88
-9755481.75 5135781.28 181.40
-9755478.50 5135781.54 181.40
-9755468.76 5135777.93 181.21
-9755471.99 5135781.21 181.22
-9755491.58 5135765.05 180.86
-9755484.79 5135765.03 181.27
-9755488.66 5135761.74 180.92
-9755481.64 5135761.42 181.30
-9755483.42 5135762.72 184.63
-9755478.39 5135754.88 181.24
-9755483.20 5135763.99 184.42
-9755495.08 5135771.31 180.80
-9755495.08 5135774.53 180.77
-9755491.82 5135771.55 180.87
-9755481.56 5135774.68 181.40
-9755484.74 5135771.73 184.31
-9755488.58 5135771.82 180.94
-9755481.46 5135774.82 184.65
-9755475.35 5135768.15 181.22
-9755475.33 5135774.69 181.22
-9755475.43 5135758.42 181.26
-9755472.15 5135761.64 181.21
-9755468.52 5135764.92 181.12
