-9755214.93 5135666.23 201.44
-9755218.66 5135666.61 181.45
-9755214.95 5135662.67 201.44
-9755214.03 5135667.54 204.95
-9755213.17 5135667.98 201.53
-9755204.98 5135675.99 181.37
-9755201.79 5135669.44 181.45
-9755201.65 5135679.51 181.22
-9755198.48 5135679.20 181.23
-9755209.26 5135665.26 201.58
-9755192.01 5135669.42 181.41
-9755191.98 5135679.24 181.23
-9755182.29 5135672.92 181.18
-9755181.95 5135676.20 181.15
-9755185.47 5135679.42 181.25
-9755181.94 5135679.15 181.20
-9755185.27 5135665.87 181.39
-9755185.29 5135662.59 181.42
-9755182.04 5135666.07 188.50
-9755181.60 5135662.31 185.32
-9755182.10 5135666.11 185.30
-9755181.78 5135662.27 188.02
-9755178.53 5135666.14 181.20
-9755175.53 5135662.84 188.42
-9755182.06 5135662.56 181.41
-9755178.82 5135662.54 181.24
-9755158.93 5135679.30 181.28
-9755159.37 5135666.07 185.00
-9755158.98 5135665.93 181.70
-9755156.13 5135663.12 185.73
-9755155.47 5135666.04 184.85
-9755155.53 5135662.69 181.65
-9755149.28 5135672.71 181.34
-9755149.00 5135669.24 181.41
-9755146.02 5135669.46 181.41
-9755153.14 5135673.50 184.15
-9755152.20 5135679.26 181.30
-9755145.92 5135665.42 185.08
-9755145.47 5135662.83 185.05
-9755148.23 5135662.94 184.46
-9755142.17 5135669.47 181.41
-9755142.46 5135679.49 181.35
-9755138.92 5135679.25 181.36
-9755135.76 5135666.41 181.48
-9755136.05 5135662.68 185.11
-9755142.55 5135662.61 181.66
-9755119.13 5135676.08 181.30
-9755132.63 5135662.86 188.04
-9755132.58 5135666.54 184.61
-9755130.87 5135665.31 187.67
-9755130.66 5135662.32 185.24
-9755125.67 5135662.56 181.49
-9755121.28 5135662.64 190.05
-9755294.26 5135646.27 220.89
-9755297.05 5135649.80 220.79
-9755294.15 5135649.26 220.82
-9755290.59 5135649.39 220.82
-9755290.02 5135649.50 227.54
-9755293.98 5135649.86 230.61
-9755303.97 5135650.84 230.58
-9755303.89 5135659.65 220.60
-9755298.75 5135650.08 228.68
-9755294.18 5135656.22 220.65
-9755303.77 5135656.11 224.10
-9755299.35 5135650.23 233.92
-9755304.00 5135652.81 233.33
-9755304.08 5135652.85 230.96
-9755304.60 5135651.24 233.36
-9755300.98 5135650.73 226.09
-9755300.90 5135662.82 220.75
-9755300.46 5135650.36 231.52
-9755297.43 5135662.73 220.80
-9755294.89 5135649.86 228.72
-9755294.01 5135652.61 233.35
-9755293.87 5135652.55 228.43
-9755294.24 5135650.13 226.06
-9755291.37 5135652.54 233.37
-9755290.47 5135652.00 228.43
-9755289.07 5135651.98 233.35
-9755284.15 5135646.18 220.82
-9755284.27 5135652.89 220.72
-9755284.15 5135656.20 220.65
-9755280.88 5135659.41 220.63
-9755280.91 5135652.99 220.67
-9755297.35 5135643.00 207.96
-9755293.84 5135642.97 208.14
-9755305.25 5135644.98 208.01
-9755301.19 5135640.65 206.86
-9755301.03 5135641.89 218.92
-9755297.68 5135641.95 218.84
-9755307.16 5135642.51 218.72
-9755290.91 5135642.95 207.97
-9755287.19 5135642.86 220.95
-9755287.73 5135640.37 207.34
-9755291.08 5135640.93 218.85
-9755297.86 5135639.74 205.72
-9755300.63 5135636.64 204.59
-9755290.42 5135638.97 205.71
-9755292.99 5135637.82 206.49
-9755280.83 5135642.73 208.53
-9755280.92 5135639.64 221.10
-9755284.15 5135642.38 207.98
-9755289.00 5135640.74 218.74
-9755283.89 5135640.00 221.13
-9755280.86 5135636.17 205.52
-9755283.95 5135639.95 218.96
-9755277.69 5135656.21 220.65
-9755274.18 5135646.31 220.82
-9755270.87 5135656.13 220.57
-9755274.15 5135659.72 220.86
-9755261.24 5135649.54 220.73
-9755261.15 5135646.27 220.79
-9755257.94 5135649.54 220.67
-9755254.47 5135653.11 220.61
-9755264.28 5135662.94 208.03
-9755264.43 5135652.87 220.67
-9755254.89 5135662.26 207.11
-9755261.19 5135656.11 220.61
-9755265.02 5135658.72 220.79
-9755277.51 5135642.24 208.72
-9755274.98 5135641.63 208.54
-9755270.86 5135639.59 207.93
-9755267.70 5135642.77 220.84
-9755277.56 5135636.51 205.15
-9755270.12 5135637.79 221.08
-9755267.88 5135639.86 207.94
-9755260.97 5135643.07 220.86
-9755260.89 5135639.75 220.92
-9755267.62 5135637.25 207.45
-9755264.40 5135636.99 207.62
-9755264.46 5135639.50 208.02
-9755261.43 5135639.28 208.68
-9755261.14 5135636.56 207.35
-9755258.70 5135638.92 208.53
-9755254.37 5135636.54 207.94
-9755257.69 5135636.83 207.94
-9755260.95 5135636.48 221.07
-9755234.70 5135646.47 220.63
-9755237.84 5135649.78 220.73
-9755231.45 5135646.36 220.76
-9755241.05 5135658.23 207.27
-9755227.59 5135656.14 194.12
-9755251.19 5135639.72 220.84
-9755241.41 5135642.94 220.69
-9755231.45 5135643.16 220.63
-9755234.77 5135643.18 220.65
-9755231.18 5135639.61 220.68
-9755244.42 5135636.33 220.85
-9755231.39 5135636.13 220.73
-9755227.94 5135639.64 220.64
-9755225.61 5135641.88 220.77
-9755221.51 5135649.39 201.46
-9755221.57 5135659.59 205.01
-9755223.14 5135661.07 186.64
-9755218.27 5135646.41 201.35
-9755214.76 5135649.65 201.32
-9755218.24 5135652.92 201.48
-9755211.73 5135659.38 201.45
-9755205.33 5135646.28 202.07
-9755208.56 5135643.11 200.96
-9755198.59 5135646.55 202.33
-9755201.82 5135642.97 202.39
-9755201.70 5135652.81 201.92
-9755205.01 5135653.07 201.90
-9755204.94 5135659.63 201.67
-9755202.37 5135659.00 201.83
-9755208.83 5135663.18 205.08
-9755200.63 5135656.58 205.39
-9755199.11 5135655.37 205.41
-9755205.07 5135639.85 200.70
-9755201.78 5135639.91 201.55
-9755201.87 5135636.57 200.58
-9755200.06 5135638.26 203.36
-9755199.10 5135638.48 198.87
-9755201.40 5135641.69 198.80
-9755195.46 5135652.33 202.31
-9755175.59 5135646.57 188.39
-9755175.92 5135646.54 185.30
-9755175.40 5135649.56 188.28
-9755178.60 5135649.79 181.50
-9755172.28 5135645.94 185.95
-9755171.80 5135646.49 181.31
-9755188.82 5135659.31 181.46
-9755181.45 5135658.77 185.67
-9755182.08 5135659.58 181.42
-9755182.11 5135656.31 181.44
-9755178.35 5135659.05 185.11
-9755181.82 5135652.81 181.49
-9755175.30 5135656.29 181.26
-9755178.81 5135652.76 181.46
-9755172.05 5135656.30 181.30
-9755172.30 5135659.53 181.30
-9755171.80 5135652.05 186.92
-9755172.15 5135639.71 181.48
-9755186.14 5135639.50 202.86
-9755218.85 5135635.98 220.73
-9755186.21 5135638.30 206.63
-9755185.06 5135636.94 203.82
-9755168.60 5135646.49 181.33
-9755162.40 5135646.43 181.39
-9755168.89 5135643.25 181.37
-9755170.14 5135644.62 186.34
-9755165.69 5135642.95 181.38
-9755162.12 5135642.93 181.37
-9755168.52 5135659.52 181.29
-9755165.30 5135652.99 181.35
-9755162.07 5135659.48 181.41
-9755158.84 5135649.70 181.60
-9755155.60 5135646.42 181.36
-9755155.63 5135642.85 181.37
-9755155.67 5135653.03 185.25
-9755155.54 5135652.91 181.63
-9755155.59 5135656.19 181.37
-9755152.03 5135649.59 181.61
-9755145.84 5135649.60 181.58
-9755165.69 5135639.93 181.36
-9755162.14 5135636.41 181.36
-9755152.14 5135639.60 181.36
-9755149.30 5135636.17 185.10
-9755152.40 5135636.30 181.45
-9755149.20 5135636.14 181.46
-9755141.95 5135646.31 183.88
-9755139.21 5135649.47 185.20
-9755135.84 5135649.54 181.56
-9755139.13 5135652.66 188.13
-9755142.58 5135656.13 181.32
-9755139.22 5135653.04 184.75
-9755135.83 5135653.11 181.56
-9755139.05 5135659.38 181.35
-9755142.32 5135652.88 181.54
-9755139.32 5135652.80 181.69
-9755139.35 5135650.49 190.56
-9755129.31 5135649.80 181.57
-9755129.37 5135643.04 181.38
-9755122.89 5135649.90 188.53
-9755125.82 5135649.80 181.55
-9755129.68 5135653.50 186.05
-9755129.36 5135653.01 188.38
-9755131.15 5135655.81 185.78
-9755129.41 5135656.43 185.46
-9755128.83 5135648.68 185.98
-9755128.83 5135655.97 188.45
-9755122.46 5135659.81 188.39
-9755122.81 5135653.06 181.59
-9755122.72 5135655.91 188.56
-9755119.52 5135659.21 181.35
-9755126.39 5135653.49 190.70
-9755119.86 5135656.11 185.73
-9755126.10 5135653.00 181.60
-9755116.71 5135660.17 186.95
-9755135.90 5135639.51 181.36
-9755142.33 5135639.78 181.34
-9755143.08 5135636.51 187.85
-9755139.17 5135636.24 181.47
-9755132.39 5135639.73 181.37
-9755125.91 5135639.43 181.34
-9755119.64 5135639.67 181.33
-9755132.68 5135636.52 181.35
-9755119.41 5135636.20 181.32
-9755116.07 5135649.77 181.54
-9755116.32 5135656.27 181.36
-9755109.56 5135643.24 188.07
-9755106.03 5135646.07 188.14
-9755112.88 5135649.71 181.37
-9755099.61 5135643.21 181.19
-9755096.34 5135642.78 181.31
-9755100.59 5135643.42 187.63
-9755100.93 5135645.19 188.10
-9755116.09 5135639.63 181.40
-9755116.17 5135636.39 181.39
-9755115.61 5135640.26 183.87
-9755103.14 5135639.86 181.39
-9755100.57 5135639.73 188.05
-9755096.42 5135639.57 181.29
-9755109.60 5135636.68 181.41
-9755112.97 5135636.55 185.12
-9755112.92 5135636.67 181.35
-9755106.54 5135636.28 185.54
-9755102.88 5135636.33 181.37
-9755099.74 5135636.46 184.80
-9755096.68 5135636.33 181.30
-9755093.15 5135639.77 181.36
-9755093.19 5135636.55 181.35
-9755086.70 5135636.55 181.53
-9755294.10 5135632.98 198.64
-9755300.57 5135629.78 187.12
-9755300.63 5135633.13 197.91
-9755297.56 5135626.66 187.24
-9755294.10 5135632.92 196.31
-9755294.15 5135633.06 203.99
-9755304.00 5135630.08 187.19
-9755297.55 5135629.16 187.72
-9755294.33 5135626.49 187.29
-9755294.18 5135629.61 196.16
-9755297.36 5135633.41 204.01
-9755300.53 5135627.29 187.25
-9755294.37 5135629.42 187.35
-9755302.41 5135627.88 196.09
-9755303.07 5135627.89 196.70
-9755290.68 5135626.67 196.66
-9755287.31 5135632.75 198.24
-9755290.69 5135626.69 187.32
-9755287.06 5135629.49 197.57
-9755286.80 5135626.81 187.32
-9755287.39 5135626.69 196.70
-9755290.52 5135626.24 186.65
-9755280.82 5135630.09 198.29
-9755283.87 5135632.31 199.87
-9755288.18 5135628.32 196.15
-9755300.85 5135613.11 184.51
-9755300.22 5135623.08 185.63
-9755294.04 5135623.24 186.03
-9755297.37 5135619.84 185.35
-9755290.61 5135613.61 184.30
-9755287.58 5135620.01 185.56
-9755303.89 5135609.87 183.34
-9755287.35 5135610.13 184.29
-9755283.80 5135613.43 185.02
-9755284.12 5135616.79 185.10
-9755280.82 5135619.68 185.72
-9755280.85 5135616.77 185.15
-9755283.90 5135610.03 184.39
-9755280.81 5135622.92 186.36
-9755283.72 5135623.84 187.00
-9755277.58 5135630.03 197.84
-9755277.85 5135625.82 187.41
-9755278.52 5135631.92 196.33
-9755270.90 5135633.26 204.59
-9755274.34 5135629.69 197.92
-9755274.17 5135626.65 187.24
-9755273.76 5135630.63 202.01
-9755274.42 5135626.14 196.13
-9755277.94 5135630.72 202.42
-9755271.23 5135625.86 187.63
-9755271.65 5135630.20 202.11
-9755271.20 5135625.67 196.15
-9755273.35 5135631.50 197.91
-9755267.66 5135629.70 204.01
-9755268.19 5135629.87 199.85
-9755267.53 5135625.78 187.28
-9755261.48 5135633.24 204.65
-9755264.91 5135629.09 198.65
-9755265.28 5135626.44 197.86
-9755254.37 5135629.86 204.96
-9755257.31 5135626.99 203.91
-9755257.61 5135627.42 199.97
-9755254.43 5135626.57 204.00
-9755254.67 5135626.02 197.95
-9755264.40 5135629.48 196.33
-9755254.01 5135634.04 221.11
-9755255.44 5135634.77 218.98
-9755262.28 5135629.16 196.33
-9755261.54 5135633.73 206.47
-9755257.93 5135628.64 199.26
-9755257.77 5135635.61 219.03
-9755273.77 5135620.19 185.72
-9755271.12 5135613.42 184.73
-9755274.98 5135623.37 187.01
-9755276.13 5135624.86 196.02
-9755260.83 5135613.38 185.15
-9755261.11 5135616.64 185.79
-9755264.33 5135613.37 184.92
-9755257.81 5135616.57 186.03
-9755254.55 5135620.34 187.45
-9755257.90 5135613.34 185.38
-9755261.12 5135619.52 186.20
-9755254.34 5135619.90 196.11
-9755254.58 5135616.53 186.23
-9755257.26 5135620.61 196.13
-9755254.64 5135619.83 196.75
-9755255.00 5135622.96 187.34
-9755264.57 5135622.51 186.66
-9755257.74 5135623.55 187.32
-9755263.87 5135623.49 187.59
-9755264.37 5135623.20 196.74
-9755264.48 5135625.33 187.29
-9755251.10 5135633.55 207.39
-9755251.41 5135636.24 207.97
-9755247.94 5135633.13 220.95
-9755248.03 5135633.33 207.96
-9755244.41 5135630.05 207.29
-9755241.14 5135629.98 208.00
-9755245.01 5135626.22 205.17
-9755248.23 5135635.19 208.54
-9755244.43 5135632.80 207.96
-9755241.45 5135627.35 207.33
-9755242.61 5135632.48 208.52
-9755241.69 5135625.87 203.68
-9755240.61 5135626.93 221.09
-9755248.03 5135631.47 218.92
-9755237.92 5135626.64 207.98
-9755238.22 5135629.32 208.86
-9755234.65 5135626.37 208.56
-9755228.24 5135633.05 220.73
-9755228.01 5135626.64 220.81
-9755224.71 5135629.76 220.69
-9755251.48 5135619.82 196.18
-9755251.44 5135613.20 186.04
-9755250.95 5135620.36 187.29
-9755251.07 5135623.34 197.93
-9755252.97 5135624.72 203.78
-9755250.26 5135623.73 203.97
-9755251.34 5135624.66 200.03
-9755251.61 5135625.11 200.07
-9755248.30 5135616.74 187.53
-9755248.41 5135619.13 187.33
-9755248.52 5135620.40 198.06
-9755247.57 5135616.06 196.16
-9755244.29 5135612.85 187.47
-9755248.14 5135613.29 186.47
-9755246.14 5135615.57 196.22
-9755241.18 5135613.26 197.57
-9755244.16 5135613.30 196.78
-9755247.88 5135619.86 196.27
-9755245.09 5135616.44 187.31
-9755241.37 5135617.31 200.00
-9755247.83 5135613.88 187.27
-9755244.48 5135619.98 200.02
-9755241.67 5135612.84 187.34
-9755241.18 5135609.98 196.18
-9755246.97 5135622.81 196.35
-9755249.27 5135615.30 186.66
-9755242.32 5135618.47 200.02
-9755244.16 5135610.95 196.06
-9755242.90 5135618.34 198.61
-9755248.19 5135623.28 200.05
-9755235.08 5135616.35 205.36
-9755237.97 5135613.56 204.04
-9755231.79 5135612.84 205.18
-9755234.39 5135620.15 206.82
-9755237.55 5135613.12 200.14
-9755231.22 5135620.10 207.97
-9755232.07 5135615.85 203.65
-9755234.46 5135623.42 207.94
-9755238.28 5135622.57 205.70
-9755238.18 5135613.23 197.94
-9755239.34 5135615.41 199.99
-9755237.92 5135609.96 197.49
-9755230.94 5135614.40 206.89
-9755231.81 5135623.26 208.50
-9755236.11 5135622.36 206.29
-9755236.40 5135611.07 199.98
-9755235.04 5135609.31 199.99
-9755232.14 5135618.46 218.02
-9755245.63 5135622.21 196.31
-9755237.66 5135623.46 206.82
-9755231.57 5135623.38 220.91
-9755235.30 5135609.78 198.69
-9755228.01 5135616.77 207.97
-9755228.76 5135619.39 208.77
-9755229.11 5135612.82 206.30
-9755228.61 5135609.59 205.71
-9755229.15 5135613.96 218.88
-9755227.33 5135610.40 218.86
-9755224.83 5135616.52 220.86
-9755224.88 5135623.32 220.79
-9755221.43 5135633.03 220.65
-9755221.55 5135626.61 220.68
-9755215.88 5135632.15 220.79
-9755201.92 5135629.78 200.26
-9755198.64 5135629.74 200.18
-9755208.36 5135630.08 207.10
-9755209.55 5135632.43 207.14
-9755207.13 5135625.57 211.76
-9755224.99 5135610.02 207.96
-9755218.37 5135616.78 220.74
-9755215.08 5135623.15 220.60
-9755222.83 5135609.87 208.62
-9755208.28 5135619.96 220.76
-9755202.40 5135619.05 211.91
-9755208.43 5135610.22 220.64
-9755201.67 5135617.86 207.11
-9755203.24 5135618.26 211.99
-9755208.92 5135622.59 220.80
-9755204.97 5135623.33 211.70
-9755198.65 5135621.48 199.85
-9755195.09 5135626.46 200.04
-9755191.84 5135633.15 203.02
-9755192.45 5135626.21 203.99
-9755195.41 5135633.11 199.29
-9755196.63 5135635.20 199.15
-9755193.63 5135627.52 203.31
-9755192.16 5135626.52 199.60
-9755188.35 5135629.84 203.23
-9755181.90 5135626.59 203.50
-9755182.76 5135632.84 203.32
-9755172.26 5135629.65 185.49
-9755172.17 5135633.21 181.54
-9755172.15 5135629.95 181.51
-9755179.83 5135625.90 203.61
-9755171.72 5135633.23 191.31
-9755238.70 5135608.97 187.36
-9755192.35 5135610.58 199.86
-9755195.22 5135613.34 203.44
-9755195.15 5135623.28 199.87
-9755191.93 5135623.56 204.29
-9755197.49 5135621.81 203.60
-9755196.66 5135621.59 199.85
-9755185.33 5135613.61 191.21
-9755185.45 5135620.06 203.47
-9755185.41 5135616.54 203.44
-9755188.67 5135612.76 195.05
-9755187.91 5135614.47 207.58
-9755189.56 5135611.71 189.00
-9755178.62 5135616.44 185.08
-9755176.20 5135617.09 184.79
-9755175.50 5135616.87 181.56
-9755178.48 5135616.60 181.63
-9755178.59 5135616.56 188.91
-9755178.83 5135616.70 192.58
-9755181.75 5135610.41 181.59
-9755182.18 5135620.04 203.46
-9755178.60 5135617.23 199.80
-9755176.57 5135617.42 196.17
-9755176.84 5135617.26 192.56
-9755181.32 5135615.75 199.86
-9755181.86 5135623.31 203.48
-9755178.83 5135623.60 204.36
-9755168.72 5135626.61 188.39
-9755169.04 5135630.61 186.43
-9755168.75 5135626.62 181.48
-9755165.60 5135627.66 185.75
-9755162.54 5135626.65 181.33
-9755169.50 5135632.62 186.08
-9755158.97 5135626.29 181.30
-9755155.76 5135626.35 185.27
-9755155.75 5135630.47 187.35
-9755155.55 5135632.59 185.37
-9755155.70 5135633.11 181.44
-9755152.55 5135629.78 188.01
-9755153.07 5135626.46 181.48
-9755145.98 5135629.58 185.10
-9755146.05 5135629.67 187.83
-9755153.05 5135626.80 185.97
-9755148.09 5135628.93 181.54
-9755148.97 5135623.16 184.77
-9755146.86 5135632.51 181.59
-9755152.38 5135623.22 184.75
-9755152.21 5135623.40 187.25
-9755168.80 5135610.33 181.48
-9755165.76 5135620.12 181.42
-9755162.23 5135623.36 181.33
-9755168.13 5135622.25 185.03
-9755159.12 5135616.54 181.30
-9755158.99 5135620.11 181.31
-9755155.53 5135609.98 181.26
-9755155.51 5135623.40 184.98
-9755152.22 5135619.75 181.51
-9755146.17 5135616.64 181.52
-9755145.76 5135616.69 188.60
-9755152.58 5135609.98 181.40
-9755149.22 5135619.70 181.49
-9755149.07 5135616.62 184.72
-9755145.52 5135614.18 185.26
-9755146.08 5135623.26 188.31
-9755139.90 5135633.15 185.29
-9755142.51 5135633.09 187.49
-9755139.19 5135630.05 181.43
-9755140.74 5135631.01 185.96
-9755132.75 5135626.44 181.30
-9755129.14 5135629.94 181.38
-9755122.96 5135633.21 181.33
-9755129.17 5135626.72 181.35
-9755122.73 5135629.89 181.32
-9755119.41 5135632.88 181.30
-9755122.76 5135623.10 181.30
-9755142.91 5135616.92 187.78
-9755142.52 5135616.53 185.36
-9755140.27 5135619.96 186.73
-9755135.76 5135610.15 181.23
-9755142.47 5135622.55 188.15
-9755132.55 5135609.91 181.29
-9755122.48 5135610.10 181.28
-9755122.47 5135616.89 181.28
-9755129.53 5135616.65 181.30
-9755128.93 5135623.18 181.34
-9755125.96 5135616.62 181.30
-9755115.86 5135626.61 181.88
-9755115.94 5135623.38 181.33
-9755105.77 5135626.81 191.06
-9755109.31 5135633.39 185.00
-9755112.66 5135626.64 181.32
-9755102.71 5135626.68 188.32
-9755105.61 5135623.21 188.24
-9755106.18 5135629.78 181.55
-9755103.40 5135629.94 187.91
-9755102.70 5135626.53 181.34
-9755109.48 5135623.04 181.38
-9755106.23 5135623.56 184.79
-9755100.63 5135627.33 186.53
-9755099.66 5135626.54 182.21
-9755089.79 5135623.51 181.33
-9755092.97 5135623.00 181.35
-9755116.05 5135610.06 181.26
-9755105.98 5135617.09 188.68
-9755109.81 5135613.27 181.37
-9755106.27 5135613.22 181.50
-9755106.60 5135617.88 190.00
-9755099.53 5135616.45 181.16
-9755096.22 5135620.00 181.28
-9755093.02 5135613.21 181.34
-9755086.41 5135626.73 181.51
-9755086.40 5135629.69 181.82
-9755303.86 5135606.64 182.79
-9755300.90 5135606.36 182.79
-9755287.75 5135606.54 183.75
-9755281.20 5135607.35 183.96
-9755284.40 5135606.73 183.16
-9755303.89 5135593.69 181.34
-9755303.94 5135590.41 181.38
-9755300.44 5135593.68 181.35
-9755294.21 5135593.32 181.35
-9755290.69 5135590.37 181.34
-9755293.88 5135603.33 182.44
-9755300.61 5135596.89 181.32
-9755297.41 5135603.65 182.44
-9755302.57 5135603.91 191.86
-9755290.63 5135599.99 181.90
-9755290.72 5135604.59 192.24
-9755284.19 5135593.53 181.28
-9755280.98 5135587.03 181.31
-9755284.40 5135600.06 182.14
-9755280.92 5135596.76 181.69
-9755280.89 5135600.31 182.23
-9755284.20 5135596.82 181.62
-9755287.42 5135604.70 192.41
-9755284.67 5135604.56 183.43
-9755300.75 5135583.88 181.40
-9755294.14 5135583.70 181.71
-9755284.52 5135583.80 181.33
-9755280.66 5135583.78 181.32
-9755273.78 5135607.10 184.11
-9755264.67 5135606.95 184.32
-9755254.42 5135606.89 193.93
-9755257.69 5135607.04 193.79
-9755264.75 5135606.58 193.41
-9755277.69 5135593.51 181.26
-9755277.71 5135586.97 181.32
-9755270.90 5135597.03 181.99
-9755274.37 5135603.24 182.83
-9755270.90 5135600.28 182.43
-9755271.27 5135604.11 183.79
-9755273.83 5135605.70 193.00
-9755267.66 5135590.17 181.21
-9755267.67 5135586.98 181.27
-9755261.16 5135590.40 182.39
-9755264.00 5135593.84 184.98
-9755264.20 5135593.56 191.89
-9755257.64 5135593.67 182.39
-9755257.93 5135594.14 183.96
-9755264.15 5135593.46 198.25
-9755261.22 5135593.67 182.36
-9755264.25 5135593.63 204.70
-9755257.70 5135587.15 182.42
-9755267.58 5135603.38 183.71
-9755264.63 5135603.14 183.15
-9755254.09 5135596.72 184.33
-9755257.92 5135599.80 183.36
-9755257.97 5135603.61 184.52
-9755257.88 5135596.87 183.15
-9755254.91 5135600.24 184.38
-9755260.58 5135597.84 183.41
-9755255.95 5135594.93 184.02
-9755277.46 5135583.73 181.30
-9755270.67 5135583.73 181.29
-9755261.55 5135583.64 181.78
-9755254.46 5135583.56 182.47
-9755251.39 5135606.81 185.14
-9755248.17 5135606.77 185.59
-9755244.70 5135607.87 194.38
-9755241.73 5135606.66 186.66
-9755234.69 5135606.97 197.93
-9755235.10 5135606.19 196.23
-9755242.84 5135608.77 186.66
-9755227.90 5135607.09 206.67
-9755251.19 5135587.10 182.45
-9755251.20 5135596.84 182.49
-9755244.68 5135593.74 185.14
-9755241.42 5135593.66 185.79
-9755248.57 5135589.47 182.49
-9755244.66 5135590.23 185.02
-9755241.15 5135586.93 185.56
-9755248.65 5135587.07 182.37
-9755238.27 5135590.39 186.23
-9755237.26 5135587.22 187.04
-9755234.49 5135587.06 187.51
-9755237.93 5135587.12 186.21
-9755231.46 5135590.31 188.18
-9755231.50 5135587.08 188.17
-9755247.88 5135600.33 184.94
-9755241.69 5135603.83 186.89
-9755240.81 5135600.34 186.85
-9755234.68 5135600.10 187.41
-9755238.06 5135600.61 187.41
-9755231.50 5135600.17 197.93
-9755232.36 5135606.22 196.44
-9755231.48 5135596.85 188.04
-9755235.19 5135597.04 196.18
-9755233.74 5135604.83 202.88
-9755239.37 5135603.13 186.66
-9755228.16 5135596.72 188.49
-9755227.64 5135599.91 188.70
-9755227.99 5135600.13 204.58
-9755229.27 5135598.47 195.88
-9755227.34 5135604.24 206.50
-9755248.09 5135583.63 184.54
-9755241.54 5135583.64 185.49
-9755237.46 5135584.53 186.78
-9755234.99 5135583.12 187.28
-9755228.25 5135583.76 188.13
-9755224.69 5135606.78 207.54
-9755205.08 5135606.92 220.62
-9755202.45 5135607.06 220.73
-9755198.62 5135606.84 204.15
-9755206.44 5135605.32 218.13
-9755224.70 5135593.48 189.02
-9755225.23 5135586.96 188.78
-9755221.54 5135593.68 196.31
-9755221.47 5135590.18 189.03
-9755222.46 5135590.53 204.74
-9755221.44 5135593.44 189.00
-9755223.29 5135593.50 204.66
-9755223.11 5135587.16 191.54
-9755222.73 5135592.80 202.67
-9755224.95 5135596.67 189.02
-9755225.01 5135600.18 189.09
-9755224.36 5135603.71 207.44
-9755221.55 5135600.63 208.09
-9755224.78 5135600.09 191.29
-9755221.63 5135603.47 220.92
-9755221.78 5135600.50 204.27
-9755223.67 5135596.29 202.60
-9755221.59 5135596.89 203.64
-9755224.43 5135599.94 195.50
-9755223.03 5135599.69 200.05
-9755222.97 5135599.65 196.33
-9755224.64 5135598.00 191.64
-9755223.32 5135594.75 202.68
-9755214.80 5135593.55 203.55
-9755218.32 5135586.84 196.34
-9755217.99 5135589.43 196.32
-9755215.67 5135587.10 196.31
-9755218.43 5135587.46 197.52
-9755218.04 5135590.82 206.58
-9755215.98 5135588.42 203.80
-9755217.41 5135593.44 206.64
-9755215.10 5135596.82 203.58
-9755214.82 5135603.58 211.38
-9755218.31 5135596.81 203.55
-9755212.05 5135597.03 205.37
-9755218.64 5135602.83 209.13
-9755211.53 5135603.64 203.67
-9755211.67 5135603.84 220.84
-9755211.83 5135603.69 218.37
-9755218.06 5135601.50 210.41
-9755215.50 5135596.47 206.76
-9755208.28 5135593.35 201.18
-9755208.32 5135586.92 200.01
-9755205.73 5135586.47 208.38
-9755207.09 5135590.35 208.71
-9755205.92 5135590.38 208.68
-9755206.08 5135586.80 210.98
-9755201.76 5135603.52 203.61
-9755205.33 5135600.31 203.62
-9755205.40 5135604.08 204.93
-9755208.19 5135596.90 200.07
-9755201.76 5135600.32 203.59
-9755208.03 5135596.43 204.80
-9755206.59 5135603.78 210.45
-9755206.05 5135605.12 220.59
-9755225.10 5135583.68 188.71
-9755218.35 5135583.87 196.29
-9755212.23 5135584.19 198.02
-9755215.51 5135586.30 199.30
-9755214.83 5135584.59 199.60
-9755212.99 5135585.39 196.33
-9755219.88 5135585.04 197.51
-9755201.82 5135584.33 204.28
-9755209.43 5135582.72 196.32
-9755175.30 5135606.85 181.53
-9755172.37 5135606.84 181.50
-9755198.46 5135584.38 204.12
-9755195.12 5135591.44 204.56
-9755192.40 5135589.63 204.34
-9755194.62 5135597.71 204.15
-9755192.68 5135597.32 204.77
-9755185.08 5135593.60 181.80
-9755185.14 5135587.04 181.76
-9755178.65 5135590.25 181.73
-9755182.47 5135586.51 181.82
-9755181.90 5135586.92 183.84
-9755175.75 5135590.07 183.84
-9755185.10 5135600.07 181.57
-9755175.31 5135603.54 181.52
-9755178.54 5135603.58 181.55
-9755178.32 5135597.07 181.66
-9755178.58 5135600.06 181.57
-9755175.68 5135596.76 181.63
-9755175.33 5135600.31 181.51
-9755181.78 5135599.09 183.98
-9755176.35 5135596.83 183.88
-9755172.08 5135596.77 181.52
-9755196.61 5135583.72 204.61
-9755191.78 5135583.83 204.29
-9755182.17 5135583.73 183.88
-9755182.34 5135583.80 181.80
-9755182.28 5135580.54 181.81
-9755171.91 5135583.73 181.60
-9755168.57 5135606.83 181.47
-9755162.08 5135606.74 181.28
-9755168.64 5135593.49 181.51
-9755165.40 5135587.19 181.51
-9755165.65 5135600.28 181.47
-9755162.11 5135596.68 181.45
-9755165.32 5135596.96 181.48
-9755162.05 5135600.28 181.42
-9755162.00 5135603.21 181.39
-9755158.84 5135593.73 181.29
-9755155.67 5135586.88 181.26
-9755155.36 5135593.71 181.24
-9755158.84 5135603.54 181.28
-9755158.85 5135596.67 181.30
-9755160.34 5135594.82 184.74
-9755160.40 5135598.79 187.04
-9755154.99 5135602.58 183.79
-9755149.17 5135586.91 181.22
-9755145.47 5135586.88 185.58
-9755148.83 5135603.54 181.75
-9755149.10 5135600.14 181.40
-9755145.69 5135599.94 181.61
-9755168.66 5135583.66 181.55
-9755162.03 5135583.10 185.26
-9755165.41 5135583.67 181.52
-9755162.55 5135580.40 188.09
-9755163.31 5135585.42 185.86
-9755165.66 5135580.26 186.13
-9755159.05 5135583.31 191.49
-9755159.43 5135580.34 188.60
-9755155.71 5135580.40 185.74
-9755155.74 5135580.35 181.26
-9755148.90 5135580.39 181.23
-9755145.77 5135580.33 181.24
-9755139.01 5135606.63 181.18
-9755135.81 5135606.62 181.25
-9755122.82 5135606.84 181.27
-9755138.52 5135586.94 184.88
-9755139.67 5135590.60 187.93
-9755139.10 5135593.92 181.23
-9755135.60 5135593.60 181.24
-9755143.18 5135589.40 190.33
-9755140.65 5135599.35 183.72
-9755132.63 5135593.29 181.31
-9755132.64 5135596.78 181.30
-9755122.66 5135590.56 181.30
-9755129.47 5135587.28 181.34
-9755125.81 5135596.72 181.34
-9755129.04 5135600.33 181.37
-9755122.57 5135600.37 181.34
-9755129.04 5135603.59 181.31
-9755119.34 5135600.36 181.29
-9755142.42 5135583.62 188.19
-9755139.23 5135580.16 188.52
-9755142.40 5135583.54 181.46
-9755135.77 5135580.56 181.31
-9755142.47 5135580.25 181.42
-9755129.47 5135583.75 181.32
-9755126.23 5135580.28 181.34
-9755113.00 5135606.79 181.91
-9755105.99 5135606.76 181.48
-9755109.59 5135606.78 181.36
-9755114.37 5135606.65 183.45
-9755114.36 5135608.49 183.66
-9755096.25 5135606.73 181.28
-9755116.16 5135590.18 181.25
-9755106.59 5135593.72 188.53
-9755112.95 5135586.93 181.48
-9755109.45 5135593.56 184.85
-9755109.32 5135590.12 181.35
-9755106.50 5135590.20 185.45
-9755106.16 5135590.10 181.51
-9755102.92 5135590.36 188.34
-9755106.11 5135593.38 181.52
-9755114.63 5135590.36 183.88
-9755102.92 5135586.88 181.36
-9755106.16 5135596.91 188.29
-9755106.10 5135603.49 181.51
-9755113.13 5135600.25 181.61
-9755109.62 5135596.71 181.35
-9755109.31 5135600.23 181.34
-9755106.05 5135600.23 181.49
-9755099.63 5135593.49 184.82
-9755096.43 5135587.15 181.31
-9755092.84 5135593.36 181.35
-9755089.55 5135603.42 181.33
-9755116.20 5135580.47 181.29
-9755106.45 5135583.65 181.58
-9755099.68 5135580.33 181.34
-9755096.41 5135583.57 181.31
-9755089.63 5135583.85 181.30
-9755086.46 5135583.85 181.29
-9755297.52 5135580.33 181.38
-9755300.78 5135577.08 181.39
-9755300.52 5135570.59 181.36
-9755303.81 5135567.32 181.38
-9755300.24 5135567.31 181.37
-9755290.53 5135570.48 181.33
-9755283.99 5135573.73 181.31
-9755300.30 5135557.21 181.37
-9755290.82 5135564.00 181.35
-9755290.86 5135557.46 181.34
-9755280.82 5135563.65 181.30
-9755284.13 5135553.90 181.30
-9755277.50 5135574.00 181.30
-9755273.96 5135577.23 181.29
-9755273.98 5135570.39 181.30
-9755274.25 5135573.97 181.30
-9755277.53 5135567.15 181.30
-9755267.45 5135580.47 181.27
-9755267.49 5135570.65 181.27
-9755257.50 5135570.30 181.19
-9755258.04 5135573.82 181.51
-9755257.70 5135574.10 183.56
-9755261.27 5135577.19 181.23
-9755254.51 5135570.82 182.44
-9755261.00 5135570.61 181.22
-9755254.53 5135573.82 182.44
-9755260.99 5135567.40 181.22
-9755256.06 5135572.51 183.39
-9755277.63 5135560.39 181.30
-9755270.88 5135554.07 181.28
-9755264.34 5135557.28 181.25
-9755257.77 5135563.77 181.19
-9755254.56 5135560.75 183.58
-9755261.13 5135553.78 181.24
-9755254.41 5135554.21 183.56
-9755251.23 5135580.59 182.46
-9755251.30 5135570.77 182.48
-9755248.01 5135580.36 185.01
-9755247.79 5135570.51 182.54
-9755241.26 5135580.45 185.36
-9755247.96 5135577.34 182.43
-9755244.46 5135580.43 184.78
-9755246.14 5135570.21 182.51
-9755234.14 5135573.45 187.22
-9755235.37 5135570.59 186.21
-9755237.99 5135580.35 186.02
-9755234.78 5135573.79 186.43
-9755231.64 5135570.35 187.68
-9755238.04 5135567.00 185.68
-9755231.53 5135567.86 187.44
-9755228.03 5135580.52 188.03
-9755252.48 5135561.03 181.65
-9755251.23 5135557.40 183.06
-9755241.45 5135560.55 184.77
-9755244.55 5135560.53 184.79
-9755244.70 5135554.05 184.59
-9755238.11 5135557.26 185.36
-9755234.90 5135557.22 186.00
-9755231.01 5135564.01 187.52
-9755234.99 5135560.70 186.05
-9755234.58 5135564.04 186.20
-9755231.34 5135560.59 187.42
-9755231.37 5135557.50 186.65
-9755234.56 5135554.00 185.79
-9755233.77 5135554.49 186.75
-9755234.80 5135560.77 186.71
-9755231.95 5135553.95 186.45
-9755232.83 5135567.82 186.65
-9755228.03 5135560.65 187.99
-9755224.74 5135580.43 188.71
-9755225.38 5135581.00 195.40
-9755221.56 5135580.36 196.27
-9755221.75 5135581.27 199.94
-9755211.56 5135580.25 196.30
-9755225.03 5135577.15 188.61
-9755225.86 5135576.26 195.40
-9755222.61 5135576.84 197.51
-9755225.55 5135570.38 195.60
-9755225.80 5135576.48 197.37
-9755222.59 5135573.58 197.46
-9755225.87 5135574.22 195.43
-9755221.59 5135577.09 196.26
-9755224.79 5135570.37 188.47
-9755224.96 5135567.22 197.31
-9755225.22 5135580.06 197.36
-9755226.07 5135573.72 197.39
-9755222.53 5135566.82 188.72
-9755221.40 5135567.31 196.26
-9755225.74 5135570.64 197.33
-9755223.14 5135571.92 199.94
-9755218.14 5135577.05 196.24
-9755215.15 5135570.53 196.25
-9755214.88 5135567.22 196.25
-9755211.65 5135570.53 196.26
-9755207.42 5135580.32 201.07
-9755210.09 5135582.01 199.88
-9755201.84 5135580.32 204.16
-9755200.75 5135573.47 201.02
-9755204.91 5135573.74 207.83
-9755203.19 5135570.59 196.29
-9755200.51 5135570.19 201.76
-9755205.15 5135570.44 196.33
-9755208.32 5135570.49 196.29
-9755204.93 5135567.31 200.01
-9755204.75 5135574.34 211.22
-9755208.35 5135577.29 196.30
-9755205.10 5135573.70 196.33
-9755203.74 5135567.33 211.10
-9755205.82 5135579.72 196.62
-9755205.78 5135579.87 196.41
-9755201.97 5135577.69 196.71
-9755203.17 5135567.34 204.54
-9755198.42 5135570.53 200.32
-9755221.57 5135564.11 189.02
-9755221.64 5135560.50 188.73
-9755221.62 5135560.58 195.53
-9755224.03 5135564.56 195.62
-9755214.95 5135557.23 196.32
-9755214.88 5135563.99 196.26
-9755218.05 5135557.25 188.98
-9755214.86 5135553.97 189.01
-9755218.35 5135559.93 189.04
-9755218.12 5135554.03 189.03
-9755220.24 5135558.51 195.47
-9755211.93 5135560.75 196.29
-9755211.06 5135558.41 198.54
-9755217.51 5135554.25 197.35
-9755211.50 5135556.66 189.00
-9755211.64 5135553.98 188.98
-9755210.51 5135555.01 197.37
-9755211.65 5135560.55 198.63
-9755202.30 5135560.44 204.52
-9755205.81 5135557.17 201.04
-9755201.72 5135563.97 207.69
-9755203.43 5135564.21 208.22
-9755202.89 5135563.85 204.83
-9755208.39 5135553.92 188.99
-9755208.48 5135563.92 196.28
-9755202.24 5135558.80 204.85
-9755204.92 5135557.17 196.32
-9755208.14 5135564.11 199.94
-9755201.53 5135555.11 201.07
-9755208.19 5135554.40 196.27
-9755207.81 5135558.47 198.05
-9755207.75 5135555.77 192.66
-9755208.87 5135559.76 198.13
-9755208.86 5135556.60 188.96
-9755210.23 5135562.86 199.92
-9755200.37 5135556.63 214.28
-9755201.51 5135558.64 208.45
-9755209.03 5135559.57 196.34
-9755204.50 5135556.53 191.86
-9755202.64 5135556.68 191.70
-9755199.91 5135572.15 204.01
-9755200.11 5135553.61 221.82
-9755200.88 5135553.70 227.58
-9755200.03 5135556.15 212.30
-9755199.92 5135553.50 218.09
-9755198.74 5135556.42 230.62
-9755200.12 5135556.20 223.21
-9755200.24 5135555.43 208.49
-9755196.01 5135579.51 204.23
-9755195.13 5135570.76 200.32
-9755195.17 5135567.25 200.26
-9755195.19 5135574.06 204.57
-9755198.12 5135580.81 203.84
-9755195.79 5135577.47 204.61
-9755199.13 5135576.86 204.60
-9755179.14 5135579.76 183.87
-9755189.71 5135570.00 204.36
-9755179.00 5135577.37 183.85
-9755178.73 5135573.68 181.78
-9755175.22 5135570.44 181.70
-9755181.96 5135577.21 181.83
-9755178.78 5135570.40 181.73
-9755179.27 5135575.15 183.82
-9755172.00 5135573.65 181.63
-9755172.03 5135567.41 181.66
-9755195.18 5135560.78 200.26
-9755191.95 5135564.01 200.21
-9755195.23 5135563.29 204.44
-9755199.43 5135553.58 204.84
-9755188.11 5135560.65 201.41
-9755188.73 5135557.10 196.22
-9755189.22 5135558.09 201.38
-9755188.67 5135554.43 195.24
-9755178.96 5135564.67 184.56
-9755182.07 5135564.43 184.58
-9755182.08 5135560.65 181.68
-9755178.60 5135561.71 184.59
-9755173.10 5135557.34 184.12
-9755172.38 5135557.36 181.66
-9755173.39 5135560.05 184.03
-9755173.60 5135564.41 183.76
-9755159.61 5135581.09 185.91
-9755162.21 5135577.47 185.01
-9755169.06 5135567.41 181.58
-9755165.51 5135567.07 181.56
-9755162.55 5135567.12 181.54
-9755162.23 5135576.85 181.50
-9755158.99 5135577.12 188.56
-9755158.51 5135576.99 185.16
-9755159.00 5135567.40 181.48
-9755159.70 5135574.91 185.42
-9755155.68 5135576.83 181.27
-9755152.55 5135573.85 181.26
-9755152.57 5135570.25 181.31
-9755152.23 5135567.31 181.30
-9755145.76 5135567.24 181.32
-9755168.55 5135557.37 181.56
-9755161.17 5135560.99 185.44
-9755165.28 5135560.59 181.56
-9755162.28 5135563.85 181.54
-9755162.06 5135557.31 181.54
-9755158.83 5135560.85 188.34
-9755158.25 5135564.36 189.20
-9755155.81 5135563.87 188.40
-9755155.53 5135557.33 181.31
-9755145.52 5135557.24 181.41
-9755145.50 5135563.72 181.34
-9755145.85 5135560.51 181.35
-9755139.23 5135577.05 181.32
-9755141.66 5135576.98 185.43
-9755142.30 5135577.03 193.09
-9755142.47 5135570.83 181.48
-9755142.71 5135567.33 181.98
-9755140.50 5135574.24 183.91
-9755132.71 5135570.76 181.35
-9755126.04 5135570.74 181.35
-9755122.68 5135577.22 181.35
-9755119.46 5135570.67 181.36
-9755119.20 5135567.46 181.34
-9755142.61 5135563.73 181.66
-9755139.29 5135564.27 181.47
-9755136.12 5135560.78 185.47
-9755142.27 5135563.97 188.01
-9755142.33 5135554.19 181.58
-9755142.58 5135560.63 184.36
-9755136.05 5135557.45 181.32
-9755137.40 5135563.42 189.97
-9755133.49 5135566.44 185.82
-9755132.59 5135557.48 181.33
-9755119.02 5135563.90 181.35
-9755122.81 5135560.66 181.36
-9755119.33 5135557.40 181.34
-9755126.06 5135564.20 181.35
-9755115.99 5135570.42 181.32
-9755106.17 5135577.14 181.55
-9755106.28 5135570.29 181.55
-9755112.73 5135567.08 181.73
-9755109.77 5135567.36 181.40
-9755105.96 5135567.36 181.55
-9755109.49 5135573.61 181.40
-9755102.92 5135577.13 181.39
-9755102.69 5135570.59 181.42
-9755102.69 5135567.02 181.41
-9755099.41 5135577.11 181.30
-9755100.97 5135579.41 183.88
-9755096.21 5135577.07 181.34
-9755092.98 5135567.27 181.41
-9755116.31 5135563.86 181.30
-9755116.00 5135560.61 181.28
-9755115.78 5135557.36 181.28
-9755106.35 5135557.43 184.95
-9755112.83 5135557.40 181.74
-9755109.24 5135560.62 181.38
-9755113.75 5135557.45 183.82
-9755113.95 5135563.79 183.83
-9755106.28 5135557.20 181.56
-9755105.17 5135562.33 186.81
-9755102.65 5135557.49 184.90
-9755102.55 5135553.99 181.41
-9755099.54 5135557.36 184.84
-9755096.64 5135553.96 181.31
-9755096.30 5135557.21 181.33
-9755093.04 5135560.74 181.40
-9755093.11 5135554.25 181.41
-9755083.07 5135567.25 181.75
-9755083.88 5135569.90 183.46
-9755082.91 5135569.40 179.83
-9755084.25 5135579.74 183.38
-9755083.66 5135557.09 183.54
-9755290.61 5135550.65 181.32
-9755280.91 5135550.89 181.30
-9755300.75 5135530.85 181.37
-9755300.71 5135537.66 181.37
-9755304.01 5135537.44 181.39
-9755303.99 5135531.18 181.38
-9755304.00 5135534.43 181.39
-9755294.21 5135537.64 181.34
-9755293.91 5135540.93 181.35
-9755300.72 5135540.92 181.36
-9755294.00 5135531.15 181.36
-9755303.87 5135547.49 181.38
-9755300.69 5135544.25 181.36
-9755290.66 5135547.42 181.33
-9755287.51 5135534.08 181.32
-9755287.48 5135531.11 181.32
-9755287.42 5135540.89 181.32
-9755280.92 5135547.35 181.30
-9755297.57 5135527.91 181.37
-9755274.43 5135547.30 181.30
-9755277.72 5135547.32 181.29
-9755267.62 5135550.83 181.27
-9755254.36 5135550.50 181.15
-9755264.41 5135547.56 181.26
-9755274.50 5135531.01 181.30
-9755261.25 5135531.23 181.28
-9755261.25 5135534.48 181.28
-9755254.51 5135530.89 181.27
-9755254.47 5135541.03 181.24
-9755254.41 5135534.45 181.26
-9755254.76 5135537.69 181.25
-9755267.64 5135544.02 181.28
-9755267.73 5135527.43 181.30
-9755251.04 5135550.71 183.65
-9755253.85 5135548.03 183.57
-9755251.11 5135546.31 181.13
-9755241.15 5135547.51 184.57
-9755230.77 5135550.70 187.21
-9755234.95 5135547.43 185.79
-9755232.00 5135547.68 186.27
-9755251.15 5135534.00 183.63
-9755250.82 5135541.46 183.75
-9755244.51 5135530.75 183.88
-9755244.48 5135537.48 184.14
-9755241.47 5135530.97 184.52
-9755247.99 5135540.89 183.25
-9755247.34 5135530.78 183.61
-9755246.22 5135536.14 183.37
-9755237.95 5135531.22 185.11
-9755232.02 5135537.38 186.01
-9755234.62 5135540.98 185.57
-9755241.46 5135544.04 184.69
-9755244.68 5135544.25 184.08
-9755235.13 5135543.98 185.39
-9755228.30 5135531.10 186.65
-9755227.82 5135537.66 187.32
-9755231.23 5135533.41 186.87
-9755231.20 5135544.41 186.89
-9755251.19 5135527.54 183.60
-9755247.34 5135528.05 183.71
-9755248.38 5135527.53 181.12
-9755244.73 5135527.76 183.94
-9755241.23 5135527.53 184.51
-9755215.90 5135553.34 190.26
-9755224.65 5135550.84 187.93
-9755221.69 5135550.80 188.57
-9755217.47 5135551.14 191.65
-9755214.91 5135547.21 189.01
-9755215.88 5135550.04 190.28
-9755211.68 5135550.73 189.00
-9755201.75 5135553.43 199.38
-9755203.69 5135554.47 191.69
-9755203.33 5135554.79 189.00
-9755201.69 5135550.81 198.68
-9755201.90 5135550.28 189.67
-9755208.42 5135550.69 188.98
-9755198.46 5135550.78 192.38
-9755204.99 5135550.81 197.84
-9755204.29 5135549.54 190.88
-9755204.04 5135548.52 191.64
-9755207.31 5135550.82 194.83
-9755201.41 5135550.35 195.04
-9755200.67 5135551.39 227.50
-9755201.17 5135552.33 200.06
-9755224.75 5135537.82 187.55
-9755224.77 5135541.15 187.96
-9755218.24 5135534.21 188.76
-9755215.04 5135531.07 192.27
-9755218.31 5135530.91 188.73
-9755218.30 5135536.76 190.13
-9755211.85 5135534.23 192.37
-9755218.21 5135544.22 189.03
-9755211.72 5135544.19 188.95
-9755217.87 5135547.11 190.68
-9755201.76 5135530.83 189.00
-9755201.75 5135537.34 189.02
-9755201.73 5135534.12 189.00
-9755205.01 5135534.41 188.98
-9755205.26 5135540.91 188.99
-9755198.52 5135534.42 189.01
-9755198.59 5135530.85 189.04
-9755201.68 5135540.91 189.00
-9755201.76 5135527.59 189.01
-9755199.20 5135540.88 188.99
-9755204.91 5135544.19 188.94
-9755201.69 5135544.12 188.98
-9755208.16 5135544.20 188.92
-9755202.80 5135545.42 190.10
-9755200.14 5135547.18 195.81
-9755199.96 5135541.72 198.53
-9755199.30 5135541.22 191.22
-9755216.25 5135527.66 189.03
-9755198.54 5135527.58 189.02
-9755191.92 5135550.74 192.34
-9755198.58 5135547.37 203.63
-9755195.71 5135550.84 203.63
-9755191.68 5135547.44 192.33
-9755189.74 5135550.38 193.29
-9755189.12 5135547.19 193.30
-9755175.41 5135547.68 186.35
-9755181.93 5135547.40 186.36
-9755198.63 5135537.56 202.99
-9755194.43 5135531.52 203.60
-9755197.69 5135530.80 203.58
-9755196.17 5135533.47 206.65
-9755198.29 5135537.44 204.68
-9755199.37 5135533.99 197.22
-9755199.49 5135532.39 196.55
-9755194.99 5135541.22 203.59
-9755190.91 5135530.91 194.03
-9755185.38 5135530.51 188.13
-9755190.60 5135528.11 194.88
-9755180.58 5135535.59 192.56
-9755181.77 5135531.03 188.96
-9755175.50 5135537.49 188.98
-9755182.19 5135531.04 181.67
-9755178.78 5135534.24 188.94
-9755180.59 5135536.03 192.54
-9755180.25 5135531.05 181.62
-9755175.54 5135528.02 187.91
-9755180.26 5135530.28 185.83
-9755180.01 5135527.76 184.17
-9755180.51 5135527.84 187.97
-9755180.28 5135528.38 182.84
-9755188.53 5135540.91 193.32
-9755185.46 5135544.17 186.40
-9755190.32 5135548.36 193.33
-9755188.85 5135544.23 193.32
-9755178.98 5135542.39 186.09
-9755181.19 5135542.59 181.63
-9755172.93 5135537.07 189.12
-9755173.09 5135541.20 184.81
-9755162.12 5135550.53 181.54
-9755159.10 5135550.76 181.52
-9755162.07 5135547.55 181.55
-9755155.33 5135547.21 181.36
-9755145.59 5135550.90 181.66
-9755148.88 5135547.79 181.38
-9755165.74 5135531.07 185.12
-9755165.47 5135530.96 181.57
-9755162.19 5135530.70 185.38
-9755168.94 5135534.25 181.58
-9755162.26 5135534.12 188.43
-9755165.44 5135527.74 181.55
-9755162.22 5135534.26 181.54
-9755162.31 5135527.65 188.12
-9755164.41 5135527.61 187.65
-9755168.61 5135543.98 181.58
-9755168.96 5135540.78 181.59
-9755160.28 5135531.03 185.50
-9755159.07 5135530.83 191.59
-9755159.43 5135531.39 189.04
-9755155.65 5135531.20 181.34
-9755156.68 5135530.15 186.52
-9755149.20 5135534.44 181.27
-9755148.87 5135530.91 181.27
-9755145.82 5135530.99 188.80
-9755148.67 5135534.00 190.20
-9755145.76 5135527.59 181.23
-9755147.87 5135536.24 190.34
-9755152.41 5135544.19 181.34
-9755158.52 5135528.06 185.73
-9755135.81 5135550.97 181.29
-9755142.63 5135550.72 181.52
-9755135.84 5135547.40 181.39
-9755119.03 5135550.89 181.29
-9755125.83 5135547.37 181.28
-9755129.34 5135547.35 181.28
-9755122.57 5135547.62 181.29
-9755142.35 5135530.88 191.74
-9755139.17 5135534.18 191.57
-9755135.68 5135534.38 181.20
-9755136.26 5135534.30 190.05
-9755139.31 5135528.10 190.66
-9755142.51 5135527.08 185.77
-9755135.94 5135540.91 181.23
-9755142.38 5135541.11 184.88
-9755142.36 5135544.45 181.48
-9755140.00 5135544.41 183.78
-9755139.76 5135540.88 183.81
-9755132.44 5135531.11 181.23
-9755132.41 5135527.87 181.24
-9755132.69 5135540.89 181.25
-9755129.51 5135527.81 181.29
-9755125.91 5135540.81 181.26
-9755129.12 5135541.16 181.27
-9755129.39 5135544.13 181.26
-9755109.32 5135550.49 181.39
-9755106.01 5135550.87 181.49
-9755113.56 5135551.18 183.75
-9755112.89 5135547.25 181.44
-9755106.10 5135547.56 181.51
-9755101.11 5135548.75 184.64
-9755092.81 5135550.96 181.39
-9755092.88 5135547.43 181.39
-9755095.62 5135548.19 190.63
-9755116.26 5135527.75 181.23
-9755116.14 5135540.79 181.23
-9755116.11 5135544.00 181.22
-9755113.27 5135531.21 183.72
-9755106.50 5135527.67 181.39
-9755109.73 5135527.41 181.28
-9755109.66 5135540.74 181.34
-9755102.94 5135534.01 184.90
-9755099.68 5135530.91 181.39
-9755099.66 5135537.77 184.78
-9755099.73 5135527.62 181.39
-9755096.14 5135534.18 181.30
-9755096.50 5135530.93 181.31
-9755102.98 5135544.08 185.00
-9755100.81 5135540.46 187.34
-9755100.35 5135543.74 184.63
-9755093.24 5135527.63 181.39
-9755093.19 5135540.64 181.37
-9755089.86 5135544.18 181.42
-9755083.62 5135553.81 183.62
-9755083.11 5135534.25 181.66
-9755083.20 5135527.80 181.67
-9755083.15 5135528.27 183.45
-9755083.13 5135540.79 181.69
-9755086.66 5135544.12 181.44
-9755083.45 5135540.55 183.59
-9755300.52 5135524.38 181.37
-9755294.03 5135524.33 181.37
-9755290.49 5135524.31 181.34
-9755303.55 5135511.38 181.35
-9755297.06 5135511.34 181.32
-9755294.11 5135511.03 181.33
-9755300.54 5135517.88 181.35
-9755290.51 5135521.04 181.34
-9755290.52 5135517.79 181.33
-9755284.29 5135524.58 181.32
-9755281.04 5135524.28 181.31
-9755284.03 5135521.00 181.32
-9755293.80 5135507.76 181.31
-9755294.11 5135501.23 181.30
-9755287.40 5135501.20 181.29
-9755280.89 5135501.20 181.27
-9755274.28 5135524.54 181.30
-9755271.13 5135511.13 181.28
-9755277.33 5135514.72 181.30
-9755267.51 5135520.88 181.30
-9755257.50 5135520.87 181.28
-9755258.05 5135517.88 181.29
-9755257.51 5135514.64 181.27
-9755264.26 5135521.18 181.29
-9755263.97 5135517.95 181.30
-9755274.05 5135507.95 181.26
-9755277.66 5135501.42 181.28
-9755271.17 5135501.37 181.27
-9755264.05 5135508.14 181.27
-9755254.74 5135501.23 183.62
-9755250.99 5135524.29 183.62
-9755253.07 5135511.04 183.43
-9755251.39 5135517.91 181.63
-9755251.32 5135521.11 181.25
-9755251.32 5135514.72 183.71
-9755251.31 5135517.74 183.60
-9755243.89 5135524.81 184.26
-9755248.34 5135525.06 181.29
-9755245.97 5135524.55 183.36
-9755248.15 5135511.62 183.23
-9755238.13 5135511.09 184.99
-9755247.70 5135520.75 183.73
-9755241.03 5135517.71 184.80
-9755238.08 5135514.39 184.94
-9755238.05 5135517.89 184.93
-9755234.86 5135521.13 185.49
-9755230.01 5135524.78 187.00
-9755231.02 5135510.98 187.04
-9755229.29 5135511.85 186.65
-9755228.95 5135521.04 186.65
-9755247.97 5135504.73 184.11
-9755248.46 5135508.30 183.37
-9755244.38 5135501.41 184.83
-9755234.93 5135504.52 185.85
-9755238.12 5135507.81 185.15
-9755234.91 5135501.29 186.02
-9755231.96 5135508.02 186.24
-9755234.84 5135500.54 186.81
-9755231.69 5135501.47 186.66
-9755215.12 5135524.53 192.26
-9755216.82 5135524.30 192.08
-9755221.62 5135514.69 188.23
-9755215.11 5135511.37 189.01
-9755211.61 5135511.05 188.97
-9755211.82 5135521.11 188.98
-9755211.59 5135517.85 188.98
-9755208.31 5135524.33 188.99
-9755201.55 5135524.58 188.99
-9755205.11 5135524.37 188.99
-9755198.54 5135524.34 189.03
-9755208.37 5135511.31 188.99
-9755208.35 5135521.08 188.93
-9755205.12 5135517.79 188.98
-9755208.60 5135517.80 188.96
-9755201.83 5135517.77 189.01
-9755200.18 5135513.18 191.73
-9755200.67 5135517.27 190.27
-9755198.88 5135521.05 189.04
-9755198.70 5135514.15 189.03
-9755198.64 5135518.12 189.05
-9755224.54 5135507.89 188.21
-9755221.42 5135501.35 188.70
-9755214.92 5135504.58 189.01
-9755217.96 5135501.29 191.67
-9755217.93 5135504.18 190.31
-9755211.65 5135504.51 188.99
-9755201.62 5135500.76 191.34
-9755208.40 5135508.05 188.94
-9755201.90 5135501.26 189.03
-9755201.63 5135504.77 189.02
-9755199.27 5135511.01 189.09
-9755198.86 5135524.32 195.76
-9755196.71 5135511.50 227.89
-9755198.54 5135512.04 204.78
-9755196.31 5135511.06 189.39
-9755198.34 5135511.02 198.31
-9755197.97 5135514.66 192.20
-9755198.65 5135521.24 190.96
-9755198.74 5135517.54 202.96
-9755198.29 5135513.78 204.80
-9755196.32 5135514.68 230.83
-9755199.05 5135522.97 198.28
-9755195.84 5135513.79 198.32
-9755198.75 5135520.02 199.03
-9755198.94 5135519.06 199.20
-9755192.10 5135524.41 192.33
-9755178.80 5135524.04 186.01
-9755191.83 5135521.15 192.31
-9755188.58 5135511.30 193.28
-9755186.59 5135516.89 188.90
-9755175.28 5135514.97 185.36
-9755182.04 5135521.14 185.32
-9755175.58 5135521.08 185.32
-9755181.05 5135516.91 188.82
-9755197.82 5135504.12 189.25
-9755196.83 5135509.54 189.00
-9755198.44 5135504.60 203.61
-9755198.84 5135504.83 208.51
-9755198.31 5135501.29 189.20
-9755196.19 5135508.17 189.39
-9755195.98 5135504.30 203.59
-9755198.74 5135509.52 218.94
-9755191.92 5135507.85 192.28
-9755185.38 5135507.78 186.23
-9755182.14 5135507.80 186.18
-9755175.37 5135501.12 181.51
-9755172.06 5135504.95 181.48
-9755172.06 5135507.93 181.48
-9755172.39 5135501.40 181.47
-9755168.76 5135524.19 181.53
-9755162.27 5135524.15 181.48
-9755158.96 5135524.14 181.34
-9755155.74 5135524.42 181.33
-9755162.28 5135520.90 181.46
-9755162.28 5135517.65 181.40
-9755165.51 5135521.23 181.49
-9755155.84 5135511.13 181.34
-9755152.48 5135524.70 181.30
-9755145.66 5135524.34 181.25
-9755152.33 5135511.05 181.31
-9755145.56 5135511.28 181.30
-9755149.09 5135507.76 181.30
-9755152.25 5135517.84 181.30
-9755152.25 5135520.85 181.31
-9755148.34 5135516.56 188.98
-9755145.77 5135514.30 181.28
-9755145.74 5135517.55 181.25
-9755146.08 5135521.09 181.26
-9755165.58 5135504.92 181.39
-9755168.86 5135501.64 181.44
-9755162.36 5135508.14 181.38
-9755162.36 5135501.59 181.39
-9755145.55 5135504.48 181.31
-9755145.83 5135508.10 181.30
-9755139.26 5135524.35 181.36
-9755142.15 5135524.40 181.31
-9755135.69 5135524.35 181.23
-9755142.57 5135508.02 181.31
-9755135.76 5135508.01 181.30
-9755139.78 5135509.34 191.21
-9755145.49 5135518.21 186.19
-9755142.55 5135517.86 191.43
-9755142.21 5135514.74 191.82
-9755142.59 5135514.51 188.33
-9755139.21 5135521.38 188.52
-9755139.18 5135517.92 185.04
-9755142.73 5135521.06 181.26
-9755142.56 5135514.65 181.30
-9755135.56 5135521.24 187.69
-9755136.59 5135512.83 191.22
-9755132.80 5135518.07 181.28
-9755122.77 5135517.74 181.32
-9755129.00 5135517.73 181.30
-9755119.53 5135517.95 181.30
-9755139.05 5135504.47 181.76
-9755142.30 5135504.80 181.32
