-9755761.81 5136034.89 180.95
-9755755.31 5136034.85 182.10
-9755752.37 5136034.80 182.26
-9755748.26 5136034.94 184.39
-9755765.07 5136028.61 180.87
-9755765.13 5136015.39 180.91
-9755762.11 5136021.87 185.02
-9755761.99 5136022.18 181.61
-9755761.85 5136018.53 181.48
-9755761.71 5136025.24 181.88
-9755758.46 5136025.40 185.17
-9755758.91 5136022.83 184.44
-9755755.36 5136028.58 181.23
-9755758.69 5136018.62 181.75
-9755758.62 5136028.65 181.00
-9755761.92 5136018.16 183.89
-9755757.65 5136026.91 184.34
-9755763.60 5136027.30 183.53
-9755752.13 5136025.28 182.40
-9755752.19 5136022.04 182.37
-9755752.74 5136024.91 183.81
-9755752.84 5136015.26 182.67
-9755748.23 5136028.75 184.29
-9755750.40 5136027.60 183.48
-9755748.62 5136031.68 184.10
-9755750.60 5136034.36 183.45
-9755750.11 5136031.50 183.37
-9755738.85 5136034.86 185.11
-9755745.44 5136021.85 184.96
-9755745.37 5136028.38 184.91
-9755742.18 5136022.10 185.10
-9755745.36 5136031.64 184.93
-9755732.40 5136021.81 194.89
-9755732.23 5136021.58 191.35
-9755738.66 5136015.59 185.19
-9755735.66 5136025.33 185.17
-9755735.69 5136015.54 185.19
-9755731.99 5136021.91 200.74
-9755728.90 5136028.56 185.22
-9755732.08 5136028.56 185.19
-9755725.61 5136024.99 185.18
-9755735.29 5136031.58 185.16
-9755702.60 5136035.19 185.13
-9755715.90 5136025.23 185.16
-9755719.14 5136025.22 185.19
-9755722.38 5136025.02 185.18
-9755719.19 5136018.75 185.18
-9755715.93 5136015.16 185.15
-9755722.37 5136031.79 185.19
-9755719.12 5136032.06 185.21
-9755709.13 5136025.16 185.19
-9755709.18 5136015.41 185.18
-9755705.88 5136021.92 185.10
-9755712.31 5136028.47 185.17
-9755712.73 5136015.43 185.17
-9755705.91 5136025.17 185.12
-9755705.89 5136018.39 185.09
-9755705.94 5136015.42 185.11
-9755709.06 5136028.45 185.19
-9755702.65 5136021.63 185.14
-9755709.36 5136031.68 185.18
-9755705.84 5136031.73 185.11
-9755695.82 5136035.17 185.13
-9755682.97 5136035.06 185.07
-9755699.16 5136025.11 185.15
-9755695.90 5136025.11 185.10
-9755692.65 5136025.37 185.10
-9755699.16 5136015.37 185.16
-9755692.88 5136028.62 185.11
-9755689.39 5136022.10 185.09
-9755689.47 5136015.27 187.08
-9755695.79 5136031.63 185.08
-9755686.16 5136018.54 185.07
-9755683.21 5136025.27 185.06
-9755682.90 5136018.53 185.06
-9755686.11 5136018.28 186.92
-9755682.33 5136025.48 187.00
-9755682.91 5136028.65 185.06
-9755685.57 5136014.90 186.72
-9755679.34 5136028.57 185.05
-9755672.84 5136035.09 185.09
-9755662.73 5136035.81 187.00
-9755662.91 5136015.17 185.07
-9755649.94 5136015.38 184.85
-9755636.96 5136018.57 185.11
-9755640.19 5136018.53 185.09
-9755636.64 5136015.31 185.09
-9755643.35 5136028.64 185.18
-9755650.12 5136028.42 184.92
-9755646.61 5136028.65 185.04
-9755626.78 5136034.89 182.55
-9755633.32 5136025.04 185.14
-9755633.69 5136018.56 185.14
-9755627.36 5136022.27 184.64
-9755626.62 5136015.38 182.49
-9755623.60 5136025.42 182.37
-9755617.19 5136015.32 182.32
-9755613.93 5136022.11 182.35
-9755623.56 5136028.42 182.38
-9755620.29 5136028.37 182.39
-9755623.56 5136031.98 182.37
-9755613.53 5136028.63 182.40
-9755610.32 5136025.37 182.38
-9755606.86 5136018.78 182.34
-9755600.10 5136015.52 182.31
-9755593.90 5136015.16 182.29
-9755590.33 5136021.70 182.31
-9755597.36 5136028.51 182.34
-9755594.10 5136028.53 182.32
-9755597.01 5136031.82 182.34
-9755590.55 5136031.76 182.33
-9755583.89 5136015.41 182.27
-9755587.35 5136025.27 182.28
-9755583.84 5136021.93 182.28
-9755587.28 5136031.75 182.30
-9755580.52 5136025.20 182.28
-9755577.63 5136021.92 182.29
-9755570.89 5136018.63 182.30
-9755574.13 5136015.40 182.29
-9755573.79 5136018.33 182.28
-9755574.06 5136025.18 182.29
-9755580.82 5136028.41 182.28
-9755580.84 5136031.69 182.29
-9755574.06 5136031.66 182.27
-9755567.29 5136025.46 182.29
-9755564.32 5136018.58 182.30
-9755564.07 5136025.36 182.27
-9755557.52 5136025.36 182.24
-9755560.83 5136018.62 182.29
-9755560.50 5136025.37 182.26
-9755554.30 5136022.13 182.23
-9755554.34 5136018.79 182.26
-9755550.86 5136015.56 182.25
-9755547.56 5136021.75 182.12
-9755547.80 5136025.33 182.12
-9755547.61 5136015.24 182.19
-9755547.53 5136032.09 182.08
-9755554.31 5136028.28 182.17
-9755541.07 5136021.73 182.01
-9755534.81 5136025.26 182.03
-9755541.02 5136028.55 182.07
-9755537.81 5136028.51 182.05
-9755531.03 5136028.08 184.94
-9755527.90 5136025.31 187.30
-9755524.57 5136025.20 188.14
-9755524.93 5136022.93 187.18
-9755524.88 5136015.09 187.98
-9755524.50 5136028.55 184.86
-9755528.09 5136028.27 185.06
-9755524.76 5136028.42 181.96
-9755521.42 5136018.47 191.47
-9755521.37 5136025.18 187.37
-9755523.13 5136015.89 190.75
-9755523.35 5136017.74 190.22
-9755521.33 5136012.12 188.17
-9755524.39 5136012.10 188.20
-9755524.65 5136011.89 185.31
-9755511.46 5136015.26 184.94
-9755511.02 5136018.05 184.71
-9755515.40 5136021.97 184.71
-9755518.14 5136025.01 184.67
-9755514.67 5136015.64 184.93
-9755514.60 5136021.62 187.70
-9755518.06 5136021.77 185.44
-9755518.09 5136021.65 181.05
-9755511.58 5136025.15 180.61
-9755508.31 5136018.59 180.64
-9755514.63 5136011.75 184.78
-9755508.37 5136015.07 180.65
-9755518.25 5136011.96 184.78
-9755519.48 5136012.28 188.36
-9755512.43 5136021.17 189.93
-9755508.06 5136011.82 180.66
-9755504.81 5136018.57 180.67
-9755505.04 5136025.45 180.65
-9755521.18 5136028.43 181.51
-9755518.07 5136028.59 185.18
-9755518.02 5136031.57 184.67
-9755514.48 5136028.72 180.85
-9755517.98 5136031.68 181.05
-9755511.49 5136028.73 180.60
-9755513.87 5136028.05 190.60
-9755513.37 5136032.27 187.28
-9755505.05 5136031.93 180.67
-9755919.93 5136011.89 185.25
-9755919.91 5136014.25 185.22
-9755923.26 5136011.88 184.92
-9755916.57 5136012.18 185.06
-9755917.27 5136012.89 181.47
-9755920.56 5136011.58 190.02
-9755914.49 5136011.00 184.86
-9755906.99 5136012.28 188.24
-9755903.61 5136012.18 188.55
-9755909.89 5136012.57 186.04
-9755909.89 5136013.04 189.97
-9755916.83 5135998.78 181.66
-9755916.90 5136001.67 182.28
-9755923.32 5136002.04 180.93
-9755916.93 5136005.27 180.69
-9755919.39 5136002.65 187.34
-9755920.29 5136005.56 180.82
-9755910.25 5136002.14 184.84
-9755906.85 5136002.21 188.49
-9755907.01 5136002.05 185.30
-9755903.63 5136002.17 188.25
-9755909.84 5135998.48 185.72
-9755906.76 5135999.55 190.61
-9755906.37 5136005.28 188.02
-9755906.21 5136005.09 191.28
-9755906.42 5136005.08 185.02
-9755910.12 5136004.34 187.96
-9755909.42 5136005.21 184.85
-9755912.32 5136000.47 187.40
-9755908.60 5135996.45 187.84
-9755922.13 5136004.52 184.96
-9755913.45 5136008.90 180.70
-9755913.49 5136008.80 185.44
-9755914.47 5136008.53 188.01
-9755913.29 5136006.47 187.05
-9755900.36 5136011.95 187.81
-9755900.31 5136011.90 181.62
-9755901.61 5136014.83 191.17
-9755901.82 5136012.78 190.00
-9755896.98 5136012.24 181.11
-9755892.91 5136012.24 187.32
-9755887.24 5136012.09 184.15
-9755891.98 5136014.04 186.84
-9755897.39 5136010.52 184.75
-9755892.54 5136014.07 186.96
-9755887.95 5136014.10 184.25
-9755899.71 5136002.14 188.07
-9755900.45 5136004.95 191.83
-9755900.20 5136005.40 181.63
-9755890.29 5135998.89 185.32
-9755893.69 5136001.93 185.04
-9755890.37 5136002.19 184.91
-9755896.77 5135998.92 181.08
-9755893.83 5136002.15 181.15
-9755890.67 5136002.05 188.14
-9755893.48 5136005.42 181.14
-9755897.66 5136002.01 184.96
-9755896.73 5136002.20 181.08
-9755898.52 5136002.56 187.99
-9755889.93 5136005.48 183.67
-9755890.52 5136005.70 181.15
-9755892.42 5136002.52 187.76
-9755897.49 5135999.83 187.43
-9755888.21 5136003.96 184.54
-9755880.52 5135998.58 181.02
-9755888.54 5136001.23 187.21
-9755880.43 5136005.40 181.03
-9755896.97 5136008.86 184.71
-9755894.17 5136009.11 184.92
-9755888.15 5136009.41 184.32
-9755891.51 5136010.13 187.92
-9755892.24 5136010.13 187.85
-9755887.94 5136010.50 186.82
-9755857.22 5136012.05 181.09
-9755876.98 5136002.14 181.10
-9755876.99 5136005.35 181.08
-9755870.55 5136002.06 181.11
-9755870.54 5136005.33 181.11
-9755860.74 5136001.96 181.07
-9755864.31 5136008.83 181.14
-9755844.44 5136012.06 180.96
-9755854.02 5135998.61 181.00
-9755850.81 5135998.95 180.95
-9755850.73 5136001.90 180.96
-9755850.69 5136009.04 181.00
-9755844.09 5136002.19 180.91
-9755844.30 5135998.94 180.89
-9755844.60 5136005.42 180.92
-9755840.74 5136005.40 180.89
-9755827.64 5136008.86 181.03
-9755824.43 5136008.65 181.05
-9755834.23 5135998.83 180.89
-9755831.06 5135998.78 180.93
-9755821.17 5136001.83 181.05
-9755827.70 5136005.61 181.00
-9755817.74 5135998.75 181.06
-9755817.76 5136001.98 181.07
-9755817.73 5136005.58 181.08
-9755811.39 5136012.00 181.04
-9755804.73 5136012.34 181.01
-9755801.44 5136012.36 180.97
-9755791.45 5136011.97 180.98
-9755791.43 5136009.02 180.96
-9755811.22 5136002.25 180.99
-9755801.48 5135998.70 180.92
-9755808.02 5136002.25 180.95
-9755804.78 5136002.26 180.91
-9755798.24 5135999.23 180.88
-9755808.00 5136005.16 180.98
-9755801.48 5136005.18 180.92
-9755791.24 5135998.89 180.91
-9755791.69 5136005.70 180.94
-9755784.94 5136008.94 180.97
-9755788.19 5136008.64 180.98
-9755774.93 5136012.16 180.99
-9755771.64 5136011.83 180.96
-9755771.72 5136008.83 180.98
-9755788.26 5136002.13 180.97
-9755785.00 5135998.61 181.00
-9755784.99 5136002.41 180.98
-9755774.97 5135998.85 181.05
-9755785.01 5136005.75 180.98
-9755778.21 5136005.61 181.03
-9755768.45 5136005.29 180.98
-9755758.67 5136012.06 182.01
-9755764.88 5136014.87 184.60
-9755756.21 5136013.86 183.52
-9755758.36 5136012.52 183.80
-9755763.81 5136013.37 184.60
-9755751.68 5136013.09 184.48
-9755752.49 5136011.95 182.85
-9755748.19 5136008.38 184.30
-9755755.41 5136002.20 181.89
-9755755.26 5135998.97 181.87
-9755762.03 5136002.31 181.71
-9755758.76 5135998.68 181.06
-9755754.32 5136003.20 184.97
-9755761.73 5135999.92 183.65
-9755752.02 5136001.80 184.18
-9755761.98 5136005.59 181.73
-9755750.18 5136009.81 183.35
-9755752.59 5136004.60 184.06
-9755748.73 5136005.58 184.54
-9755738.70 5136012.35 185.18
-9755735.45 5136012.02 185.19
-9755735.75 5136008.75 185.18
-9755728.94 5136009.00 185.21
-9755745.54 5135999.03 185.07
-9755738.78 5135998.71 185.18
-9755738.73 5136002.25 185.18
-9755735.50 5135998.98 185.18
-9755732.25 5136002.22 185.19
-9755725.50 5135998.95 185.16
-9755738.72 5136005.23 185.20
-9755722.15 5136011.95 185.15
-9755722.20 5136008.69 185.13
-9755709.25 5136008.88 185.16
-9755715.71 5136005.37 185.13
-9755712.26 5135998.87 185.14
-9755712.20 5136005.38 185.14
-9755699.20 5136008.54 185.14
-9755696.23 5136008.58 185.11
-9755689.72 5136008.79 185.07
-9755691.49 5136011.65 186.87
-9755691.19 5136014.58 186.75
-9755690.65 5136012.01 186.87
-9755682.71 5136008.71 185.08
-9755686.57 5136011.74 186.82
-9755690.25 5135998.40 186.70
-9755690.32 5136002.47 186.69
-9755699.52 5136005.32 185.14
-9755690.69 5136006.60 186.68
-9755682.96 5136002.31 185.06
-9755681.79 5135998.91 186.95
-9755679.53 5135998.97 184.99
-9755686.57 5136005.54 186.72
-9755675.93 5136008.73 185.05
-9755660.25 5136008.48 186.81
-9755669.75 5136002.17 185.12
-9755662.99 5136002.17 185.05
-9755676.25 5136005.44 185.02
-9755646.72 5136012.09 184.98
-9755643.18 5136011.76 185.15
-9755643.49 5136008.84 185.13
-9755646.42 5136008.58 185.01
-9755636.95 5136011.79 185.11
-9755656.17 5136002.09 185.18
-9755646.75 5136002.35 184.95
-9755639.96 5136002.01 185.10
-9755650.01 5136005.32 184.93
-9755653.20 5136005.62 185.11
-9755633.71 5136012.02 185.15
-9755623.38 5136008.87 182.33
-9755623.68 5136012.09 182.35
-9755626.92 5136011.83 182.52
-9755617.17 5136012.05 182.32
-9755616.92 5136008.78 182.31
-9755633.46 5136002.30 185.14
-9755630.28 5136002.27 184.82
-9755629.99 5135995.71 184.82
-9755620.51 5135995.50 182.31
-9755627.05 5135995.39 184.61
-9755623.46 5135995.50 182.30
-9755626.70 5136002.37 182.48
-9755627.15 5136002.23 184.64
-9755610.15 5136008.77 182.30
-9755606.88 5136012.06 182.31
-9755590.37 5136012.22 182.28
-9755610.17 5135999.00 182.27
-9755610.45 5136002.26 182.28
-9755596.97 5135995.38 182.25
-9755600.56 5135995.36 182.28
-9755597.24 5136001.89 182.27
-9755593.66 5135995.60 182.23
-9755600.61 5135996.35 193.83
-9755600.27 5135997.46 193.79
-9755607.20 5136005.49 182.30
-9755574.13 5136011.85 182.29
-9755570.68 5136002.05 182.25
-9755570.67 5135999.06 182.23
-9755574.25 5135999.10 182.24
-9755573.91 5136002.33 182.24
-9755567.33 5136012.01 182.29
-9755557.63 5136012.34 182.29
-9755554.40 5136011.97 182.28
-9755564.18 5135995.48 182.24
-9755567.42 5135995.80 182.23
-9755564.16 5136002.01 182.26
-9755557.72 5136001.97 182.27
-9755557.64 5136005.26 182.29
-9755547.74 5135995.37 182.19
-9755547.64 5136005.50 182.23
-9755544.39 5136008.72 182.16
-9755537.85 5136012.22 182.03
-9755526.45 5136008.69 190.79
-9755544.44 5135995.38 182.11
-9755534.74 5135995.64 181.99
-9755541.18 5135998.92 182.08
-9755541.23 5135995.63 182.08
-9755534.38 5136002.12 182.01
-9755531.43 5136005.35 182.17
-9755524.69 5135998.94 185.17
-9755524.50 5135995.73 184.93
-9755527.97 5135999.06 184.12
-9755527.92 5136002.34 182.22
-9755524.74 5136002.05 184.46
-9755526.80 5136006.63 186.96
-9755524.48 5136002.04 188.06
-9755518.19 5136007.90 188.42
-9755511.96 5136009.16 189.30
-9755521.41 5135995.52 188.08
-9755523.92 5135995.18 189.24
-9755521.46 5135998.97 184.99
-9755521.24 5135995.70 191.20
-9755521.28 5136002.03 187.73
-9755520.59 5135999.34 190.95
-9755524.50 5136007.01 190.63
-9755518.25 5135998.93 188.22
-9755517.99 5135998.93 185.66
-9755518.10 5135995.64 191.54
-9755508.62 5135995.67 185.02
-9755514.66 5136002.07 180.99
-9755512.18 5135998.95 189.27
-9755511.17 5135998.88 185.81
-9755514.49 5135998.64 185.26
-9755508.17 5135999.07 180.69
-9755518.17 5136002.09 181.07
-9755508.49 5135995.51 180.69
-9755509.97 5135993.88 184.46
-9755507.34 5136001.90 188.02
-9755504.60 5136002.11 185.22
-9755505.63 5136002.31 187.87
-9755505.88 5135999.52 185.16
-9755505.21 5135998.80 180.71
-9755518.45 5136005.33 181.10
-9755511.38 5136005.64 180.66
-9755519.20 5136004.53 191.38
-9755520.53 5136004.59 190.94
-9755506.48 5136005.15 187.70
-9755817.84 5135995.50 181.05
-9755762.40 5135995.45 181.52
-9755768.52 5135995.80 181.02
-9755903.44 5135996.75 190.74
-9755834.23 5135995.59 180.89
-9755808.05 5135995.52 180.92
-9755755.58 5135995.42 181.62
-9755916.69 5135968.97 184.54
-9755923.41 5135979.16 188.09
-9755922.74 5135981.86 187.98
-9755916.61 5135982.26 185.06
-9755923.18 5135976.07 184.85
-9755918.27 5135969.80 187.12
-9755914.99 5135973.92 187.20
-9755910.05 5135991.93 180.71
-9755910.10 5135995.87 185.92
-9755903.47 5135972.50 188.17
-9755903.46 5135972.06 185.86
-9755904.07 5135979.54 185.42
-9755900.47 5135975.67 188.24
-9755906.19 5135973.19 190.54
-9755903.86 5135972.76 190.85
-9755903.38 5135972.64 180.85
-9755900.39 5135982.31 188.03
-9755906.83 5135979.86 185.66
-9755901.51 5135973.00 190.65
-9755900.33 5135968.98 181.61
-9755903.06 5135988.91 185.10
-9755900.21 5135985.67 188.17
-9755909.14 5135986.11 185.18
-9755901.12 5135988.90 185.76
-9755900.71 5135989.04 188.83
-9755903.62 5135992.11 188.49
-9755900.12 5135995.60 191.06
-9755901.63 5135992.46 186.02
-9755897.66 5135972.65 188.75
-9755890.42 5135972.27 181.05
-9755893.70 5135978.96 184.31
-9755893.88 5135975.95 184.16
-9755887.15 5135981.57 184.93
-9755887.41 5135982.27 180.91
-9755891.87 5135970.97 187.60
-9755883.85 5135982.58 180.91
-9755883.67 5135972.46 180.90
-9755880.62 5135982.54 180.93
-9755880.41 5135968.92 180.93
-9755897.10 5135992.12 181.05
-9755896.80 5135985.77 184.58
-9755890.30 5135992.40 181.09
-9755883.93 5135992.11 180.96
-9755883.92 5135995.59 181.01
-9755880.50 5135995.61 181.03
-9755903.66 5135965.85 185.36
-9755890.74 5135967.55 187.42
-9755883.97 5135965.69 180.90
-9755877.17 5135975.46 180.97
-9755877.40 5135979.00 180.94
-9755877.30 5135989.00 181.02
-9755873.79 5135992.02 181.05
-9755870.62 5135978.98 181.02
-9755860.61 5135975.97 181.06
-9755860.53 5135982.45 181.06
-9755854.19 5135972.58 181.05
-9755857.35 5135979.16 181.07
-9755854.12 5135975.93 181.05
-9755857.67 5135982.44 181.06
-9755854.15 5135979.12 181.05
-9755860.83 5135995.70 181.07
-9755870.82 5135995.55 181.09
-9755860.49 5135992.22 181.05
-9755851.09 5135988.83 180.97
-9755877.14 5135966.21 180.99
-9755847.40 5135969.01 181.01
-9755847.62 5135985.94 180.95
-9755844.46 5135979.07 180.98
-9755844.44 5135975.51 181.02
-9755844.35 5135982.31 180.94
-9755840.86 5135979.08 180.99
-9755831.14 5135975.77 181.00
-9755824.56 5135979.01 181.00
-9755821.19 5135969.44 181.00
-9755840.74 5135992.38 180.86
-9755831.06 5135985.51 180.94
-9755824.60 5135988.73 181.05
-9755821.36 5135991.99 181.05
-9755844.19 5135966.03 180.96
-9755817.95 5135969.15 181.00
-9755798.14 5135969.05 180.95
-9755814.72 5135975.64 180.97
-9755814.59 5135982.20 181.00
-9755804.93 5135975.95 180.90
-9755794.85 5135975.83 180.95
-9755794.80 5135982.33 180.92
-9755814.53 5135992.19 180.99
-9755817.79 5135992.26 181.05
-9755808.06 5135989.19 180.90
-9755804.84 5135985.64 180.85
-9755798.13 5135985.71 180.89
-9755801.27 5135992.15 180.84
-9755791.36 5135985.95 180.95
-9755791.69 5135965.79 181.00
-9755775.10 5135972.53 180.98
-9755781.56 5135985.84 181.06
-9755771.97 5135992.25 181.03
-9755774.79 5135989.03 181.04
-9755771.79 5135989.33 181.01
-9755775.45 5135985.52 181.04
-9755768.35 5135985.42 180.98
-9755765.46 5135972.33 180.90
-9755765.38 5135975.69 180.92
-9755762.08 5135989.00 180.94
-9755761.75 5135992.26 180.98
-9755784.62 5135966.00 181.05
-9755771.99 5135965.91 180.94
-9755758.60 5135975.65 180.85
-9755755.69 5135976.35 184.47
-9755755.57 5135982.56 184.61
-9755742.14 5135975.93 185.09
-9755753.27 5135980.14 183.87
-9755757.49 5135990.12 183.58
-9755761.76 5135985.92 183.87
-9755762.62 5135991.27 183.39
-9755752.39 5135985.60 182.08
-9755742.34 5135988.95 185.13
-9755739.14 5135988.95 185.18
-9755749.46 5135965.73 183.26
-9755715.60 5135968.96 185.14
-9755719.17 5135968.98 185.06
-9755722.43 5135978.99 186.71
-9755725.59 5135978.77 185.10
-9755722.08 5135985.60 185.07
-9755719.09 5135992.30 186.75
-9755722.35 5135988.76 186.91
-9755709.15 5135969.24 185.12
-9755712.36 5135975.73 185.10
-9755705.81 5135985.80 185.10
-9755702.26 5135985.47 185.09
-9755719.17 5135966.51 186.78
-9755689.75 5135969.41 186.72
-9755699.43 5135975.70 185.08
-9755699.11 5135982.22 185.11
-9755690.17 5135979.40 186.95
-9755689.38 5135982.32 186.93
-9755692.88 5135988.96 185.10
-9755689.89 5135988.91 186.88
-9755689.68 5135984.09 186.88
-9755686.13 5135969.11 185.01
-9755682.93 5135972.62 185.04
-9755682.90 5135978.88 185.04
-9755672.88 5135975.84 185.05
-9755686.33 5135992.19 185.06
-9755681.85 5135992.63 186.91
-9755680.41 5135966.09 186.85
-9755679.40 5135966.10 184.97
-9755676.47 5135965.79 184.95
-9755663.11 5135975.80 185.09
-9755666.32 5135982.62 185.04
-9755659.85 5135979.04 185.09
-9755659.91 5135972.50 185.09
-9755659.93 5135989.57 187.01
-9755656.69 5135965.94 185.20
-9755649.92 5135965.65 184.84
-9755656.68 5135975.77 185.20
-9755649.82 5135978.92 184.89
-9755646.63 5135978.94 184.93
-9755646.65 5135975.67 184.90
-9755656.29 5135988.80 185.19
-9755656.26 5135992.02 185.18
-9755660.38 5135987.01 186.86
-9755656.54 5135995.57 185.19
-9755643.38 5135982.48 185.14
-9755661.42 5135965.89 186.81
-9755640.15 5135975.95 185.07
-9755636.56 5135978.87 185.11
-9755633.33 5135978.81 185.15
-9755633.40 5135969.36 185.13
-9755636.85 5135985.70 185.09
-9755636.84 5135982.46 185.10
-9755630.10 5135975.85 184.85
-9755630.09 5135972.64 184.85
-9755626.57 5135969.14 182.50
-9755626.88 5135975.69 182.55
-9755626.57 5135982.22 182.58
-9755626.80 5135985.64 184.60
-9755623.53 5135985.77 182.32
-9755625.00 5135991.06 183.47
-9755620.25 5135992.50 182.30
-9755626.93 5135962.97 182.53
-9755616.89 5135962.64 182.29
-9755620.44 5135962.65 182.31
-9755607.14 5135972.64 182.22
-9755600.63 5135972.31 182.17
-9755590.59 5135975.52 182.16
-9755580.78 5135985.83 182.17
-9755577.59 5135976.01 182.11
-9755564.37 5135969.12 182.09
-9755564.36 5135975.67 182.08
-9755557.46 5135989.20 182.19
-9755567.52 5135989.30 182.19
-9755560.71 5135988.94 182.18
-9755561.01 5135985.97 182.16
-9755563.98 5135985.72 182.18
-9755544.33 5135966.06 182.01
-9755544.55 5135979.07 181.99
-9755531.58 5135975.73 182.12
-9755527.58 5135969.35 184.14
-9755544.52 5135988.86 182.08
-9755541.23 5135989.10 182.05
-9755541.28 5135992.09 182.06
-9755528.02 5135982.41 184.21
-9755521.60 5135965.93 181.73
-9755517.74 5135972.57 184.77
-9755511.58 5135969.50 180.58
-9755524.55 5135982.29 182.05
-9755518.29 5135982.23 181.11
-9755518.81 5135991.67 190.38
-9755524.73 5135985.47 182.11
-9755518.90 5135988.84 185.21
-9755508.43 5135982.79 188.03
-9755515.05 5135989.03 181.03
-9755508.32 5135988.59 188.27
-9755515.07 5135982.21 181.04
-9755505.15 5135985.65 184.89
-9755505.82 5135991.56 186.00
-9755916.65 5135942.94 185.88
-9755913.29 5135943.03 180.64
-9755923.14 5135946.29 188.46
-9755920.08 5135949.27 188.19
-9755916.86 5135946.11 185.10
-9755916.51 5135949.88 188.33
-9755920.03 5135952.85 180.80
-9755916.94 5135949.42 185.06
-9755923.23 5135952.91 180.84
-9755922.14 5135944.39 187.37
-9755913.51 5135948.99 185.11
-9755914.81 5135951.46 185.97
-9755910.26 5135956.08 180.65
-9755919.97 5135959.40 180.73
-9755910.28 5135962.57 180.64
-9755916.57 5135939.53 180.57
-9755916.75 5135936.23 182.14
-9755920.16 5135936.00 180.88
-9755903.87 5135942.66 188.19
-9755903.24 5135942.78 180.85
-9755903.92 5135942.63 190.96
-9755900.04 5135943.17 190.07
-9755903.60 5135953.03 188.11
-9755903.55 5135956.04 188.24
-9755906.14 5135946.57 188.43
-9755903.64 5135949.50 188.33
-9755909.17 5135953.85 184.91
-9755906.56 5135943.09 190.30
-9755906.29 5135953.08 187.79
-9755909.72 5135955.39 187.46
-9755906.03 5135944.80 190.40
-9755903.31 5135954.33 190.23
-9755909.92 5135953.50 187.22
-9755901.23 5135950.25 187.58
-9755901.25 5135951.77 187.74
-9755900.93 5135949.96 185.14
-9755900.39 5135946.10 188.18
-9755902.69 5135944.62 190.04
-9755900.39 5135952.78 181.98
-9755900.58 5135948.91 181.87
-9755896.42 5135943.09 184.45
-9755894.43 5135942.76 184.46
-9755890.35 5135949.47 184.76
-9755896.71 5135955.99 181.04
-9755887.02 5135949.48 185.18
-9755897.06 5135942.78 187.22
-9755893.81 5135946.53 181.08
-9755887.39 5135945.93 181.88
-9755890.19 5135947.16 188.00
-9755893.50 5135953.03 181.09
-9755893.75 5135956.00 181.12
-9755887.37 5135949.44 181.08
-9755892.90 5135951.61 184.58
-9755888.21 5135947.47 187.54
-9755896.67 5135959.23 181.02
-9755887.29 5135959.34 185.20
-9755910.19 5135939.77 188.42
-9755909.81 5135942.16 186.87
-9755903.58 5135939.73 180.78
-9755904.59 5135940.73 190.11
-9755900.68 5135936.79 187.46
-9755899.75 5135939.53 181.82
-9755896.85 5135938.89 185.44
-9755894.15 5135935.65 184.58
-9755893.37 5135939.48 185.12
-9755887.31 5135939.73 185.03
-9755890.07 5135937.81 187.78
-9755887.51 5135936.54 184.98
-9755887.35 5135939.32 181.05
-9755887.40 5135936.12 181.05
-9755888.63 5135937.89 187.11
-9755880.33 5135936.08 180.97
-9755874.03 5135943.13 181.05
-9755873.82 5135946.29 181.06
-9755873.91 5135959.09 181.03
-9755867.02 5135942.81 181.10
-9755857.37 5135942.75 181.07
-9755864.11 5135946.03 181.12
-9755867.50 5135955.81 181.06
-9755870.54 5135952.83 181.06
-9755864.31 5135956.10 181.09
-9755860.48 5135946.34 181.09
-9755860.51 5135952.89 181.06
-9755857.27 5135946.01 181.06
-9755854.02 5135949.53 181.00
-9755851.07 5135949.50 180.96
-9755867.26 5135962.60 181.04
-9755854.14 5135962.52 181.01
-9755877.05 5135936.38 180.95
-9755874.04 5135936.04 180.98
-9755867.37 5135939.30 181.07
-9755870.65 5135936.08 181.03
-9755853.85 5135939.48 181.04
-9755850.83 5135936.16 181.04
-9755847.42 5135942.97 180.98
-9755837.89 5135942.95 180.91
-9755844.30 5135942.69 180.94
-9755827.81 5135943.14 180.98
-9755844.00 5135949.51 180.88
-9755840.76 5135949.47 180.86
-9755831.03 5135946.13 180.93
-9755827.45 5135952.62 180.96
-9755841.19 5135962.75 180.92
-9755834.50 5135962.75 180.91
-9755844.39 5135939.73 180.97
-9755844.31 5135936.42 180.98
-9755824.60 5135939.84 181.03
-9755814.50 5135942.80 181.01
-9755804.73 5135943.11 180.84
-9755801.29 5135949.25 180.87
-9755794.98 5135956.00 180.93
-9755817.70 5135959.32 180.99
-9755797.95 5135962.85 180.94
-9755794.96 5135962.77 180.95
-9755804.62 5135939.43 180.81
-9755794.55 5135936.18 180.91
-9755791.58 5135936.48 180.97
-9755767.98 5135942.54 183.97
-9755769.13 5135944.72 184.02
-9755765.23 5135949.29 180.98
-9755765.28 5135946.36 181.03
-9755765.49 5135959.38 180.91
-9755788.25 5135939.61 180.99
-9755772.51 5135936.56 182.35
-9755768.54 5135939.84 181.83
-9755775.16 5135939.97 183.88
-9755780.73 5135935.79 185.80
-9755770.99 5135935.60 183.47
-9755764.43 5135939.93 184.31
-9755762.11 5135940.04 182.64
-9755754.97 5135942.52 184.58
-9755758.53 5135945.98 182.12
-9755758.75 5135956.10 180.91
-9755761.98 5135952.80 183.41
-9755752.21 5135962.95 184.97
-9755752.49 5135960.87 185.02
-9755748.46 5135959.41 184.35
-9755743.74 5135959.29 187.18
-9755732.26 5135949.54 185.04
-9755752.08 5135936.06 184.86
-9755742.06 5135939.85 185.11
-9755729.10 5135942.73 185.06
-9755722.19 5135943.09 186.92
-9755727.01 5135942.01 186.67
-9755715.54 5135945.86 185.10
-9755725.49 5135952.74 185.03
-9755725.90 5135947.12 186.79
-9755717.39 5135943.73 186.88
-9755727.53 5135945.56 186.85
-9755727.48 5135943.97 186.71
-9755706.07 5135943.14 185.14
-9755702.87 5135942.93 185.09
-9755712.50 5135945.83 185.10
-9755705.98 5135955.92 185.11
-9755729.08 5135939.47 185.06
-9755722.29 5135939.38 185.07
-9755725.59 5135936.45 185.02
-9755721.94 5135936.32 186.84
-9755726.87 5135939.43 186.71
-9755726.86 5135936.27 186.69
-9755709.46 5135939.99 185.49
-9755706.09 5135939.25 185.15
-9755712.57 5135939.89 185.11
-9755695.79 5135942.53 185.10
-9755696.05 5135946.05 185.08
-9755696.01 5135952.56 185.10
-9755689.59 5135942.63 186.70
-9755691.58 5135953.40 186.75
-9755692.74 5135956.13 185.04
-9755699.53 5135955.87 185.06
-9755692.73 5135959.08 185.03
-9755686.38 5135939.76 185.03
-9755678.81 5135939.32 186.91
-9755685.78 5135939.37 186.72
-9755682.79 5135939.38 186.82
-9755686.02 5135942.73 184.98
-9755679.80 5135943.01 184.94
-9755683.08 5135942.72 185.06
-9755685.96 5135945.87 186.72
-9755679.89 5135946.01 186.73
-9755676.03 5135942.66 184.95
-9755672.75 5135942.68 185.09
-9755685.94 5135962.61 184.99
-9755686.21 5135959.34 184.98
-9755682.94 5135962.46 186.74
-9755686.01 5135935.93 186.75
-9755674.77 5135940.12 186.86
-9755674.32 5135936.70 186.85
-9755673.11 5135936.15 185.04
-9755666.52 5135949.41 185.06
-9755663.27 5135952.68 185.09
-9755666.46 5135962.80 185.04
-9755669.68 5135962.46 185.06
-9755656.32 5135942.57 185.24
-9755649.80 5135946.39 184.94
-9755660.01 5135946.36 187.03
-9755643.01 5135942.81 185.17
-9755660.01 5135955.94 185.08
-9755643.44 5135959.36 185.15
-9755663.07 5135936.39 185.13
-9755649.83 5135936.01 184.92
-9755643.29 5135939.53 185.18
-9755643.08 5135936.00 185.17
-9755636.51 5135939.79 185.09
-9755636.47 5135952.53 185.10
-9755633.21 5135949.55 185.16
-9755633.47 5135959.33 185.15
-9755626.82 5135939.42 184.66
-9755620.00 5135939.51 182.29
-9755629.98 5135946.18 184.98
-9755630.18 5135952.78 185.05
-9755616.71 5135949.31 182.29
-9755623.43 5135956.16 182.29
-9755643.01 5135932.75 185.17
-9755627.06 5135932.95 184.72
-9755620.00 5135936.28 182.27
-9755617.10 5135932.99 182.27
-9755613.53 5135936.18 182.23
-9755610.20 5135949.56 182.21
-9755610.25 5135942.71 182.18
-9755603.77 5135939.49 182.13
-9755587.21 5135949.45 182.15
-9755593.95 5135953.02 182.13
-9755587.44 5135952.66 182.12
-9755583.73 5135939.37 182.11
-9755597.15 5135956.28 182.14
-9755587.18 5135956.21 182.13
-9755613.53 5135932.70 182.23
-9755603.81 5135936.16 182.16
-9755587.30 5135936.07 182.12
-9755593.81 5135933.18 182.14
-9755584.00 5135936.10 182.12
-9755580.47 5135942.90 182.13
-9755574.23 5135943.13 182.15
-9755577.48 5135949.34 182.17
-9755560.99 5135943.03 182.09
-9755567.45 5135949.32 182.17
-9755560.99 5135945.97 182.12
-9755557.70 5135949.28 182.13
-9755580.51 5135936.08 182.10
-9755577.53 5135936.32 182.13
-9755570.78 5135936.26 182.14
-9755574.01 5135932.75 182.11
-9755567.51 5135936.28 182.10
-9755564.22 5135936.23 182.10
-9755564.27 5135932.99 182.07
-9755557.46 5135936.23 182.03
-9755561.05 5135932.97 182.05
-9755541.24 5135939.41 182.11
-9755547.74 5135945.96 182.04
-9755547.65 5135952.75 182.07
-9755550.89 5135949.22 182.08
-9755537.67 5135942.61 182.13
-9755541.19 5135949.74 182.08
-9755534.45 5135945.87 182.03
-9755531.15 5135952.95 181.90
-9755534.68 5135949.47 182.03
-9755534.38 5135953.02 182.04
-9755541.18 5135945.90 182.08
-9755527.95 5135942.60 181.70
-9755527.98 5135939.30 181.81
-9755527.89 5135952.95 181.74
-9755544.49 5135956.92 193.53
-9755544.55 5135936.14 182.05
-9755547.74 5135936.14 182.03
-9755544.31 5135932.88 182.06
-9755541.31 5135932.84 182.10
-9755538.04 5135933.20 182.16
-9755521.11 5135939.31 184.61
-9755518.03 5135939.27 181.33
-9755517.87 5135949.67 181.20
-9755518.24 5135942.84 181.32
-9755521.22 5135942.58 181.57
-9755504.69 5135942.80 180.67
-9755511.39 5135949.31 180.68
-9755514.68 5135946.39 180.94
-9755514.68 5135952.93 180.97
-9755512.12 5135949.29 189.17
-9755513.71 5135950.01 189.61
-9755513.61 5135946.85 189.62
-9755520.71 5135933.55 191.36
-9755521.25 5135936.02 188.46
-9755521.16 5135935.78 191.66
-9755521.48 5135939.07 187.15
-9755518.14 5135933.03 184.88
-9755519.02 5135933.58 190.02
-9755516.27 5135933.15 184.78
-9755513.45 5135935.70 189.65
-9755917.04 5135919.80 184.87
-9755916.71 5135920.00 180.61
-9755917.06 5135926.37 185.25
-9755919.94 5135929.64 188.32
-9755919.82 5135927.29 191.51
-9755923.53 5135919.25 186.93
-9755917.07 5135927.58 190.44
-9755916.47 5135929.72 188.01
-9755923.03 5135926.62 188.36
-9755917.94 5135922.15 185.94
-9755917.03 5135928.86 191.09
-9755916.64 5135929.80 180.59
-9755917.22 5135930.31 184.90
-9755922.03 5135927.89 190.39
-9755913.43 5135919.69 180.69
-9755913.38 5135926.50 180.66
-9755914.92 5135926.35 186.17
-9755923.39 5135932.73 187.93
-9755923.51 5135932.88 184.85
-9755923.37 5135933.01 181.67
-9755922.33 5135931.65 190.14
-9755921.76 5135935.34 186.39
-9755913.50 5135930.10 186.09
-9755914.39 5135933.02 185.45
-9755914.87 5135932.94 187.90
-9755909.81 5135932.98 180.69
-9755917.17 5135913.26 188.36
-9755923.27 5135912.96 191.30
-9755919.84 5135913.32 191.90
-9755919.39 5135906.89 188.69
-9755919.75 5135907.06 191.65
-9755919.18 5135910.21 193.90
-9755922.15 5135916.00 191.09
-9755917.22 5135909.67 193.65
-9755916.60 5135913.54 193.54
-9755922.08 5135908.55 186.62
-9755910.16 5135916.35 180.77
-9755913.08 5135909.93 185.27
-9755914.19 5135913.06 190.91
-9755915.02 5135915.05 190.91
-9755910.23 5135909.89 180.80
-9755910.93 5135907.03 190.89
-9755906.29 5135916.75 185.82
-9755903.48 5135916.56 188.55
-9755900.63 5135916.24 188.22
-9755907.06 5135929.56 188.41
-9755906.98 5135926.84 191.55
-9755902.88 5135919.74 187.77
-9755909.19 5135929.60 188.48
-9755903.59 5135923.28 191.55
-9755906.73 5135923.34 191.45
-9755903.58 5135926.47 191.75
-9755903.21 5135919.72 185.33
-9755906.79 5135921.00 188.64
-9755909.31 5135924.21 190.32
-9755906.04 5135930.29 191.28
-9755909.58 5135930.16 190.73
-9755900.28 5135926.40 188.21
-9755900.18 5135926.75 191.52
-9755900.23 5135923.09 191.31
-9755900.26 5135920.11 181.92
-9755901.31 5135921.08 190.50
-9755903.43 5135933.84 187.98
-9755906.79 5135933.24 188.22
-9755909.23 5135931.39 191.18
-9755906.10 5135936.14 190.00
-9755900.32 5135932.44 190.92
-9755901.02 5135932.92 184.87
-9755883.65 5135916.18 180.90
-9755893.88 5135926.22 184.61
-9755896.86 5135929.62 181.02
-9755896.87 5135926.37 181.03
-9755890.51 5135929.86 188.26
-9755893.66 5135919.86 181.11
-9755894.72 5135929.39 188.21
-9755890.74 5135927.35 187.78
-9755890.71 5135923.10 181.01
-9755897.65 5135919.19 186.27
-9755896.59 5135929.87 185.14
-9755897.90 5135916.47 190.68
-9755896.64 5135930.08 191.34
-9755897.98 5135922.98 191.25
-9755892.27 5135918.88 187.64
-9755888.51 5135927.08 187.12
-9755886.84 5135919.63 185.07
-9755887.25 5135929.96 185.16
-9755887.78 5135922.89 184.69
-9755884.69 5135920.13 184.83
-9755880.65 5135929.88 180.89
-9755885.22 5135917.83 185.63
-9755893.62 5135932.87 181.04
-9755887.22 5135932.92 184.70
-9755892.04 5135931.34 187.39
-9755887.13 5135933.07 181.00
-9755880.89 5135932.85 180.90
-9755906.72 5135909.82 188.00
-9755903.60 5135913.00 188.41
-9755906.41 5135909.37 185.84
-9755904.10 5135907.55 185.57
-9755903.23 5135909.16 186.00
-9755906.06 5135910.97 190.46
-9755907.88 5135907.88 185.50
-9755900.31 5135909.90 191.70
-9755900.49 5135913.13 191.40
-9755900.28 5135906.51 188.44
-9755899.67 5135912.95 181.77
-9755900.34 5135906.96 190.92
-9755896.68 5135913.09 181.91
-9755897.05 5135906.82 181.06
-9755894.04 5135913.51 184.52
-9755897.09 5135909.70 188.56
-9755896.93 5135913.34 188.61
-9755896.56 5135910.41 186.20
-9755890.45 5135913.04 181.15
-9755897.22 5135914.06 185.04
-9755897.99 5135910.01 190.93
-9755890.50 5135906.52 181.11
-9755896.95 5135906.55 185.95
-9755893.52 5135906.33 184.85
-9755889.05 5135914.80 186.32
-9755894.28 5135913.68 187.77
-9755890.11 5135914.49 187.58
-9755886.70 5135906.77 181.09
-9755888.23 5135914.84 187.33
-9755880.44 5135909.72 180.93
-9755877.17 5135926.48 180.93
-9755873.92 5135923.01 180.94
-9755873.85 5135932.72 180.98
-9755864.16 5135916.59 181.08
-9755867.10 5135916.68 181.04
-9755870.64 5135916.44 180.99
-9755860.94 5135916.59 181.09
-9755857.39 5135916.33 181.09
-9755867.49 5135929.76 181.03
-9755863.88 5135920.03 181.07
-9755864.19 5135929.75 181.09
-9755854.12 5135929.72 181.05
-9755857.48 5135919.95 181.10
-9755877.19 5135909.95 180.95
-9755874.01 5135906.78 180.98
-9755864.32 5135906.69 181.10
-9755847.42 5135923.03 181.03
-9755831.14 5135929.58 181.03
-9755824.56 5135929.53 181.00
-9755824.32 5135932.97 181.04
-9755831.12 5135932.85 181.04
-9755827.84 5135933.13 181.02
-9755840.98 5135910.10 180.89
-9755844.56 5135909.81 180.98
-9755834.17 5135913.25 180.87
-9755824.44 5135912.94 181.02
-9755830.68 5135906.42 180.92
-9755831.20 5135913.30 180.89
-9755824.43 5135909.68 181.01
-9755808.19 5135916.71 181.02
-9755794.70 5135916.25 181.09
-9755811.38 5135923.22 180.96
-9755814.43 5135922.95 180.99
-9755811.40 5135929.75 180.93
-9755817.87 5135929.77 181.02
-9755798.08 5135923.15 180.96
-9755791.68 5135929.65 181.02
-9755791.65 5135932.90 180.96
-9755817.63 5135913.18 181.03
-9755817.97 5135909.68 181.05
-9755807.98 5135909.60 181.08
-9755801.42 5135913.46 181.05
-9755801.17 5135910.17 181.08
-9755771.75 5135916.69 184.98
-9755778.17 5135916.21 181.69
-9755781.39 5135923.00 181.24
-9755788.26 5135929.62 181.07
-9755771.39 5135919.87 184.35
-9755778.39 5135919.73 181.61
-9755768.65 5135929.64 184.76
-9755781.64 5135932.83 181.18
-9755773.41 5135930.30 183.30
-9755765.20 5135923.38 184.80
-9755788.51 5135906.54 181.60
-9755784.98 5135910.06 181.52
-9755775.22 5135909.90 182.89
-9755778.49 5135909.96 181.72
-9755774.06 5135909.71 185.18
-9755771.54 5135909.79 187.66
-9755771.62 5135905.80 187.00
-9755779.03 5135911.37 183.84
-9755755.40 5135923.32 184.89
-9755755.37 5135929.52 184.83
-9755742.08 5135926.21 185.07
-9755751.94 5135919.70 184.89
-9755748.97 5135919.75 184.96
-9755742.18 5135916.38 185.12
-9755735.32 5135929.70 185.06
-9755755.18 5135913.52 184.90
-9755755.22 5135906.72 184.86
-9755745.49 5135909.94 185.11
-9755719.73 5135912.98 187.01
-9755725.37 5135916.28 185.03
-9755719.24 5135916.34 185.02
-9755728.86 5135922.84 185.01
-9755717.01 5135915.83 186.87
-9755722.09 5135919.62 185.05
-9755726.58 5135919.86 186.79
-9755722.90 5135923.11 186.67
-9755715.68 5135916.59 185.07
-9755721.81 5135916.29 186.82
-9755726.84 5135926.63 186.79
-9755726.44 5135915.91 186.68
-9755726.60 5135929.23 186.69
-9755715.86 5135932.86 185.10
-9755725.57 5135932.85 185.02
-9755726.72 5135933.10 186.69
-9755718.12 5135933.27 186.72
-9755705.91 5135922.72 185.14
-9755705.69 5135916.50 185.12
-9755702.46 5135920.05 185.07
-9755712.30 5135932.56 185.08
-9755731.93 5135909.82 185.03
-9755732.21 5135906.58 185.04
-9755728.99 5135909.86 185.02
-9755702.72 5135913.22 185.08
-9755712.46 5135909.99 185.07
-9755702.79 5135906.76 185.06
-9755692.44 5135920.00 185.03
-9755699.18 5135923.03 185.03
-9755695.91 5135926.51 185.08
-9755691.72 5135925.60 187.06
-9755689.18 5135926.17 186.95
-9755689.29 5135929.73 185.01
-9755692.56 5135933.23 185.04
-9755699.39 5135929.78 185.06
-9755689.53 5135932.97 186.68
-9755689.39 5135929.87 186.95
-9755679.45 5135913.41 184.96
-9755682.70 5135913.05 187.29
-9755679.41 5135919.88 184.93
-9755683.77 5135926.35 186.73
-9755679.76 5135913.36 186.80
-9755685.55 5135923.17 186.85
-9755672.90 5135926.38 185.09
-9755682.88 5135929.73 185.04
-9755685.79 5135933.01 185.00
-9755676.05 5135929.63 184.94
-9755672.81 5135932.86 185.07
-9755674.33 5135933.23 186.73
-9755699.50 5135909.97 185.06
-9755699.20 5135906.67 185.03
-9755672.91 5135913.06 185.04
-9755682.70 5135909.84 185.03
-9755679.48 5135906.62 184.92
-9755675.90 5135910.00 186.84
-9755673.95 5135910.35 186.76
-9755662.94 5135913.31 185.07
-9755669.64 5135913.05 185.07
-9755673.76 5135913.21 186.77
-9755669.73 5135919.54 185.07
-9755662.82 5135923.11 185.10
-9755666.38 5135923.07 185.06
-9755666.68 5135926.36 185.06
-9755674.31 5135915.65 186.67
-9755666.33 5135929.57 185.06
-9755662.79 5135929.57 185.08
-9755649.65 5135913.22 184.94
-9755646.41 5135912.89 184.97
-9755659.92 5135926.06 185.12
-9755649.93 5135916.48 184.93
-9755656.39 5135923.34 185.23
-9755659.26 5135924.25 186.89
-9755653.12 5135919.75 185.22
-9755661.11 5135920.02 186.86
-9755650.21 5135926.29 184.87
-9755649.87 5135920.09 184.91
-9755646.58 5135922.97 184.90
-9755643.19 5135916.76 185.21
-9755643.43 5135919.71 185.20
-9755643.11 5135922.94 185.20
-9755656.31 5135933.07 185.22
-9755656.35 5135929.79 185.22
-9755663.23 5135909.78 185.06
-9755669.67 5135910.04 185.08
-9755652.90 5135906.76 185.24
-9755649.73 5135903.41 184.89
-9755646.73 5135906.68 184.90
-9755646.71 5135909.95 184.91
-9755639.90 5135916.70 185.07
-9755636.89 5135923.22 185.10
-9755640.05 5135929.43 185.08
-9755630.19 5135913.15 185.15
-9755623.69 5135913.21 182.37
-9755620.17 5135913.25 182.26
-9755617.16 5135913.21 182.23
-9755626.89 5135923.18 184.68
-9755630.15 5135916.69 185.16
-9755623.31 5135926.23 182.28
-9755623.28 5135923.31 182.30
-9755626.47 5135926.57 182.48
-9755633.35 5135926.39 185.16
-9755620.08 5135922.98 182.25
-9755616.82 5135922.94 182.24
-9755616.87 5135916.73 182.23
-9755616.82 5135926.16 182.26
-9755613.64 5135919.65 182.25
-9755630.09 5135929.39 185.12
-9755623.59 5135929.79 182.37
-9755617.10 5135929.77 182.27
-9755636.40 5135906.66 185.11
-9755639.97 5135903.41 185.12
-9755626.67 5135906.58 184.68
-9755623.71 5135909.91 182.37
-9755623.71 5135906.66 182.39
-9755633.53 5135903.37 185.12
-9755626.67 5135903.32 184.67
-9755630.30 5135903.60 185.15
-9755610.34 5135919.64 182.21
-9755607.15 5135919.62 182.20
-9755597.09 5135913.39 182.18
-9755603.61 5135916.35 182.19
-9755600.34 5135919.89 182.19
-9755600.31 5135922.90 182.19
-9755598.36 5135915.45 193.81
-9755599.17 5135915.47 189.56
-9755598.75 5135914.72 193.83
-9755587.34 5135926.60 182.11
-9755593.82 5135920.14 182.14
-9755590.63 5135923.05 182.13
-9755583.86 5135913.03 182.11
-9755600.57 5135929.71 182.16
-9755610.16 5135909.63 182.22
-9755610.18 5135903.38 182.24
-9755610.42 5135906.36 182.22
-9755600.69 5135906.84 182.19
-9755597.18 5135906.28 182.17
-9755600.38 5135903.60 182.19
-9755603.39 5135903.27 182.20
-9755590.35 5135909.76 182.14
-9755587.18 5135909.80 182.12
-9755593.67 5135906.85 182.16
-9755590.73 5135903.24 182.12
-9755580.88 5135920.04 182.10
-9755580.57 5135926.28 182.08
-9755580.64 5135913.26 182.06
-9755574.12 5135913.23 182.05
-9755570.56 5135913.45 182.02
-9755577.64 5135913.26 182.06
-9755564.44 5135913.12 182.05
-9755561.18 5135913.17 182.03
-9755577.59 5135923.05 182.08
-9755574.37 5135923.28 182.06
-9755564.40 5135916.43 182.02
-9755560.84 5135919.68 182.02
-9755557.52 5135922.88 182.01
-9755554.30 5135926.44 182.02
-9755577.28 5135929.56 182.10
-9755577.45 5135910.00 182.08
-9755580.66 5135903.19 182.09
-9755577.47 5135903.21 182.11
-9755560.92 5135906.38 182.04
-9755554.05 5135916.40 181.97
-9755550.92 5135913.10 181.92
-9755544.66 5135913.12 182.02
-9755534.36 5135913.26 182.05
-9755531.12 5135912.98 181.99
-9755544.63 5135919.58 182.10
-9755551.34 5135926.42 182.04
-9755544.62 5135922.85 182.12
-9755544.30 5135926.40 182.13
-9755534.56 5135923.38 182.08
-9755541.10 5135919.86 182.13
-9755541.43 5135916.62 182.08
-9755537.82 5135919.50 182.15
-9755534.65 5135919.53 182.08
-9755544.28 5135929.92 182.09
-9755528.02 5135929.87 181.76
-9755554.44 5135903.36 182.09
-9755547.63 5135906.51 182.01
-9755537.63 5135906.80 182.12
-9755531.13 5135903.22 182.05
-9755518.29 5135923.29 181.25
-9755521.36 5135916.52 181.44
-9755504.86 5135916.44 180.71
-9755507.98 5135926.22 180.67
-9755511.55 5135926.25 180.67
-9755513.41 5135917.00 190.06
-9755513.40 5135919.81 190.00
-9755513.35 5135925.20 189.80
-9755520.99 5135930.20 185.42
-9755521.04 5135931.29 187.19
-9755511.52 5135929.53 180.66
-9755514.78 5135929.80 180.97
-9755524.34 5135909.97 181.83
-9755524.40 5135906.75 181.90
-9755518.50 5135904.61 190.42
-9755517.97 5135908.92 185.29
-9755518.91 5135908.45 186.93
-9755514.89 5135906.55 184.83
-9755514.61 5135906.71 180.99
-9755511.68 5135906.75 180.87
-9755515.54 5135903.76 187.66
-9755510.21 5135908.23 190.45
-9755510.45 5135909.40 190.38
-9755923.39 5135900.00 191.61
-9755919.78 5135899.86 191.66
-9755923.19 5135896.99 191.73
-9755916.70 5135903.27 191.81
-9755916.67 5135896.59 188.38
-9755920.34 5135893.67 191.71
-9755916.66 5135900.05 191.67
-9755920.33 5135899.68 184.86
-9755923.13 5135899.76 188.62
-9755917.24 5135896.90 191.87
-9755923.38 5135893.36 188.19
-9755923.49 5135900.58 181.57
-9755917.31 5135903.19 180.89
-9755923.35 5135903.29 191.51
-9755919.26 5135891.17 189.42
-9755923.64 5135903.32 181.36
-9755920.01 5135900.18 181.01
-9755916.59 5135893.41 185.57
-9755916.84 5135896.92 186.63
-9755922.99 5135903.38 194.02
-9755921.39 5135900.55 194.30
-9755924.10 5135897.83 193.30
-9755916.90 5135902.72 193.79
-9755919.48 5135891.62 191.45
-9755916.09 5135900.77 193.26
-9755922.26 5135900.59 194.01
-9755917.19 5135897.83 193.31
-9755918.11 5135891.20 188.51
-9755922.68 5135895.53 186.64
-9755913.59 5135903.16 191.33
-9755913.31 5135896.75 187.99
-9755913.44 5135899.92 188.76
-9755913.67 5135903.07 188.34
-9755913.28 5135899.86 180.75
-9755910.37 5135896.86 185.19
-9755910.04 5135896.84 180.79
-9755910.34 5135904.24 188.61
-9755923.14 5135883.51 181.75
-9755916.88 5135880.29 180.99
-9755916.61 5135883.61 180.65
-9755919.85 5135880.07 180.94
-9755916.39 5135877.03 184.77
-9755910.39 5135886.84 180.71
-9755906.83 5135890.01 180.77
-9755907.08 5135899.80 180.86
-9755903.27 5135896.81 180.80
-9755911.49 5135903.51 190.45
-9755903.24 5135903.36 180.93
-9755911.01 5135898.38 191.50
-9755902.22 5135891.28 185.46
-9755900.21 5135900.01 181.49
-9755900.08 5135890.20 191.54
-9755900.30 5135903.61 181.01
-9755910.32 5135903.67 186.25
-9755900.66 5135904.48 189.55
-9755896.90 5135890.10 191.55
-9755893.99 5135890.29 185.12
-9755883.92 5135890.16 180.94
-9755890.63 5135896.51 184.99
-9755893.87 5135896.64 185.07
-9755893.75 5135903.52 182.00
-9755890.56 5135903.26 181.14
-9755896.94 5135895.54 185.56
-9755890.53 5135899.98 181.13
-9755895.11 5135890.56 186.86
-9755887.02 5135899.96 181.12
-9755883.72 5135899.96 180.97
-9755883.88 5135893.20 180.96
-9755888.56 5135898.51 183.60
-9755899.65 5135904.65 185.95
-9755907.19 5135880.70 185.02
-9755907.22 5135876.88 188.37
-9755902.80 5135882.29 187.97
-9755903.58 5135882.96 184.92
-9755908.83 5135882.07 183.52
-9755903.14 5135880.12 190.32
-9755907.22 5135879.21 190.00
-9755900.24 5135877.28 184.94
-9755893.64 5135886.81 185.29
-9755896.88 5135880.36 181.87
-9755899.65 5135886.74 191.25
-9755897.31 5135884.19 190.26
-9755890.41 5135880.46 181.05
-9755891.36 5135884.19 184.44
-9755895.04 5135885.04 186.82
-9755894.59 5135886.95 187.18
-9755899.06 5135885.04 190.68
-9755877.38 5135893.37 180.94
-9755874.03 5135899.95 180.97
-9755854.11 5135890.01 181.06
-9755863.80 5135896.86 181.07
-9755870.57 5135893.08 181.00
-9755857.25 5135900.10 181.09
-9755853.80 5135896.85 181.06
-9755853.98 5135903.37 181.07
-9755877.43 5135886.89 180.88
-9755873.90 5135883.35 180.86
-9755854.12 5135880.25 181.06
-9755857.63 5135883.52 181.06
-9755857.32 5135886.72 181.07
-9755854.43 5135876.91 181.06
-9755847.56 5135893.48 181.01
-9755844.36 5135889.99 181.04
-9755841.09 5135893.56 180.98
-9755834.58 5135900.26 180.91
-9755824.29 5135896.66 181.02
-9755821.28 5135896.91 181.04
-9755850.85 5135880.20 181.03
-9755851.07 5135886.78 181.05
-9755850.82 5135883.80 181.05
-9755847.66 5135880.14 181.05
-9755837.65 5135877.23 181.01
-9755824.37 5135886.90 181.03
-9755824.60 5135880.33 181.01
-9755827.50 5135886.92 181.03
-9755827.58 5135883.35 181.03
-9755824.41 5135877.34 181.04
-9755821.06 5135890.45 181.04
-9755801.54 5135890.00 180.86
-9755814.77 5135900.12 181.03
-9755811.29 5135896.81 181.01
-9755811.34 5135893.59 180.98
-9755808.30 5135900.07 181.02
-9755797.99 5135893.52 180.95
-9755801.50 5135896.53 180.94
-9755801.27 5135893.57 180.91
-9755794.66 5135896.47 181.07
-9755801.22 5135903.35 181.03
-9755794.79 5135900.10 181.12
-9755821.04 5135886.78 181.03
-9755814.70 5135880.26 181.01
-9755811.44 5135880.28 180.97
-9755811.39 5135883.54 180.97
-9755804.85 5135886.78 180.88
-9755801.65 5135876.99 180.86
-9755788.05 5135889.91 181.66
-9755771.84 5135890.04 183.85
-9755781.53 5135886.90 181.98
-9755768.60 5135889.92 185.05
-9755787.97 5135896.72 181.60
-9755781.74 5135896.67 181.79
-9755788.40 5135896.25 183.66
-9755784.74 5135899.94 181.68
-9755789.82 5135894.97 183.96
-9755784.99 5135903.47 181.58
-9755781.72 5135903.17 181.62
-9755774.41 5135903.25 185.37
-9755778.50 5135900.20 182.09
-9755778.27 5135893.66 182.28
-9755775.62 5135899.94 182.55
-9755769.21 5135899.55 187.56
-9755775.64 5135897.16 182.66
-9755771.89 5135900.21 187.09
-9755768.54 5135897.06 184.66
-9755774.15 5135889.71 183.95
-9755769.33 5135902.86 187.05
-9755761.69 5135900.27 184.74
-9755761.74 5135903.53 184.74
-9755791.60 5135876.93 181.14
-9755784.83 5135883.66 182.01
-9755790.95 5135876.87 183.58
-9755775.39 5135886.56 182.80
-9755771.41 5135877.31 187.91
-9755778.36 5135883.30 182.16
-9755768.54 5135883.36 185.23
-9755773.94 5135879.44 187.59
-9755774.59 5135883.47 187.59
-9755768.37 5135876.94 185.07
-9755768.77 5135885.57 187.56
-9755774.73 5135885.92 187.53
-9755769.93 5135879.32 187.38
-9755773.38 5135880.89 183.33
-9755772.70 5135886.33 183.30
-9755765.11 5135883.72 184.61
-9755765.13 5135877.21 184.49
-9755761.83 5135886.92 184.59
-9755748.88 5135886.80 185.02
-9755758.26 5135893.42 184.75
-9755758.51 5135903.17 184.83
-9755755.24 5135899.92 184.89
-9755752.03 5135893.41 184.98
-9755748.52 5135896.63 185.09
-9755748.83 5135893.65 185.09
-9755742.35 5135896.88 185.03
-9755748.48 5135903.45 185.10
-9755750.19 5135897.79 199.74
-9755745.51 5135903.14 185.16
-9755735.56 5135886.76 185.02
-9755748.63 5135880.36 185.00
-9755742.11 5135880.01 185.02
-9755735.61 5135883.51 185.04
-9755725.92 5135886.95 186.67
-9755725.62 5135889.99 184.99
-9755722.28 5135889.96 185.04
-9755722.56 5135900.03 185.04
-9755725.46 5135900.07 185.04
-9755722.40 5135893.19 185.05
-9755723.00 5135896.15 186.99
-9755715.79 5135896.76 185.03
-9755718.97 5135899.94 184.99
-9755722.29 5135893.39 186.77
-9755726.12 5135893.74 186.79
-9755722.31 5135886.59 186.68
-9755725.82 5135903.02 185.00
-9755712.54 5135886.71 185.08
-9755712.57 5135893.15 185.12
-9755705.83 5135893.11 185.11
-9755705.73 5135899.93 185.11
-9755732.39 5135883.53 184.99
-9755722.70 5135880.19 185.01
-9755719.07 5135880.70 186.68
-9755719.41 5135883.38 186.96
-9755722.32 5135883.88 186.67
-9755720.33 5135886.53 186.68
-9755721.87 5135875.97 186.67
-9755712.60 5135883.65 185.08
-9755705.84 5135883.35 185.16
-9755705.86 5135876.87 185.13
-9755702.54 5135886.85 185.05
-9755689.66 5135886.79 184.96
-9755702.87 5135890.11 185.05
-9755699.28 5135896.68 185.06
-9755699.04 5135893.37 185.05
-9755689.51 5135893.31 184.96
-9755699.28 5135903.46 185.04
