-9755675.33 5135754.36 184.97
-9755705.26 5135726.12 185.83
-9755700.24 5135732.45 185.68
-9755698.45 5135732.63 185.78
-9755700.29 5135731.13 185.77
-9755701.55 5135729.57 186.20
-9755698.54 5135731.28 185.94
-9755703.74 5135739.25 186.31
-9755698.47 5135729.49 186.15
-9755693.73 5135739.37 185.01
-9755694.92 5135740.87 185.00
-9755691.31 5135741.33 186.13
-9755691.64 5135739.38 184.97
-9755696.96 5135734.38 185.01
-9755697.01 5135732.88 184.97
-9755691.67 5135736.08 184.98
-9755694.03 5135729.59 185.01
-9755699.30 5135736.36 184.97
-9755701.41 5135734.65 185.01
-9755697.85 5135733.45 185.01
-9755690.31 5135731.20 186.21
-9755690.20 5135733.11 185.95
-9755690.16 5135741.15 184.97
-9755690.49 5135741.21 186.08
-9755705.15 5135749.27 185.01
-9755705.13 5135746.19 185.01
-9755704.92 5135747.72 185.00
-9755700.05 5135750.88 186.27
-9755698.43 5135742.82 186.18
-9755701.79 5135747.46 185.93
-9755700.19 5135742.65 186.26
-9755697.20 5135752.72 184.97
-9755695.11 5135751.18 185.00
-9755701.66 5135745.85 186.17
-9755698.07 5135750.65 185.00
-9755695.46 5135749.09 184.99
-9755691.95 5135744.38 185.00
-9755695.19 5135744.10 185.01
-9755695.17 5135745.86 185.01
-9755697.50 5135744.08 185.01
-9755695.44 5135747.71 185.00
-9755696.93 5135742.62 185.01
-9755697.79 5135742.96 185.01
-9755694.87 5135742.98 185.01
-9755697.80 5135743.86 185.01
-9755690.34 5135747.62 186.07
-9755690.45 5135742.83 186.12
-9755690.15 5135744.34 186.10
-9755681.96 5135727.68 185.00
-9755683.43 5135727.50 186.96
-9755676.97 5135727.75 184.96
-9755688.59 5135734.33 185.93
-9755680.30 5135729.43 185.50
-9755680.55 5135731.30 185.64
-9755685.76 5135732.85 185.64
-9755681.96 5135732.84 184.99
-9755679.74 5135727.98 185.01
-9755688.47 5135739.34 186.14
-9755685.44 5135737.85 185.38
-9755684.86 5135736.29 184.98
-9755678.73 5135731.13 185.47
-9755678.70 5135732.83 185.51
-9755686.96 5135739.30 184.97
-9755688.54 5135732.98 185.69
-9755686.90 5135737.56 184.97
-9755688.77 5135729.53 184.98
-9755686.66 5135729.28 184.96
-9755685.25 5135732.86 184.97
-9755680.48 5135732.77 185.54
-9755685.22 5135731.27 184.98
-9755688.75 5135741.13 185.00
-9755683.61 5135737.55 185.50
-9755685.17 5135734.63 185.00
-9755683.66 5135737.61 184.99
-9755684.96 5135737.88 184.95
-9755688.74 5135737.84 184.98
-9755686.96 5135733.08 184.98
-9755688.45 5135736.13 184.97
-9755682.02 5135739.19 186.75
-9755679.77 5135736.96 185.01
-9755681.99 5135731.29 184.98
-9755682.24 5135732.65 186.85
-9755686.76 5135731.02 184.99
-9755681.93 5135734.64 184.98
-9755683.72 5135740.77 185.49
-9755685.17 5135741.17 185.00
-9755680.52 5135737.77 186.76
-9755680.60 5135739.58 186.80
-9755680.39 5135728.91 186.75
-9755682.20 5135738.67 185.01
-9755688.71 5135733.04 187.35
-9755680.81 5135731.55 186.76
-9755677.17 5135732.52 185.00
-9755676.88 5135734.24 185.00
-9755677.00 5135731.01 185.01
-9755675.50 5135732.75 184.92
-9755680.60 5135741.37 186.79
-9755676.91 5135732.73 186.74
-9755675.19 5135734.49 184.92
-9755688.67 5135750.92 186.10
-9755685.41 5135747.55 185.00
-9755688.68 5135744.37 186.11
-9755685.58 5135752.89 185.99
-9755680.43 5135744.51 185.51
-9755680.50 5135742.61 185.50
-9755685.53 5135742.58 185.01
-9755683.59 5135752.55 186.92
-9755688.59 5135752.41 186.10
-9755687.54 5135745.81 186.13
-9755685.46 5135748.02 185.43
-9755688.32 5135752.70 184.99
-9755680.48 5135748.97 186.14
-9755682.07 5135752.61 184.99
-9755687.44 5135749.55 185.80
-9755685.14 5135752.86 186.92
-9755686.82 5135752.64 184.94
-9755683.64 5135750.88 185.44
-9755686.57 5135749.24 186.85
-9755683.78 5135742.57 185.42
-9755682.15 5135750.97 186.94
-9755678.74 5135752.79 186.23
-9755685.40 5135744.34 185.00
-9755682.27 5135749.25 186.92
-9755683.65 5135747.58 185.43
-9755688.58 5135749.33 186.11
-9755677.15 5135751.10 186.04
-9755677.35 5135748.94 186.25
-9755677.37 5135752.42 185.94
-9755677.17 5135750.81 185.00
-9755676.85 5135746.31 184.98
-9755676.95 5135742.40 186.82
-9755679.30 5135748.36 187.04
-9755677.17 5135746.66 186.94
-9755698.51 5135726.30 186.17
-9755703.57 5135725.92 185.89
-9755690.28 5135725.96 185.98
-9755691.81 5135726.34 184.96
-9755688.43 5135726.15 185.84
-9755687.06 5135726.25 184.99
-9755685.28 5135726.31 185.90
-9755682.10 5135725.89 185.79
-9755685.54 5135726.27 186.68
-9755680.31 5135726.38 186.91
-9755676.73 5135726.20 186.92
-9755672.11 5135754.06 185.42
-9755654.46 5135755.94 186.82
-9755658.77 5135754.20 185.61
-9755647.88 5135754.18 185.04
-9755674.00 5135727.95 185.34
-9755663.72 5135727.94 185.14
-9755668.74 5135729.18 185.07
-9755671.72 5135732.60 186.71
-9755668.74 5135731.20 185.05
-9755670.92 5135737.73 185.98
-9755672.23 5135732.71 186.24
-9755668.69 5135736.29 185.09
-9755670.47 5135730.96 184.91
-9755671.73 5135737.43 186.01
-9755672.31 5135734.48 185.87
-9755673.97 5135729.66 186.83
-9755665.47 5135731.22 185.10
-9755671.97 5135739.51 184.94
-9755670.71 5135739.47 186.46
-9755671.88 5135740.85 185.38
-9755673.86 5135731.19 186.76
-9755673.63 5135741.00 184.93
-9755670.58 5135741.05 186.43
-9755674.83 5135731.38 186.70
-9755670.67 5135733.06 186.16
-9755669.32 5135732.99 185.00
-9755663.70 5135729.43 185.14
-9755663.95 5135740.94 185.16
-9755663.97 5135737.45 185.14
-9755664.24 5135736.20 185.13
-9755675.30 5135752.67 185.73
-9755671.06 5135752.25 185.74
-9755673.94 5135742.46 185.42
-9755675.16 5135749.31 185.61
-9755665.39 5135752.79 185.11
-9755672.13 5135744.48 185.39
-9755672.11 5135747.78 185.40
-9755672.14 5135749.03 185.40
-9755673.64 5135750.85 184.96
-9755670.38 5135746.04 184.95
-9755670.82 5135744.33 186.28
-9755665.41 5135744.24 185.10
-9755670.67 5135747.81 184.95
-9755673.89 5135744.27 185.41
-9755665.41 5135742.75 185.11
-9755670.34 5135749.30 184.97
-9755673.66 5135742.28 184.94
-9755673.64 5135746.08 185.40
-9755671.05 5135748.97 185.91
-9755670.72 5135746.28 186.01
-9755673.61 5135749.40 185.39
-9755673.96 5135747.55 185.40
-9755663.65 5135745.69 185.12
-9755663.87 5135752.48 185.14
-9755663.89 5135749.54 185.13
-9755662.23 5135727.62 185.07
-9755657.24 5135727.98 185.63
-9755655.72 5135727.79 186.86
-9755654.29 5135727.68 185.71
-9755653.97 5135727.82 187.00
-9755649.25 5135727.86 185.30
-9755662.26 5135729.40 185.08
-9755655.70 5135733.12 185.62
-9755652.47 5135729.65 185.30
-9755660.40 5135734.45 185.10
-9755662.21 5135736.21 185.09
-9755657.52 5135732.89 185.57
-9755658.66 5135739.80 185.73
-9755660.72 5135732.98 185.09
-9755657.24 5135739.69 185.58
-9755658.30 5135736.21 185.63
-9755652.14 5135736.13 185.31
-9755652.41 5135741.22 185.30
-9755658.99 5135732.62 185.11
-9755657.27 5135731.11 185.59
-9755658.98 5135729.32 185.10
-9755660.76 5135731.46 185.08
-9755655.72 5135739.22 185.60
-9755658.56 5135736.03 186.77
-9755650.74 5135732.90 185.28
-9755647.47 5135734.69 185.07
-9755648.90 5135731.36 185.29
-9755648.94 5135732.60 185.29
-9755647.74 5135739.37 185.07
-9755650.71 5135734.39 185.29
-9755648.94 5135737.54 185.29
-9755648.88 5135739.40 185.27
-9755645.70 5135736.09 184.99
-9755646.91 5135727.54 184.98
-9755645.67 5135732.81 184.97
-9755655.61 5135747.84 187.08
-9755657.23 5135752.62 185.60
-9755662.09 5135749.24 185.07
-9755660.61 5135751.05 185.09
-9755657.66 5135742.92 185.59
-9755655.62 5135747.45 185.57
-9755660.69 5135747.70 185.11
-9755652.42 5135752.43 185.31
-9755660.62 5135745.97 185.09
-9755658.64 5135747.66 186.89
-9755653.78 5135741.49 184.93
-9755657.93 5135740.44 186.73
-9755654.97 5135744.22 186.79
-9755650.64 5135747.38 185.29
-9755648.90 5135742.64 185.28
-9755649.15 5135750.62 185.30
-9755647.40 5135742.89 185.00
-9755650.96 5135742.98 185.29
-9755647.99 5135742.95 185.09
-9755645.61 5135749.11 184.96
-9755645.62 5135747.34 184.98
-9755645.58 5135751.17 184.95
-9755645.61 5135744.43 184.97
-9755647.05 5135747.68 184.97
-9755647.07 5135744.09 184.97
-9755674.91 5135726.50 186.82
-9755675.52 5135725.94 184.92
-9755668.75 5135726.22 185.06
-9755657.58 5135726.04 186.98
-9755632.86 5135754.41 185.15
-9755634.38 5135754.12 185.11
-9755631.13 5135754.38 185.13
-9755629.38 5135754.37 185.12
-9755625.89 5135754.07 184.90
-9755626.70 5135754.09 185.08
-9755624.29 5135754.35 184.69
-9755619.33 5135754.18 181.76
-9755622.56 5135754.20 181.93
-9755644.02 5135727.83 184.89
-9755642.50 5135729.61 184.96
-9755642.73 5135737.30 184.99
-9755643.67 5135732.86 184.96
-9755642.45 5135732.55 185.00
-9755642.44 5135737.89 185.03
-9755642.44 5135735.80 185.01
-9755642.22 5135732.84 185.02
-9755644.20 5135741.12 184.97
-9755642.45 5135741.10 185.01
-9755642.42 5135742.66 185.00
-9755638.74 5135749.33 186.23
-9755641.80 5135747.87 185.04
-9755643.85 5135746.19 184.98
-9755635.67 5135727.75 185.06
-9755633.95 5135727.77 185.10
-9755619.81 5135727.91 187.13
-9755617.96 5135727.84 181.47
-9755622.14 5135727.97 185.42
-9755620.75 5135726.75 186.69
-9755629.48 5135729.22 185.14
-9755629.27 5135732.77 185.12
-9755627.38 5135737.84 185.15
-9755635.70 5135735.82 185.06
-9755629.17 5135736.03 185.12
-9755630.63 5135739.29 185.11
-9755630.96 5135734.51 185.06
-9755625.66 5135736.02 184.94
-9755633.92 5135731.27 185.11
-9755629.49 5135739.28 185.13
-9755624.44 5135733.04 184.74
-9755630.96 5135731.30 185.05
-9755627.65 5135741.33 185.12
-9755625.97 5135731.30 184.94
-9755626.31 5135729.51 185.07
-9755629.16 5135740.76 185.12
-9755636.27 5135733.99 185.01
-9755622.70 5135737.82 182.61
-9755622.70 5135736.17 182.57
-9755622.70 5135728.17 182.22
-9755622.64 5135731.06 182.50
-9755619.20 5135732.62 181.62
-9755621.15 5135739.71 181.73
-9755619.20 5135729.38 184.17
-9755622.67 5135729.58 182.55
-9755619.43 5135734.65 181.64
-9755620.90 5135734.38 181.64
-9755622.48 5135735.62 184.19
-9755622.39 5135731.19 184.22
-9755617.95 5135726.07 181.43
-9755622.72 5135732.85 182.47
-9755621.80 5135737.65 181.74
-9755620.96 5135731.40 181.61
-9755619.13 5135741.19 181.58
-9755617.39 5135729.27 181.49
-9755617.89 5135739.14 181.55
-9755622.77 5135740.81 182.50
-9755622.71 5135734.31 182.45
-9755622.62 5135727.85 181.56
-9755619.47 5135731.06 181.55
-9755616.21 5135731.07 181.39
-9755618.84 5135728.19 181.50
-9755622.92 5135741.02 184.18
-9755615.90 5135739.34 181.56
-9755635.64 5135751.19 185.11
-9755635.90 5135749.41 185.08
-9755632.65 5135745.88 185.13
-9755627.65 5135752.57 185.15
-9755635.62 5135745.88 185.07
-9755635.83 5135742.57 185.09
-9755625.84 5135745.78 184.93
-9755630.91 5135742.60 185.10
-9755627.71 5135744.02 185.14
-9755626.19 5135742.50 185.04
-9755627.93 5135751.13 185.14
-9755632.89 5135752.59 185.14
-9755634.08 5135752.39 185.12
-9755625.86 5135749.59 184.89
-9755634.38 5135749.09 185.10
-9755626.70 5135752.68 185.10
-9755624.38 5135747.57 184.71
-9755626.46 5135745.49 185.06
-9755624.15 5135742.49 184.75
-9755636.23 5135742.05 185.01
-9755624.37 5135750.75 184.70
-9755622.63 5135752.93 184.16
-9755622.83 5135742.84 183.97
-9755622.72 5135742.58 182.79
-9755622.78 5135744.32 183.97
-9755622.79 5135747.70 182.94
-9755620.89 5135744.45 181.76
-9755621.10 5135752.74 181.90
-9755621.10 5135747.41 181.81
-9755620.80 5135750.93 181.87
-9755619.62 5135746.17 181.67
-9755622.68 5135746.14 182.80
-9755619.38 5135742.61 181.62
-9755622.73 5135747.25 184.19
-9755619.38 5135749.17 181.72
-9755615.79 5135752.42 181.75
-9755622.84 5135752.44 181.92
-9755619.34 5135744.16 181.64
-9755622.88 5135750.69 182.70
-9755617.58 5135752.44 181.75
-9755622.65 5135746.02 184.51
-9755616.08 5135750.90 181.76
-9755620.24 5135748.86 181.72
-9755623.56 5135749.55 181.91
-9755644.24 5135726.39 184.88
-9755621.25 5135726.26 184.22
-9755617.77 5135726.23 182.42
-9755619.28 5135726.17 184.58
-9755618.37 5135726.81 185.32
-9755607.86 5135754.44 181.70
-9755602.84 5135754.06 181.63
-9755599.58 5135754.40 187.39
-9755604.59 5135754.14 181.65
-9755597.78 5135754.26 187.08
-9755593.34 5135754.73 187.57
-9755592.50 5135753.50 181.73
-9755588.05 5135754.02 181.56
-9755596.16 5135754.01 187.60
-9755593.06 5135754.06 181.69
-9755592.93 5135754.58 185.49
-9755592.77 5135754.60 188.93
-9755597.47 5135754.65 181.73
-9755595.14 5135755.44 185.00
-9755596.75 5135754.20 185.84
-9755614.47 5135726.02 181.28
-9755610.88 5135727.79 181.38
-9755614.71 5135734.58 181.49
-9755614.41 5135732.52 181.43
-9755612.90 5135739.30 181.58
-9755612.88 5135735.72 181.51
-9755610.89 5135729.34 181.39
-9755612.87 5135740.88 181.60
-9755611.16 5135734.28 181.49
-9755609.41 5135729.61 181.43
-9755610.88 5135731.10 181.44
-9755609.38 5135740.86 181.59
-9755614.34 5135744.35 181.64
-9755612.54 5135747.62 181.67
-9755615.82 5135749.12 181.71
-9755614.59 5135749.12 181.70
-9755614.00 5135750.95 181.71
-9755612.86 5135744.39 181.64
-9755612.48 5135752.04 181.71
-9755611.14 5135747.61 181.65
-9755612.29 5135753.51 181.72
-9755609.31 5135747.67 181.65
-9755609.32 5135752.39 181.69
-9755609.55 5135749.09 181.65
-9755599.82 5135727.74 192.62
-9755601.29 5135726.02 187.32
-9755603.15 5135727.45 186.30
-9755601.24 5135727.99 189.27
-9755599.57 5135726.16 189.30
-9755606.48 5135726.27 181.34
-9755603.08 5135727.98 187.43
-9755597.87 5135727.71 192.64
-9755600.90 5135726.69 192.45
-9755597.82 5135726.27 192.40
-9755591.59 5135726.25 192.52
-9755587.96 5135726.25 189.14
-9755597.86 5135727.76 187.10
-9755593.05 5135726.06 190.99
-9755589.75 5135726.45 188.76
-9755593.04 5135726.23 192.41
-9755594.94 5135725.94 190.83
-9755591.44 5135727.61 190.48
-9755596.48 5135727.64 190.52
-9755596.49 5135726.07 190.77
-9755589.86 5135728.17 190.99
-9755597.97 5135726.07 187.62
-9755589.58 5135725.92 187.30
-9755586.78 5135726.16 188.77
-9755593.24 5135725.77 189.18
-9755589.80 5135727.87 189.01
-9755590.18 5135727.43 193.31
-9755596.94 5135727.99 189.49
-9755592.96 5135726.19 181.47
-9755595.92 5135726.18 189.35
-9755589.66 5135727.98 192.32
-9755589.24 5135727.74 186.31
-9755598.18 5135727.69 193.78
-9755588.23 5135727.95 181.39
-9755599.44 5135732.54 192.95
-9755599.74 5135729.25 192.86
-9755602.51 5135728.35 188.54
-9755599.84 5135731.42 192.36
-9755600.10 5135729.54 190.87
-9755599.76 5135737.41 188.86
-9755601.28 5135731.19 192.28
-9755599.44 5135732.90 185.51
-9755599.29 5135728.31 194.04
-9755599.94 5135732.81 181.34
-9755597.77 5135737.89 190.72
-9755609.34 5135736.33 181.53
-9755601.44 5135729.79 187.33
-9755602.84 5135735.76 181.42
-9755604.34 5135732.78 181.44
-9755599.97 5135737.57 186.48
-9755599.17 5135739.13 190.61
-9755604.31 5135739.30 181.49
-9755606.12 5135739.28 181.54
-9755601.17 5135729.58 181.33
-9755597.90 5135732.85 192.31
-9755600.98 5135732.67 189.36
-9755602.98 5135733.05 189.04
-9755601.10 5135738.90 186.31
-9755601.36 5135734.46 187.22
-9755599.77 5135735.65 190.31
-9755599.51 5135737.64 190.59
-9755599.49 5135734.42 186.14
-9755606.42 5135737.86 181.52
-9755599.81 5135734.48 190.92
-9755599.59 5135739.92 186.28
-9755599.46 5135729.67 189.61
-9755601.19 5135737.90 186.36
-9755599.65 5135741.17 190.69
-9755599.00 5135736.16 186.69
-9755602.61 5135741.11 181.48
-9755598.37 5135733.27 188.92
-9755601.18 5135729.19 192.15
-9755597.96 5135729.60 192.37
-9755597.83 5135737.50 181.41
-9755604.31 5135741.10 181.52
-9755604.29 5135731.45 190.23
-9755603.79 5135728.67 187.01
-9755598.49 5135729.21 187.36
-9755597.75 5135731.25 181.27
-9755598.18 5135734.20 187.98
-9755601.64 5135741.39 187.08
-9755597.73 5135729.48 188.89
-9755598.00 5135736.16 192.76
-9755598.20 5135734.81 186.03
-9755600.85 5135733.94 190.44
-9755602.20 5135733.70 188.38
-9755596.29 5135734.51 189.02
-9755594.76 5135736.32 192.43
-9755588.00 5135731.20 187.75
-9755592.64 5135737.72 192.53
-9755588.32 5135737.74 187.35
-9755589.92 5135736.28 181.42
-9755589.63 5135737.74 189.37
-9755596.33 5135734.41 192.41
-9755593.22 5135733.10 193.85
-9755589.91 5135731.44 192.71
-9755587.97 5135731.51 192.18
-9755591.56 5135739.55 189.15
-9755594.76 5135737.62 192.11
-9755594.77 5135736.05 190.99
-9755588.26 5135733.05 189.07
-9755590.04 5135731.04 190.62
-9755588.15 5135731.34 190.78
-9755589.79 5135734.38 193.14
-9755588.24 5135732.95 190.87
-9755591.57 5135732.91 193.98
-9755594.68 5135739.31 192.37
-9755594.37 5135729.55 181.51
-9755594.50 5135732.71 193.85
-9755593.26 5135736.12 190.70
-9755591.48 5135734.32 190.94
-9755593.00 5135731.05 193.87
-9755587.83 5135732.68 181.41
-9755589.70 5135739.41 189.56
-9755589.69 5135736.20 189.35
-9755596.09 5135738.08 190.72
-9755590.59 5135739.79 187.85
-9755594.65 5135741.34 192.18
-9755598.04 5135738.97 192.44
-9755590.85 5135730.72 192.78
-9755594.66 5135729.46 194.06
-9755594.51 5135729.50 192.19
-9755592.97 5135729.48 181.51
-9755594.67 5135733.00 192.68
-9755591.53 5135737.69 194.11
-9755589.76 5135729.46 187.54
-9755591.40 5135739.92 192.32
-9755596.22 5135731.25 193.69
-9755588.53 5135730.89 188.78
-9755589.60 5135741.16 185.92
-9755591.06 5135732.77 190.80
-9755589.70 5135736.35 192.50
-9755594.71 5135739.50 181.67
-9755589.77 5135731.25 187.99
-9755589.87 5135734.18 181.41
-9755588.24 5135741.02 190.84
-9755587.87 5135735.93 181.45
-9755586.23 5135734.52 186.87
-9755596.31 5135741.06 192.35
-9755588.23 5135732.15 192.23
-9755591.81 5135739.09 190.52
-9755595.99 5135741.04 190.68
-9755596.29 5135731.40 191.16
-9755592.43 5135734.35 191.15
-9755591.44 5135736.19 190.73
-9755590.80 5135734.10 188.00
-9755596.38 5135739.54 181.61
-9755591.37 5135740.94 192.55
-9755595.06 5135737.90 189.51
-9755592.99 5135729.67 193.30
-9755591.66 5135734.60 189.15
-9755594.92 5135734.81 189.58
-9755591.42 5135731.20 193.68
-9755589.94 5135739.30 192.38
-9755589.77 5135734.43 186.09
-9755596.28 5135727.66 193.64
-9755589.44 5135737.60 191.35
-9755588.08 5135729.37 190.66
-9755586.40 5135739.06 189.36
-9755591.39 5135739.53 181.62
-9755594.49 5135737.81 194.05
-9755587.88 5135737.65 189.44
-9755586.76 5135734.12 188.48
-9755592.86 5135738.02 193.80
-9755596.17 5135736.23 193.39
-9755586.44 5135740.80 187.73
-9755596.28 5135731.24 188.58
-9755589.54 5135737.84 187.78
-9755594.62 5135734.26 181.55
-9755591.39 5135736.14 183.77
-9755595.64 5135733.06 193.87
-9755588.53 5135736.20 189.46
-9755591.40 5135741.20 186.56
-9755591.42 5135740.78 190.76
-9755592.54 5135741.01 188.82
-9755593.03 5135738.93 187.35
-9755588.27 5135730.79 185.45
-9755594.07 5135740.70 186.54
-9755589.67 5135740.71 181.48
-9755595.92 5135739.78 193.37
-9755595.53 5135733.41 186.20
-9755591.36 5135738.18 185.74
-9755589.75 5135741.11 190.81
-9755591.48 5135735.21 183.36
-9755595.17 5135731.13 189.39
-9755597.11 5135736.17 189.14
-9755589.83 5135736.29 193.94
-9755589.87 5135733.67 193.48
-9755596.40 5135740.67 187.57
-9755586.53 5135731.00 187.70
-9755588.37 5135738.23 186.44
-9755594.92 5135735.98 188.52
-9755594.94 5135731.36 188.30
-9755594.41 5135740.72 188.84
-9755596.13 5135733.03 181.55
-9755592.82 5135736.18 193.42
-9755588.64 5135733.94 191.18
-9755586.26 5135739.30 187.18
-9755594.72 5135740.77 181.69
-9755589.95 5135741.10 192.44
-9755596.19 5135738.71 188.68
-9755586.35 5135737.65 189.36
-9755586.58 5135739.42 181.48
-9755595.10 5135729.38 187.38
-9755592.91 5135741.17 190.90
-9755586.42 5135734.67 181.44
-9755588.47 5135732.61 184.78
-9755586.51 5135732.81 185.59
-9755586.78 5135738.16 186.25
-9755589.72 5135736.82 187.31
-9755586.57 5135741.14 190.81
-9755587.94 5135738.44 191.93
-9755591.14 5135740.92 187.60
-9755587.94 5135740.73 192.15
-9755586.42 5135736.53 188.72
-9755586.43 5135730.99 181.43
-9755586.47 5135727.69 181.38
-9755589.99 5135739.00 187.99
-9755588.43 5135731.12 184.74
-9755590.43 5135739.62 193.30
-9755597.69 5135742.41 190.52
-9755604.30 5135749.34 181.60
-9755602.86 5135750.86 181.60
-9755599.94 5135744.50 189.45
-9755601.41 5135746.12 181.54
-9755601.55 5135744.03 187.07
-9755602.87 5135749.40 181.58
-9755607.86 5135744.39 181.60
-9755601.39 5135742.73 188.96
-9755602.83 5135744.07 181.54
-9755604.60 5135747.58 181.58
-9755606.06 5135746.12 181.60
-9755601.10 5135741.05 188.59
-9755604.57 5135750.89 181.62
-9755600.01 5135744.18 190.13
-9755600.01 5135743.52 186.24
-9755601.35 5135742.61 186.96
-9755597.48 5135743.33 186.05
-9755598.57 5135744.14 184.83
-9755598.47 5135745.43 189.17
-9755598.01 5135744.35 191.09
-9755598.08 5135746.37 181.51
-9755598.15 5135744.70 185.70
-9755598.21 5135745.60 184.79
-9755600.74 5135741.63 190.12
-9755588.15 5135742.74 190.84
-9755597.59 5135746.12 185.40
-9755589.58 5135742.92 190.94
-9755591.15 5135746.14 190.70
-9755593.13 5135742.91 192.20
-9755591.36 5135744.55 181.65
-9755591.55 5135744.36 190.60
-9755588.15 5135744.14 189.32
-9755591.07 5135750.93 186.01
-9755591.56 5135745.86 192.72
-9755589.93 5135744.46 190.85
-9755589.48 5135749.30 181.53
-9755594.75 5135746.34 187.07
-9755596.31 5135750.82 181.71
-9755592.94 5135746.22 186.11
-9755590.78 5135747.73 187.15
-9755596.13 5135745.95 188.86
-9755591.64 5135742.79 187.52
-9755594.84 5135747.82 181.75
-9755591.48 5135742.70 190.71
-9755593.08 5135747.84 189.01
-9755594.68 5135747.43 188.87
-9755596.26 5135742.62 189.44
-9755596.42 5135742.53 181.69
-9755588.06 5135746.00 188.83
-9755592.96 5135745.97 188.97
-9755591.45 5135743.08 192.31
-9755594.69 5135744.26 189.62
-9755589.61 5135750.71 185.94
-9755589.91 5135745.71 187.81
-9755594.65 5135742.89 192.08
-9755589.31 5135749.11 190.62
-9755588.12 5135745.72 181.53
-9755592.85 5135742.80 181.68
-9755592.99 5135744.22 190.72
-9755593.18 5135747.61 185.77
-9755591.47 5135744.14 192.32
-9755594.87 5135749.32 181.69
-9755589.16 5135742.33 185.88
-9755592.92 5135749.28 189.01
-9755591.66 5135748.02 186.05
-9755587.96 5135746.02 187.99
-9755592.95 5135744.40 192.36
-9755587.92 5135747.74 187.70
-9755593.16 5135744.32 181.66
-9755587.95 5135746.28 190.88
-9755594.66 5135752.66 187.57
-9755591.41 5135743.36 186.66
-9755590.72 5135745.00 187.05
-9755588.19 5135744.35 190.76
-9755594.85 5135752.29 181.67
-9755586.29 5135747.81 181.52
-9755596.38 5135745.59 185.75
-9755591.34 5135749.51 185.98
-9755594.66 5135742.22 187.49
-9755595.76 5135747.88 181.73
-9755596.93 5135746.49 184.49
-9755588.85 5135740.85 186.16
-9755592.74 5135750.93 184.58
-9755586.69 5135746.32 187.51
-9755592.61 5135745.93 190.68
-9755589.83 5135750.72 181.53
-9755588.09 5135751.04 181.54
-9755596.12 5135744.81 181.73
-9755593.16 5135751.09 193.23
-9755586.40 5135744.37 190.94
-9755588.15 5135747.59 181.53
-9755592.80 5135747.54 181.66
-9755594.67 5135751.09 193.19
-9755591.01 5135749.31 181.49
-9755596.07 5135744.30 181.69
-9755586.45 5135742.81 187.57
-9755592.61 5135750.41 189.13
-9755596.07 5135744.50 189.34
-9755586.55 5135746.08 189.14
-9755586.31 5135749.31 181.54
-9755596.03 5135747.12 191.69
-9755589.81 5135746.11 181.51
-9755594.58 5135753.32 188.99
-9755594.64 5135744.29 188.13
-9755588.36 5135749.28 181.52
-9755586.33 5135742.48 181.50
-9755592.95 5135750.13 188.02
-9755594.64 5135746.02 189.47
-9755586.40 5135744.34 189.30
-9755588.19 5135749.19 186.02
-9755591.05 5135751.25 186.67
-9755591.28 5135751.09 184.92
-9755596.40 5135753.37 189.12
-9755587.11 5135747.57 190.94
-9755586.54 5135749.35 189.83
-9755593.19 5135749.53 184.79
-9755591.93 5135752.52 184.98
-9755594.72 5135752.10 193.17
-9755591.00 5135747.18 190.11
-9755595.71 5135740.99 193.73
-9755587.95 5135750.42 186.11
-9755596.33 5135747.32 190.68
-9755594.46 5135751.83 182.47
-9755588.77 5135750.47 190.59
-9755587.53 5135747.17 186.04
-9755596.10 5135745.34 187.83
-9755593.49 5135750.85 182.50
-9755597.71 5135742.01 192.29
-9755586.25 5135746.04 185.86
-9755588.13 5135748.65 187.69
-9755586.83 5135742.34 185.92
-9755590.54 5135744.70 186.42
-9755592.30 5135742.42 184.72
-9755592.19 5135750.08 185.00
-9755596.49 5135726.18 181.49
-9755588.20 5135726.19 181.38
-9755589.45 5135725.89 185.73
-9755594.35 5135725.92 188.31
-9755579.77 5135753.99 181.56
-9755578.35 5135754.29 181.55
-9755578.30 5135752.51 181.54
-9755576.61 5135752.49 181.57
-9755571.57 5135754.21 181.59
-9755581.32 5135752.78 181.54
-9755566.52 5135754.18 181.60
-9755561.81 5135752.68 181.58
-9755564.78 5135754.12 181.59
-9755561.85 5135754.48 181.60
-9755568.61 5135752.47 181.59
-9755584.68 5135726.18 181.39
-9755585.00 5135737.67 188.47
-9755584.67 5135734.46 187.42
-9755586.34 5135735.53 184.97
-9755584.72 5135729.46 181.43
-9755584.91 5135736.12 187.60
-9755584.93 5135740.91 187.42
-9755583.53 5135739.77 189.32
-9755583.23 5135741.28 187.38
-9755584.40 5135739.37 190.11
-9755583.45 5135735.96 181.45
-9755583.16 5135737.75 181.50
-9755583.24 5135740.92 189.11
-9755583.46 5135737.79 187.41
-9755584.28 5135739.60 185.61
-9755583.24 5135727.92 181.41
-9755583.82 5135736.60 187.85
-9755583.73 5135738.14 189.36
-9755584.93 5135746.12 185.75
-9755584.90 5135744.32 185.65
-9755585.19 5135747.11 189.40
-9755585.06 5135743.91 187.82
-9755585.00 5135741.12 190.26
-9755584.63 5135742.46 181.47
-9755584.61 5135744.42 189.03
-9755585.56 5135742.81 191.53
-9755583.16 5135744.08 188.78
-9755583.52 5135746.07 184.73
-9755584.91 5135743.45 185.17
-9755583.35 5135750.96 181.52
-9755583.55 5135743.95 185.70
-9755583.46 5135745.88 185.28
-9755582.74 5135740.89 186.29
-9755583.07 5135749.29 181.53
-9755583.48 5135743.11 184.85
-9755584.12 5135743.29 184.90
-9755579.94 5135726.10 181.41
-9755574.96 5135726.06 181.40
-9755578.24 5135726.14 181.40
-9755581.42 5135726.13 181.40
-9755570.22 5135726.09 181.37
-9755560.21 5135726.07 181.34
-9755566.39 5135726.07 181.36
-9755581.39 5135731.20 181.42
-9755574.62 5135732.94 181.43
-9755581.39 5135734.48 181.46
-9755578.17 5135730.87 181.41
-9755573.16 5135727.85 181.38
-9755571.34 5135737.67 181.45
-9755580.19 5135737.65 181.47
-9755578.20 5135739.13 181.44
-9755578.19 5135732.93 181.43
-9755577.89 5135736.15 181.45
-9755576.42 5135734.43 181.44
-9755579.87 5135740.99 181.47
-9755576.35 5135739.53 181.46
-9755576.44 5135729.41 181.41
-9755581.62 5135739.61 186.13
-9755573.16 5135730.84 181.41
-9755573.38 5135741.25 181.49
-9755578.46 5135737.71 181.46
-9755575.17 5135739.44 181.47
-9755581.64 5135740.96 181.48
-9755581.34 5135736.21 181.47
-9755581.96 5135739.45 187.77
-9755571.68 5135729.34 181.40
-9755571.45 5135728.15 181.39
-9755571.40 5135735.92 181.44
-9755583.34 5135737.95 186.47
-9755574.88 5135741.19 181.50
-9755563.10 5135731.36 181.37
-9755569.88 5135737.88 181.46
-9755563.66 5135734.64 181.40
-9755568.11 5135731.14 181.40
-9755561.67 5135734.31 181.40
-9755565.15 5135736.07 181.41
-9755565.17 5135727.85 181.37
-9755566.64 5135737.88 181.44
-9755568.17 5135734.69 181.41
-9755561.68 5135729.58 181.36
-9755568.38 5135732.91 181.41
-9755566.64 5135739.38 181.46
-9755566.68 5135731.09 181.38
-9755568.37 5135740.95 181.49
-9755566.65 5135729.33 181.37
-9755558.41 5135731.06 181.37
-9755558.40 5135735.80 181.42
-9755569.86 5135739.16 181.48
-9755558.43 5135727.76 181.35
-9755566.60 5135741.19 181.47
-9755560.13 5135741.13 181.47
-9755556.90 5135736.10 181.41
-9755581.58 5135747.75 181.52
-9755573.28 5135752.43 181.58
-9755581.94 5135741.28 187.82
-9755576.65 5135744.49 181.50
-9755574.86 5135747.42 181.54
-9755573.03 5135750.95 181.55
-9755581.69 5135742.76 181.49
-9755581.39 5135744.23 181.50
-9755576.63 5135742.44 181.48
-9755565.07 5135747.41 181.53
-9755561.54 5135747.68 181.53
-9755561.63 5135742.58 181.45
-9755566.58 5135749.40 181.57
-9755560.37 5135745.87 181.51
-9755566.89 5135744.46 181.49
-9755566.83 5135750.64 181.57
-9755560.07 5135749.14 181.53
-9755560.11 5135744.37 181.50
-9755568.30 5135749.45 181.57
-9755564.83 5135751.21 181.58
-9755558.34 5135746.10 181.50
-9755563.35 5135746.22 181.51
-9755563.34 5135744.39 181.50
-9755566.92 5135747.67 181.55
-9755565.14 5135744.17 181.50
-9755558.34 5135742.62 181.49
-9755560.05 5135747.66 181.52
-9755568.35 5135750.96 181.58
-9755558.34 5135749.08 181.53
-9755556.80 5135747.59 181.51
-9755556.89 5135741.15 181.45
-9755556.85 5135752.28 181.55
-9755556.84 5135750.88 181.51
-9755555.06 5135754.10 181.55
-9755553.57 5135754.12 181.55
-9755553.84 5135752.66 181.53
-9755538.54 5135754.07 181.38
-9755542.08 5135754.34 181.43
-9755535.25 5135752.82 181.36
-9755537.11 5135754.29 181.37
-9755528.55 5135754.01 181.37
-9755551.62 5135726.00 181.34
-9755548.70 5135725.95 181.32
-9755546.91 5135726.57 181.30
-9755540.16 5135726.24 181.28
-9755550.18 5135734.28 181.37
-9755548.39 5135732.73 181.35
-9755548.38 5135734.54 181.36
-9755553.42 5135728.09 181.34
-9755548.63 5135737.47 181.37
-9755550.14 5135739.29 181.40
-9755555.09 5135736.31 181.41
-9755551.66 5135737.58 181.41
-9755548.66 5135736.36 181.35
-9755553.38 5135737.56 181.43
-9755548.39 5135731.03 181.34
-9755551.95 5135731.01 181.36
-9755553.43 5135731.01 181.36
-9755550.22 5135731.00 181.36
-9755555.10 5135737.53 181.43
-9755553.65 5135735.76 181.39
-9755551.91 5135732.76 181.38
-9755548.39 5135728.00 181.32
-9755550.38 5135737.87 181.40
-9755555.18 5135732.79 181.38
-9755547.24 5135732.77 181.35
-9755546.64 5135727.76 181.32
-9755545.13 5135730.98 181.29
-9755543.66 5135732.96 181.30
-9755543.31 5135739.31 181.34
-9755541.87 5135735.95 181.32
-9755533.92 5135729.73 181.23
-9755540.42 5135736.02 181.34
-9755543.66 5135731.27 181.30
-9755542.18 5135732.76 181.30
-9755540.42 5135732.76 181.31
-9755538.70 5135729.48 181.23
-9755537.11 5135739.51 181.33
-9755539.20 5135731.60 181.96
-9755533.90 5135732.72 181.26
-9755543.70 5135729.51 181.30
-9755536.88 5135734.78 181.29
-9755538.89 5135737.75 181.31
-9755540.41 5135737.79 181.32
-9755541.91 5135729.51 181.27
-9755543.93 5135737.77 181.33
-9755533.63 5135735.98 181.28
-9755537.17 5135731.20 181.25
-9755533.62 5135738.03 181.28
-9755533.61 5135734.15 181.27
-9755540.18 5135731.28 186.74
-9755531.91 5135729.43 181.20
-9755538.66 5135736.00 181.31
-9755531.92 5135739.47 181.31
-9755539.23 5135731.43 192.84
-9755530.45 5135727.64 181.21
-9755530.39 5135736.24 181.31
-9755530.10 5135731.15 181.24
-9755548.32 5135740.75 181.39
-9755553.64 5135749.37 181.49
-9755548.53 5135747.59 181.46
-9755551.58 5135744.34 181.44
-9755546.89 5135741.12 181.38
-9755546.86 5135749.31 181.44
-9755547.13 5135744.27 181.41
-9755545.07 5135749.35 181.42
-9755555.10 5135744.09 181.47
-9755533.83 5135747.78 181.32
-9755543.89 5135747.60 181.40
-9755538.88 5135745.77 181.33
-9755543.29 5135749.36 181.39
-9755537.05 5135750.80 181.35
-9755543.59 5135746.09 181.37
-9755535.59 5135751.05 181.34
-9755540.32 5135747.79 181.35
-9755532.03 5135750.77 181.27
-9755533.80 5135751.02 181.29
-9755538.52 5135747.47 181.33
-9755538.58 5135750.74 181.35
-9755531.83 5135740.96 181.33
-9755535.35 5135749.30 181.32
-9755535.36 5135744.27 181.33
-9755543.66 5135741.04 181.36
-9755538.58 5135744.61 181.32
-9755533.60 5135746.03 181.32
-9755533.92 5135742.76 181.32
-9755527.07 5135737.95 181.31
-9755527.17 5135729.37 181.26
-9755527.21 5135727.68 181.26
-9755528.87 5135740.90 181.34
-9755528.82 5135749.25 181.32
-9755527.36 5135742.69 181.34
-9755528.56 5135746.01 181.33
-9755527.33 5135750.73 181.37
-9755527.34 5135747.45 181.36
-9755527.03 5135749.23 181.35
-9755522.00 5135752.73 181.39
-9755518.77 5135752.46 181.40
-9755510.84 5135752.73 180.98
-9755503.77 5135752.72 180.80
-9755521.99 5135754.25 181.40
-9755520.83 5135754.23 181.42
-9755523.78 5135753.90 181.40
-9755519.04 5135754.25 181.39
-9755509.04 5135754.52 180.93
-9755514.04 5135754.49 181.07
-9755512.54 5135754.21 180.98
-9755515.84 5135754.21 181.19
-9755522.19 5135726.46 181.29
-9755512.49 5135726.41 185.62
-9755517.19 5135726.20 185.80
-9755512.41 5135726.15 181.03
-9755517.36 5135726.45 183.22
-9755507.19 5135726.35 180.86
-9755520.44 5135732.83 184.17
-9755518.99 5135731.24 185.93
-9755520.71 5135731.28 185.64
-9755525.69 5135735.88 181.31
-9755523.57 5135737.65 181.34
-9755523.81 5135739.15 181.36
-9755522.20 5135728.20 181.30
-9755525.67 5135727.91 181.28
-9755520.35 5135737.67 181.51
-9755525.71 5135732.97 181.29
-9755523.85 5135732.95 181.31
-9755518.95 5135733.02 184.01
-9755523.62 5135727.93 181.28
-9755522.15 5135737.96 181.36
-9755521.51 5135733.16 183.21
-9755519.23 5135735.68 182.99
-9755519.10 5135735.87 181.53
-9755519.92 5135729.79 185.23
-9755518.61 5135735.94 185.04
-9755517.48 5135734.55 185.76
-9755517.08 5135731.16 184.04
-9755515.66 5135734.35 184.27
-9755515.62 5135732.98 185.54
-9755516.81 5135729.68 185.51
-9755508.96 5135729.73 190.37
-9755515.66 5135729.45 184.56
-9755515.47 5135735.66 185.53
-9755512.40 5135732.89 181.03
-9755514.08 5135727.81 185.40
-9755512.23 5135727.89 184.16
-9755512.39 5135731.42 181.02
-9755514.16 5135729.35 181.21
-9755516.88 5135735.88 183.15
-9755515.47 5135732.19 183.32
-9755515.65 5135731.23 185.60
-9755517.04 5135739.40 181.40
-9755517.25 5135732.78 182.85
-9755509.11 5135735.83 180.98
-9755513.90 5135732.78 184.15
-9755505.61 5135739.37 180.84
-9755508.90 5135732.88 180.97
-9755508.89 5135727.82 180.97
-9755512.38 5135739.42 181.02
-9755513.89 5135736.14 181.21
-9755515.67 5135736.39 184.19
-9755507.44 5135729.31 180.86
-9755509.18 5135729.60 180.98
-9755507.14 5135727.81 180.84
-9755512.38 5135727.84 181.04
-9755509.17 5135737.62 180.96
-9755508.83 5135739.09 180.95
-9755515.72 5135732.78 181.41
-9755517.55 5135733.02 181.51
-9755508.92 5135731.04 190.30
-9755510.93 5135734.38 181.00
-9755514.00 5135730.98 181.19
-9755507.41 5135732.57 180.80
-9755510.64 5135731.09 181.00
-9755507.36 5135739.68 180.83
-9755507.11 5135736.11 180.82
-9755512.53 5135730.94 184.13
-9755507.33 5135734.47 190.05
-9755510.65 5135732.59 180.98
-9755513.81 5135732.87 181.19
-9755514.53 5135735.90 185.42
-9755514.20 5135728.09 181.22
-9755505.91 5135731.39 180.84
-9755512.09 5135737.62 181.02
-9755513.84 5135734.34 181.20
-9755510.89 5135739.12 181.00
-9755513.01 5135733.39 183.03
-9755505.64 5135729.58 180.85
-9755508.88 5135737.69 189.99
-9755516.70 5135729.43 183.29
-9755518.86 5135730.23 183.36
-9755518.10 5135736.92 183.06
-9755516.06 5135737.17 185.08
-9755504.15 5135727.77 180.86
-9755504.11 5135731.06 180.85
-9755503.84 5135737.59 180.83
-9755503.82 5135736.35 180.83
-9755525.36 5135741.26 181.35
-9755525.60 5135742.75 181.36
-9755520.54 5135745.88 181.43
-9755522.33 5135747.43 181.38
-9755523.81 5135747.40 181.37
-9755518.77 5135750.96 181.40
-9755520.32 5135740.90 181.41
-9755520.24 5135750.97 181.44
-9755518.83 5135744.43 181.41
-9755512.66 5135745.87 181.02
-9755517.32 5135750.64 181.32
-9755510.82 5135750.63 180.98
-9755507.35 5135742.62 180.83
-9755514.13 5135745.90 181.12
-9755517.04 5135744.46 181.33
-9755512.30 5135749.46 180.99
-9755514.04 5135749.21 181.10
-9755517.35 5135742.66 181.34
-9755517.36 5135745.89 181.35
-9755509.17 5135749.36 190.54
-9755510.63 5135741.12 180.99
-9755508.72 5135743.13 190.07
-9755505.83 5135750.96 180.80
-9755507.41 5135741.05 189.93
-9755515.33 5135741.19 181.21
-9755505.83 5135750.31 182.41
-9755514.11 5135744.39 181.12
-9755507.42 5135744.57 190.08
-9755505.60 5135749.36 182.41
-9755507.57 5135746.04 190.18
-9755504.07 5135747.91 180.80
-9755504.11 5135744.13 180.82
-9755518.75 5135724.61 185.93
-9755512.44 5135724.85 186.06
-9755515.74 5135724.00 183.05
-9755510.71 5135724.47 184.19
-9755515.76 5135724.63 185.80
-9755517.24 5135724.68 185.94
-9755510.72 5135724.67 185.13
-9755513.29 5135724.27 181.20
-9755711.65 5135701.57 185.73
-9755713.42 5135701.61 184.98
-9755707.22 5135701.51 184.93
-9755713.29 5135704.76 185.77
-9755711.62 5135702.99 185.48
-9755710.14 5135714.79 186.24
-9755709.65 5135703.27 184.96
-9755713.42 5135703.05 184.97
-9755711.33 5135706.24 184.94
-9755711.54 5135709.53 184.97
-9755706.60 5135708.33 184.99
-9755713.35 5135713.15 186.72
-9755713.38 5135709.90 184.97
-9755708.36 5135708.31 184.97
-9755704.87 5135706.56 186.27
-9755709.82 5135708.31 184.99
-9755713.05 5135708.09 184.97
-9755714.04 5135709.62 187.32
-9755713.33 5135711.36 184.96
-9755705.07 5135713.00 186.27
-9755710.02 5135712.83 186.70
-9755713.01 5135714.90 184.94
-9755705.10 5135714.79 186.26
-9755711.76 5135724.71 185.40
-9755706.82 5135718.08 186.36
-9755713.33 5135723.19 184.95
-9755710.09 5135716.30 184.90
-9755706.51 5135719.57 186.26
-9755706.51 5135721.39 186.25
-9755706.56 5135716.25 186.25
-9755708.30 5135721.06 186.32
-9755713.03 5135717.89 184.94
-9755708.24 5135726.44 184.95
-9755710.00 5135719.54 186.21
-9755708.28 5135719.63 184.95
-9755710.02 5135720.99 186.18
-9755707.05 5135724.63 185.00
-9755705.12 5135717.78 186.26
-9755711.40 5135719.57 186.19
-9755711.82 5135716.39 184.95
-9755713.94 5135715.44 186.73
-9755704.50 5135721.36 184.96
-9755708.68 5135698.02 184.96
-9755711.55 5135698.21 185.74
-9755711.64 5135699.85 186.35
-9755713.16 5135700.03 186.04
-9755713.42 5135699.82 184.98
-9755710.22 5135698.03 184.97
-9755711.65 5135696.50 186.34
-9755711.39 5135696.53 184.99
-9755706.29 5135696.81 185.88
-9755713.18 5135698.23 186.74
-9755713.43 5135696.45 185.72
-9755700.14 5135701.50 186.14
-9755701.24 5135701.38 186.22
-9755691.59 5135701.46 184.99
-9755690.49 5135701.43 186.18
-9755690.12 5135701.45 185.00
-9755704.44 5135711.46 185.00
-9755703.88 5135708.05 185.01
-9755701.56 5135708.06 185.01
-9755701.81 5135713.05 185.00
-9755697.26 5135704.53 185.74
-9755695.96 5135705.05 185.00
-9755697.45 5135706.01 186.37
-9755691.81 5135713.01 185.01
-9755701.86 5135704.72 185.00
-9755696.24 5135709.45 185.03
-9755696.87 5135709.79 184.96
-9755701.84 5135711.30 185.00
-9755694.82 5135702.65 185.01
-9755701.88 5135709.81 184.97
-9755698.60 5135714.86 185.44
-9755691.83 5135709.70 185.01
-9755703.97 5135705.95 185.01
-9755703.97 5135710.11 185.01
-9755696.87 5135708.31 184.94
-9755691.59 5135707.99 184.99
-9755691.58 5135704.69 184.97
-9755693.32 5135704.72 185.01
-9755699.97 5135708.39 184.90
-9755691.56 5135706.18 184.98
-9755704.50 5135709.78 185.01
-9755696.57 5135703.01 184.93
-9755703.92 5135703.24 184.99
-9755699.28 5135708.60 185.01
-9755690.18 5135706.44 186.21
-9755690.06 5135714.76 186.24
-9755690.12 5135707.97 186.22
-9755690.14 5135702.92 184.97
-9755698.54 5135724.53 186.16
-9755701.65 5135718.10 186.14
-9755702.07 5135721.38 185.00
-9755703.51 5135716.36 186.25
-9755702.72 5135722.25 185.01
-9755697.38 5135721.20 186.05
-9755696.80 5135719.52 184.98
-9755702.66 5135716.92 185.00
-9755696.50 5135722.82 185.03
-9755693.83 5135725.61 185.01
-9755691.76 5135724.55 184.99
-9755693.75 5135724.32 185.01
-9755695.60 5135720.95 185.01
-9755690.41 5135716.18 186.25
-9755690.30 5135719.46 184.98
-9755690.29 5135721.28 184.98
-9755681.60 5135701.37 184.98
-9755683.62 5135701.71 185.00
-9755680.14 5135701.62 186.79
-9755685.14 5135703.11 185.49
-9755682.07 5135710.06 184.97
-9755680.68 5135702.86 184.99
-9755682.12 5135704.87 185.48
-9755685.10 5135711.40 185.47
-9755683.52 5135712.97 185.47
-9755687.16 5135703.24 185.89
-9755681.94 5135703.13 185.50
-9755678.65 5135714.80 185.51
-9755678.80 5135709.76 185.51
-9755686.80 5135712.93 185.01
-9755680.08 5135711.47 185.77
-9755683.34 5135704.65 184.98
-9755686.87 5135706.44 185.00
-9755688.61 5135706.34 186.21
-9755678.94 5135703.45 185.01
-9755681.86 5135706.13 184.98
-9755683.79 5135709.64 185.49
-9755683.51 5135711.17 185.00
-9755681.75 5135714.69 185.00
-9755683.53 5135704.70 185.49
-9755685.28 5135709.64 185.43
-9755683.56 5135715.05 185.47
-9755686.57 5135711.22 184.97
-9755676.97 5135713.32 185.49
-9755676.75 5135713.28 184.99
-9755676.20 5135713.08 186.78
-9755676.46 5135709.85 186.82
-9755675.64 5135713.26 184.92
-9755675.69 5135707.90 184.90
-9755676.49 5135715.23 185.01
-9755688.52 5135723.05 185.41
-9755685.26 5135719.96 186.00
-9755688.41 5135718.04 184.95
-9755686.71 5135724.76 184.97
-9755680.38 5135719.73 185.83
-9755678.52 5135726.07 186.76
-9755684.13 5135718.00 185.01
-9755688.52 5135717.94 186.25
-9755686.70 5135719.76 185.00
-9755688.54 5135716.46 186.25
-9755678.70 5135724.67 186.89
-9755683.27 5135716.43 185.48
-9755687.16 5135717.89 186.28
-9755683.57 5135719.45 185.00
-9755683.50 5135724.75 185.01
-9755680.27 5135724.77 186.84
-9755680.21 5135716.34 186.82
-9755681.49 5135719.68 185.00
-9755680.01 5135722.94 186.93
-9755677.04 5135717.79 185.47
-9755677.07 5135721.34 185.48
-9755674.73 5135723.09 185.58
-9755675.32 5135714.67 184.93
-9755677.11 5135724.38 186.97
-9755676.74 5135719.40 184.97
-9755676.75 5135717.94 184.98
-9755674.72 5135721.19 185.50
-9755703.16 5135698.26 185.83
-9755701.41 5135698.28 186.21
-9755701.93 5135699.75 185.01
-9755691.62 5135700.29 185.00
-9755704.01 5135698.18 185.01
-9755693.10 5135698.22 185.01
-9755685.36 5135699.67 185.48
-9755688.62 5135699.88 186.24
-9755678.67 5135699.79 186.73
-9755683.68 5135698.18 185.44
-9755680.13 5135699.76 186.81
-9755686.90 5135698.17 185.00
-9755676.78 5135699.88 186.89
-9755676.61 5135698.10 184.99
-9755677.18 5135698.72 186.93
-9755677.20 5135696.82 186.89
-9755673.87 5135701.54 185.32
-9755673.90 5135701.30 184.90
-9755667.16 5135701.62 185.08
-9755668.59 5135701.61 185.06
-9755670.82 5135704.93 185.84
-9755673.50 5135714.66 184.94
-9755669.16 5135711.67 185.01
-9755675.35 5135704.65 184.89
-9755673.56 5135708.19 184.97
-9755672.35 5135709.87 184.90
-9755668.49 5135713.16 185.08
-9755670.30 5135708.19 184.95
-9755668.87 5135703.09 185.04
-9755670.51 5135711.55 185.72
-9755672.19 5135706.29 186.79
-9755672.09 5135704.76 186.78
-9755670.30 5135713.16 184.98
-9755667.09 5135707.81 185.08
-9755669.38 5135712.86 185.00
-9755673.75 5135706.63 186.76
-9755672.03 5135714.57 185.39
-9755665.67 5135703.40 185.08
-9755672.59 5135703.80 186.74
-9755670.54 5135714.77 186.75
-9755671.05 5135706.27 186.79
-9755663.80 5135711.33 185.12
-9755663.86 5135706.66 185.09
-9755676.17 5135720.14 186.82
-9755673.79 5135722.88 185.40
-9755669.40 5135716.72 184.98
-9755665.23 5135719.68 185.10
-9755673.66 5135716.42 185.39
-9755668.77 5135724.36 185.06
-9755670.56 5135719.63 185.36
-9755673.48 5135722.67 184.88
-9755667.28 5135722.93 185.09
-9755667.33 5135721.15 185.07
-9755667.30 5135717.86 185.10
-9755668.76 5135721.44 185.04
-9755673.74 5135721.21 184.94
-9755673.85 5135719.79 184.93
-9755670.50 5135723.01 184.91
-9755672.03 5135719.57 185.42
-9755670.55 5135716.15 184.96
-9755665.74 5135722.62 185.11
-9755671.99 5135720.94 185.36
-9755671.81 5135716.17 184.91
-9755674.47 5135717.81 186.71
-9755670.87 5135722.89 186.68
-9755657.43 5135701.55 185.58
-9755660.60 5135701.56 185.07
-9755657.39 5135699.84 185.58
-9755657.40 5135699.98 186.94
-9755648.89 5135701.51 185.30
-9755650.89 5135701.47 185.29
-9755657.42 5135706.53 186.93
-9755652.62 5135711.57 185.29
-9755657.26 5135703.23 185.49
-9755662.26 5135713.08 185.07
-9755662.42 5135709.84 185.08
-9755659.13 5135703.04 185.06
-9755657.32 5135709.87 185.59
-9755656.87 5135703.55 184.92
-9755660.50 5135711.35 185.10
-9755660.34 5135713.09 185.07
-9755655.88 5135707.92 186.88
-9755655.49 5135709.63 186.74
-9755660.27 5135704.86 185.06
-9755654.05 5135713.08 186.73
-9755652.10 5135702.97 185.28
-9755652.02 5135713.00 185.32
-9755659.08 5135714.63 185.07
-9755657.36 5135708.25 186.93
-9755652.29 5135714.84 185.31
-9755652.07 5135704.69 185.30
-9755652.37 5135708.00 185.29
-9755658.85 5135706.30 185.03
-9755655.30 5135702.91 185.00
-9755658.26 5135706.29 185.01
-9755660.31 5135706.59 185.04
-9755649.09 5135703.01 185.31
-9755649.08 5135709.77 185.30
-9755650.88 5135708.02 185.31
-9755647.37 5135706.50 185.09
-9755647.30 5135704.73 185.10
-9755655.75 5135716.30 185.60
-9755657.06 5135722.80 185.66
-9755660.54 5135721.37 185.07
-9755657.28 5135718.10 185.56
-9755658.81 5135717.89 185.06
-9755655.64 5135719.52 185.59
-9755657.60 5135724.23 186.78
-9755652.52 5135719.88 185.30
-9755657.58 5135716.54 186.74
-9755654.04 5135718.03 186.75
-9755662.32 5135724.64 185.10
-9755649.03 5135721.03 185.31
-9755648.76 5135716.23 185.31
-9755650.80 5135718.04 185.30
-9755647.28 5135716.29 185.10
-9755647.54 5135724.55 185.10
-9755645.76 5135724.57 184.88
-9755645.74 5135721.28 184.83
-9755645.52 5135717.74 184.87
-9755645.78 5135716.31 184.90
-9755645.71 5135719.85 184.86
-9755669.20 5135699.89 185.01
-9755671.95 5135698.30 185.37
-9755673.87 5135698.33 185.33
-9755668.91 5135696.57 185.04
-9755673.65 5135696.61 185.36
-9755670.59 5135696.58 184.96
-9755670.43 5135698.32 184.91
-9755669.51 5135698.08 185.00
-9755669.50 5135696.58 185.00
-9755663.91 5135698.34 185.07
-9755663.90 5135699.80 185.11
-9755654.13 5135698.44 185.55
-9755659.18 5135698.24 185.07
-9755658.32 5135700.08 185.00
-9755652.12 5135696.46 185.28
-9755649.15 5135698.19 185.31
-9755650.64 5135696.73 185.29
-9755645.62 5135699.69 184.96
-9755639.43 5135699.92 185.21
-9755644.10 5135699.73 184.94
-9755646.05 5135711.55 184.94
-9755642.62 5135711.51 184.90
-9755642.04 5135709.68 184.93
-9755642.35 5135704.73 184.94
-9755644.13 5135711.52 184.90
-9755644.02 5135714.84 184.87
-9755641.17 5135702.91 185.01
-9755642.49 5135724.60 184.89
-9755645.73 5135722.79 184.87
-9755642.58 5135718.00 184.85
-9755643.96 5135718.09 184.87
-9755642.62 5135716.31 184.85
-9755640.48 5135716.20 185.16
-9755641.56 5135724.52 184.96
-9755641.05 5135722.26 185.01
-9755630.85 5135701.72 185.02
-9755635.60 5135699.92 185.00
-9755634.13 5135699.96 185.11
-9755622.22 5135700.04 180.73
-9755624.36 5135701.36 184.92
-9755619.37 5135701.65 181.07
-9755619.58 5135700.07 180.76
-9755621.12 5135701.43 183.92
-9755622.26 5135701.55 181.14
-9755621.15 5135699.99 181.82
-9755619.95 5135700.05 181.73
-9755622.29 5135700.02 189.04
-9755620.89 5135699.91 183.94
-9755621.74 5135701.65 185.76
-9755617.86 5135699.78 180.65
-9755634.34 5135712.98 185.11
-9755634.32 5135708.22 185.12
-9755634.14 5135702.88 185.12
-9755629.07 5135709.94 185.13
-9755629.31 5135712.90 185.12
-9755627.57 5135711.39 185.10
-9755627.62 5135703.42 185.10
-9755629.03 5135711.44 185.14
-9755627.54 5135709.69 185.11
-9755630.89 5135703.17 185.04
-9755626.11 5135703.10 185.09
-9755632.56 5135707.92 185.10
-9755625.81 5135708.17 185.00
-9755627.58 5135704.64 185.11
-9755636.06 5135714.45 185.01
-9755635.85 5135711.48 184.97
-9755630.84 5135714.97 185.05
-9755625.80 5135712.94 184.95
-9755617.79 5135711.31 185.75
-9755621.01 5135712.79 181.15
-9755619.26 5135706.49 182.07
-9755616.10 5135713.18 185.98
-9755621.52 5135701.38 189.01
-9755624.28 5135711.41 184.77
-9755617.84 5135704.53 180.84
-9755620.92 5135703.30 180.91
-9755621.05 5135706.36 180.92
-9755621.15 5135704.91 183.91
-9755622.33 5135713.15 182.32
-9755619.30 5135714.82 182.58
-9755622.31 5135704.76 182.26
-9755622.19 5135706.47 180.99
-9755620.73 5135706.54 182.02
-9755624.40 5135707.86 184.83
-9755618.90 5135710.11 182.33
-9755622.34 5135707.93 182.86
-9755615.74 5135711.14 184.20
-9755617.76 5135714.49 181.26
-9755620.82 5135702.95 181.94
-9755621.78 5135705.92 186.05
-9755622.29 5135709.54 181.09
-9755622.72 5135709.53 182.52
-9755618.14 5135714.80 182.56
-9755621.08 5135706.24 183.94
-9755619.29 5135709.50 181.09
-9755622.51 5135711.37 181.25
-9755619.56 5135705.00 182.07
-9755617.06 5135710.19 185.70
-9755622.43 5135703.33 187.92
-9755622.69 5135712.82 181.28
-9755623.85 5135711.84 181.37
-9755621.09 5135702.90 183.90
-9755621.80 5135704.92 187.45
-9755617.80 5135708.04 181.06
-9755621.05 5135707.96 183.92
-9755619.52 5135714.43 181.23
-9755622.33 5135704.74 189.05
-9755619.95 5135703.21 181.83
-9755621.12 5135712.34 183.91
-9755615.88 5135712.68 187.32
-9755621.75 5135707.97 189.04
-9755619.46 5135705.28 184.06
-9755622.52 5135714.68 184.69
-9755616.05 5135711.43 187.74
-9755616.03 5135708.33 181.07
-9755621.85 5135709.46 189.04
-9755619.96 5135709.69 184.01
-9755621.67 5135710.61 189.04
-9755621.59 5135702.71 189.07
-9755621.83 5135708.31 187.42
-9755615.93 5135714.15 183.57
-9755619.49 5135714.65 184.16
-9755635.79 5135716.26 185.00
-9755627.50 5135717.94 185.11
-9755633.95 5135724.82 185.10
-9755632.45 5135722.76 185.11
-9755627.52 5135721.23 185.11
-9755627.52 5135722.72 185.12
-9755626.06 5135721.22 185.04
-9755634.27 5135719.48 185.10
-9755635.45 5135723.02 185.07
-9755629.56 5135722.69 185.14
-9755635.44 5135719.48 185.05
-9755632.57 5135716.19 185.10
-9755627.54 5135719.73 185.12
-9755636.04 5135722.76 184.98
-9755625.75 5135724.74 184.90
-9755628.99 5135721.14 185.11
-9755625.99 5135717.91 185.02
-9755636.10 5135717.73 185.00
-9755624.27 5135723.01 184.72
-9755624.27 5135721.45 184.75
-9755619.31 5135716.43 185.96
-9755621.01 5135716.11 185.83
-9755619.25 5135716.42 184.44
-9755620.79 5135715.06 185.71
-9755622.48 5135723.01 184.64
-9755621.00 5135717.75 184.01
-9755617.83 5135716.30 182.22
-9755622.84 5135717.95 182.77
