-9755683.45 5135283.25 185.32
-9755688.76 5135284.81 185.33
-9755681.77 5135284.80 185.29
-9755683.44 5135288.09 185.32
-9755686.98 5135284.80 185.30
-9755686.97 5135286.23 185.30
-9755680.51 5135288.03 185.30
-9755680.53 5135286.24 185.32
-9755680.26 5135281.20 185.34
-9755680.19 5135279.73 185.36
-9755682.00 5135279.80 185.35
-9755692.02 5135294.33 185.34
-9755690.20 5135291.03 185.36
-9755685.26 5135291.21 187.23
-9755685.14 5135296.24 185.72
-9755688.53 5135293.02 187.23
-9755686.98 5135295.72 185.73
-9755686.93 5135291.18 187.48
-9755685.22 5135293.23 185.73
-9755685.11 5135298.03 185.69
-9755683.69 5135294.85 185.31
-9755687.19 5135293.01 185.72
-9755690.20 5135293.10 185.36
-9755687.23 5135294.17 185.75
-9755688.14 5135289.52 187.11
-9755681.82 5135291.27 185.33
-9755685.12 5135292.69 187.15
-9755683.59 5135292.97 186.93
-9755685.35 5135289.70 186.81
-9755686.94 5135297.86 185.69
-9755682.14 5135292.97 186.84
-9755690.13 5135297.82 185.34
-9755681.90 5135289.50 185.29
-9755688.47 5135291.21 187.14
-9755688.77 5135296.27 187.05
-9755681.97 5135293.85 186.88
-9755678.94 5135298.04 185.24
-9755680.45 5135296.34 185.31
-9755679.85 5135297.70 187.07
-9755679.57 5135295.96 187.08
-9755675.39 5135301.25 185.74
-9755668.91 5135301.24 185.67
-9755679.23 5135300.87 187.00
-9755676.63 5135301.14 187.12
-9755668.84 5135299.26 185.67
-9755674.01 5135307.80 187.01
-9755668.59 5135302.72 185.65
-9755670.65 5135304.56 185.60
-9755675.17 5135307.55 186.96
-9755668.91 5135306.01 185.71
-9755677.24 5135305.97 187.38
-9755676.88 5135307.76 186.97
-9755679.51 5135306.56 186.99
-9755679.36 5135304.23 187.00
-9755675.20 5135305.13 186.79
-9755666.68 5135307.75 186.05
-9755666.85 5135309.40 186.96
-9755667.77 5135302.87 185.71
-9755662.36 5135301.19 185.75
-9755660.67 5135299.76 185.25
-9755662.10 5135301.24 187.14
-9755660.39 5135300.93 185.24
-9755655.67 5135299.40 185.30
-9755666.26 5135300.88 187.10
-9755662.45 5135299.26 187.09
-9755667.74 5135299.53 185.70
-9755657.15 5135299.42 185.28
-9755652.35 5135300.91 185.29
-9755650.44 5135301.13 185.73
-9755650.41 5135299.46 185.75
-9755649.20 5135301.10 185.77
-9755662.44 5135304.76 185.84
-9755662.48 5135306.25 186.87
-9755659.21 5135304.46 185.24
-9755657.11 5135302.68 185.26
-9755662.45 5135309.36 186.87
-9755662.41 5135308.15 186.87
-9755666.31 5135304.19 186.86
-9755666.21 5135302.95 186.96
-9755666.29 5135306.54 186.96
-9755666.05 5135305.95 185.01
-9755666.24 5135308.57 186.71
-9755653.90 5135306.22 185.22
-9755649.08 5135304.65 185.77
-9755652.09 5135304.42 185.27
-9755649.14 5135306.19 185.79
-9755674.03 5135281.43 185.77
-9755673.72 5135287.97 185.73
-9755668.74 5135286.47 185.71
-9755668.97 5135287.91 185.70
-9755673.61 5135286.19 185.70
-9755668.97 5135284.65 185.75
-9755670.50 5135286.45 185.75
-9755675.41 5135283.21 185.72
-9755673.72 5135282.81 185.75
-9755677.01 5135284.76 185.25
-9755672.60 5135281.66 185.93
-9755672.57 5135287.85 187.07
-9755675.61 5135279.92 185.72
-9755668.82 5135282.96 185.70
-9755675.33 5135287.94 185.68
-9755675.35 5135284.78 185.72
-9755672.58 5135284.48 187.07
-9755678.68 5135287.97 185.27
-9755676.90 5135284.59 186.97
-9755671.97 5135284.77 185.25
-9755677.04 5135287.91 186.90
-9755672.63 5135279.66 185.79
-9755667.36 5135282.96 185.74
-9755667.53 5135284.61 185.75
-9755667.32 5135287.53 185.74
-9755667.60 5135286.37 185.75
-9755667.07 5135282.87 186.80
-9755667.03 5135281.54 186.82
-9755671.72 5135292.73 185.92
-9755668.93 5135298.02 185.70
-9755675.30 5135289.51 185.75
-9755673.41 5135289.42 185.69
-9755673.63 5135297.67 185.70
-9755670.40 5135296.21 185.72
-9755668.87 5135294.46 185.70
-9755679.11 5135294.78 187.09
-9755677.20 5135292.85 186.96
-9755679.33 5135297.91 187.07
-9755673.42 5135296.16 186.96
-9755679.27 5135299.20 186.96
-9755679.03 5135296.11 187.10
-9755667.81 5135296.28 185.66
-9755667.75 5135292.95 185.69
-9755667.56 5135294.69 186.94
-9755662.26 5135287.98 185.64
-9755663.95 5135286.82 185.47
-9755663.64 5135283.09 185.71
-9755665.79 5135286.37 186.75
-9755662.30 5135283.14 185.66
-9755659.05 5135281.12 185.28
-9755660.48 5135286.38 185.24
-9755660.44 5135288.20 185.25
-9755662.16 5135286.25 185.96
-9755655.46 5135287.89 185.29
-9755665.88 5135287.96 187.11
-9755665.61 5135283.20 186.90
-9755655.47 5135283.13 185.30
-9755662.24 5135284.56 186.90
-9755662.20 5135287.83 187.12
-9755662.25 5135279.58 185.64
-9755662.44 5135281.40 185.65
-9755661.98 5135286.37 186.83
-9755660.46 5135279.60 185.26
-9755652.24 5135281.64 185.28
-9755650.72 5135286.37 185.32
-9755650.80 5135284.59 185.35
-9755652.18 5135288.15 185.28
-9755650.77 5135281.61 185.34
-9755654.01 5135279.54 185.26
-9755650.58 5135288.22 186.94
-9755650.24 5135279.16 187.35
-9755663.66 5135289.39 185.61
-9755666.02 5135299.07 187.09
-9755662.26 5135290.92 187.18
-9755664.09 5135291.20 187.13
-9755657.20 5135291.47 185.28
-9755662.60 5135297.96 187.03
-9755658.91 5135296.19 185.27
-9755663.91 5135297.94 185.62
-9755660.44 5135291.16 185.25
-9755655.70 5135294.72 185.29
-9755660.45 5135292.93 185.25
-9755659.17 5135297.93 185.26
-9755658.67 5135293.24 185.26
-9755665.45 5135291.34 187.18
-9755662.25 5135289.59 187.11
-9755655.43 5135291.38 185.27
-9755665.29 5135292.83 186.88
-9755663.57 5135292.61 186.82
-9755662.48 5135292.83 186.81
-9755663.35 5135290.38 187.08
-9755654.17 5135299.45 185.25
-9755650.45 5135289.59 186.92
-9755654.22 5135291.44 185.22
-9755653.94 5135292.63 185.24
-9755652.11 5135294.71 185.28
-9755652.11 5135297.88 185.30
-9755649.17 5135292.80 185.78
-9755649.85 5135292.50 186.78
-9755648.96 5135297.80 185.79
-9755644.18 5135299.62 185.55
-9755640.64 5135299.35 185.47
-9755640.60 5135301.39 185.43
-9755647.34 5135302.88 185.79
-9755647.40 5135304.42 185.81
-9755642.68 5135302.60 185.54
-9755642.61 5135307.92 185.53
-9755642.60 5135304.32 185.53
-9755644.12 5135302.92 185.54
-9755645.61 5135304.68 185.40
-9755647.33 5135306.10 185.79
-9755646.15 5135307.55 186.90
-9755640.58 5135302.90 185.40
-9755640.56 5135304.40 185.40
-9755641.16 5135307.89 185.51
-9755630.95 5135301.33 185.75
-9755629.44 5135299.53 185.72
-9755629.37 5135301.26 185.75
-9755632.68 5135301.00 187.03
-9755632.70 5135299.49 187.03
-9755629.31 5135299.72 187.01
-9755630.88 5135299.86 185.76
-9755627.67 5135299.60 185.20
-9755625.89 5135301.00 185.33
-9755624.40 5135301.06 185.32
-9755637.61 5135306.16 185.05
-9755629.15 5135307.85 185.78
-9755629.41 5135302.79 186.94
-9755632.33 5135306.31 185.76
-9755631.08 5135304.81 185.76
-9755632.69 5135304.34 185.72
-9755629.38 5135306.09 185.67
-9755635.81 5135302.90 185.07
-9755630.87 5135307.80 185.72
-9755632.68 5135307.58 187.10
-9755633.44 5135307.87 187.07
-9755632.76 5135304.63 187.01
-9755629.36 5135304.61 186.96
-9755629.10 5135306.26 186.96
-9755633.44 5135306.36 187.14
-9755626.14 5135304.58 185.34
-9755620.87 5135304.56 185.29
-9755622.88 5135302.74 185.27
-9755622.57 5135304.59 185.25
-9755627.64 5135304.58 185.23
-9755621.16 5135306.31 185.28
-9755624.42 5135302.77 185.33
-9755649.25 5135283.15 185.36
-9755642.22 5135283.06 185.57
-9755647.61 5135286.45 187.06
-9755647.17 5135287.60 186.96
-9755644.26 5135281.56 185.57
-9755644.28 5135284.51 185.57
-9755646.07 5135284.89 187.07
-9755647.25 5135281.58 185.82
-9755646.06 5135288.24 185.94
-9755642.49 5135286.35 185.54
-9755645.75 5135284.87 185.37
-9755646.08 5135279.41 187.32
-9755642.48 5135279.76 185.58
-9755649.77 5135298.04 186.73
-9755646.00 5135289.82 186.94
-9755647.38 5135296.45 185.82
-9755646.06 5135294.78 186.91
-9755646.20 5135294.79 185.98
-9755647.44 5135291.07 185.81
-9755643.90 5135297.87 185.55
-9755647.63 5135294.61 185.82
-9755647.39 5135297.89 185.79
-9755646.68 5135290.10 186.84
-9755642.47 5135289.85 185.55
-9755649.64 5135291.37 186.80
-9755646.87 5135291.40 186.73
-9755640.72 5135291.05 185.52
-9755640.94 5135294.57 185.53
-9755629.14 5135284.32 187.13
-9755637.78 5135279.81 185.05
-9755639.22 5135281.26 185.23
-9755630.95 5135287.82 185.69
-9755637.72 5135283.28 185.06
-9755632.46 5135286.30 187.17
-9755635.99 5135279.47 185.08
-9755629.23 5135282.96 185.75
-9755630.71 5135284.58 187.10
-9755629.23 5135279.98 185.70
-9755629.18 5135286.39 187.05
-9755629.44 5135288.04 185.71
-9755638.97 5135284.82 185.18
-9755628.92 5135287.69 187.02
-9755632.50 5135288.30 187.03
-9755624.17 5135282.95 185.36
-9755620.98 5135282.86 185.31
-9755627.40 5135288.01 185.22
-9755625.99 5135279.98 185.35
-9755627.43 5135281.47 185.22
-9755622.73 5135286.44 185.26
-9755623.05 5135283.24 185.32
-9755625.91 5135287.94 185.35
-9755628.77 5135279.37 186.93
-9755628.34 5135283.43 187.09
-9755628.22 5135280.02 187.06
-9755634.16 5135294.87 185.12
-9755630.98 5135297.66 185.79
-9755630.70 5135292.97 185.78
-9755639.49 5135292.79 185.19
-9755629.35 5135294.57 185.76
-9755630.94 5135291.11 185.79
-9755629.22 5135289.53 185.68
-9755635.59 5135297.83 185.07
-9755632.63 5135294.77 185.75
-9755629.17 5135297.77 185.74
-9755629.34 5135296.22 185.74
-9755634.15 5135297.79 185.12
-9755635.93 5135289.55 185.11
-9755629.21 5135291.28 185.72
-9755635.93 5135296.36 185.07
-9755630.80 5135296.17 185.73
-9755639.48 5135291.32 185.22
-9755632.50 5135293.07 187.02
-9755632.77 5135297.76 186.99
-9755634.15 5135296.00 185.11
-9755639.22 5135294.63 185.12
-9755630.65 5135289.80 185.75
-9755634.18 5135292.78 185.13
-9755632.70 5135289.43 187.09
-9755628.92 5135291.19 186.97
-9755632.71 5135294.79 187.03
-9755628.96 5135296.17 187.01
-9755629.36 5135292.77 185.73
-9755632.37 5135291.41 187.03
-9755629.04 5135293.02 186.98
-9755625.67 5135289.43 185.34
-9755626.27 5135296.33 185.33
-9755624.13 5135294.49 185.35
-9755620.94 5135291.56 185.29
-9755625.95 5135294.79 185.34
-9755621.22 5135296.25 185.30
-9755615.81 5135301.29 184.74
-9755619.36 5135299.53 185.31
-9755614.31 5135299.51 184.35
-9755616.14 5135307.74 184.79
-9755614.68 5135302.76 184.41
-9755612.49 5135307.65 181.21
-9755607.81 5135301.11 181.13
-9755607.91 5135299.28 181.08
-9755606.41 5135299.64 181.11
-9755612.61 5135299.36 181.26
-9755602.78 5135301.08 181.12
-9755602.82 5135299.61 181.12
-9755604.73 5135299.27 181.13
-9755596.37 5135301.32 181.12
-9755599.62 5135301.01 181.12
-9755596.36 5135299.56 181.10
-9755594.87 5135299.55 181.09
-9755589.64 5135301.31 181.05
-9755591.32 5135299.65 181.10
-9755607.87 5135305.87 181.11
-9755607.83 5135304.35 181.10
-9755604.58 5135306.05 181.12
-9755603.08 5135305.80 181.12
-9755609.90 5135306.19 181.08
-9755606.41 5135305.83 181.11
-9755609.25 5135302.63 181.08
-9755608.10 5135302.89 181.10
-9755597.82 5135304.35 181.12
-9755593.04 5135307.56 181.07
-9755598.13 5135302.88 181.11
-9755599.59 5135304.35 181.14
-9755598.06 5135307.88 181.10
-9755601.34 5135306.12 181.14
-9755597.80 5135306.01 181.10
-9755599.83 5135306.10 181.12
-9755593.14 5135303.09 181.06
-9755589.53 5135306.11 181.03
-9755619.28 5135281.42 185.32
-9755615.93 5135286.49 184.82
-9755616.31 5135281.44 184.87
-9755619.51 5135279.99 185.31
-9755619.16 5135288.00 185.32
-9755617.42 5135288.22 185.00
-9755614.21 5135284.68 184.60
-9755617.37 5135289.78 184.94
-9755615.89 5135289.75 184.80
-9755617.67 5135294.51 185.00
-9755617.91 5135294.49 185.11
-9755618.24 5135293.00 185.24
-9755618.01 5135289.43 185.19
-9755607.73 5135284.46 181.08
-9755607.99 5135281.55 181.09
-9755611.21 5135282.79 181.23
-9755607.93 5135280.00 181.09
-9755602.94 5135283.30 181.10
-9755604.43 5135283.08 181.12
-9755604.74 5135286.31 181.12
-9755607.66 5135286.36 181.11
-9755609.46 5135281.30 181.10
-9755610.91 5135279.76 181.19
-9755602.99 5135279.52 181.12
-9755606.14 5135287.77 181.11
-9755604.52 5135279.76 181.09
-9755611.21 5135284.60 181.22
-9755604.72 5135281.54 181.12
-9755612.69 5135279.81 181.23
-9755596.44 5135284.50 181.04
-9755597.96 5135281.28 181.06
-9755594.31 5135287.97 181.06
-9755596.35 5135286.23 181.06
-9755594.40 5135279.68 181.36
-9755601.17 5135284.85 181.09
-9755592.93 5135284.74 181.16
-9755596.49 5135279.76 181.23
-9755591.46 5135281.46 181.26
-9755594.45 5135281.21 181.31
-9755594.99 5135282.97 181.25
-9755593.23 5135280.50 182.78
-9755601.45 5135288.04 181.11
-9755599.70 5135288.10 181.10
-9755593.92 5135280.12 183.12
-9755592.07 5135280.96 183.36
-9755603.18 5135296.30 181.13
-9755606.39 5135296.34 181.13
-9755612.86 5135292.84 181.25
-9755611.19 5135294.62 181.19
-9755602.66 5135294.57 181.11
-9755604.65 5135296.32 181.12
-9755606.10 5135294.60 181.11
-9755612.86 5135296.39 181.25
-9755609.35 5135289.80 181.08
-9755610.87 5135296.40 181.07
-9755602.92 5135289.50 181.13
-9755606.21 5135297.91 181.12
-9755601.37 5135296.40 181.13
-9755598.13 5135298.03 181.14
-9755594.97 5135292.74 181.11
-9755591.14 5135294.80 181.09
-9755598.17 5135294.82 181.13
-9755594.59 5135294.84 181.12
-9755594.95 5135289.49 181.10
-9755591.36 5135289.48 181.07
-9755591.37 5135296.04 181.06
-9755589.58 5135299.53 181.05
-9755589.57 5135304.61 181.05
-9755589.83 5135307.81 181.04
-9755588.13 5135304.59 181.04
-9755588.12 5135306.01 181.06
-9755586.41 5135304.14 181.04
-9755579.79 5135300.98 181.02
-9755581.61 5135301.23 180.98
-9755584.60 5135301.03 181.03
-9755584.80 5135299.54 181.04
-9755576.27 5135301.21 181.00
-9755574.84 5135299.40 181.01
-9755571.64 5135301.20 181.00
-9755568.28 5135301.14 181.00
-9755566.61 5135299.42 181.00
-9755568.37 5135299.42 181.02
-9755561.80 5135299.68 181.01
-9755584.88 5135302.72 181.04
-9755576.46 5135307.75 180.95
-9755581.36 5135305.99 180.98
-9755584.79 5135306.12 180.99
-9755578.38 5135302.72 181.00
-9755580.07 5135307.82 180.95
-9755576.31 5135302.75 180.99
-9755576.47 5135306.33 180.97
-9755576.25 5135304.47 180.98
-9755581.32 5135302.79 181.01
-9755575.13 5135308.05 180.95
-9755575.02 5135306.24 180.96
-9755570.03 5135307.46 180.95
-9755566.83 5135304.35 180.97
-9755572.98 5135306.03 180.94
-9755569.81 5135302.69 180.99
-9755570.08 5135306.20 180.95
-9755563.29 5135302.96 180.99
-9755566.89 5135306.22 180.96
-9755569.79 5135304.44 180.96
-9755568.63 5135302.77 180.97
-9755563.55 5135306.18 180.98
-9755563.26 5135304.44 180.97
-9755561.75 5135302.66 181.00
-9755571.88 5135307.73 180.94
-9755560.00 5135307.63 180.96
-9755589.65 5135284.74 181.05
-9755589.65 5135282.93 181.02
-9755588.21 5135286.23 181.05
-9755588.22 5135284.69 181.05
-9755588.21 5135283.01 181.05
-9755587.90 5135281.47 181.06
-9755588.18 5135288.01 181.06
-9755589.90 5135289.54 181.09
-9755589.66 5135291.24 181.11
-9755587.91 5135289.78 181.08
-9755588.07 5135291.22 181.07
-9755586.45 5135296.31 181.07
-9755586.39 5135284.46 181.07
-9755581.40 5135282.92 181.02
-9755581.36 5135285.03 181.03
-9755576.73 5135284.64 181.05
-9755579.66 5135284.62 181.03
-9755576.68 5135283.11 181.03
-9755583.21 5135286.47 181.04
-9755578.18 5135281.37 181.04
-9755583.17 5135284.97 181.02
-9755584.95 5135283.20 181.04
-9755578.43 5135286.48 181.05
-9755584.70 5135287.98 181.06
-9755576.67 5135286.08 181.02
-9755586.45 5135286.45 181.05
-9755571.66 5135283.17 181.02
-9755574.84 5135286.47 181.03
-9755571.41 5135286.39 181.04
-9755564.87 5135288.13 181.07
-9755568.46 5135282.84 181.02
-9755565.25 5135283.11 181.03
-9755574.72 5135284.99 181.02
-9755568.12 5135284.92 181.02
-9755574.63 5135279.59 181.03
-9755565.24 5135279.91 181.02
-9755571.69 5135287.74 181.05
-9755561.40 5135286.30 181.05
-9755561.66 5135282.75 181.04
-9755561.87 5135285.06 181.05
-9755576.56 5135296.50 181.03
-9755576.30 5135297.95 181.03
-9755581.60 5135298.02 181.05
-9755576.64 5135291.44 181.04
-9755581.40 5135294.46 181.03
-9755578.39 5135289.72 181.05
-9755574.77 5135296.17 181.04
-9755573.32 5135292.93 181.05
-9755573.16 5135294.52 181.04
-9755573.39 5135291.40 181.05
-9755573.22 5135289.37 181.04
-9755564.84 5135291.12 181.08
-9755563.09 5135296.40 181.05
-9755565.15 5135294.69 181.03
-9755565.12 5135292.87 181.05
-9755563.39 5135289.61 181.07
-9755574.92 5135291.06 181.05
-9755569.86 5135292.61 181.04
-9755573.10 5135297.98 181.03
-9755570.17 5135291.44 181.05
-9755563.37 5135293.15 181.05
-9755570.06 5135296.44 181.04
-9755566.56 5135289.71 181.07
-9755571.30 5135296.20 181.03
-9755566.65 5135291.41 181.06
-9755561.87 5135293.13 181.07
-9755561.87 5135291.06 181.06
-9755558.36 5135301.16 181.02
-9755553.64 5135301.14 181.04
-9755542.34 5135301.09 181.05
-9755536.80 5135301.25 181.04
-9755535.63 5135299.47 181.05
-9755533.83 5135300.95 181.02
-9755555.37 5135307.93 181.02
-9755556.87 5135304.65 181.03
-9755554.77 5135306.14 181.01
-9755548.51 5135304.25 181.04
-9755550.11 5135306.42 181.02
-9755548.77 5135307.63 181.03
-9755540.25 5135305.79 180.97
-9755543.53 5135304.31 181.01
-9755536.81 5135302.76 181.01
-9755543.58 5135306.11 180.99
-9755545.30 5135302.84 181.05
-9755543.53 5135303.16 181.03
-9755538.60 5135304.63 181.00
-9755540.37 5135307.53 180.99
-9755542.04 5135307.83 181.01
-9755538.81 5135302.63 181.02
-9755532.06 5135299.49 181.05
-9755560.22 5135283.07 181.05
-9755560.21 5135289.90 181.08
-9755559.85 5135294.65 181.05
-9755560.20 5135296.14 181.06
-9755555.17 5135284.79 181.09
-9755551.85 5135281.58 181.08
-9755556.93 5135286.35 181.08
-9755551.69 5135280.07 181.07
-9755551.86 5135286.30 181.11
-9755556.61 5135288.12 181.08
-9755554.86 5135288.02 181.11
-9755550.09 5135286.64 181.08
-9755548.44 5135283.08 181.08
-9755550.38 5135288.06 181.08
-9755548.73 5135281.54 181.09
-9755546.64 5135279.76 181.08
-9755546.98 5135284.85 181.08
-9755541.91 5135281.49 181.04
-9755540.44 5135281.46 181.03
-9755543.65 5135287.80 181.06
-9755540.35 5135283.33 181.05
-9755544.95 5135284.52 181.08
-9755543.61 5135281.50 181.04
-9755536.88 5135284.78 181.06
-9755541.94 5135288.01 181.07
-9755547.14 5135288.02 181.10
-9755535.37 5135279.97 180.98
-9755535.36 5135288.24 181.02
-9755553.65 5135293.09 181.04
-9755551.66 5135297.84 181.09
-9755550.12 5135297.88 181.08
-9755556.87 5135294.51 181.08
-9755555.20 5135291.10 181.08
-9755551.61 5135289.55 181.09
-9755551.62 5135296.03 181.12
-9755555.42 5135294.61 181.07
-9755558.39 5135291.38 181.09
-9755548.60 5135296.04 181.11
-9755548.36 5135291.04 181.09
-9755538.65 5135297.79 181.08
-9755541.60 5135297.77 181.09
-9755536.84 5135296.25 181.11
-9755538.57 5135294.83 181.10
-9755537.17 5135298.26 181.09
-9755538.65 5135292.71 181.08
-9755541.89 5135289.50 181.09
-9755546.86 5135298.14 181.06
-9755538.34 5135291.25 181.09
-9755538.68 5135289.78 181.07
-9755537.13 5135289.67 181.05
-9755545.17 5135297.78 181.10
-9755540.42 5135296.51 181.09
-9755546.92 5135294.65 181.09
-9755533.89 5135294.19 181.08
-9755533.56 5135297.69 181.07
-9755531.94 5135297.96 181.09
-9755523.79 5135301.24 181.03
-9755527.36 5135301.33 181.03
-9755519.12 5135299.42 181.04
-9755512.37 5135299.32 181.09
-9755517.38 5135301.15 181.06
-9755517.45 5135299.37 181.07
-9755507.63 5135299.30 181.12
-9755530.58 5135304.55 180.98
-9755523.80 5135302.74 181.04
-9755525.56 5135308.02 180.98
-9755527.02 5135302.74 181.01
-9755523.79 5135307.68 181.01
-9755530.62 5135307.77 180.98
-9755525.56 5135306.27 181.01
-9755518.77 5135302.70 181.09
-9755520.56 5135304.48 181.09
-9755515.85 5135304.38 181.05
-9755508.77 5135307.64 181.14
-9755520.55 5135303.01 181.06
-9755512.60 5135306.15 181.10
-9755512.29 5135302.55 181.10
-9755510.88 5135302.91 181.10
-9755513.86 5135304.44 181.08
-9755512.24 5135307.65 181.09
-9755508.78 5135304.68 181.11
-9755508.78 5135302.94 181.12
-9755507.25 5135307.98 181.12
-9755507.29 5135302.62 181.12
-9755505.48 5135299.33 181.14
-9755504.04 5135299.28 181.15
-9755505.78 5135308.00 181.12
-9755505.56 5135302.58 181.13
-9755530.39 5135286.11 181.01
-9755523.85 5135284.91 181.00
-9755525.48 5135281.71 180.98
-9755525.46 5135286.18 180.97
-9755525.17 5135283.20 180.99
-9755523.93 5135279.55 180.98
-9755522.07 5135286.38 181.01
-9755510.58 5135284.91 181.05
-9755520.44 5135284.95 181.01
-9755515.74 5135283.12 181.05
-9755518.59 5135287.87 181.04
-9755510.70 5135280.10 181.05
-9755508.87 5135281.34 181.09
-9755512.07 5135288.13 181.08
-9755509.14 5135284.82 181.09
-9755507.40 5135281.63 181.10
-9755508.86 5135286.33 181.07
-9755507.36 5135284.56 181.12
-9755525.55 5135298.24 181.08
-9755527.13 5135289.67 181.06
-9755525.35 5135292.86 181.06
-9755528.96 5135294.64 181.93
-9755523.95 5135291.32 181.04
-9755522.01 5135294.63 181.05
-9755522.47 5135293.22 181.05
-9755530.15 5135294.46 186.58
-9755530.27 5135293.66 192.69
-9755529.37 5135293.59 181.80
-9755514.05 5135297.60 181.10
-9755512.05 5135297.86 181.10
-9755512.43 5135296.23 181.07
-9755518.83 5135297.97 181.07
-9755514.14 5135291.45 181.06
-9755520.64 5135291.20 181.04
-9755512.41 5135289.66 181.09
-9755518.92 5135294.72 181.03
-9755509.15 5135297.88 181.14
-9755510.72 5135291.30 181.11
-9755510.66 5135294.61 181.09
-9755513.79 5135294.62 181.05
-9755520.67 5135292.88 181.05
-9755518.91 5135292.90 181.04
-9755515.55 5135296.12 181.07
-9755508.93 5135292.82 181.11
-9755515.63 5135291.37 181.07
-9755518.77 5135289.86 181.04
-9755508.85 5135289.56 181.11
-9755514.20 5135296.26 181.07
-9755507.37 5135292.91 181.13
-9755507.58 5135291.40 181.12
-9755507.42 5135288.09 181.10
-9755505.61 5135284.80 181.13
-9755505.54 5135294.60 181.15
-9755504.04 5135293.02 181.14
-9755505.59 5135297.94 181.17
-9755711.78 5135279.88 185.79
-9755713.27 5135279.85 185.78
-9755710.12 5135261.79 185.89
-9755711.57 5135261.85 185.89
-9755710.10 5135271.60 185.81
-9755711.87 5135269.79 185.84
-9755710.08 5135266.51 185.84
-9755711.51 5135273.35 185.82
-9755710.09 5135268.00 185.84
-9755701.52 5135274.76 185.67
-9755697.10 5135275.11 185.45
-9755703.23 5135274.82 185.73
-9755705.03 5135274.51 185.78
-9755698.31 5135274.77 185.51
-9755708.28 5135279.55 185.75
-9755706.81 5135279.54 185.76
-9755698.26 5135279.79 185.44
-9755705.02 5135278.03 185.75
-9755696.80 5135276.26 185.45
-9755705.27 5135279.86 185.74
-9755706.87 5135276.59 185.77
-9755694.99 5135276.22 185.43
-9755703.54 5135278.05 185.72
-9755693.51 5135279.82 185.44
-9755693.50 5135278.01 185.46
-9755687.04 5135272.92 185.35
-9755688.52 5135274.75 185.36
-9755688.25 5135273.28 185.37
-9755682.00 5135273.23 185.35
-9755680.38 5135275.03 185.37
-9755680.33 5135273.19 185.37
-9755683.45 5135279.75 185.32
-9755682.03 5135278.21 185.33
-9755688.50 5135276.53 185.37
-9755683.51 5135278.23 185.29
-9755690.31 5135278.29 185.41
-9755686.93 5135278.30 185.34
-9755708.34 5135261.50 185.87
-9755703.37 5135261.74 185.79
-9755708.56 5135269.76 185.80
-9755708.38 5135264.72 185.85
-9755706.50 5135271.53 185.79
-9755705.39 5135271.58 185.80
-9755701.54 5135269.72 185.72
-9755698.32 5135262.94 185.63
-9755696.83 5135269.76 185.48
-9755695.10 5135264.97 185.43
-9755703.34 5135269.81 185.75
-9755706.63 5135266.55 185.82
-9755696.86 5135263.47 185.50
-9755706.87 5135268.03 185.81
-9755701.85 5135271.54 185.71
-9755701.84 5135265.04 185.73
-9755703.63 5135263.22 185.79
-9755695.07 5135271.75 185.46
-9755693.59 5135266.45 185.46
-9755691.87 5135259.95 185.48
-9755683.58 5135260.20 185.38
-9755681.82 5135261.62 185.35
-9755683.84 5135268.22 185.34
-9755685.03 5135264.97 185.39
-9755681.73 5135268.18 185.35
-9755687.09 5135266.44 185.41
-9755690.10 5135263.16 185.44
-9755683.57 5135269.94 185.33
-9755688.56 5135271.77 185.37
-9755690.32 5135269.71 185.42
-9755684.97 5135271.42 185.34
-9755681.79 5135269.88 185.36
-9755680.27 5135271.75 185.38
-9755680.31 5135269.95 185.36
-9755680.64 5135268.15 185.38
-9755674.06 5135275.06 187.15
-9755670.58 5135273.06 186.99
-9755675.53 5135273.45 187.00
-9755673.76 5135273.15 187.10
-9755676.79 5135272.93 185.24
-9755667.02 5135273.00 187.02
-9755673.78 5135276.34 187.12
-9755676.70 5135276.92 187.14
-9755675.33 5135276.27 187.13
-9755673.85 5135277.52 186.96
-9755675.28 5135277.54 186.98
-9755668.58 5135276.06 186.67
-9755665.32 5135274.81 185.69
-9755663.98 5135275.05 185.68
-9755658.72 5135275.13 185.31
-9755653.76 5135274.83 185.26
-9755654.03 5135273.36 185.26
-9755650.26 5135273.18 185.81
-9755657.25 5135278.09 185.30
-9755660.24 5135278.11 185.26
-9755665.62 5135277.85 186.93
-9755652.34 5135276.31 185.26
-9755650.24 5135276.69 187.30
-9755653.99 5135278.36 185.24
-9755677.10 5135260.14 185.28
-9755668.87 5135259.85 185.76
-9755670.64 5135260.09 187.00
-9755676.05 5135261.58 186.97
-9755672.34 5135261.85 185.90
-9755670.66 5135261.81 187.01
-9755667.29 5135260.01 187.00
-9755666.97 5135261.69 185.92
-9755675.32 5135263.04 185.79
-9755672.27 5135269.43 186.99
-9755678.79 5135271.71 185.28
-9755676.27 5135263.33 187.00
-9755673.79 5135271.63 185.80
-9755672.48 5135268.08 187.03
-9755673.93 5135264.83 185.78
-9755673.49 5135269.86 185.81
-9755670.52 5135269.95 187.03
-9755678.55 5135264.91 185.29
-9755672.32 5135268.38 185.83
-9755668.83 5135264.82 185.74
-9755676.22 5135266.57 186.98
-9755672.33 5135263.65 187.00
-9755670.67 5135263.30 187.00
-9755678.83 5135268.16 185.30
-9755675.95 5135265.27 186.99
-9755679.15 5135263.38 185.35
-9755670.61 5135266.55 187.01
-9755672.40 5135266.56 187.03
-9755676.72 5135264.67 185.82
-9755676.42 5135266.57 186.99
-9755672.35 5135264.79 186.97
-9755676.21 5135271.85 187.14
-9755675.97 5135268.20 187.02
-9755670.60 5135268.32 187.00
-9755667.07 5135263.37 185.79
-9755667.34 5135266.59 185.78
-9755667.07 5135263.27 186.99
-9755667.07 5135268.00 187.01
-9755661.80 5135261.74 187.09
-9755665.21 5135261.46 187.18
-9755663.80 5135260.10 185.72
-9755652.37 5135261.48 185.29
-9755650.60 5135261.50 185.37
-9755662.30 5135271.33 185.69
-9755657.02 5135265.08 185.32
-9755665.26 5135265.10 187.21
-9755655.88 5135263.27 185.30
-9755662.33 5135265.05 187.16
-9755663.74 5135268.15 186.97
-9755665.64 5135270.32 187.21
-9755657.02 5135271.56 185.34
-9755655.84 5135266.83 185.32
-9755650.54 5135265.04 185.37
-9755654.08 5135265.06 185.31
-9755653.81 5135266.56 185.29
-9755654.01 5135270.09 185.29
-9755650.53 5135268.58 185.37
-9755650.16 5135269.89 187.04
-9755650.22 5135271.72 186.96
-9755650.07 5135266.70 187.06
-9755645.89 5135274.43 185.87
-9755645.80 5135273.08 185.96
-9755647.24 5135275.02 185.82
-9755649.46 5135274.76 187.07
-9755645.79 5135275.03 187.03
-9755645.86 5135273.18 187.00
-9755641.03 5135273.26 185.59
-9755640.79 5135274.73 185.58
-9755646.11 5135276.55 185.85
-9755644.00 5135278.35 185.59
-9755645.79 5135277.95 187.33
-9755644.29 5135276.56 185.58
-9755642.50 5135278.32 185.57
-9755649.39 5135278.36 187.23
-9755640.75 5135278.30 185.55
-9755634.26 5135274.71 185.10
-9755632.56 5135273.39 187.02
-9755636.88 5135273.25 185.02
-9755632.59 5135274.92 187.03
-9755627.48 5135274.77 185.21
-9755624.27 5135273.12 185.38
-9755621.35 5135274.94 185.33
-9755638.98 5135278.30 185.18
-9755629.22 5135277.89 185.80
-9755630.75 5135276.50 185.80
-9755629.01 5135276.46 185.73
-9755631.13 5135277.97 185.78
-9755632.71 5135278.21 187.03
-9755638.99 5135276.51 185.18
-9755628.85 5135276.44 187.03
-9755622.76 5135276.77 185.32
-9755621.28 5135278.23 185.32
-9755624.28 5135276.71 185.36
-9755620.97 5135276.43 185.32
-9755628.39 5135277.82 187.03
-9755626.05 5135276.18 185.38
-9755645.83 5135259.92 185.91
-9755642.34 5135261.75 185.60
-9755647.57 5135261.80 185.89
-9755645.89 5135261.68 185.92
-9755645.59 5135261.77 187.11
-9755649.89 5135259.32 187.23
-9755650.22 5135261.11 187.02
-9755641.16 5135259.95 185.62
-9755649.03 5135263.28 185.91
-9755648.98 5135265.15 185.79
-9755649.60 5135271.88 187.10
-9755645.93 5135264.78 185.87
-9755647.61 5135263.51 185.92
-9755647.72 5135264.95 186.00
-9755647.33 5135271.57 185.85
-9755642.61 5135271.46 185.60
-9755644.10 5135264.69 185.59
-9755645.75 5135268.17 185.92
-9755645.79 5135262.87 187.13
-9755645.82 5135266.77 187.05
-9755642.63 5135264.68 185.60
-9755640.82 5135269.73 185.59
-9755640.87 5135264.94 185.61
-9755639.39 5135259.95 185.31
-9755635.80 5135261.71 185.12
-9755630.87 5135260.32 186.90
-9755631.98 5135260.15 187.06
-9755637.63 5135259.96 185.09
-9755630.78 5135261.54 185.72
-9755629.29 5135260.13 186.94
-9755631.55 5135260.89 186.89
-9755628.69 5135261.21 187.03
-9755625.89 5135261.65 185.37
-9755622.60 5135261.63 185.34
-9755624.35 5135261.65 185.38
-9755629.04 5135269.92 185.79
-9755632.26 5135264.95 185.76
-9755631.03 5135263.22 185.79
-9755632.33 5135266.64 185.80
-9755629.57 5135266.78 185.79
-9755639.04 5135271.49 185.21
-9755629.34 5135264.61 185.79
-9755629.04 5135271.46 185.75
-9755634.35 5135268.15 185.11
-9755636.06 5135269.77 185.09
-9755636.08 5135265.02 185.10
-9755628.96 5135268.07 185.67
-9755639.11 5135268.54 185.23
-9755637.32 5135268.74 185.00
-9755632.53 5135263.41 187.06
-9755632.29 5135271.63 187.03
-9755632.55 5135269.96 187.04
-9755632.51 5135268.03 187.03
-9755628.71 5135270.22 187.02
-9755628.74 5135271.32 187.01
-9755625.83 5135264.86 185.38
-9755626.10 5135266.39 185.37
-9755626.13 5135268.12 185.38
-9755624.03 5135263.40 185.37
-9755627.32 5135271.39 185.23
-9755624.26 5135271.69 185.37
-9755628.15 5135265.09 187.02
-9755621.01 5135269.57 185.32
-9755621.05 5135266.62 185.34
-9755628.71 5135268.47 187.01
-9755622.55 5135269.99 185.34
-9755621.12 5135268.38 185.33
-9755628.14 5135266.55 187.02
-9755628.19 5135268.10 187.03
-9755628.13 5135271.72 187.04
-9755617.79 5135272.85 185.24
-9755618.08 5135274.60 185.27
-9755619.30 5135273.43 185.32
-9755619.28 5135274.66 185.32
-9755618.09 5135277.91 185.29
-9755615.98 5135278.15 184.85
-9755617.13 5135278.22 184.98
-9755611.27 5135274.49 181.23
-9755611.25 5135273.04 181.21
-9755601.25 5135273.23 181.12
-9755599.43 5135275.02 181.10
-9755592.97 5135274.70 181.25
-9755596.25 5135272.97 181.21
-9755611.25 5135278.04 181.21
-9755612.75 5135276.54 181.23
-9755607.75 5135276.57 181.09
-9755606.45 5135276.50 181.10
-9755606.22 5135278.10 181.12
-9755602.72 5135277.99 181.11
-9755591.21 5135277.94 181.30
-9755616.08 5135260.13 184.93
-9755616.14 5135261.61 184.94
-9755616.87 5135260.64 185.03
-9755619.30 5135264.85 185.32
-9755619.58 5135266.60 185.33
-9755616.32 5135264.82 184.94
-9755619.25 5135268.08 185.33
-9755617.80 5135269.61 185.24
-9755616.93 5135271.38 184.98
-9755609.60 5135259.97 181.05
-9755607.75 5135260.17 181.07
-9755611.03 5135260.25 181.24
-9755604.61 5135259.90 181.09
-9755603.10 5135261.69 181.08
-9755591.20 5135260.17 184.32
-9755596.02 5135260.17 181.06
-9755593.10 5135260.21 181.33
-9755591.92 5135261.10 187.55
-9755597.55 5135261.17 184.13
-9755599.80 5135261.40 181.11
-9755599.81 5135259.94 181.12
-9755594.86 5135261.41 185.31
-9755593.10 5135261.39 181.29
-9755598.15 5135261.70 181.12
-9755604.77 5135271.49 181.11
-9755604.82 5135269.99 181.10
-9755612.80 5135263.24 181.25
-9755607.80 5135263.22 181.09
-9755613.09 5135268.26 181.20
-9755611.04 5135270.03 181.23
-9755611.22 5135271.81 181.23
-9755611.06 5135263.22 181.26
-9755606.22 5135267.99 181.08
-9755611.03 5135264.97 181.24
-9755606.30 5135269.96 181.07
-9755606.31 5135263.51 181.09
-9755604.54 5135266.74 181.08
-9755612.51 5135264.98 181.24
-9755603.09 5135263.44 181.08
-9755604.24 5135264.76 181.06
-9755603.12 5135264.60 181.09
-9755603.03 5135271.50 181.15
-9755597.97 5135269.67 181.10
-9755599.44 5135271.50 181.11
-9755594.56 5135263.28 184.03
-9755596.47 5135270.00 181.07
-9755591.24 5135268.43 181.28
-9755592.99 5135271.39 181.29
-9755596.26 5135266.75 181.07
-9755601.26 5135271.48 181.15
-9755595.97 5135264.91 181.09
-9755594.79 5135266.39 181.28
-9755591.89 5135264.64 185.44
-9755587.94 5135278.24 181.05
-9755581.76 5135273.17 181.03
-9755578.26 5135273.01 181.00
-9755584.69 5135274.89 181.08
-9755579.99 5135274.80 181.02
-9755570.01 5135273.03 180.98
-9755568.12 5135274.83 181.00
-9755573.48 5135273.05 180.97
-9755561.74 5135273.28 180.98
-9755578.19 5135278.13 181.01
-9755584.64 5135276.45 181.06
-9755581.71 5135276.38 181.01
-9755576.78 5135276.36 181.02
-9755574.97 5135278.18 181.02
-9755569.72 5135278.15 180.98
-9755566.75 5135276.34 181.02
-9755571.46 5135278.08 181.01
-9755573.47 5135276.39 181.00
-9755573.46 5135278.10 181.01
-9755564.95 5135276.37 181.01
-9755563.16 5135278.04 181.01
-9755561.75 5135276.35 181.02
-9755589.87 5135260.11 187.56
-9755588.35 5135261.70 185.86
-9755588.42 5135259.66 184.52
-9755587.92 5135261.86 181.08
-9755589.76 5135269.69 181.07
-9755589.80 5135268.45 181.06
-9755588.01 5135266.44 181.07
-9755587.96 5135265.17 181.08
-9755584.85 5135259.81 181.07
-9755586.54 5135259.82 181.05
-9755581.53 5135261.56 181.01
-9755583.05 5135260.14 181.05
-9755581.32 5135259.81 181.01
-9755586.42 5135259.71 185.02
-9755568.30 5135259.80 180.97
-9755570.06 5135261.56 180.93
-9755571.56 5135261.80 180.93
-9755561.53 5135261.82 180.97
-9755583.38 5135263.22 181.02
-9755586.56 5135264.83 181.07
-9755584.75 5135265.20 181.07
-9755578.23 5135271.69 180.99
-9755576.77 5135269.87 180.99
-9755583.01 5135268.40 181.05
-9755576.38 5135271.66 180.98
-9755580.07 5135266.58 181.00
-9755584.68 5135271.74 181.08
-9755577.97 5135266.83 181.00
-9755586.56 5135268.10 181.06
-9755580.11 5135268.41 181.03
-9755584.45 5135268.23 181.05
-9755576.79 5135265.15 180.95
-9755563.48 5135269.77 180.95
-9755575.05 5135271.56 180.99
-9755565.23 5135271.55 180.96
-9755573.26 5135266.32 180.94
-9755570.01 5135266.65 180.91
-9755568.09 5135263.43 180.94
-9755570.30 5135271.35 180.95
-9755568.31 5135268.01 180.96
-9755566.75 5135266.26 180.91
-9755565.00 5135268.35 180.97
-9755563.51 5135266.54 180.95
-9755570.10 5135263.36 180.91
-9755568.21 5135271.33 180.96
-9755566.46 5135271.58 180.95
-9755568.57 5135269.78 180.96
-9755571.44 5135263.28 180.91
-9755568.32 5135266.60 180.91
-9755561.81 5135263.48 180.98
-9755551.78 5135273.05 181.05
-9755550.28 5135274.69 181.06
-9755548.37 5135274.71 181.08
-9755542.19 5135273.20 181.04
-9755536.95 5135273.23 180.97
-9755540.01 5135273.19 181.01
-9755535.06 5135274.95 180.97
-9755554.87 5135277.96 181.05
-9755553.53 5135274.85 181.07
-9755551.96 5135276.29 181.06
-9755556.97 5135278.00 181.06
-9755543.74 5135277.97 181.07
-9755545.23 5135278.12 181.06
-9755541.64 5135276.47 181.03
-9755538.37 5135276.36 181.00
-9755537.26 5135276.63 180.99
-9755544.93 5135276.53 181.07
-9755533.68 5135278.21 180.98
-9755533.64 5135276.19 180.97
-9755560.29 5135259.99 180.98
-9755560.23 5135270.01 180.98
-9755560.10 5135264.97 180.99
-9755556.76 5135261.49 181.01
-9755555.35 5135260.10 181.02
-9755556.89 5135259.58 181.03
-9755558.27 5135261.49 181.00
-9755537.01 5135260.16 180.99
-9755548.54 5135260.27 181.04
-9755540.31 5135260.09 181.00
-9755548.54 5135261.72 181.05
-9755540.29 5135261.64 181.01
-9755551.81 5135265.00 181.01
-9755556.78 5135266.51 180.99
-9755554.92 5135271.41 181.03
-9755557.01 5135263.55 181.01
-9755553.51 5135271.40 181.05
-9755553.60 5135268.30 181.04
-9755550.17 5135266.77 180.95
-9755556.47 5135269.74 181.01
-9755551.69 5135269.97 181.06
-9755550.24 5135268.24 181.06
-9755551.77 5135263.18 181.01
-9755553.48 5135263.45 181.03
-9755545.33 5135261.69 181.08
-9755545.22 5135268.45 181.04
-9755538.77 5135269.93 180.99
-9755545.29 5135269.98 181.06
-9755536.97 5135270.00 180.99
-9755540.30 5135264.68 181.03
-9755535.23 5135261.66 180.94
-9755548.51 5135265.17 181.04
-9755535.57 5135264.91 180.98
-9755533.41 5135269.85 180.93
-9755533.78 5135268.06 180.94
-9755525.46 5135273.05 180.93
-9755523.74 5135274.63 180.97
-9755525.43 5135275.01 180.94
-9755527.21 5135274.60 180.92
-9755517.54 5135273.06 181.00
-9755518.97 5135273.08 181.01
-9755512.18 5135273.32 181.07
-9755514.04 5135274.81 181.05
-9755530.28 5135276.39 180.94
-9755528.64 5135276.44 180.97
-9755523.63 5135276.34 180.96
-9755513.93 5135278.08 181.04
-9755512.47 5135274.80 181.06
-9755518.66 5135274.86 181.01
-9755512.44 5135276.29 181.05
-9755512.22 5135278.18 181.04
-9755520.72 5135278.11 181.00
-9755507.48 5135276.30 181.12
-9755503.89 5135278.26 181.12
-9755527.35 5135259.84 180.94
-9755523.78 5135260.11 180.98
-9755508.74 5135260.20 181.11
-9755507.53 5135259.93 181.12
-9755527.28 5135266.58 180.93
-9755523.82 5135263.33 180.96
-9755527.05 5135263.40 180.95
-9755528.73 5135268.42 180.91
-9755530.54 5135263.38 180.96
-9755523.96 5135271.62 180.95
-9755526.89 5135264.82 180.91
-9755523.77 5135268.11 180.94
-9755522.44 5135268.37 180.97
-9755515.68 5135266.54 181.05
-9755512.21 5135263.56 181.10
-9755519.02 5135269.69 181.01
-9755513.96 5135268.31 181.08
-9755512.32 5135269.77 181.07
-9755520.78 5135271.39 180.98
-9755518.80 5135266.85 181.02
-9755515.83 5135265.03 181.05
-9755510.80 5135268.28 181.05
-9755513.98 5135263.60 181.06
-9755519.10 5135268.33 181.01
-9755510.84 5135263.28 181.07
-9755520.78 5135263.04 181.00
-9755507.51 5135271.50 181.13
-9755509.32 5135261.54 181.08
-9755507.50 5135268.39 181.12
-9755507.21 5135264.77 181.12
-9755507.31 5135261.43 181.12
-9755506.00 5135261.79 181.12
-9755505.71 5135263.58 181.11
-9755505.78 5135268.33 181.11
-9755713.26 5135462.57 185.87
-9755713.06 5135460.86 185.65
-9755708.65 5135460.95 186.98
-9755713.31 5135462.54 186.84
-9755709.56 5135462.76 186.76
-9755713.09 5135465.68 185.84
-9755713.04 5135464.14 185.70
-9755707.96 5135467.39 186.05
-9755709.69 5135469.56 186.85
-9755713.06 5135469.34 186.82
-9755713.12 5135459.21 186.98
-9755701.58 5135462.49 186.25
-9755697.04 5135462.56 185.74
-9755696.84 5135462.65 186.73
-9755693.33 5135460.91 186.86
-9755700.06 5135469.09 185.56
-9755695.29 5135469.21 185.57
-9755696.84 5135469.26 185.58
-9755697.08 5135467.48 185.77
-9755698.63 5135467.60 186.26
-9755701.88 5135467.51 186.23
-9755696.82 5135464.55 185.56
-9755704.99 5135467.64 186.25
-9755691.54 5135465.72 185.48
-9755691.47 5135469.18 185.54
-9755691.58 5135462.76 186.78
-9755683.59 5135460.91 187.05
-9755681.78 5135460.95 184.95
-9755683.63 5135462.68 185.50
-9755691.75 5135461.19 186.86
-9755690.40 5135462.12 187.02
-9755691.78 5135464.39 186.94
-9755690.26 5135468.75 185.62
-9755690.31 5135464.21 186.42
-9755688.51 5135464.17 186.42
-9755686.51 5135467.68 186.21
-9755686.51 5135465.89 185.89
-9755682.37 5135465.93 186.71
-9755680.25 5135468.94 185.46
-9755688.53 5135464.45 186.95
-9755688.07 5135466.40 186.80
-9755688.03 5135469.23 186.83
-9755678.56 5135462.68 185.49
-9755695.06 5135459.14 185.61
-9755699.83 5135459.14 186.21
-9755697.05 5135459.42 185.50
-9755693.36 5135459.23 186.86
-9755682.14 5135459.41 186.94
-9755686.85 5135459.11 186.86
-9755689.58 5135459.47 185.58
-9755666.90 5135460.74 185.97
-9755665.63 5135461.18 184.98
-9755667.49 5135460.56 186.67
-9755668.83 5135467.42 185.00
-9755675.31 5135467.77 185.56
-9755667.33 5135469.10 186.22
-9755673.85 5135464.21 185.57
-9755677.11 5135464.12 186.09
-9755667.09 5135464.39 185.96
-9755673.74 5135465.92 185.57
-9755675.55 5135465.68 185.89
-9755667.31 5135466.21 184.95
-9755668.75 5135465.89 185.58
-9755671.42 5135469.19 184.98
-9755675.45 5135464.14 185.56
-9755672.00 5135469.10 186.81
-9755671.42 5135466.26 185.00
-9755665.50 5135468.87 185.51
-9755665.54 5135469.13 184.99
-9755652.07 5135461.13 185.70
-9755662.06 5135462.67 185.14
-9755659.10 5135467.35 185.20
-9755658.78 5135466.13 185.19
-9755662.29 5135469.15 185.13
-9755653.44 5135467.81 185.70
-9755657.29 5135467.32 185.12
-9755653.57 5135463.08 185.75
-9755653.57 5135464.25 186.10
-9755653.54 5135465.67 185.92
-9755648.75 5135465.96 185.70
-9755652.29 5135467.27 185.70
-9755648.92 5135464.34 185.54
-9755649.04 5135468.93 186.92
-9755653.51 5135464.31 186.89
-9755649.96 5135468.84 186.84
-9755649.98 5135465.60 186.94
-9755675.34 5135459.65 185.52
-9755667.09 5135459.37 185.60
-9755653.50 5135458.96 185.73
-9755652.20 5135459.31 185.68
-9755645.86 5135461.02 185.34
-9755647.59 5135460.80 185.36
-9755639.10 5135460.98 184.97
-9755645.87 5135464.29 185.34
-9755645.84 5135467.84 185.35
-9755640.83 5135462.54 184.97
-9755641.96 5135462.50 184.99
-9755647.60 5135464.29 185.35
-9755639.06 5135467.84 185.03
-9755619.27 5135461.16 184.82
-9755632.89 5135462.61 186.13
-9755634.33 5135465.72 186.42
-9755637.59 5135462.76 184.97
-9755627.61 5135464.46 185.11
-9755637.55 5135467.84 185.01
-9755635.54 5135462.46 186.28
-9755637.55 5135469.02 185.02
-9755637.25 5135467.78 185.04
-9755627.54 5135467.77 185.13
-9755634.04 5135462.53 187.50
-9755626.09 5135462.72 185.15
-9755626.02 5135468.95 185.13
-9755622.61 5135466.00 185.15
-9755621.03 5135464.42 185.11
-9755619.28 5135465.97 184.82
-9755624.29 5135462.36 185.18
-9755621.05 5135469.23 185.07
-9755641.96 5135459.51 184.95
-9755627.58 5135459.43 185.12
-9755637.33 5135459.31 184.96
-9755632.51 5135457.34 186.07
-9755619.34 5135459.15 184.83
-9755621.10 5135459.13 185.12
-9755620.52 5135459.07 184.97
-9755617.91 5135461.01 181.26
-9755617.93 5135460.86 182.65
-9755614.52 5135461.05 181.24
-9755617.81 5135467.57 181.27
-9755617.63 5135462.63 184.02
-9755617.80 5135462.82 181.29
-9755614.50 5135467.57 181.23
-9755617.79 5135465.73 181.29
-9755617.55 5135467.37 184.43
-9755614.55 5135466.06 181.23
-9755612.47 5135464.30 181.05
-9755611.25 5135460.98 181.06
-9755602.70 5135460.97 181.05
-9755604.49 5135461.22 181.02
-9755595.80 5135460.94 186.04
-9755594.56 5135461.12 181.03
-9755599.30 5135460.71 187.47
-9755599.62 5135459.51 184.58
-9755594.50 5135460.83 184.04
-9755597.80 5135459.27 187.30
-9755598.09 5135459.19 181.25
-9755593.09 5135460.90 181.08
-9755591.33 5135459.49 181.05
-9755599.54 5135459.17 181.06
-9755593.00 5135459.35 181.03
-9755608.09 5135467.60 181.03
-9755601.22 5135462.80 185.77
-9755604.52 5135466.28 181.05
-9755601.29 5135467.56 181.05
-9755596.29 5135467.47 181.21
-9755599.54 5135467.44 181.28
-9755596.23 5135469.29 181.11
-9755593.12 5135462.45 184.44
-9755596.31 5135462.54 184.46
-9755593.08 5135462.66 181.08
-9755598.01 5135467.41 181.28
-9755597.98 5135462.81 184.55
-9755599.50 5135466.01 181.26
-9755594.81 5135467.53 181.07
-9755594.50 5135465.64 181.07
-9755596.21 5135462.69 181.26
-9755599.75 5135466.17 183.13
-9755595.03 5135464.16 181.07
-9755597.96 5135468.95 181.29
-9755617.54 5135459.18 184.55
-9755617.85 5135459.22 181.29
-9755617.90 5135458.98 182.46
-9755617.86 5135457.58 181.26
-9755611.32 5135459.52 181.07
-9755596.42 5135457.72 185.81
-9755594.84 5135457.42 181.23
-9755597.83 5135459.27 183.20
-9755596.31 5135457.60 184.05
-9755588.08 5135462.64 181.02
-9755586.53 5135469.44 181.00
-9755581.30 5135461.07 181.04
-9755584.87 5135459.33 181.02
-9755574.77 5135459.31 181.04
-9755566.80 5135461.03 181.07
-9755581.27 5135467.43 180.98
-9755579.95 5135469.15 180.97
-9755582.96 5135462.66 181.01
-9755576.53 5135462.59 181.00
-9755581.47 5135465.86 181.00
-9755573.21 5135467.38 180.99
-9755561.78 5135467.80 181.11
-9755565.32 5135462.57 181.07
-9755570.03 5135469.12 181.03
-9755562.03 5135462.78 181.09
-9755584.54 5135457.60 181.01
-9755563.22 5135457.73 181.08
-9755558.27 5135467.52 181.12
-9755554.98 5135460.75 181.12
-9755547.05 5135460.73 181.14
-9755541.98 5135461.02 181.16
-9755543.49 5135461.26 181.16
-9755546.81 5135459.11 181.17
-9755533.80 5135459.34 181.19
-9755552.02 5135469.34 181.15
-9755550.29 5135462.79 181.16
-9755548.80 5135469.24 181.16
-9755550.26 5135467.57 181.14
-9755553.48 5135464.31 181.13
-9755553.49 5135469.54 181.14
-9755548.90 5135467.52 181.13
-9755547.05 5135468.99 181.15
-9755533.69 5135464.39 181.19
-9755543.49 5135466.04 181.17
-9755538.80 5135464.19 181.18
-9755542.04 5135465.70 181.17
-9755537.00 5135462.40 181.19
-9755540.12 5135469.12 181.20
-9755535.20 5135462.67 181.19
-9755530.53 5135467.75 181.26
-9755550.25 5135457.78 181.14
-9755553.56 5135457.50 181.11
-9755540.27 5135457.43 181.16
-9755543.51 5135457.94 181.17
-9755533.90 5135457.63 181.20
-9755522.09 5135459.40 181.22
-9755523.49 5135461.07 181.25
-9755525.55 5135460.83 181.23
-9755528.75 5135461.10 181.19
-9755515.55 5135459.40 185.97
-9755517.30 5135460.79 181.26
-9755515.57 5135460.88 185.29
-9755512.23 5135461.18 184.10
-9755512.30 5135459.00 181.39
-9755514.03 5135460.75 184.28
-9755512.28 5135460.74 181.41
-9755514.03 5135459.23 181.36
-9755505.53 5135459.20 181.48
-9755529.03 5135464.34 181.24
-9755527.28 5135467.60 181.27
-9755528.76 5135467.37 181.26
-9755522.25 5135469.37 181.28
-9755527.03 5135464.36 181.25
-9755523.79 5135462.52 181.28
-9755522.27 5135462.64 181.28
-9755522.23 5135465.79 181.27
-9755520.74 5135462.59 181.26
-9755520.77 5135469.09 181.29
-9755520.45 5135467.85 181.30
-9755518.70 5135464.00 181.26
-9755518.70 5135469.04 181.30
-9755510.78 5135462.48 181.44
-9755512.29 5135466.08 181.44
-9755515.50 5135464.01 181.37
-9755513.86 5135462.36 185.08
-9755515.53 5135465.80 181.37
-9755515.51 5135461.58 182.05
-9755511.98 5135461.90 185.11
-9755505.78 5135462.44 181.51
-9755527.02 5135457.87 181.16
-9755522.31 5135457.53 181.22
-9755515.46 5135457.59 184.23
-9755515.64 5135457.93 185.71
-9755512.31 5135457.84 181.37
-9755507.28 5135457.77 181.44
-9755711.68 5135436.20 185.56
-9755712.65 5135434.70 186.80
-9755708.49 5135441.35 185.61
-9755708.75 5135446.65 185.61
-9755713.06 5135449.18 185.61
-9755712.90 5135446.26 186.80
-9755709.93 5135443.05 185.58
-9755708.54 5135446.20 186.84
-9755712.84 5135440.94 186.81
-9755709.18 5135449.84 186.89
-9755708.92 5135454.03 185.78
-9755709.85 5135457.75 187.27
-9755713.29 5135429.48 185.16
-9755701.73 5135434.61 186.31
-9755696.51 5135434.83 185.75
-9755693.09 5135434.62 186.88
-9755696.69 5135437.84 185.77
-9755695.39 5135442.79 185.61
-9755701.74 5135436.14 186.23
-9755695.17 5135444.52 185.58
-9755695.19 5135447.89 185.57
-9755696.88 5135444.38 185.92
-9755696.83 5135444.66 186.76
-9755705.04 5135439.67 186.01
-9755696.34 5135442.55 185.48
-9755696.67 5135439.37 185.63
-9755701.73 5135437.92 186.33
-9755696.85 5135446.22 185.71
-9755705.03 5135449.54 185.60
-9755705.30 5135436.48 187.28
-9755696.66 5135439.59 186.83
-9755692.92 5135436.33 186.88
-9755696.91 5135447.96 187.05
-9755693.08 5135441.64 186.87
-9755691.46 5135444.02 186.86
-9755691.68 5135443.10 186.92
-9755691.97 5135441.49 185.14
-9755691.46 5135444.48 185.58
-9755691.40 5135447.89 186.04
-9755692.64 5135434.65 186.87
-9755692.61 5135436.41 186.88
-9755693.03 5135444.66 186.88
-9755691.28 5135442.95 185.61
-9755691.98 5135436.36 185.13
-9755693.22 5135447.86 187.13
-9755691.39 5135437.87 186.90
-9755706.52 5135457.74 185.95
-9755706.63 5135454.52 186.26
-9755706.90 5135457.49 186.68
-9755704.84 5135452.73 186.33
-9755700.16 5135457.73 186.34
-9755696.92 5135449.73 187.05
-9755698.38 5135452.34 186.06
-9755703.70 5135452.49 186.39
-9755695.16 5135449.90 186.82
-9755701.36 5135450.75 187.27
-9755693.26 5135449.25 187.13
-9755693.40 5135456.32 187.11
-9755691.24 5135451.16 185.59
-9755691.55 5135455.99 185.76
-9755691.35 5135454.65 185.60
-9755691.24 5135452.88 185.55
-9755691.37 5135451.11 186.83
-9755688.31 5135434.90 186.25
-9755685.33 5135434.83 186.37
-9755685.15 5135444.52 185.53
-9755689.85 5135446.13 185.57
-9755683.43 5135441.31 185.60
-9755685.26 5135438.38 185.52
-9755689.98 5135436.38 186.71
-9755688.49 5135444.49 185.61
-9755688.55 5135447.64 185.61
-9755690.22 5135444.49 185.61
-9755690.22 5135442.49 185.64
-9755681.98 5135446.02 186.75
-9755682.01 5135439.56 186.74
-9755687.25 5135447.90 186.84
-9755682.03 5135437.80 186.84
-9755687.06 5135446.44 186.84
-9755690.15 5135437.90 186.82
-9755680.51 5135436.24 186.74
-9755680.49 5135446.25 186.81
-9755685.81 5135444.27 186.72
-9755687.80 5135446.17 186.87
-9755690.73 5135443.37 186.85
-9755690.98 5135447.83 186.86
-9755690.77 5135446.47 186.86
-9755686.98 5135449.53 186.84
-9755690.26 5135449.42 185.61
-9755691.56 5135454.45 186.83
-9755691.76 5135457.78 186.85
-9755688.68 5135449.71 185.61
-9755685.01 5135457.86 185.47
-9755685.33 5135456.20 185.52
-9755683.29 5135455.89 185.52
-9755691.65 5135456.21 186.84
-9755688.77 5135452.68 185.63
-9755691.56 5135452.78 186.85
-9755681.87 5135457.96 184.97
-9755680.08 5135455.85 184.99
-9755681.82 5135449.18 184.99
-9755687.78 5135457.66 186.81
-9755683.11 5135453.27 185.00
-9755685.84 5135457.59 186.86
-9755685.89 5135452.90 186.68
-9755690.98 5135452.97 186.85
-9755678.98 5135456.00 185.50
-9755678.66 5135449.40 186.32
-9755678.75 5135453.03 186.27
-9755679.56 5135454.02 186.72
-9755706.43 5135433.43 186.96
-9755696.63 5135431.38 185.69
-9755698.49 5135431.42 186.26
-9755696.76 5135432.88 185.77
-9755701.48 5135432.87 186.28
-9755696.69 5135431.05 186.91
-9755696.63 5135429.49 185.88
-9755698.55 5135429.59 186.25
-9755699.84 5135429.77 186.20
-9755705.02 5135429.56 187.42
-9755692.45 5135432.68 186.88
