-9755188.86 5135513.90 187.62
-9755187.67 5135518.77 185.32
-9755186.46 5135515.12 184.51
-9755189.51 5135516.95 192.31
-9755188.62 5135515.33 187.72
-9755188.42 5135515.28 187.09
-9755188.92 5135517.09 186.46
-9755188.33 5135517.05 191.09
-9755188.16 5135522.11 187.40
-9755189.07 5135514.12 189.38
-9755188.37 5135517.29 193.28
-9755187.65 5135515.29 182.13
-9755188.93 5135522.42 193.28
-9755188.72 5135518.96 187.76
-9755188.57 5135513.83 189.37
-9755188.69 5135518.60 191.08
-9755189.03 5135520.23 193.34
-9755188.61 5135520.65 191.08
-9755188.60 5135521.28 190.55
-9755188.87 5135513.37 182.48
-9755191.63 5135516.08 193.89
-9755188.56 5135513.76 190.89
-9755189.12 5135520.53 185.49
-9755188.06 5135514.34 184.44
-9755188.89 5135513.30 181.67
-9755188.57 5135512.02 186.89
-9755188.60 5135520.89 189.83
-9755184.41 5135518.79 185.29
-9755179.72 5135513.31 181.55
-9755182.94 5135513.63 181.58
-9755184.40 5135515.40 182.46
-9755179.39 5135520.21 185.30
-9755177.96 5135516.94 185.26
-9755182.88 5135522.01 185.31
-9755181.17 5135515.27 185.39
-9755179.41 5135517.01 185.28
-9755177.93 5135513.52 181.53
-9755178.01 5135513.53 182.70
-9755182.66 5135515.27 185.39
-9755174.69 5135520.19 185.30
-9755179.70 5135513.80 182.33
-9755182.90 5135515.38 181.58
-9755177.67 5135515.21 184.71
-9755174.70 5135516.92 185.30
-9755176.25 5135515.34 182.44
-9755176.17 5135516.97 185.26
-9755174.35 5135513.86 181.51
-9755180.82 5135513.52 181.55
-9755186.47 5135516.53 188.86
-9755181.20 5135516.98 185.31
-9755179.47 5135515.11 181.54
-9755175.85 5135515.28 184.51
-9755174.73 5135516.95 189.22
-9755173.21 5135523.60 184.41
-9755173.18 5135523.43 185.88
-9755173.14 5135525.28 184.75
-9755173.17 5135525.17 186.06
-9755174.30 5135525.38 181.56
-9755174.04 5135522.08 182.34
-9755174.07 5135518.59 182.27
-9755174.12 5135520.32 182.12
-9755174.16 5135517.34 182.55
-9755174.24 5135518.62 181.55
-9755173.19 5135518.58 181.48
-9755173.18 5135520.05 181.50
-9755173.35 5135515.46 184.43
-9755173.74 5135521.76 182.32
-9755172.90 5135513.55 181.49
-9755174.37 5135521.90 181.50
-9755173.18 5135522.02 184.42
-9755173.75 5135517.88 182.41
-9755174.01 5135520.31 181.53
-9755173.75 5135515.62 182.24
-9755173.75 5135517.39 182.42
-9755199.24 5135503.48 202.09
-9755199.39 5135502.33 197.47
-9755199.46 5135501.50 202.23
-9755199.24 5135503.85 195.34
-9755199.06 5135503.70 197.48
-9755199.18 5135504.00 198.99
-9755199.26 5135502.72 195.56
-9755199.34 5135507.23 192.40
-9755199.10 5135505.32 193.98
-9755199.36 5135500.46 192.38
-9755199.13 5135503.85 194.30
-9755199.53 5135500.69 200.29
-9755199.33 5135502.20 192.39
-9755199.38 5135501.10 197.10
-9755199.29 5135502.39 194.24
-9755196.05 5135508.66 192.36
-9755197.55 5135506.96 192.36
-9755197.59 5135502.17 192.36
-9755196.08 5135505.46 192.33
-9755197.76 5135503.80 203.72
-9755196.06 5135507.25 192.36
-9755198.23 5135508.94 200.45
-9755199.49 5135500.61 198.82
-9755198.49 5135508.60 194.03
-9755198.23 5135508.48 197.46
-9755197.80 5135503.68 192.36
-9755197.53 5135505.46 192.36
-9755198.27 5135508.92 199.00
-9755199.44 5135502.07 208.50
-9755196.19 5135502.23 203.59
-9755197.54 5135508.79 203.80
-9755199.41 5135503.69 203.57
-9755198.62 5135508.52 198.95
-9755196.27 5135503.66 203.64
-9755198.16 5135508.42 194.07
-9755198.24 5135509.10 203.09
-9755199.78 5135500.44 208.49
-9755198.43 5135507.34 199.01
-9755198.35 5135508.75 195.26
-9755198.98 5135504.95 208.05
-9755198.46 5135505.98 194.28
-9755192.83 5135505.42 192.28
-9755192.77 5135506.96 192.28
-9755192.85 5135500.40 192.31
-9755189.75 5135504.02 189.28
-9755189.24 5135508.98 187.51
-9755190.63 5135501.93 191.02
-9755188.05 5135503.93 186.21
-9755189.24 5135508.73 190.87
-9755189.54 5135507.11 188.96
-9755191.08 5135501.90 186.27
-9755191.09 5135500.42 192.30
-9755190.60 5135501.85 187.41
-9755189.58 5135505.65 189.44
-9755190.17 5135502.07 190.94
-9755189.25 5135502.20 186.20
-9755190.68 5135500.40 191.04
-9755189.56 5135508.65 192.31
-9755190.32 5135501.93 189.24
-9755189.56 5135500.38 186.21
-9755189.60 5135508.90 193.30
-9755189.83 5135504.15 187.40
-9755190.78 5135500.33 189.24
-9755187.78 5135502.13 186.21
-9755189.60 5135507.01 190.65
-9755187.77 5135507.17 186.22
-9755186.29 5135505.39 186.23
-9755191.08 5135508.92 186.32
-9755190.75 5135500.37 187.57
-9755187.72 5135508.94 186.24
-9755189.53 5135507.22 186.25
-9755187.77 5135505.38 186.22
-9755189.98 5135502.51 187.45
-9755185.95 5135503.91 186.21
-9755189.20 5135508.70 186.25
-9755190.18 5135502.27 189.01
-9755190.98 5135500.64 193.32
-9755190.33 5135503.02 187.58
-9755179.50 5135508.71 185.58
-9755179.45 5135509.00 184.22
-9755179.77 5135505.52 185.60
-9755182.69 5135503.60 186.18
-9755181.25 5135508.94 186.21
-9755184.54 5135502.14 186.21
-9755177.70 5135504.11 181.52
-9755184.27 5135500.38 186.20
-9755180.57 5135502.17 184.18
-9755182.74 5135505.38 186.18
-9755180.93 5135500.47 184.33
-9755184.49 5135505.69 186.22
-9755180.95 5135500.52 182.25
-9755180.09 5135504.03 182.48
-9755180.65 5135502.03 182.48
-9755182.70 5135508.93 186.18
-9755184.46 5135508.97 186.21
-9755176.19 5135504.13 181.52
-9755179.85 5135505.60 184.33
-9755179.71 5135507.07 181.59
-9755174.69 5135507.05 181.51
-9755179.72 5135502.30 181.57
-9755179.46 5135503.79 181.55
-9755179.63 5135504.14 185.80
-9755182.18 5135505.64 187.10
-9755179.43 5135508.86 182.63
-9755179.47 5135505.28 181.57
-9755180.36 5135503.46 182.45
-9755180.82 5135501.93 181.58
-9755180.07 5135502.55 185.81
-9755174.43 5135508.85 181.52
-9755180.56 5135503.72 184.30
-9755176.28 5135500.60 181.52
-9755185.25 5135506.42 187.20
-9755180.60 5135500.58 181.64
-9755185.37 5135506.16 187.94
-9755164.87 5135525.35 181.51
-9755166.39 5135523.87 181.51
-9755163.14 5135523.84 181.48
-9755164.91 5135523.57 181.49
-9755162.48 5135523.66 182.54
-9755159.66 5135525.27 187.29
-9755159.87 5135525.01 181.44
-9755159.89 5135523.58 181.41
-9755161.37 5135525.08 181.48
-9755159.89 5135525.19 186.02
-9755156.65 5135523.53 181.34
-9755156.60 5135525.28 181.34
-9755161.48 5135526.67 186.39
-9755158.40 5135525.82 186.57
-9755164.65 5135512.03 181.40
-9755169.67 5135515.34 181.49
-9755167.87 5135520.31 181.49
-9755164.64 5135520.00 181.46
-9755171.45 5135516.81 181.51
-9755163.17 5135516.77 181.41
-9755164.66 5135518.82 181.45
-9755171.15 5135518.86 181.51
-9755169.91 5135520.00 181.50
-9755169.61 5135518.58 181.51
-9755171.11 5135520.35 181.51
-9755171.10 5135522.42 182.65
-9755162.88 5135515.28 181.39
-9755161.44 5135510.53 181.36
-9755156.40 5135510.52 181.34
-9755159.91 5135515.29 181.34
-9755161.30 5135521.77 181.45
-9755159.96 5135516.74 181.36
-9755161.40 5135515.28 181.35
-9755161.83 5135522.15 182.29
-9755161.38 5135517.09 181.37
-9755161.81 5135521.88 184.89
-9755158.14 5135518.48 181.34
-9755156.34 5135518.49 181.34
-9755156.73 5135513.77 181.34
-9755158.18 5135513.79 181.34
-9755156.41 5135515.25 181.31
-9755154.89 5135518.45 181.33
-9755154.85 5135521.77 181.32
-9755154.64 5135515.22 181.31
-9755153.39 5135523.48 181.32
-9755150.15 5135525.29 181.28
-9755151.31 5135523.49 181.30
-9755151.62 5135525.26 181.30
-9755146.78 5135510.63 189.17
-9755151.40 5135510.50 181.31
-9755148.25 5135510.35 189.38
-9755151.70 5135511.69 181.30
-9755149.75 5135512.17 189.15
-9755149.07 5135510.95 188.96
-9755146.67 5135511.90 181.28
-9755148.17 5135508.70 181.30
-9755146.41 5135515.34 188.96
-9755146.73 5135513.77 187.50
-9755149.12 5135515.21 189.02
-9755153.08 5135518.81 181.30
-9755151.36 5135518.46 181.29
-9755149.62 5135518.50 181.29
-9755146.47 5135516.60 190.48
-9755146.14 5135518.80 188.90
-9755146.36 5135519.81 188.91
-9755146.68 5135520.52 181.26
-9755146.62 5135521.73 181.26
-9755146.01 5135518.30 191.64
-9755167.96 5135503.72 181.43
-9755169.75 5135507.05 181.45
-9755166.18 5135507.30 181.40
-9755166.19 5135502.26 181.42
-9755162.92 5135504.02 181.37
-9755169.76 5135503.75 181.44
-9755163.19 5135506.98 181.38
-9755171.17 5135508.78 181.46
-9755163.24 5135505.55 181.37
-9755169.45 5135500.51 181.43
-9755166.46 5135508.78 181.42
-9755167.96 5135502.28 181.43
-9755162.92 5135508.74 181.37
-9755160.01 5135506.98 181.36
-9755161.42 5135508.78 181.37
-9755161.50 5135503.70 181.38
-9755159.70 5135505.50 181.37
-9755159.67 5135503.70 181.37
-9755157.97 5135503.99 181.37
-9755156.46 5135506.95 181.36
-9755154.66 5135506.93 181.32
-9755156.70 5135508.72 181.35
-9755146.74 5135506.93 181.28
-9755148.22 5135503.63 181.31
-9755148.48 5135505.42 181.30
-9755146.43 5135505.73 181.30
-9755151.71 5135507.21 181.29
-9755152.91 5135508.97 181.31
-9755146.72 5135508.88 188.86
-9755152.92 5135505.42 181.31
-9755149.97 5135507.24 181.30
-9755151.41 5135505.17 181.30
-9755138.40 5135523.35 186.00
-9755139.82 5135523.68 181.37
-9755141.61 5135525.53 181.37
-9755138.31 5135524.94 181.22
-9755143.23 5135525.29 186.83
-9755145.48 5135522.80 189.33
-9755143.11 5135525.22 186.34
-9755144.99 5135510.39 189.10
-9755145.04 5135512.03 190.65
-9755144.90 5135510.45 181.29
-9755137.87 5135511.46 186.24
-9755139.85 5135510.58 184.71
-9755138.18 5135510.45 189.22
-9755136.52 5135510.65 184.03
-9755139.89 5135510.38 181.45
-9755141.67 5135508.69 187.42
-9755136.74 5135512.20 187.36
-9755143.21 5135510.44 181.29
-9755139.93 5135510.49 190.72
-9755139.71 5135510.18 185.65
-9755138.49 5135511.56 188.97
-9755136.98 5135512.14 181.27
-9755143.47 5135511.82 187.62
-9755141.01 5135510.22 186.18
-9755141.71 5135512.21 181.42
-9755143.37 5135512.48 189.23
-9755143.49 5135510.23 186.30
-9755143.47 5135508.67 181.30
-9755141.70 5135509.82 184.66
-9755144.74 5135511.82 185.96
-9755137.68 5135509.58 185.74
-9755136.61 5135508.97 181.29
-9755137.54 5135508.64 187.48
-9755145.46 5135514.97 186.05
-9755144.99 5135513.30 188.93
-9755144.96 5135521.96 189.02
-9755144.83 5135518.64 188.97
-9755144.87 5135518.44 181.27
-9755145.21 5135514.08 191.84
-9755144.86 5135513.69 181.29
-9755144.34 5135520.29 192.39
-9755145.41 5135514.30 186.04
-9755141.42 5135513.63 187.32
-9755140.15 5135513.56 190.88
-9755140.08 5135515.22 190.81
-9755136.61 5135516.89 181.27
-9755139.86 5135520.59 187.71
-9755143.21 5135516.79 188.70
-9755143.66 5135520.15 188.99
-9755138.47 5135513.88 190.80
-9755143.14 5135517.06 190.88
-9755139.90 5135512.70 187.59
-9755143.42 5135520.19 181.26
-9755142.86 5135512.92 188.00
-9755138.16 5135521.68 181.23
-9755139.79 5135518.67 183.87
-9755136.94 5135515.43 181.26
-9755139.97 5135520.20 185.89
-9755139.74 5135513.85 187.37
-9755139.75 5135521.60 184.11
-9755143.30 5135513.59 189.04
-9755144.37 5135515.52 192.54
-9755140.32 5135516.92 181.43
-9755138.11 5135518.41 181.28
-9755138.30 5135520.21 181.30
-9755139.81 5135520.41 181.42
-9755138.98 5135514.74 190.88
-9755141.68 5135515.19 185.87
-9755142.30 5135519.03 193.39
-9755141.06 5135513.76 186.36
-9755138.52 5135513.22 187.39
-9755136.87 5135520.14 181.26
-9755136.90 5135518.61 184.88
-9755141.65 5135520.15 181.40
-9755141.38 5135517.14 187.78
-9755141.03 5135513.44 185.00
-9755139.40 5135513.74 189.12
-9755142.31 5135513.31 188.72
-9755133.07 5135525.15 181.26
-9755131.87 5135525.21 181.26
-9755131.58 5135523.38 181.27
-9755130.36 5135523.68 181.28
-9755126.54 5135525.12 181.32
-9755120.05 5135525.08 181.27
-9755125.07 5135525.43 181.32
-9755121.86 5135522.16 181.31
-9755134.85 5135510.59 188.96
-9755134.88 5135510.36 187.35
-9755134.95 5135511.82 187.45
-9755135.17 5135511.02 184.79
-9755131.63 5135510.37 181.29
-9755125.13 5135510.30 181.35
-9755121.92 5135508.77 181.34
-9755130.21 5135508.89 181.30
-9755123.73 5135508.82 181.34
-9755130.19 5135512.13 181.30
-9755126.91 5135512.06 181.31
-9755131.95 5135516.85 181.29
-9755126.58 5135522.23 181.31
-9755125.15 5135516.87 181.34
-9755118.59 5135521.86 181.27
-9755125.14 5135512.10 181.33
-9755120.39 5135515.61 181.30
-9755123.67 5135515.37 181.32
-9755128.36 5135520.15 181.32
-9755128.68 5135516.91 181.31
-9755126.63 5135518.64 181.32
-9755129.85 5135521.86 181.30
-9755123.38 5135517.07 181.33
-9755125.12 5135520.38 181.33
-9755118.63 5135516.75 181.30
-9755118.38 5135515.59 181.28
-9755118.44 5135513.56 181.27
-9755144.92 5135507.22 181.29
-9755144.70 5135500.33 181.33
-9755144.98 5135502.13 181.31
-9755143.50 5135503.92 181.31
-9755140.27 5135508.65 181.44
-9755138.43 5135505.66 181.48
-9755138.45 5135507.00 189.27
-9755139.56 5135504.05 182.52
-9755136.84 5135501.53 191.31
-9755139.66 5135507.09 182.49
-9755139.67 5135505.43 181.87
-9755139.68 5135503.72 183.45
-9755140.05 5135508.34 182.55
-9755141.43 5135503.87 182.05
-9755136.79 5135505.67 181.28
-9755136.72 5135507.19 187.74
-9755138.45 5135507.15 181.43
-9755143.27 5135508.80 190.62
-9755141.81 5135509.15 191.38
-9755136.42 5135507.12 181.29
-9755139.71 5135505.46 183.56
-9755136.84 5135501.38 191.74
-9755137.97 5135501.48 191.33
-9755135.15 5135505.59 181.31
-9755135.12 5135507.25 187.66
-9755135.08 5135500.42 191.29
-9755134.90 5135502.13 181.31
-9755135.15 5135501.85 189.70
-9755134.51 5135500.55 189.12
-9755133.45 5135500.18 181.91
-9755131.70 5135503.84 181.31
-9755132.35 5135501.57 185.67
-9755131.95 5135500.37 187.12
-9755131.43 5135502.05 181.31
-9755132.00 5135507.12 181.29
-9755131.72 5135505.62 181.30
-9755132.30 5135501.52 187.25
-9755126.96 5135507.06 181.33
-9755129.91 5135500.30 181.32
-9755123.40 5135507.07 181.34
-9755128.48 5135502.35 181.30
-9755128.15 5135507.11 181.32
-9755120.19 5135507.33 181.34
-9755130.22 5135507.06 181.30
-9755126.72 5135503.55 181.31
-9755125.25 5135504.07 181.31
-9755118.70 5135502.31 181.33
-9755118.74 5135505.52 181.32
-9755118.44 5135503.79 181.32
-9755116.92 5135510.63 181.28
-9755117.16 5135516.81 181.27
-9755113.48 5135525.14 182.61
-9755115.36 5135523.57 181.22
-9755107.15 5135525.33 181.38
-9755113.49 5135523.57 182.41
-9755110.07 5135525.04 181.30
-9755107.15 5135523.55 181.39
-9755111.55 5135523.56 181.30
-9755113.52 5135523.10 183.82
-9755115.36 5135525.40 181.21
-9755108.88 5135522.08 181.35
-9755113.37 5135522.06 182.78
-9755113.20 5135522.24 183.73
-9755098.90 5135522.02 181.37
-9755106.71 5135510.93 187.85
-9755105.32 5135510.45 187.63
-9755113.13 5135510.12 183.74
-9755113.14 5135510.55 182.52
-9755113.08 5135508.39 183.76
-9755110.43 5135508.77 181.34
-9755106.59 5135508.84 189.08
-9755113.37 5135511.96 182.80
-9755105.12 5135512.10 189.10
-9755115.41 5135513.57 181.24
-9755113.28 5135516.76 182.49
-9755112.18 5135520.00 181.42
-9755107.15 5135518.83 181.37
-9755106.89 5135517.03 181.38
-9755108.88 5135518.78 181.34
-9755108.95 5135513.80 181.34
-9755113.15 5135511.67 183.74
-9755110.39 5135515.55 181.33
-9755113.41 5135518.56 182.50
-9755112.18 5135512.02 181.42
-9755105.35 5135515.25 181.55
-9755106.41 5135513.13 189.03
-9755113.11 5135520.46 183.81
-9755113.14 5135513.03 183.69
-9755103.69 5135510.35 184.81
-9755103.71 5135508.79 185.77
-9755100.49 5135508.75 185.93
-9755100.40 5135510.46 181.42
-9755098.93 5135510.44 181.43
-9755102.22 5135508.79 187.69
-9755100.49 5135510.08 187.27
-9755103.59 5135508.66 181.48
-9755104.87 5135513.56 186.46
-9755103.89 5135516.98 181.51
-9755103.62 5135511.94 181.51
-9755103.63 5135515.27 181.50
-9755103.57 5135520.53 181.51
-9755103.93 5135513.73 181.50
-9755102.15 5135513.75 181.42
-9755102.16 5135515.25 181.44
-9755098.87 5135520.20 181.42
-9755102.13 5135511.96 181.44
-9755098.91 5135513.43 181.43
-9755099.56 5135515.05 189.73
-9755092.06 5135523.45 181.40
-9755095.61 5135525.25 181.35
-9755095.60 5135523.75 181.35
-9755095.68 5135521.92 181.36
-9755095.40 5135508.66 181.38
-9755097.24 5135510.32 182.66
-9755093.94 5135508.38 181.41
-9755093.93 5135510.35 181.41
-9755095.54 5135510.40 182.72
-9755093.60 5135511.91 181.42
-9755095.67 5135512.06 182.50
-9755095.39 5135513.72 181.37
-9755097.48 5135516.97 181.34
-9755092.43 5135511.93 181.42
-9755092.16 5135516.93 181.41
-9755097.11 5135518.74 181.34
-9755096.05 5135514.63 182.52
-9755116.66 5135500.50 181.32
-9755110.43 5135507.29 181.35
-9755106.93 5135504.03 181.37
-9755108.99 5135502.22 181.35
-9755113.05 5135503.97 182.16
-9755106.96 5135500.73 181.37
-9755108.68 5135506.98 181.36
-9755113.09 5135503.58 183.83
-9755110.24 5135501.94 181.36
-9755113.72 5135502.28 181.42
-9755113.12 5135506.88 182.75
-9755113.03 5135500.60 182.15
-9755105.44 5135507.26 181.51
-9755105.45 5135505.46 181.52
-9755105.56 5135505.55 185.91
-9755113.10 5135500.40 183.62
-9755103.76 5135507.10 189.07
-9755103.64 5135507.23 185.95
-9755099.83 5135507.55 184.86
-9755100.45 5135503.93 181.41
-9755102.24 5135502.49 181.44
-9755102.18 5135505.18 181.42
-9755102.17 5135507.25 181.43
-9755101.84 5135505.69 187.65
-9755098.72 5135500.68 181.39
-9755101.13 5135505.76 187.57
-9755103.67 5135500.70 181.55
-9755095.45 5135500.40 181.34
-9755093.93 5135505.67 181.40
-9755097.22 5135500.73 181.31
-9755093.95 5135503.89 181.39
-9755096.96 5135505.41 181.32
-9755092.27 5135500.38 181.42
-9755092.52 5135505.37 181.42
-9755083.84 5135523.68 181.65
-9755085.62 5135523.42 181.48
-9755088.81 5135523.76 181.44
-9755082.35 5135521.61 180.68
-9755084.13 5135521.89 181.62
-9755082.23 5135525.23 180.01
-9755082.15 5135521.64 180.04
-9755085.68 5135510.38 181.47
-9755082.13 5135510.63 179.79
-9755085.70 5135508.93 181.47
-9755083.27 5135510.57 182.67
-9755090.32 5135521.93 181.43
-9755090.67 5135513.70 181.44
-9755090.37 5135516.94 181.44
-9755090.34 5135518.43 181.44
-9755083.44 5135522.23 182.60
-9755082.37 5135511.81 180.65
-9755082.40 5135511.83 182.58
-9755085.57 5135521.66 181.48
-9755087.07 5135520.46 181.46
-9755082.35 5135517.24 181.01
-9755083.88 5135516.87 181.63
-9755082.11 5135512.26 180.06
-9755085.88 5135520.18 181.48
-9755083.87 5135512.17 181.63
-9755082.06 5135518.73 179.96
-9755082.09 5135513.99 180.03
-9755082.31 5135520.46 180.01
-9755082.36 5135515.19 180.05
-9755089.21 5135513.93 181.44
-9755085.61 5135518.36 181.48
-9755083.30 5135520.26 182.61
-9755083.22 5135520.19 183.40
-9755083.21 5135517.17 183.67
-9755090.41 5135507.14 181.43
-9755088.66 5135502.12 181.43
-9755082.42 5135507.03 180.74
-9755082.42 5135507.06 182.57
-9755082.21 5135502.12 180.91
-9755082.36 5135500.56 180.80
-9755082.15 5135505.48 182.49
-9755082.19 5135500.49 182.58
-9755085.43 5135505.36 181.47
-9755085.42 5135502.12 181.46
-9755085.75 5135500.31 181.44
-9755081.80 5135507.45 180.06
-9755081.53 5135503.04 180.06
-9755082.23 5135505.37 180.07
-9755083.22 5135507.18 182.68
-9755255.35 5135490.89 183.83
-9755255.03 5135475.57 187.89
-9755255.42 5135483.94 184.41
-9755261.90 5135482.55 183.62
-9755261.90 5135474.08 181.13
-9755263.68 5135475.91 181.13
-9755260.62 5135484.42 182.53
-9755259.84 5135476.28 183.92
-9755260.40 5135475.91 181.13
-9755261.79 5135478.89 182.23
-9755264.65 5135479.11 182.36
-9755261.48 5135483.70 182.38
-9755258.03 5135473.78 188.52
-9755258.46 5135481.78 184.16
-9755258.63 5135487.38 181.24
-9755255.57 5135489.08 183.15
-9755265.04 5135487.47 181.24
-9755259.09 5135486.61 182.92
-9755253.63 5135498.81 183.56
-9755251.75 5135498.74 183.64
-9755253.80 5135498.83 183.05
-9755252.01 5135495.58 183.38
-9755253.72 5135490.51 183.76
-9755251.76 5135490.57 184.26
-9755250.29 5135498.83 183.37
-9755240.64 5135497.20 185.51
-9755242.36 5135498.80 185.12
-9755242.06 5135497.53 184.93
-9755240.55 5135499.15 185.67
-9755240.20 5135495.68 185.82
-9755242.14 5135495.75 184.95
-9755248.84 5135499.03 184.15
-9755243.79 5135495.49 184.74
-9755243.41 5135498.49 185.28
-9755242.64 5135493.95 184.97
-9755237.05 5135495.67 186.01
-9755232.02 5135495.77 187.30
-9755233.79 5135497.31 186.85
-9755233.47 5135498.81 186.83
-9755232.31 5135499.12 186.65
-9755232.10 5135499.16 187.07
-9755233.95 5135500.61 186.67
-9755245.64 5135491.55 185.36
-9755242.04 5135490.65 185.87
-9755244.11 5135492.50 184.90
-9755245.60 5135492.22 184.61
-9755240.37 5135490.67 185.93
-9755235.60 5135490.59 186.59
-9755236.92 5135492.66 186.76
-9755232.39 5135490.57 187.51
-9755230.50 5135497.44 187.56
-9755230.61 5135495.86 187.52
-9755229.10 5135495.52 187.55
-9755230.59 5135493.78 187.32
-9755229.05 5135494.06 187.54
-9755229.11 5135490.76 187.79
-9755227.48 5135491.94 188.83
-9755251.89 5135480.82 188.53
-9755251.98 5135474.74 191.73
-9755251.31 5135478.67 190.15
-9755251.80 5135489.03 184.10
-9755250.44 5135475.71 189.30
-9755251.11 5135475.79 191.76
-9755250.46 5135479.23 190.17
-9755250.38 5135488.92 184.22
-9755243.63 5135483.90 190.52
-9755245.43 5135476.02 189.08
-9755247.21 5135477.48 189.10
-9755241.89 5135482.23 189.10
-9755247.11 5135482.27 189.31
-9755242.18 5135477.48 189.06
-9755247.22 5135475.72 189.09
-9755248.58 5135480.41 189.23
-9755248.70 5135478.98 189.11
-9755242.16 5135480.60 190.18
-9755248.73 5135476.32 190.17
-9755247.19 5135483.97 190.35
-9755243.82 5135482.35 190.23
-9755243.72 5135481.03 190.19
-9755240.50 5135484.04 189.15
-9755240.40 5135482.48 189.09
-9755240.46 5135479.25 189.05
-9755247.19 5135475.26 190.03
-9755237.20 5135480.68 189.03
-9755233.94 5135477.39 189.03
-9755235.40 5135479.16 189.03
-9755236.92 5135476.77 190.50
-9755238.91 5135479.23 189.04
-9755236.93 5135475.88 190.47
-9755237.16 5135482.26 189.07
-9755233.90 5135483.87 190.51
-9755235.73 5135475.83 191.02
-9755233.89 5135483.70 189.11
-9755239.17 5135483.84 189.11
-9755231.96 5135474.04 192.12
-9755232.16 5135484.14 190.53
-9755234.03 5135476.73 191.21
-9755232.17 5135480.64 189.05
-9755233.94 5135475.86 191.21
-9755238.84 5135482.53 189.08
-9755233.52 5135475.91 189.15
-9755232.16 5135483.55 189.06
-9755232.12 5135474.97 190.31
-9755232.57 5135477.04 190.09
-9755247.11 5135487.18 184.68
-9755243.42 5135488.82 185.37
-9755245.34 5135487.51 185.30
-9755245.64 5135487.47 184.91
-9755242.38 5135487.44 185.99
-9755242.11 5135485.86 190.54
-9755247.13 5135490.30 185.12
-9755242.34 5135489.13 185.77
-9755243.60 5135485.65 190.51
-9755237.32 5135489.08 186.35
-9755233.51 5135485.92 189.21
-9755235.70 5135485.91 190.54
-9755235.61 5135489.09 186.66
-9755235.65 5135488.76 187.10
-9755237.15 5135486.51 189.66
-9755232.07 5135489.03 187.42
-9755237.38 5135488.85 186.99
-9755230.86 5135483.64 189.08
-9755230.71 5135484.16 190.53
-9755231.10 5135475.58 190.29
-9755228.93 5135484.16 189.02
-9755230.69 5135474.20 189.06
-9755228.91 5135482.12 189.03
-9755231.94 5135475.61 191.70
-9755228.90 5135479.17 189.04
-9755227.41 5135480.64 189.03
-9755229.35 5135473.55 192.98
-9755231.59 5135474.43 189.06
-9755227.40 5135484.21 189.08
-9755231.38 5135474.99 192.05
-9755229.54 5135482.92 190.34
-9755229.27 5135485.60 190.42
-9755229.11 5135487.46 188.11
-9755228.77 5135488.69 188.44
-9755230.36 5135485.58 190.56
-9755226.48 5135495.24 188.48
-9755225.26 5135495.42 188.67
-9755225.61 5135493.67 188.64
-9755225.58 5135498.98 188.00
-9755224.07 5135495.46 188.87
-9755225.49 5135497.11 188.81
-9755222.29 5135493.94 189.03
-9755224.05 5135494.03 189.25
-9755220.58 5135493.90 189.04
-9755215.85 5135495.67 189.01
-9755214.07 5135497.18 188.98
-9755215.86 5135493.87 189.00
-9755212.60 5135497.45 188.96
-9755212.58 5135498.60 188.98
-9755218.39 5135500.47 190.10
-9755215.88 5135492.09 189.01
-9755217.36 5135490.65 189.03
-9755220.62 5135490.68 189.03
-9755212.31 5135495.69 188.95
-9755209.29 5135497.40 188.98
-9755200.82 5135495.47 202.31
-9755200.81 5135495.53 200.85
-9755200.53 5135497.03 199.13
-9755200.60 5135495.59 194.23
-9755200.81 5135495.91 199.02
-9755202.56 5135497.17 192.60
-9755200.88 5135495.63 195.56
-9755207.56 5135497.36 189.01
-9755201.14 5135494.22 199.15
-9755201.14 5135493.49 194.08
-9755200.86 5135495.56 197.49
-9755201.09 5135494.17 195.53
-9755200.89 5135493.92 192.42
-9755204.06 5135495.77 192.95
-9755202.42 5135498.96 192.81
-9755210.83 5135495.67 188.97
-9755201.16 5135493.74 202.01
-9755201.01 5135494.28 197.13
-9755203.98 5135493.99 192.87
-9755201.05 5135493.63 203.54
-9755203.96 5135496.40 193.00
-9755203.95 5135498.57 193.10
-9755200.88 5135496.98 208.54
-9755201.33 5135494.11 208.50
-9755201.84 5135493.40 203.73
-9755203.47 5135499.82 193.06
-9755201.48 5135492.33 194.17
-9755209.10 5135492.36 189.00
-9755201.56 5135492.40 199.13
-9755204.09 5135492.38 192.75
-9755201.52 5135492.28 197.54
-9755200.87 5135490.67 192.37
-9755202.27 5135490.52 198.93
-9755201.60 5135491.14 195.60
-9755201.73 5135491.95 195.43
-9755200.49 5135492.61 203.69
-9755201.73 5135491.22 197.69
-9755201.76 5135491.25 194.20
-9755201.58 5135492.24 203.05
-9755225.66 5135478.88 189.03
-9755225.40 5135475.60 189.01
-9755223.88 5135480.58 189.04
-9755224.15 5135483.91 189.03
-9755225.71 5135474.13 189.01
-9755222.46 5135480.60 189.03
-9755222.43 5135482.40 189.03
-9755222.15 5135474.08 188.97
-9755222.45 5135475.87 189.00
-9755222.35 5135484.18 189.04
-9755225.63 5135487.18 188.81
-9755224.15 5135487.45 189.04
-9755222.05 5135485.75 190.33
-9755220.59 5135489.18 189.03
-9755220.62 5135487.39 189.01
-9755219.20 5135477.33 189.00
-9755220.65 5135477.34 189.00
-9755215.62 5135477.34 189.01
-9755219.12 5135484.13 188.98
-9755218.97 5135474.08 188.97
-9755217.38 5135482.40 188.97
-9755213.87 5135479.12 189.00
-9755213.91 5135474.25 190.12
-9755212.39 5135480.56 188.99
-9755212.45 5135475.94 190.10
-9755212.42 5135474.26 190.01
-9755214.18 5135485.89 188.96
-9755215.88 5135487.37 188.98
-9755212.67 5135489.10 189.02
-9755207.78 5135482.02 192.86
-9755204.16 5135480.67 192.38
-9755207.41 5135481.00 192.44
-9755204.55 5135482.22 194.43
-9755204.30 5135482.63 200.64
-9755205.91 5135479.14 192.42
-9755204.11 5135483.91 199.16
-9755202.69 5135479.18 192.35
-9755204.20 5135475.92 192.35
-9755204.50 5135480.87 203.71
-9755206.00 5135479.09 198.75
-9755201.20 5135482.39 192.34
-9755202.47 5135475.58 192.33
-9755209.22 5135474.12 192.63
-9755200.91 5135479.15 192.31
-9755204.19 5135483.82 195.60
-9755206.22 5135477.92 200.63
-9755204.15 5135482.45 192.37
-9755204.07 5135483.87 202.41
-9755205.70 5135479.33 194.16
-9755209.42 5135478.90 192.86
-9755205.73 5135479.24 195.90
-9755204.01 5135483.79 200.53
-9755205.98 5135484.76 193.93
-9755205.72 5135478.96 203.66
-9755205.89 5135475.64 203.70
-9755204.47 5135482.46 203.62
-9755204.25 5135482.77 197.70
-9755204.14 5135474.08 193.79
-9755204.23 5135482.71 199.21
-9755206.01 5135477.59 193.85
-9755207.40 5135477.36 192.40
-9755207.29 5135476.00 198.29
-9755202.68 5135474.11 192.32
-9755204.84 5135480.98 198.58
-9755205.75 5135479.27 197.68
-9755203.82 5135483.88 204.53
-9755205.94 5135477.43 192.37
-9755209.48 5135474.06 198.28
-9755204.15 5135484.07 194.04
-9755205.71 5135477.66 203.67
-9755207.51 5135474.52 203.67
-9755207.50 5135472.41 192.36
-9755206.12 5135477.86 197.59
-9755206.00 5135477.78 195.69
-9755204.79 5135480.80 193.99
-9755204.51 5135482.46 195.75
-9755204.27 5135483.96 204.86
-9755204.54 5135482.23 202.95
-9755204.88 5135480.69 200.90
-9755204.53 5135481.76 207.93
-9755204.98 5135481.05 202.35
-9755207.17 5135477.11 208.69
-9755201.60 5135482.74 203.61
-9755206.44 5135476.73 213.47
-9755206.27 5135477.27 199.75
-9755205.03 5135479.95 198.04
-9755202.10 5135483.14 193.44
-9755205.87 5135487.31 192.78
-9755202.33 5135489.03 202.47
-9755202.38 5135485.71 192.37
-9755204.10 5135488.81 192.52
-9755200.85 5135487.42 192.35
-9755202.46 5135488.94 197.56
-9755202.62 5135489.23 199.09
-9755202.64 5135487.46 194.09
-9755202.54 5135489.05 200.61
-9755201.00 5135487.42 193.58
-9755204.12 5135487.43 192.43
-9755210.92 5135485.56 189.00
-9755202.52 5135488.97 203.61
-9755202.43 5135489.17 194.06
-9755200.89 5135488.91 192.37
-9755204.10 5135488.68 193.76
-9755202.76 5135487.35 195.24
-9755202.85 5135487.48 202.28
-9755202.56 5135487.43 203.56
-9755202.79 5135487.59 200.64
-9755202.49 5135488.83 195.51
-9755203.26 5135485.57 195.66
-9755203.25 5135485.85 197.20
-9755202.78 5135487.46 199.18
-9755203.08 5135486.16 198.80
-9755203.20 5135485.59 194.55
-9755206.22 5135484.98 193.97
-9755203.13 5135486.01 202.99
-9755202.57 5135488.13 198.02
-9755203.38 5135485.71 200.53
-9755200.00 5135497.59 198.97
-9755199.91 5135497.70 194.66
-9755199.35 5135498.95 192.38
-9755199.95 5135498.90 194.51
-9755200.04 5135498.39 197.55
-9755199.77 5135499.20 195.48
-9755199.39 5135497.22 192.37
-9755197.59 5135497.20 192.35
-9755196.14 5135497.17 192.32
-9755199.40 5135495.73 203.63
-9755196.11 5135498.94 192.33
-9755197.69 5135497.15 203.62
-9755197.57 5135498.94 192.35
-9755197.48 5135498.66 203.57
-9755199.94 5135499.04 199.15
-9755199.89 5135499.05 202.53
-9755200.06 5135498.71 199.85
-9755194.37 5135492.43 192.27
-9755197.93 5135494.32 203.56
-9755191.03 5135497.25 190.84
-9755191.05 5135495.38 186.22
-9755191.11 5135497.26 189.02
-9755191.13 5135497.39 192.36
-9755191.49 5135495.45 190.63
-9755189.59 5135495.68 186.21
-9755192.18 5135495.09 186.24
-9755190.99 5135498.65 190.51
-9755189.28 5135497.16 186.21
-9755191.43 5135495.60 193.29
-9755192.26 5135496.53 186.39
-9755187.79 5135497.43 186.20
-9755192.21 5135493.87 190.41
-9755191.71 5135494.04 188.81
-9755191.87 5135494.10 190.53
-9755190.99 5135497.18 186.23
-9755189.28 5135493.89 186.21
-9755190.81 5135498.91 187.64
-9755191.61 5135494.34 187.56
-9755192.21 5135495.13 193.29
-9755187.80 5135498.64 186.21
-9755181.27 5135497.02 182.38
-9755181.21 5135497.38 185.71
-9755182.78 5135494.15 186.17
-9755179.88 5135495.60 186.28
-9755181.31 5135497.13 184.26
-9755174.77 5135497.29 181.49
-9755179.19 5135495.51 181.56
-9755184.62 5135493.89 186.18
-9755177.79 5135493.80 186.17
-9755181.23 5135498.91 184.14
-9755181.27 5135495.83 181.67
-9755180.92 5135498.81 185.86
-9755182.78 5135498.86 186.18
-9755175.99 5135494.03 181.54
-9755181.06 5135498.59 182.57
-9755180.67 5135498.80 181.60
-9755174.55 5135493.92 181.74
-9755192.55 5135492.36 190.86
-9755192.83 5135492.08 193.32
-9755192.50 5135492.37 187.33
-9755192.61 5135490.72 187.48
-9755192.44 5135492.19 188.97
-9755192.54 5135490.62 186.23
-9755192.63 5135490.61 193.30
-9755189.30 5135492.09 186.21
-9755187.56 5135490.60 186.21
-9755176.03 5135492.31 185.79
-9755176.19 5135492.28 182.50
-9755176.07 5135492.38 184.31
-9755176.33 5135490.71 182.60
-9755176.23 5135490.60 185.70
-9755179.61 5135490.56 186.15
-9755176.39 5135490.60 184.55
-9755174.53 5135492.25 181.75
-9755174.92 5135490.87 181.75
-9755176.21 5135492.31 181.62
-9755172.78 5135495.52 181.48
-9755172.72 5135493.74 181.48
-9755173.00 5135494.01 181.75
-9755172.79 5135490.80 181.51
-9755199.45 5135475.87 192.30
-9755199.19 5135478.84 192.28
-9755199.44 5135484.18 192.32
-9755197.67 5135483.87 192.28
-9755195.92 5135482.36 192.31
-9755195.95 5135480.73 190.55
-9755194.68 5135482.42 188.71
-9755197.95 5135474.08 189.35
-9755196.25 5135479.14 189.01
-9755194.55 5135483.95 185.87
-9755194.43 5135480.52 187.71
-9755196.42 5135477.94 190.99
-9755194.01 5135482.17 187.65
-9755194.35 5135479.34 187.71
-9755194.58 5135483.95 189.12
-9755194.72 5135482.70 190.63
-9755195.95 5135480.47 189.00
-9755194.16 5135474.29 190.38
-9755197.75 5135476.00 187.74
-9755195.95 5135480.84 193.31
-9755194.17 5135475.80 187.69
-9755197.80 5135474.46 190.98
-9755198.86 5135472.44 190.69
-9755195.84 5135480.80 187.75
-9755197.11 5135478.78 187.68
-9755195.61 5135481.99 188.87
-9755196.23 5135472.54 187.70
-9755196.75 5135477.41 188.91
-9755194.48 5135483.72 183.52
-9755193.77 5135482.96 182.52
-9755199.46 5135478.25 193.87
-9755194.39 5135483.69 182.45
-9755197.72 5135480.52 193.45
-9755199.04 5135472.29 189.53
-9755198.52 5135473.64 189.27
-9755195.23 5135482.59 185.45
-9755196.50 5135477.61 193.30
-9755197.69 5135472.27 187.70
-9755198.40 5135472.88 190.87
-9755198.57 5135480.50 193.32
-9755199.40 5135488.77 193.38
-9755194.12 5135485.40 190.94
-9755196.14 5135485.64 192.31
-9755194.25 5135485.53 189.02
-9755195.87 5135487.12 192.30
-9755194.09 5135487.28 193.29
-9755197.60 5135487.14 192.31
-9755194.16 5135485.94 187.19
-9755194.46 5135485.58 193.31
-9755199.48 5135487.66 193.34
-9755193.99 5135486.94 190.75
-9755193.79 5135487.26 187.45
-9755194.08 5135485.89 186.26
-9755195.49 5135484.93 186.35
-9755193.76 5135488.98 193.33
-9755192.94 5135475.75 187.68
-9755192.72 5135474.28 187.67
-9755193.27 5135482.38 187.86
-9755193.35 5135475.32 190.30
-9755194.37 5135472.71 190.33
-9755192.51 5135482.69 182.32
-9755193.47 5135483.42 183.23
-9755193.05 5135488.92 190.47
-9755193.40 5135487.73 187.47
-9755193.52 5135487.34 193.31
-9755193.78 5135488.60 186.41
-9755193.77 5135488.20 186.73
-9755187.79 5135480.76 181.57
-9755187.64 5135477.53 187.64
-9755187.56 5135482.21 184.35
-9755189.30 5135482.28 185.91
-9755187.88 5135484.07 186.18
-9755188.21 5135479.29 187.50
-9755189.41 5135478.98 187.66
-9755189.68 5135480.67 181.64
-9755190.99 5135480.99 184.14
-9755189.61 5135482.24 181.61
-9755190.84 5135480.84 181.67
-9755191.14 5135482.45 181.64
-9755191.37 5135482.17 182.85
-9755189.17 5135479.43 181.66
-9755189.35 5135480.81 182.51
-9755186.36 5135478.70 187.46
-9755186.44 5135481.23 183.97
-9755185.86 5135479.04 182.55
-9755186.06 5135479.04 181.53
-9755187.77 5135481.63 181.57
-9755190.87 5135472.92 190.30
-9755187.92 5135479.25 181.63
-9755192.68 5135472.54 187.66
-9755185.85 5135481.91 183.88
-9755179.24 5135480.67 182.65
-9755181.36 5135480.38 181.50
-9755177.82 5135477.16 181.36
-9755176.44 5135475.66 181.22
-9755181.37 5135479.25 181.47
-9755178.24 5135482.06 184.33
-9755176.37 5135477.14 181.34
-9755182.87 5135480.77 186.01
-9755184.13 5135476.05 180.41
-9755184.28 5135475.92 183.93
-9755174.31 5135479.23 181.41
-9755183.58 5135476.24 187.32
-9755184.64 5135474.32 180.96
-9755174.53 5135474.41 182.30
-9755184.76 5135474.15 186.32
-9755184.69 5135473.95 187.57
-9755179.61 5135478.81 182.27
-9755180.90 5135480.48 182.20
-9755177.93 5135482.74 186.13
-9755182.90 5135477.44 181.48
-9755179.57 5135479.76 184.42
-9755178.80 5135481.73 184.22
-9755177.52 5135480.67 182.71
-9755179.36 5135474.23 180.62
-9755184.61 5135478.94 181.51
-9755183.56 5135476.86 183.95
-9755176.34 5135480.67 181.44
-9755177.94 5135475.67 181.31
-9755184.07 5135477.89 181.49
-9755176.65 5135480.95 182.68
-9755183.63 5135476.87 186.03
-9755185.45 5135473.58 186.24
-9755177.83 5135475.91 182.36
-9755184.45 5135474.04 184.91
-9755185.85 5135472.60 185.72
-9755180.63 5135479.89 184.90
-9755185.80 5135484.35 187.30
-9755181.06 5135474.25 180.48
-9755185.72 5135481.73 181.58
-9755184.65 5135484.00 187.30
-9755182.84 5135483.42 187.29
-9755185.53 5135473.95 181.67
-9755184.65 5135472.23 180.38
-9755176.40 5135472.72 180.86
-9755185.62 5135477.57 181.50
-9755183.33 5135475.83 184.86
-9755179.06 5135481.65 183.12
-9755185.26 5135473.25 185.89
-9755178.75 5135481.98 181.48
-9755174.60 5135477.11 181.33
-9755185.16 5135478.30 187.72
-9755179.67 5135472.47 180.66
-9755183.59 5135476.86 188.02
-9755174.64 5135472.39 180.98
-9755185.80 5135472.57 180.47
-9755185.30 5135473.48 184.95
-9755185.01 5135473.27 186.80
-9755182.58 5135472.48 180.43
-9755187.85 5135489.10 186.20
-9755191.09 5135488.87 186.23
-9755189.34 5135485.90 186.21
-9755189.63 5135487.34 186.21
-9755186.08 5135487.07 186.18
-9755186.07 5135488.85 186.19
-9755191.44 5135486.48 186.80
-9755192.19 5135486.42 186.86
-9755177.58 5135485.88 182.44
-9755184.33 5135485.54 186.17
-9755177.80 5135485.55 184.16
-9755178.10 5135487.27 186.14
-9755176.72 5135488.97 182.49
-9755174.50 5135487.32 182.78
-9755177.42 5135487.19 184.21
-9755177.73 5135485.39 181.55
-9755176.63 5135488.90 185.66
-9755174.68 5135485.64 182.76
-9755176.35 5135488.95 181.51
-9755184.58 5135487.37 186.18
-9755176.07 5135485.69 182.74
-9755177.43 5135487.16 182.34
-9755182.84 5135489.05 187.43
-9755177.10 5135488.60 183.83
-9755177.06 5135489.00 182.99
-9755185.74 5135485.82 187.32
-9755175.11 5135484.81 182.75
-9755185.38 5135487.56 187.31
-9755173.06 5135482.45 181.45
-9755172.84 5135484.24 181.47
-9755171.25 5135497.28 181.47
-9755168.29 5135495.52 181.44
-9755169.52 5135495.72 181.44
-9755165.00 5135497.13 181.73
-9755164.98 5135496.24 181.77
-9755163.30 5135498.67 181.39
-9755171.51 5135498.76 181.47
-9755160.04 5135497.20 181.37
-9755154.73 5135495.40 181.37
-9755156.49 5135493.97 181.37
-9755169.81 5135490.75 181.48
-9755164.81 5135490.69 181.42
-9755170.99 5135491.94 181.73
-9755160.10 5135490.66 181.40
-9755161.25 5135492.19 181.40
-9755158.00 5135492.15 181.38
-9755148.25 5135495.69 181.33
-9755148.56 5135493.87 181.35
-9755153.27 5135493.87 181.36
-9755146.46 5135493.90 181.34
-9755153.23 5135498.90 181.34
-9755149.77 5135490.63 181.38
-9755168.14 5135475.84 182.44
-9755167.80 5135484.20 181.45
-9755166.10 5135479.20 181.46
-9755164.59 5135478.90 181.46
-9755166.36 5135475.88 181.43
-9755171.07 5135477.44 181.31
-9755163.14 5135472.52 182.53
-9755171.36 5135473.88 181.26
-9755169.58 5135477.72 181.34
-9755164.82 5135484.18 181.44
-9755166.38 5135475.69 182.51
-9755168.28 5135472.56 182.38
-9755163.09 5135477.38 181.45
-9755164.90 5135472.67 181.44
-9755169.21 5135474.28 182.15
-9755169.60 5135474.48 181.24
-9755166.40 5135472.60 182.47
-9755163.15 5135472.36 181.47
-9755163.04 5135488.94 181.42
-9755166.31 5135485.69 181.44
-9755166.34 5135487.47 181.44
-9755169.55 5135488.95 181.46
-9755171.02 5135485.72 181.47
-9755171.31 5135487.47 181.47
-9755162.78 5135487.42 181.44
-9755161.67 5135477.65 181.43
-9755159.88 5135475.86 181.45
-9755161.36 5135472.53 182.57
-9755162.00 5135473.49 182.58
-9755159.50 5135484.18 181.43
-9755157.78 5135479.05 181.43
-9755156.64 5135479.11 181.41
-9755157.82 5135475.55 181.44
-9755158.07 5135482.10 181.43
-9755161.32 5135487.15 181.42
-9755159.49 5135488.87 181.41
-9755158.29 5135487.49 181.40
-9755156.30 5135485.35 181.41
-9755149.80 5135480.53 181.40
-9755151.67 5135475.79 181.40
-9755153.03 5135483.89 181.39
-9755151.30 5135480.57 181.38
-9755151.58 5135479.07 181.39
-9755153.08 5135475.55 181.40
-9755146.57 5135477.57 181.37
-9755151.36 5135472.54 181.40
-9755148.05 5135484.12 181.39
-9755153.07 5135477.65 181.41
-9755148.34 5135482.64 181.40
-9755146.59 5135475.80 181.39
-9755148.33 5135488.86 181.37
-9755153.31 5135487.40 181.39
-9755148.26 5135487.40 181.37
-9755155.08 5135485.60 181.41
-9755145.03 5135495.60 181.33
-9755136.85 5135495.68 191.28
-9755136.87 5135493.90 191.29
-9755145.02 5135490.58 181.36
-9755143.02 5135490.52 182.88
-9755143.50 5135490.39 183.47
-9755138.33 5135492.17 191.33
-9755140.40 5135490.52 191.23
-9755140.98 5135490.84 193.08
-9755139.22 5135491.91 191.34
-9755134.86 5135497.17 183.26
-9755135.13 5135495.49 182.41
-9755135.09 5135493.94 191.28
-9755134.98 5135493.53 181.37
-9755133.26 5135498.64 190.64
-9755133.67 5135496.68 182.54
-9755132.15 5135496.75 187.19
-9755131.75 5135495.58 181.34
-9755133.50 5135495.53 181.60
-9755131.85 5135496.85 191.17
-9755132.14 5135494.13 187.23
-9755133.28 5135497.37 187.25
-9755132.26 5135496.05 187.17
-9755132.20 5135497.24 184.26
-9755132.01 5135497.17 185.23
-9755123.45 5135497.31 181.34
-9755128.82 5135495.53 181.34
-9755123.50 5135493.76 181.36
-9755118.77 5135493.69 181.34
-9755133.51 5135498.98 182.66
-9755132.09 5135498.76 190.55
-9755132.72 5135498.03 186.54
-9755133.17 5135499.23 181.27
-9755132.29 5135499.24 186.05
-9755133.26 5135499.20 186.04
-9755132.34 5135499.47 187.22
-9755133.23 5135498.05 186.94
-9755132.23 5135498.82 182.75
-9755132.10 5135498.70 184.21
-9755132.11 5135498.86 192.16
-9755129.93 5135499.09 181.34
-9755124.97 5135499.05 181.34
-9755121.71 5135498.77 181.34
-9755135.22 5135490.76 181.26
-9755135.01 5135492.03 181.33
-9755134.81 5135492.18 182.08
-9755134.91 5135490.63 182.06
-9755131.45 5135492.25 181.30
-9755132.03 5135490.24 182.00
-9755131.50 5135490.78 181.33
-9755132.07 5135490.44 184.18
-9755132.07 5135491.83 184.23
-9755132.09 5135492.88 187.19
-9755130.01 5135490.90 181.36
-9755123.51 5135492.25 181.34
-9755118.78 5135490.43 181.35
-9755144.83 5135484.10 181.39
-9755143.36 5135476.09 181.50
-9755143.32 5135480.51 181.37
-9755138.44 5135484.15 191.98
-9755138.42 5135480.87 191.31
-9755141.66 5135474.10 186.00
-9755138.52 5135477.68 191.25
-9755136.94 5135482.37 191.27
-9755141.61 5135474.13 184.18
-9755143.13 5135474.04 183.20
-9755138.44 5135474.06 191.31
-9755142.86 5135473.26 184.38
-9755138.50 5135475.42 192.16
-9755141.73 5135473.20 184.28
-9755141.73 5135472.46 189.36
-9755136.72 5135474.39 191.27
-9755138.33 5135487.41 191.32
-9755143.30 5135487.07 181.36
-9755137.49 5135485.29 192.01
-9755141.85 5135489.47 182.14
-9755142.65 5135486.21 182.07
-9755134.79 5135480.81 181.28
-9755134.72 5135472.38 182.59
-9755135.09 5135479.06 181.31
-9755135.03 5135483.71 181.31
-9755135.08 5135474.22 182.47
-9755135.04 5135477.16 181.29
-9755135.15 5135482.52 181.33
-9755135.17 5135479.10 191.28
-9755135.02 5135474.93 181.31
-9755133.26 5135482.21 181.30
-9755131.86 5135482.47 181.32
-9755131.69 5135476.17 182.05
-9755133.04 5135475.92 192.05
-9755133.64 5135473.94 181.94
-9755133.33 5135476.04 181.30
-9755133.47 5135474.36 191.31
-9755133.35 5135480.76 181.29
-9755131.79 5135480.42 181.33
-9755131.71 5135475.84 191.84
-9755133.38 5135480.85 191.28
-9755131.58 5135477.44 181.33
-9755133.47 5135477.32 191.28
-9755133.16 5135478.70 183.41
-9755131.78 5135477.60 182.27
-9755132.13 5135482.52 189.23
-9755131.91 5135479.11 191.32
-9755131.79 5135478.87 182.30
-9755133.32 5135477.47 192.04
-9755133.24 5135475.99 182.00
-9755131.46 5135484.02 181.31
-9755131.64 5135473.86 181.83
-9755133.40 5135484.15 191.28
-9755133.00 5135475.32 183.42
-9755131.84 5135478.89 185.30
-9755132.00 5135477.64 185.25
-9755131.68 5135478.77 184.15
-9755131.97 5135480.90 184.72
-9755131.85 5135474.41 185.25
-9755131.91 5135482.66 185.25
-9755130.30 5135475.69 181.31
-9755130.29 5135478.91 181.33
-9755121.90 5135474.20 181.33
-9755130.10 5135484.02 181.34
-9755128.32 5135474.22 181.34
-9755121.81 5135480.96 181.34
-9755130.01 5135482.24 181.32
-9755120.39 5135472.46 181.31
-9755126.89 5135481.00 181.34
-9755123.61 5135482.47 181.34
-9755123.59 5135478.93 181.33
-9755122.10 5135478.92 181.34
-9755126.87 5135479.00 181.35
-9755125.08 5135478.95 181.34
-9755128.42 5135472.12 181.32
-9755131.66 5135472.44 184.17
-9755131.84 5135485.81 181.31
-9755133.30 5135489.05 182.03
-9755132.16 5135487.52 181.96
-9755133.40 5135485.59 191.29
-9755133.59 5135487.27 181.31
-9755131.55 5135487.23 181.35
-9755131.48 5135489.04 181.33
-9755133.38 5135485.79 181.31
-9755131.84 5135489.25 183.68
-9755132.05 5135488.18 192.22
-9755132.01 5135485.62 184.18
-9755130.07 5135487.59 181.33
-9755128.37 5135485.72 181.33
-9755121.73 5135488.97 181.33
-9755123.55 5135485.73 181.33
-9755120.34 5135488.98 181.34
-9755126.79 5135489.02 181.36
-9755121.74 5135485.72 181.35
-9755116.72 5135496.96 181.32
-9755117.02 5135490.69 181.35
-9755105.30 5135495.49 185.90
-9755108.48 5135494.20 181.38
-9755112.00 5135497.42 182.27
-9755112.38 5135493.87 182.47
-9755112.95 5135494.22 183.79
-9755105.27 5135493.90 181.51
-9755115.29 5135493.76 181.30
-9755106.98 5135497.18 181.37
-9755113.02 5135497.02 183.72
-9755110.23 5135497.51 181.36
-9755115.23 5135498.70 181.32
-9755112.14 5135498.89 182.22
-9755113.74 5135499.01 181.43
-9755112.67 5135498.92 183.81
-9755103.77 5135494.11 189.28
-9755100.63 5135493.99 185.89
-9755100.42 5135495.43 187.71
-9755104.40 5135494.82 189.26
-9755104.49 5135496.51 184.72
-9755103.55 5135493.43 190.86
-9755098.69 5135498.94 181.39
-9755102.25 5135498.63 181.42
-9755108.80 5135492.18 181.37
-9755110.56 5135490.70 181.38
-9755105.36 5135490.59 189.07
-9755107.16 5135492.07 188.81
-9755112.84 5135492.92 182.48
-9755105.35 5135490.69 187.22
-9755108.48 5135490.51 187.25
-9755113.77 5135491.00 181.42
-9755105.26 5135492.39 181.52
-9755111.14 5135490.77 182.24
-9755112.89 5135490.67 183.88
-9755101.97 5135490.62 189.55
-9755099.06 5135490.56 181.37
-9755102.42 5135490.47 185.64
-9755103.72 5135490.47 184.45
-9755096.99 5135494.14 181.31
-9755093.69 5135493.86 181.39
-9755097.29 5135497.39 181.30
-9755092.32 5135493.83 181.41
-9755094.00 5135495.61 181.38
-9755096.97 5135498.61 181.30
-9755092.29 5135490.90 181.41
-9755118.90 5135474.15 181.32
-9755117.07 5135474.17 181.32
-9755117.07 5135488.97 181.35
-9755106.82 5135480.74 188.85
-9755113.84 5135482.47 181.35
-9755106.88 5135479.33 189.09
-9755108.73 5135472.19 187.64
-9755113.85 5135480.97 181.33
-9755107.16 5135482.21 189.05
-9755105.52 5135477.51 185.82
-9755108.52 5135477.61 181.35
-9755107.13 5135474.03 189.19
-9755105.12 5135478.82 187.21
-9755108.39 5135475.85 186.18
-9755107.12 5135475.61 181.36
-9755110.54 5135472.54 181.38
-9755105.66 5135472.48 189.13
-9755111.85 5135475.93 181.47
-9755112.87 5135482.83 182.66
-9755107.06 5135484.21 187.06
-9755105.35 5135482.08 181.37
-9755113.81 5135483.94 181.38
-9755105.67 5135480.32 187.51
-9755108.62 5135477.51 187.36
-9755106.59 5135481.18 190.61
-9755112.54 5135480.60 183.72
-9755108.40 5135479.33 188.25
-9755112.38 5135478.99 183.78
-9755115.00 5135480.92 181.33
-9755112.36 5135474.02 183.79
-9755117.15 5135472.66 181.29
-9755112.06 5135484.15 181.49
-9755115.09 5135472.67 181.30
-9755108.47 5135482.38 188.74
-9755106.44 5135482.47 190.36
-9755110.08 5135472.61 188.56
-9755112.13 5135472.32 181.44
-9755106.71 5135487.64 187.76
-9755112.03 5135485.68 181.49
-9755105.56 5135488.92 181.37
-9755113.80 5135485.66 181.41
-9755105.31 5135485.84 185.55
-9755108.57 5135485.66 181.37
-9755112.01 5135489.26 181.51
-9755108.54 5135488.93 187.40
-9755108.17 5135488.73 189.27
-9755105.31 5135487.52 181.40
-9755112.85 5135484.66 183.26
-9755115.28 5135488.95 181.33
-9755105.75 5135485.46 184.98
-9755103.65 5135472.48 190.66
-9755103.83 5135480.89 190.89
-9755103.63 5135479.01 189.13
-9755103.84 5135475.86 187.57
-9755100.66 5135477.65 187.40
-9755102.37 5135472.40 189.06
-9755098.91 5135476.15 185.94
-9755100.21 5135480.80 186.27
-9755103.44 5135475.82 189.11
-9755102.06 5135480.83 181.41
-9755102.12 5135475.76 189.02
-9755102.18 5135474.07 189.27
-9755101.87 5135479.09 187.67
-9755103.75 5135474.12 187.74
-9755102.16 5135482.23 189.15
-9755103.88 5135477.46 187.43
-9755100.47 5135472.42 189.23
-9755102.14 5135474.10 188.04
-9755103.85 5135480.90 189.23
-9755100.33 5135474.30 181.39
-9755101.88 5135477.39 187.82
-9755098.67 5135474.20 190.12
-9755098.73 5135479.38 181.37
-9755098.75 5135482.35 181.35
-9755101.82 5135479.10 181.41
-9755098.77 5135475.49 184.49
-9755100.54 5135482.31 181.40
-9755102.09 5135477.28 181.42
-9755104.16 5135480.45 185.27
-9755103.97 5135473.99 186.38
-9755100.06 5135472.59 181.38
-9755098.81 5135472.53 181.39
-9755103.69 5135476.02 185.96
-9755103.56 5135484.07 187.72
-9755100.52 5135484.02 188.87
-9755100.91 5135479.07 189.44
-9755102.25 5135472.52 190.57
-9755099.28 5135472.35 184.27
-9755101.64 5135476.17 184.98
-9755104.24 5135472.54 185.72
-9755100.59 5135484.18 181.38
-9755099.99 5135474.16 186.00
-9755102.08 5135472.27 181.45
-9755101.87 5135474.37 181.41
-9755102.04 5135475.51 181.41
-9755100.17 5135472.72 184.84
-9755102.46 5135484.28 185.55
-9755103.83 5135488.65 187.31
-9755100.40 5135489.00 190.63
-9755098.99 5135489.04 188.68
-9755102.77 5135488.88 187.71
-9755100.53 5135489.21 185.86
-9755100.57 5135487.37 181.41
-9755098.77 5135489.16 181.37
-9755103.85 5135485.46 188.88
-9755102.32 5135488.87 181.42
-9755102.08 5135485.91 181.43
-9755100.58 5135488.85 181.40
-9755098.80 5135487.26 184.52
-9755102.31 5135487.43 181.43
-9755103.79 5135487.35 187.08
-9755102.43 5135487.01 184.94
-9755102.70 5135487.41 185.21
-9755094.09 5135482.30 181.36
-9755093.54 5135475.77 181.37
-9755095.63 5135482.36 181.30
-9755092.36 5135480.82 181.38
-9755093.92 5135477.57 181.36
-9755092.38 5135477.54 181.39
-9755092.39 5135472.53 181.37
-9755095.52 5135489.12 181.35
-9755093.77 5135487.33 181.38
-9755095.52 5135487.35 181.33
-9755097.11 5135488.95 187.34
-9755097.30 5135487.43 181.27
-9755097.66 5135487.69 185.91
-9755090.51 5135494.16 181.42
-9755082.21 5135495.67 181.15
-9755082.27 5135493.79 182.60
-9755082.30 5135497.37 181.03
-9755084.00 5135495.86 181.58
-9755083.97 5135497.36 181.59
-9755085.49 5135493.80 181.46
-9755082.26 5135497.02 182.57
-9755082.70 5135494.79 183.45
-9755090.81 5135498.89 181.41
-9755082.59 5135497.55 183.60
-9755082.13 5135490.71 180.98
-9755082.23 5135492.39 180.85
-9755083.99 5135490.52 181.59
-9755085.48 5135492.06 181.44
-9755085.52 5135490.55 181.46
-9755090.57 5135476.07 181.41
-9755082.35 5135473.90 182.65
-9755082.37 5135475.59 182.61
