-9755650.80 5135523.76 185.84
-9755649.07 5135520.29 185.32
-9755649.03 5135521.75 185.32
-9755650.47 5135520.21 185.91
-9755650.64 5135521.78 185.64
-9755650.77 5135528.53 185.64
-9755649.01 5135525.34 185.31
-9755652.14 5135526.56 185.63
-9755650.48 5135523.46 186.87
-9755652.11 5135520.28 185.64
-9755652.59 5135528.14 185.64
-9755650.78 5135520.14 186.85
-9755663.69 5135535.20 185.09
-9755663.67 5135536.90 185.10
-9755660.75 5135538.42 185.18
-9755657.20 5135536.90 185.12
-9755657.20 5135538.38 185.10
-9755662.18 5135538.70 185.16
-9755654.25 5135536.81 186.01
-9755653.82 5135535.30 187.07
-9755661.92 5135534.84 185.15
-9755660.45 5135535.18 185.19
-9755660.48 5135533.37 185.19
-9755654.02 5135538.27 187.08
-9755657.24 5135531.60 185.08
-9755663.70 5135531.59 185.10
-9755653.99 5135531.88 185.62
-9755654.04 5135536.74 186.84
-9755655.72 5135538.66 185.16
-9755657.19 5135535.10 185.11
-9755662.25 5135531.57 185.15
-9755657.25 5135530.07 185.09
-9755657.15 5135533.62 185.11
-9755655.03 5135538.87 187.13
-9755660.48 5135536.88 185.20
-9755654.82 5135533.89 187.09
-9755649.22 5135533.61 185.32
-9755649.27 5135535.09 185.33
-9755650.80 5135532.04 185.94
-9755652.18 5135530.17 185.63
-9755652.62 5135536.66 187.14
-9755650.73 5135530.05 185.61
-9755652.21 5135531.76 185.67
-9755652.19 5135538.30 186.92
-9755650.67 5135538.57 187.07
-9755649.00 5135528.55 185.32
-9755650.40 5135534.98 187.15
-9755647.46 5135538.62 185.32
-9755642.14 5135540.06 185.02
-9755642.73 5135541.60 184.99
-9755645.65 5135541.87 185.34
-9755642.42 5135540.34 185.00
-9755644.22 5135540.12 185.11
-9755639.47 5135541.84 185.02
-9755638.92 5135540.08 185.03
-9755641.77 5135543.92 185.02
-9755641.29 5135543.06 185.02
-9755639.74 5135545.11 185.01
-9755639.42 5135546.88 185.04
-9755639.76 5135546.00 185.01
-9755637.37 5135544.94 186.37
-9755639.18 5135543.35 185.02
-9755637.36 5135543.50 186.38
-9755638.89 5135541.82 185.01
-9755637.39 5135541.59 186.49
-9755635.91 5135541.75 186.41
-9755634.25 5135541.69 186.33
-9755635.90 5135539.89 185.64
-9755627.42 5135540.01 185.12
-9755629.46 5135541.78 185.06
-9755625.91 5135541.75 185.11
-9755620.86 5135541.77 184.85
-9755617.96 5135541.14 182.97
-9755624.13 5135541.54 185.09
-9755635.87 5135543.52 186.38
-9755630.86 5135545.01 185.07
-9755634.16 5135546.75 186.32
-9755634.19 5135545.00 186.32
-9755629.42 5135545.02 185.07
-9755633.38 5135546.01 184.96
-9755627.36 5135543.54 185.14
-9755626.21 5135544.97 185.11
-9755622.63 5135544.75 185.04
-9755622.30 5135546.48 184.90
-9755619.47 5135543.17 184.70
-9755622.63 5135546.51 185.04
-9755619.13 5135546.73 184.63
-9755621.14 5135545.01 184.92
-9755617.88 5135544.85 181.25
-9755622.36 5135544.95 184.95
-9755647.20 5135530.31 185.31
-9755647.53 5135522.07 185.32
-9755644.01 5135522.00 185.15
-9755645.83 5135518.79 185.31
-9755645.50 5135523.47 185.34
-9755642.23 5135526.76 185.01
-9755644.29 5135527.04 185.18
-9755641.10 5135526.47 185.02
-9755644.00 5135523.52 185.14
-9755641.09 5135522.00 185.01
-9755644.01 5135524.96 185.15
-9755640.83 5135519.98 185.00
-9755644.05 5135520.27 185.15
-9755640.98 5135528.49 185.03
-9755639.29 5135523.79 185.01
-9755639.55 5135525.27 185.00
-9755638.96 5135526.73 185.04
-9755640.52 5135518.16 185.02
-9755647.14 5135536.57 185.31
-9755640.69 5135538.59 185.05
-9755644.25 5135533.27 185.15
-9755644.25 5135530.31 185.19
-9755643.96 5135535.32 185.16
-9755642.13 5135538.27 185.03
-9755642.49 5135534.97 185.04
-9755645.73 5135533.32 185.33
-9755645.76 5135534.74 185.32
-9755640.99 5135536.80 185.05
-9755644.19 5135538.59 185.14
-9755641.03 5135531.74 185.05
-9755646.07 5135530.04 185.32
-9755640.71 5135535.04 185.06
-9755645.69 5135531.83 185.32
-9755638.97 5135530.32 185.04
-9755639.21 5135533.58 185.04
-9755638.98 5135531.75 185.07
-9755639.47 5135538.28 185.06
-9755637.15 5135518.67 186.45
-9755634.23 5135526.94 186.27
-9755629.22 5135525.18 185.07
-9755637.18 5135527.01 186.42
-9755633.10 5135523.64 186.35
-9755635.99 5135523.69 186.33
-9755634.31 5135521.95 186.35
-9755635.74 5135518.73 186.35
-9755634.23 5135520.17 186.34
-9755632.84 5135522.07 186.35
-9755635.98 5135526.87 186.31
-9755637.55 5135520.27 185.12
-9755629.25 5135520.72 185.08
-9755635.71 5135528.86 186.00
-9755634.00 5135525.11 186.29
-9755632.90 5135518.91 186.42
-9755637.16 5135522.02 186.29
-9755635.80 5135520.09 186.36
-9755632.80 5135520.57 186.38
-9755635.52 5135521.96 185.83
-9755627.55 5135520.47 185.11
-9755629.52 5135523.70 185.09
-9755634.28 5135528.49 186.29
-9755630.97 5135528.48 185.10
-9755627.49 5135518.69 185.10
-9755631.06 5135520.47 185.09
-9755637.47 5135528.47 185.15
-9755620.96 5135528.44 184.87
-9755625.77 5135525.20 185.12
-9755626.03 5135521.92 185.12
-9755625.99 5135526.98 185.12
-9755619.21 5135521.93 184.71
-9755619.50 5135523.68 184.76
-9755625.74 5135523.71 185.12
-9755621.00 5135520.38 184.86
-9755622.48 5135523.66 185.06
-9755621.88 5135518.63 185.00
-9755622.48 5135526.96 185.08
-9755619.16 5135519.77 182.85
-9755618.07 5135518.69 183.04
-9755618.33 5135525.10 184.55
-9755618.00 5135526.81 181.25
-9755618.48 5135522.28 184.22
-9755617.49 5135520.22 183.04
-9755630.93 5135534.94 185.07
-9755632.73 5135535.02 185.12
-9755637.44 5135536.53 185.19
-9755627.70 5135538.53 185.12
-9755630.99 5135530.29 185.10
-9755632.45 5135533.49 185.10
-9755634.20 5135533.14 186.36
-9755632.80 5135530.20 185.11
-9755629.45 5135538.22 185.08
-9755635.96 5135538.59 185.64
-9755635.72 5135531.88 185.86
-9755634.17 5135538.58 185.20
-9755632.42 5135536.70 185.10
-9755636.26 5135530.18 186.11
-9755637.45 5135538.54 185.18
-9755630.98 5135536.75 185.08
-9755627.44 5135533.43 185.11
-9755629.54 5135537.05 185.08
-9755637.45 5135533.21 185.17
-9755635.42 5135532.81 186.86
-9755624.19 5135530.21 185.12
-9755619.42 5135536.89 183.04
-9755620.95 5135534.95 184.87
-9755624.15 5135535.18 185.11
-9755625.99 5135529.91 185.12
-9755617.95 5135538.27 183.11
-9755625.93 5135531.70 185.13
-9755617.65 5135533.24 182.99
-9755617.64 5135537.03 183.04
-9755622.43 5135537.88 185.01
-9755617.70 5135534.98 183.01
-9755617.71 5135528.62 181.25
-9755616.13 5135541.89 181.24
-9755612.93 5135541.87 181.08
-9755616.17 5135543.33 181.26
-9755614.27 5135544.88 181.10
-9755614.36 5135543.62 181.08
-9755614.39 5135546.63 181.10
-9755611.08 5135545.13 181.10
-9755601.38 5135546.57 181.31
-9755601.20 5135540.06 185.86
-9755601.14 5135541.71 184.22
-9755604.66 5135541.57 181.09
-9755604.61 5135539.79 181.08
-9755607.66 5135540.12 181.07
-9755601.38 5135539.96 184.47
-9755609.63 5135541.61 181.07
-9755601.17 5135541.80 181.23
-9755607.85 5135541.48 181.09
-9755599.92 5135541.53 185.50
-9755600.92 5135540.90 183.36
-9755606.36 5135541.75 181.10
-9755594.58 5135541.79 181.09
-9755591.39 5135540.00 181.07
-9755594.60 5135540.01 181.07
-9755597.84 5135540.03 181.09
-9755609.66 5135546.94 181.09
-9755607.96 5135546.55 181.08
-9755602.82 5135546.58 181.29
-9755609.31 5135543.27 181.07
-9755600.92 5135547.07 183.87
-9755599.63 5135545.08 181.26
-9755594.61 5135543.18 181.09
-9755596.36 5135544.99 181.12
-9755596.41 5135543.54 181.09
-9755588.18 5135545.26 181.07
-9755614.53 5135523.53 181.05
-9755614.26 5135521.99 181.08
-9755614.26 5135526.86 181.09
-9755612.72 5135521.79 181.07
-9755614.55 5135528.63 181.08
-9755612.78 5135520.28 181.07
-9755611.22 5135521.69 181.04
-9755611.24 5135525.29 181.05
-9755616.18 5135538.28 182.73
-9755615.92 5135531.85 181.25
-9755614.41 5135535.37 181.08
-9755617.60 5135532.88 181.26
-9755618.00 5135532.38 182.79
-9755612.66 5135528.50 181.06
-9755612.88 5135538.28 181.09
-9755612.68 5135531.83 181.05
-9755611.25 5135533.28 181.07
-9755601.25 5135520.14 184.17
-9755602.75 5135521.83 182.84
-9755601.29 5135518.60 184.22
-9755601.24 5135521.98 181.26
-9755604.49 5135525.18 181.06
-9755606.26 5135518.41 181.03
-9755599.45 5135523.43 181.26
-9755599.28 5135520.69 183.04
-9755604.50 5135518.74 181.07
-9755604.68 5135527.00 181.05
-9755601.20 5135526.70 181.27
-9755601.62 5135521.88 183.13
-9755609.40 5135524.94 180.99
-9755602.71 5135523.46 181.25
-9755602.98 5135525.00 181.25
-9755601.22 5135524.94 181.27
-9755604.46 5135520.31 181.06
-9755601.26 5135518.44 181.27
-9755602.96 5135528.90 184.43
-9755601.32 5135528.63 183.97
-9755589.60 5135523.39 181.05
-9755596.24 5135520.15 181.08
-9755596.20 5135525.49 181.06
-9755594.67 5135525.56 181.08
-9755596.24 5135521.91 181.09
-9755591.46 5135522.18 181.05
-9755591.24 5135520.15 181.05
-9755591.43 5135525.08 181.05
-9755594.74 5135520.19 181.06
-9755598.22 5135526.95 181.06
-9755597.95 5135522.22 181.09
-9755598.08 5135520.21 181.07
-9755592.88 5135526.66 181.05
-9755596.26 5135527.04 181.07
-9755589.52 5135518.63 181.03
-9755597.97 5135525.23 180.98
-9755598.34 5135520.00 183.29
-9755588.27 5135520.39 181.02
-9755588.31 5135523.39 181.04
-9755603.14 5135531.91 184.04
-9755609.38 5135528.30 181.01
-9755607.95 5135535.03 181.05
-9755604.10 5135528.55 183.74
-9755606.07 5135533.54 181.07
-9755601.18 5135528.23 181.26
-9755603.02 5135528.89 183.36
-9755602.97 5135531.74 181.25
-9755602.94 5135533.52 181.26
-9755606.22 5135528.21 181.06
-9755602.72 5135532.08 183.07
-9755609.47 5135535.33 181.05
-9755601.17 5135531.89 184.41
-9755602.82 5135530.18 183.79
-9755599.73 5135528.78 181.25
-9755607.86 5135538.59 181.08
-9755601.22 5135532.07 181.26
-9755607.91 5135528.54 181.05
-9755602.87 5135538.19 181.26
-9755602.94 5135528.80 181.24
-9755609.47 5135530.09 181.02
-9755609.67 5135533.60 181.05
-9755606.23 5135531.74 181.08
-9755607.88 5135536.83 181.08
-9755603.07 5135531.28 187.11
-9755601.84 5135532.95 183.33
-9755599.63 5135532.25 183.23
-9755604.43 5135528.55 181.09
-9755599.69 5135534.99 181.23
-9755606.22 5135530.25 181.06
-9755601.98 5135530.35 183.24
-9755599.70 5135538.27 181.23
-9755591.37 5135536.73 181.06
-9755591.66 5135538.48 181.06
-9755596.19 5135529.97 181.09
-9755596.33 5135538.48 181.08
-9755592.86 5135528.55 181.06
-9755596.16 5135533.70 181.07
-9755596.39 5135536.79 181.09
-9755598.53 5135528.59 183.98
-9755598.22 5135536.55 181.06
-9755597.67 5135530.08 185.61
-9755599.36 5135539.26 183.27
-9755587.92 5135536.66 181.06
-9755588.08 5135538.08 181.07
-9755587.91 5135533.50 181.07
-9755586.36 5135539.96 181.06
-9755586.74 5135541.73 181.06
-9755586.43 5135543.20 181.07
-9755563.15 5135539.80 181.13
-9755566.59 5135540.12 181.10
-9755571.87 5135539.89 181.08
-9755579.85 5135541.66 181.06
-9755583.09 5135545.23 181.05
-9755578.08 5135541.73 181.07
-9755574.84 5135541.93 181.06
-9755576.69 5135543.15 181.05
-9755583.45 5135546.47 181.04
-9755574.89 5135545.23 181.05
-9755578.13 5135544.99 181.03
-9755581.39 5135544.99 181.03
-9755579.83 5135545.01 181.05
-9755573.06 5135543.44 181.06
-9755573.15 5135544.96 181.06
-9755563.40 5135543.39 181.12
-9755566.65 5135541.59 181.10
-9755569.76 5135544.82 181.04
-9755564.87 5135541.60 181.10
-9755561.59 5135543.67 181.11
-9755560.15 5135543.08 181.14
-9755570.11 5135541.61 181.07
-9755563.12 5135541.86 181.11
-9755565.10 5135545.09 181.10
-9755568.43 5135544.82 181.07
-9755561.64 5135541.57 181.12
-9755571.62 5135543.14 181.08
-9755568.38 5135543.35 181.09
-9755560.21 5135541.87 181.13
-9755559.89 5135545.08 181.13
-9755558.65 5135541.51 181.15
-9755588.33 5135518.68 181.01
-9755586.47 5135527.17 181.04
-9755586.17 5135521.94 181.04
-9755584.98 5135521.89 181.01
-9755584.44 5135523.60 181.02
-9755584.76 5135520.11 181.00
-9755586.43 5135516.88 180.98
-9755586.71 5135536.74 181.07
-9755586.41 5135528.71 181.07
-9755586.08 5135538.45 181.08
-9755586.39 5135533.42 181.09
-9755584.88 5135528.67 181.07
-9755584.65 5135538.39 181.10
-9755584.70 5135530.25 181.08
-9755585.08 5135518.66 181.01
-9755576.48 5135525.08 180.99
-9755578.27 5135525.09 180.99
-9755582.92 5135520.14 180.97
-9755578.47 5135523.63 180.99
-9755581.79 5135523.31 181.03
-9755583.25 5135526.88 181.03
-9755577.93 5135522.12 180.95
-9755579.95 5135518.65 180.96
-9755579.71 5135520.44 180.96
-9755575.03 5135525.03 180.99
-9755577.97 5135518.63 180.91
-9755576.79 5135523.61 180.97
-9755574.91 5135526.81 181.04
-9755573.18 5135521.82 181.00
-9755578.01 5135517.09 180.90
-9755573.21 5135523.82 180.99
-9755574.83 5135517.04 180.94
-9755573.46 5135518.48 180.97
-9755573.18 5135525.38 181.03
-9755569.86 5135523.57 181.02
-9755573.35 5135516.81 180.96
-9755565.23 5135523.84 181.05
-9755563.49 5135522.05 181.06
-9755568.42 5135522.08 181.04
-9755569.77 5135518.54 181.00
-9755563.22 5135523.74 181.06
-9755568.23 5135525.36 181.05
-9755568.19 5135526.81 181.04
-9755561.72 5135526.78 181.13
-9755561.44 5135525.26 181.11
-9755560.27 5135525.23 181.14
-9755569.93 5135522.12 180.98
-9755571.72 5135525.35 181.02
-9755559.94 5135521.80 181.13
-9755564.93 5135527.12 181.11
-9755571.42 5135516.99 180.96
-9755558.50 5135522.01 181.12
-9755558.18 5135525.24 181.15
-9755581.36 5135536.65 181.11
-9755581.41 5135532.00 181.08
-9755579.85 5135535.26 181.09
-9755576.40 5135533.42 181.10
-9755583.15 5135536.99 181.11
-9755583.18 5135531.67 181.09
-9755578.19 5135530.42 181.06
-9755581.37 5135530.45 181.08
-9755578.12 5135536.69 181.10
-9755573.17 5135533.67 181.10
-9755581.36 5135538.67 181.09
-9755583.25 5135530.44 181.09
-9755576.47 5135528.64 181.02
-9755573.11 5135535.07 181.12
-9755583.18 5135528.33 181.06
-9755579.95 5135536.67 181.10
-9755571.38 5135528.60 181.05
-9755565.22 5135528.28 181.10
-9755568.47 5135528.33 181.06
-9755566.71 5135533.60 181.10
-9755571.71 5135538.34 181.10
-9755563.14 5135535.08 181.09
-9755563.48 5135530.31 181.10
-9755566.36 5135531.55 181.09
-9755563.42 5135528.24 181.11
-9755561.96 5135535.07 181.12
-9755561.70 5135533.36 181.12
-9755564.92 5135533.34 181.11
-9755569.94 5135533.64 181.09
-9755561.75 5135530.06 181.11
-9755564.94 5135530.43 181.11
-9755569.81 5135536.60 181.08
-9755558.43 5135531.86 181.16
-9755554.91 5135540.06 181.19
-9755548.58 5135539.97 181.24
-9755556.91 5135539.79 181.20
-9755551.85 5135540.01 181.20
-9755550.14 5135540.01 181.22
-9755547.08 5135540.28 181.23
-9755533.66 5135540.01 185.76
-9755533.59 5135540.14 184.40
-9755532.35 5135540.12 181.41
-9755531.92 5135540.03 184.33
-9755547.10 5135545.06 181.22
-9755556.63 5135541.58 181.17
-9755550.31 5135545.11 181.21
-9755551.89 5135544.78 181.19
-9755553.13 5135544.83 181.15
-9755551.87 5135541.78 181.19
-9755546.85 5135543.62 181.23
-9755546.86 5135541.54 181.22
-9755545.13 5135541.72 181.24
-9755538.64 5135541.75 181.29
-9755536.89 5135541.76 181.30
-9755540.35 5135543.24 181.27
-9755542.11 5135541.68 181.26
-9755543.30 5135545.07 181.23
-9755533.55 5135542.22 184.12
-9755532.22 5135541.74 185.99
-9755532.21 5135543.26 186.13
-9755532.08 5135545.24 181.41
-9755532.38 5135545.47 181.91
-9755530.44 5135540.13 184.32
-9755530.39 5135540.20 181.43
-9755529.39 5135540.07 184.34
-9755530.81 5135541.60 184.12
-9755530.79 5135544.78 184.78
-9755528.85 5135545.20 181.46
-9755558.17 5135523.49 181.18
-9755558.78 5135528.56 181.16
-9755552.09 5135521.74 181.17
-9755553.23 5135527.00 181.19
-9755553.43 5135520.16 181.18
-9755550.21 5135521.70 181.19
-9755547.02 5135521.93 181.23
-9755554.95 5135527.00 181.20
-9755553.48 5135523.44 181.18
-9755556.74 5135525.20 181.16
-9755550.22 5135517.25 181.19
-9755554.95 5135518.75 181.19
-9755545.57 5135520.16 181.23
-9755535.49 5135518.36 181.32
-9755544.99 5135518.46 181.25
-9755536.90 5135527.13 181.33
-9755538.51 5135525.41 181.30
-9755536.92 5135523.35 181.30
-9755540.17 5135526.84 181.28
-9755542.00 5135522.17 181.26
-9755543.76 5135521.93 181.26
-9755537.30 5135516.83 181.31
-9755542.20 5135525.19 181.27
-9755540.28 5135516.93 181.29
-9755533.75 5135517.09 181.30
-9755531.95 5135525.12 181.33
-9755531.99 5135520.34 181.31
-9755531.89 5135525.23 184.48
-9755532.00 5135518.59 181.30
-9755551.91 5135538.21 181.21
-9755548.68 5135538.19 181.21
-9755553.49 5135530.27 181.19
-9755556.69 5135533.59 181.15
-9755551.93 5135530.24 181.19
-9755550.14 5135535.00 181.22
-9755553.36 5135536.82 181.19
-9755550.19 5135538.23 181.22
-9755554.90 5135536.81 181.19
-9755551.98 5135528.52 181.20
-9755553.41 5135538.05 181.20
-9755553.41 5135535.04 181.19
-9755553.36 5135533.56 181.19
-9755556.64 5135531.74 181.16
-9755536.92 5135531.72 181.31
-9755535.14 5135534.96 181.32
-9755535.36 5135533.76 181.30
-9755542.04 5135538.50 182.36
-9755536.84 5135528.41 181.31
-9755545.42 5135533.49 181.23
-9755541.92 5135535.48 181.26
-9755533.92 5135533.39 181.32
-9755543.70 5135530.22 181.25
-9755542.18 5135536.50 182.34
-9755530.46 5135525.43 181.41
-9755530.33 5135525.42 184.09
-9755530.43 5135522.03 184.20
-9755530.58 5135526.87 185.73
-9755530.55 5135517.09 181.35
-9755528.69 5135522.17 181.44
-9755528.70 5135525.24 184.22
-9755530.40 5135536.66 181.45
-9755530.34 5135538.43 181.46
-9755530.63 5135530.14 181.44
-9755528.61 5135533.37 181.47
-9755520.63 5135539.86 181.60
-9755523.85 5135540.13 181.55
-9755517.19 5135540.13 196.17
-9755522.41 5135544.90 181.57
-9755523.85 5135545.18 181.55
-9755520.66 5135541.65 181.63
-9755523.89 5135541.91 181.55
-9755525.36 5135543.40 181.51
-9755517.21 5135543.36 181.80
-9755519.00 5135544.93 198.77
-9755510.77 5135545.22 203.49
-9755517.71 5135541.59 204.05
-9755518.65 5135543.69 182.73
-9755518.96 5135545.19 185.73
-9755514.01 5135541.70 203.47
-9755519.02 5135544.88 182.56
-9755517.23 5135541.63 192.51
-9755518.92 5135544.92 190.97
-9755518.87 5135544.87 181.66
-9755518.81 5135545.10 184.02
-9755515.84 5135541.71 203.45
-9755517.62 5135541.89 182.85
-9755517.48 5135543.74 192.48
-9755518.82 5135544.82 192.69
-9755517.25 5135545.25 203.49
-9755509.03 5135543.44 203.47
-9755517.32 5135543.17 196.14
-9755518.98 5135544.95 204.03
-9755517.22 5135541.61 199.79
-9755517.14 5135541.64 185.18
-9755517.55 5135544.50 199.84
-9755518.67 5135543.89 195.61
-9755517.22 5135543.19 188.84
-9755512.23 5135543.48 203.48
-9755519.17 5135541.59 181.65
-9755517.33 5135541.89 181.72
-9755517.81 5135541.60 199.89
-9755517.39 5135543.44 181.70
-9755518.63 5135543.77 194.05
-9755518.69 5135543.86 187.16
-9755517.69 5135543.24 185.19
-9755518.40 5135543.44 192.62
-9755518.01 5135545.46 181.78
-9755518.07 5135541.42 192.57
-9755505.78 5135541.63 203.47
-9755526.94 5135521.82 181.47
-9755527.40 5135524.70 185.24
-9755525.49 5135520.32 181.48
-9755527.26 5135520.07 181.46
-9755524.01 5135520.33 181.52
-9755522.23 5135520.31 181.55
-9755520.73 5135518.53 181.56
-9755523.99 5135521.80 181.51
-9755523.97 5135526.87 181.53
-9755520.74 5135523.28 181.57
-9755522.26 5135522.08 181.55
-9755520.45 5135525.31 181.57
-9755513.73 5135523.72 184.66
-9755507.36 5135520.10 196.23
-9755517.25 5135523.72 185.26
-9755507.66 5135517.06 190.83
-9755507.43 5135518.50 189.10
-9755513.70 5135518.79 181.62
-9755507.37 5135517.03 193.80
-9755507.42 5135516.97 199.20
-9755517.32 5135521.93 184.02
-9755517.61 5135521.50 185.32
-9755507.39 5135517.10 202.29
-9755508.94 5135518.79 181.66
-9755517.45 5135518.38 183.97
-9755515.46 5135522.06 181.61
-9755508.89 5135525.32 181.66
-9755513.64 5135526.94 184.82
-9755517.52 5135518.85 181.59
-9755507.68 5135518.18 190.71
-9755509.06 5135526.99 196.13
-9755507.29 5135517.06 197.21
-9755515.72 5135526.91 184.87
-9755509.18 5135527.03 188.84
-9755507.41 5135518.53 203.62
-9755511.95 5135525.34 181.66
-9755516.04 5135525.10 184.84
-9755514.27 5135523.58 181.63
-9755517.47 5135517.18 182.06
-9755510.72 5135523.77 181.67
-9755513.69 5135525.15 184.71
-9755518.10 5135520.70 182.29
-9755512.23 5135520.25 181.64
-9755507.52 5135525.25 188.88
-9755507.72 5135526.97 188.85
-9755515.51 5135523.87 181.58
-9755512.18 5135523.80 181.63
-9755507.91 5135518.36 193.87
-9755516.22 5135522.74 184.88
-9755513.39 5135522.52 184.61
-9755512.16 5135527.02 181.63
-9755507.55 5135520.49 181.65
-9755508.94 5135526.99 181.66
-9755507.59 5135520.15 188.96
-9755514.22 5135526.97 185.03
-9755509.02 5135524.87 189.02
-9755512.47 5135526.92 184.58
-9755517.41 5135516.69 183.70
-9755510.75 5135516.96 181.63
-9755512.62 5135525.50 184.53
-9755518.23 5135523.43 184.40
-9755513.08 5135523.42 184.56
-9755508.19 5135518.37 194.37
-9755505.60 5135518.58 203.60
-9755507.10 5135516.77 204.93
-9755507.12 5135516.93 206.92
-9755525.67 5135530.40 181.52
-9755522.16 5135530.09 181.58
-9755522.18 5135536.90 181.58
-9755525.39 5135528.64 181.53
-9755520.68 5135535.14 181.60
-9755523.67 5135530.37 181.55
-9755525.37 5135538.39 181.54
-9755523.61 5135535.15 181.55
-9755526.79 5135538.40 181.50
-9755520.68 5135536.62 181.60
-9755520.67 5135530.43 182.64
-9755516.92 5135528.89 182.49
-9755517.07 5135533.39 200.84
-9755514.32 5135528.64 185.21
-9755517.38 5135531.83 181.62
-9755516.48 5135530.50 202.31
-9755513.65 5135531.18 198.85
-9755515.59 5135530.47 199.49
-9755517.18 5135536.85 182.40
-9755517.13 5135538.29 181.68
-9755517.21 5135538.36 192.61
-9755508.76 5135538.36 203.46
-9755508.92 5135528.25 181.66
-9755516.36 5135531.45 201.00
-9755516.95 5135538.31 196.15
-9755518.95 5135536.57 181.64
-9755517.25 5135532.06 182.76
-9755511.00 5135531.72 204.01
-9755516.04 5135538.61 199.80
-9755511.82 5135528.16 181.67
-9755515.76 5135528.40 184.75
-9755507.28 5135535.15 203.45
-9755517.09 5135536.88 181.66
-9755515.70 5135529.94 184.69
-9755508.94 5135528.48 188.85
-9755517.00 5135533.39 204.04
-9755517.15 5135536.74 196.25
-9755516.79 5135530.73 199.06
-9755515.50 5135530.59 197.20
-9755518.95 5135528.56 181.60
-9755517.21 5135538.29 188.90
-9755510.89 5135531.75 181.65
-9755517.06 5135535.28 184.77
-9755517.11 5135538.60 182.44
-9755510.44 5135530.23 196.27
-9755510.75 5135529.70 181.66
-9755516.36 5135531.35 192.91
-9755519.12 5135535.07 181.61
-9755507.59 5135533.37 203.44
-9755510.55 5135531.39 196.21
-9755509.08 5135530.11 196.14
-9755519.23 5135538.34 181.63
-9755517.44 5135537.26 184.80
-9755517.21 5135530.08 181.59
-9755512.71 5135530.22 184.64
-9755516.07 5135536.95 181.66
-9755516.42 5135531.69 196.03
-9755515.79 5135534.84 192.48
-9755513.92 5135530.21 185.20
-9755510.07 5135528.73 188.99
-9755511.87 5135530.53 181.62
-9755517.33 5135536.74 185.30
-9755508.97 5135530.15 188.85
-9755516.16 5135530.43 185.80
-9755516.27 5135531.18 202.34
-9755517.08 5135538.73 185.36
-9755507.88 5135528.61 181.68
-9755517.03 5135533.41 194.15
-9755508.97 5135530.02 181.66
-9755514.00 5135531.13 200.33
-9755516.48 5135530.64 194.23
-9755516.42 5135531.42 193.76
-9755509.22 5135531.43 188.82
-9755516.52 5135530.70 187.01
-9755509.11 5135531.48 196.11
-9755512.42 5135531.45 181.66
-9755516.27 5135530.53 182.79
-9755510.20 5135531.66 188.84
-9755512.58 5135531.19 198.90
-9755514.03 5135531.10 184.99
-9755516.49 5135530.91 189.04
-9755517.16 5135538.37 199.79
-9755509.18 5135531.76 181.70
-9755513.73 5135531.10 197.70
-9755517.04 5135536.88 199.95
-9755510.64 5135530.18 188.96
-9755514.11 5135530.90 202.00
-9755511.40 5135531.65 202.88
-9755512.12 5135531.43 202.56
-9755513.10 5135530.95 198.65
-9755516.37 5135534.90 182.15
-9755516.09 5135536.58 192.51
-9755516.78 5135530.91 195.42
-9755516.28 5135537.68 188.84
-9755512.75 5135531.00 183.75
-9755516.24 5135531.46 181.59
-9755505.86 5135530.11 203.48
-9755504.12 5135526.88 203.51
-9755504.17 5135518.81 203.58
-9755503.81 5135535.13 203.43
-9755709.74 5135515.32 185.77
-9755709.79 5135513.74 185.67
-9755711.59 5135517.09 185.62
-9755707.89 5135498.86 186.31
-9755709.87 5135498.97 185.58
-9755711.72 5135490.73 185.63
-9755711.59 5135497.21 185.64
-9755708.46 5135493.87 186.28
-9755713.13 5135495.68 186.82
-9755709.97 5135488.89 185.63
-9755709.94 5135495.54 186.76
-9755709.90 5135490.37 185.58
-9755713.19 5135490.33 186.83
-9755709.96 5135493.69 185.59
-9755709.94 5135493.99 186.78
-9755709.79 5135501.94 185.69
-9755711.81 5135488.82 185.61
-9755708.14 5135492.13 186.26
-9755713.38 5135500.47 186.81
-9755713.13 5135493.90 186.80
-9755709.66 5135497.14 186.82
-9755706.71 5135498.53 185.83
-9755706.88 5135497.44 186.21
-9755710.13 5135510.40 186.89
-9755713.37 5135508.65 186.94
-9755706.64 5135502.19 186.28
-9755710.07 5135507.12 185.96
-9755711.38 5135505.25 185.58
-9755709.86 5135504.00 185.59
-9755711.93 5135510.50 186.95
-9755711.64 5135508.69 186.90
-9755709.81 5135510.43 186.47
-9755713.35 5135503.66 186.82
-9755713.69 5135513.73 186.97
-9755713.43 5135510.38 187.85
-9755713.44 5135505.40 186.90
-9755710.12 5135512.24 185.59
-9755711.33 5135509.73 185.96
-9755710.13 5135508.90 187.83
-9755706.61 5135503.74 185.98
-9755709.61 5135505.43 186.93
-9755706.65 5135500.42 186.30
-9755694.16 5135518.46 186.83
-9755705.11 5135513.98 186.18
-9755694.18 5135515.26 185.56
-9755693.92 5135513.49 185.59
-9755696.81 5135513.77 185.54
-9755693.84 5135515.37 186.83
-9755703.30 5135513.51 185.08
-9755693.65 5135513.85 186.90
-9755691.84 5135513.39 185.47
-9755692.35 5135515.42 186.74
-9755692.06 5135513.45 186.75
-9755701.67 5135517.28 185.55
-9755693.65 5135517.01 186.86
-9755692.00 5135516.94 186.32
-9755691.92 5135516.35 186.69
-9755688.51 5135513.65 186.77
-9755682.12 5135515.05 186.20
-9755690.36 5135513.63 186.31
-9755686.94 5135513.90 186.96
-9755682.17 5135515.07 187.16
-9755688.78 5135515.47 185.09
-9755683.59 5135515.64 186.99
-9755686.83 5135515.18 186.94
-9755688.84 5135513.41 185.51
-9755683.84 5135513.72 185.00
-9755682.09 5135515.15 184.97
-9755680.33 5135513.80 186.25
-9755680.60 5135513.74 185.00
-9755678.87 5135515.11 186.40
-9755679.13 5135513.35 185.01
-9755687.09 5135517.28 185.00
-9755681.83 5135517.07 187.29
-9755683.52 5135516.89 186.92
-9755685.12 5135515.64 186.96
-9755685.05 5135515.77 185.00
-9755690.36 5135517.21 186.32
-9755686.74 5135516.77 186.93
-9755688.57 5135516.92 186.17
-9755680.55 5135515.98 187.52
-9755685.66 5135516.35 185.01
-9755683.72 5135517.96 186.69
-9755690.17 5135516.36 186.70
-9755678.80 5135517.12 186.74
-9755706.70 5135493.87 185.67
-9755704.89 5135495.72 186.20
-9755695.41 5135499.03 185.57
-9755696.71 5135490.61 185.54
-9755695.17 5135493.93 185.59
-9755696.64 5135497.15 185.67
-9755695.18 5135500.30 185.56
-9755696.89 5135498.70 185.56
-9755695.05 5135497.16 185.59
-9755694.91 5135490.87 185.62
-9755698.80 5135500.80 186.35
-9755699.94 5135495.61 186.30
-9755704.97 5135493.94 186.19
-9755693.68 5135492.33 185.58
-9755696.95 5135495.66 185.55
-9755701.35 5135493.96 185.50
-9755698.36 5135502.22 185.13
-9755702.06 5135498.89 185.78
-9755698.47 5135490.65 185.17
-9755693.82 5135500.30 185.57
-9755697.84 5135497.06 186.76
-9755693.67 5135497.22 185.64
-9755693.78 5135490.60 185.59
-9755693.79 5135495.59 185.59
-9755703.07 5135498.81 185.94
-9755693.43 5135488.97 185.61
-9755701.89 5135502.23 186.21
-9755704.02 5135493.89 186.31
-9755693.80 5135498.82 185.62
-9755693.73 5135493.79 186.32
-9755693.43 5135495.54 186.84
-9755693.46 5135498.85 186.84
-9755697.34 5135490.21 186.82
-9755697.99 5135500.22 186.80
-9755693.51 5135493.92 186.85
-9755700.16 5135502.17 186.23
-9755693.46 5135492.26 186.85
-9755697.33 5135493.46 186.82
-9755697.53 5135495.61 186.79
-9755693.70 5135497.07 186.87
-9755693.46 5135489.02 186.86
-9755693.44 5135500.29 186.84
-9755693.38 5135490.59 186.88
-9755697.20 5135496.62 186.87
-9755697.54 5135498.85 186.80
-9755697.82 5135495.66 186.76
-9755697.86 5135498.81 186.80
-9755696.88 5135496.48 185.00
-9755697.20 5135488.97 186.80
-9755691.94 5135498.81 186.79
-9755691.99 5135500.36 186.80
-9755691.95 5135494.02 186.89
-9755691.93 5135495.51 186.79
-9755691.91 5135492.35 186.84
-9755691.69 5135490.49 186.93
-9755691.98 5135502.19 186.79
-9755691.42 5135489.08 185.95
-9755691.72 5135497.05 186.81
-9755705.17 5135506.96 185.95
-9755701.88 5135503.67 186.21
-9755703.36 5135507.11 186.32
-9755703.28 5135508.48 186.29
-9755696.88 5135505.27 185.49
-9755697.56 5135514.28 186.78
-9755695.13 5135507.24 185.55
-9755705.10 5135508.74 186.13
-9755696.88 5135511.85 185.52
-9755700.11 5135505.47 186.24
-9755695.09 5135511.96 185.54
-9755693.76 5135504.10 185.60
-9755696.88 5135510.62 186.99
-9755695.17 5135505.42 185.58
-9755693.63 5135505.24 185.64
-9755698.96 5135507.13 186.35
-9755700.13 5135508.69 186.19
-9755693.87 5135512.40 185.54
-9755695.08 5135510.68 187.05
-9755701.88 5135505.20 186.21
-9755698.20 5135513.89 186.84
-9755694.49 5135507.34 187.05
-9755701.67 5135512.16 185.94
-9755693.74 5135503.58 186.82
-9755693.64 5135506.85 186.88
-9755696.90 5135508.66 186.99
-9755693.74 5135505.64 186.84
-9755694.44 5135511.56 187.03
-9755693.85 5135510.39 186.82
-9755693.76 5135511.83 186.93
-9755697.47 5135511.57 186.99
-9755697.45 5135505.63 186.88
-9755706.62 5135505.00 187.22
-9755698.10 5135505.73 186.84
-9755697.48 5135502.48 186.79
-9755701.31 5135512.26 185.01
-9755697.45 5135503.87 186.79
-9755692.09 5135511.91 186.80
-9755691.89 5135505.11 186.81
-9755691.96 5135508.76 186.80
-9755691.98 5135507.08 186.78
-9755692.19 5135510.40 186.86
-9755688.66 5135500.40 185.50
-9755688.68 5135498.89 185.51
-9755687.13 5135500.70 186.10
-9755688.44 5135497.40 185.71
-9755683.56 5135502.12 185.44
-9755681.89 5135495.64 185.69
-9755683.75 5135494.01 185.47
-9755685.13 5135498.71 185.53
-9755682.19 5135495.36 184.95
-9755682.27 5135497.06 186.75
-9755681.86 5135494.17 184.95
-9755685.32 5135490.52 186.93
-9755690.37 5135497.32 185.58
-9755682.55 5135493.83 186.98
-9755688.35 5135495.58 185.52
-9755686.94 5135492.08 185.03
-9755686.64 5135490.89 185.00
-9755683.62 5135500.64 185.54
-9755686.91 5135495.51 186.96
-9755690.13 5135488.99 186.94
-9755688.41 5135490.79 186.96
-9755681.90 5135492.04 185.68
-9755690.12 5135500.48 185.52
-9755680.43 5135500.61 185.50
-9755681.95 5135490.82 186.35
-9755682.57 5135495.33 187.01
-9755687.08 5135500.66 186.71
-9755688.52 5135492.08 185.52
-9755686.95 5135489.74 185.01
-9755683.39 5135491.11 186.98
-9755688.72 5135490.82 186.46
-9755690.27 5135490.53 186.94
-9755690.19 5135494.13 185.55
-9755680.41 5135498.84 185.49
-9755688.45 5135495.59 186.77
-9755683.28 5135497.48 186.75
-9755690.53 5135489.14 185.96
-9755682.21 5135492.27 184.97
-9755683.59 5135495.53 185.49
-9755683.33 5135494.31 186.98
-9755680.12 5135495.61 184.97
-9755686.92 5135493.84 186.98
-9755680.45 5135492.32 185.49
-9755688.37 5135501.96 185.87
-9755688.67 5135489.09 186.08
-9755688.36 5135497.01 186.82
-9755683.66 5135492.42 187.03
-9755690.07 5135502.14 185.57
-9755682.14 5135498.84 184.96
-9755685.41 5135492.33 186.99
-9755683.40 5135500.80 186.72
-9755688.41 5135500.58 186.79
-9755681.97 5135489.05 184.97
-9755686.66 5135492.08 186.95
-9755688.41 5135493.82 186.81
-9755680.23 5135488.82 185.45
-9755688.62 5135502.33 186.78
-9755683.06 5135496.03 186.95
-9755684.87 5135495.89 185.01
-9755685.50 5135490.07 185.00
-9755678.68 5135490.54 185.52
-9755678.64 5135500.26 185.54
-9755678.65 5135494.04 185.53
-9755678.95 5135495.62 185.53
-9755678.67 5135497.27 185.53
-9755678.63 5135502.37 185.52
-9755678.65 5135498.82 185.52
-9755678.93 5135488.79 185.00
-9755678.74 5135492.27 185.50
-9755677.73 5135492.54 185.60
-9755676.50 5135500.54 186.81
-9755676.58 5135493.50 186.31
-9755685.19 5135512.11 185.41
-9755688.38 5135511.99 185.57
-9755688.76 5135508.65 185.47
-9755688.59 5135506.94 185.54
-9755685.57 5135507.13 185.71
-9755685.46 5135505.40 185.55
-9755690.38 5135510.44 185.57
-9755680.38 5135508.92 185.47
-9755683.57 5135503.64 185.49
-9755688.37 5135505.43 185.52
-9755683.59 5135511.91 185.50
-9755683.32 5135507.23 185.68
-9755687.08 5135510.40 186.02
-9755682.32 5135512.20 185.00
-9755688.67 5135503.64 185.47
-9755690.05 5135505.38 185.58
-9755681.88 5135507.37 185.00
-9755681.89 5135512.06 186.35
-9755682.13 5135510.13 184.96
-9755680.35 5135508.57 185.01
-9755688.67 5135503.95 186.76
-9755690.10 5135508.90 185.54
-9755686.82 5135508.85 186.76
-9755680.34 5135503.82 185.52
-9755686.87 5135512.36 186.92
-9755680.35 5135505.34 184.99
-9755688.60 5135512.16 186.83
-9755686.84 5135503.87 186.74
-9755688.68 5135508.58 186.77
-9755690.38 5135511.90 185.57
-9755682.17 5135505.36 184.96
-9755686.90 5135507.13 186.69
-9755683.28 5135510.34 186.76
-9755680.42 5135512.22 185.00
-9755686.92 5135510.61 186.71
-9755686.50 5135502.13 185.01
-9755686.89 5135507.21 185.01
-9755683.33 5135505.07 186.73
-9755686.30 5135503.03 185.00
-9755686.85 5135505.58 186.71
-9755680.37 5135510.90 186.68
-9755679.08 5135512.02 185.82
-9755678.62 5135503.86 185.54
-9755678.67 5135510.57 186.06
-9755676.45 5135503.90 185.74
-9755679.19 5135506.86 185.01
-9755679.75 5135511.68 186.67
-9755679.48 5135509.82 185.00
-9755676.84 5135508.48 186.81
-9755675.37 5135513.56 186.36
-9755670.30 5135513.90 186.16
-9755673.81 5135513.60 186.32
-9755672.76 5135515.41 186.04
-9755670.34 5135515.32 186.18
-9755676.95 5135515.34 186.78
-9755668.56 5135515.33 186.14
-9755672.44 5135513.53 186.77
-9755675.65 5135515.54 186.71
-9755670.61 5135515.38 184.95
-9755665.57 5135513.87 185.01
-9755664.97 5135513.83 185.08
-9755668.85 5135517.09 186.15
-9755671.77 5135517.13 184.98
-9755670.63 5135516.89 184.94
-9755667.09 5135517.12 186.15
-9755673.99 5135516.76 186.29
-9755676.73 5135516.62 186.19
-9755672.15 5135517.06 186.75
-9755677.42 5135515.66 185.01
-9755662.03 5135513.85 185.12
-9755663.84 5135513.84 185.10
-9755653.87 5135513.98 187.14
-9755654.23 5135515.17 187.09
-9755657.60 5135513.79 185.10
-9755662.09 5135515.61 185.12
-9755658.79 5135513.85 185.13
-9755660.60 5135515.35 185.18
-9755655.27 5135515.25 185.14
-9755664.08 5135515.35 185.12
-9755652.33 5135513.79 185.61
-9755650.55 5135513.73 185.73
-9755650.31 5135515.13 187.10
-9755658.79 5135517.07 185.13
-9755657.29 5135516.81 185.10
-9755650.81 5135516.92 185.93
-9755648.73 5135516.98 185.33
-9755673.70 5135492.17 185.54
-9755668.63 5135493.98 186.18
-9755673.69 5135490.91 185.47
-9755673.63 5135497.23 185.58
-9755667.13 5135495.45 186.16
-9755668.93 5135492.47 186.19
-9755668.88 5135499.01 186.18
-9755669.00 5135497.26 186.17
-9755675.18 5135490.74 186.34
-9755668.90 5135495.75 186.19
-9755677.49 5135488.69 185.75
-9755670.45 5135490.80 184.97
-9755677.10 5135501.14 185.00
-9755667.26 5135490.68 186.16
-9755670.38 5135497.35 184.96
-9755675.56 5135494.06 185.61
-9755672.47 5135498.54 185.50
-9755671.96 5135490.63 186.80
-9755672.17 5135492.48 186.85
-9755668.91 5135502.22 186.13
-9755670.45 5135495.80 184.96
-9755675.35 5135499.04 185.57
-9755670.40 5135492.59 184.99
-9755669.00 5135490.69 186.18
-9755667.13 5135498.79 184.93
-9755670.15 5135498.80 184.97
-9755667.20 5135492.24 186.17
-9755670.25 5135488.93 186.27
-9755673.67 5135488.98 186.35
-9755670.34 5135492.26 186.29
-9755675.79 5135499.42 186.84
-9755672.48 5135495.80 185.52
-9755677.52 5135498.79 185.01
-9755672.25 5135493.72 186.74
-9755667.21 5135488.91 186.16
-9755667.20 5135490.66 184.96
-9755673.09 5135488.95 186.70
-9755675.76 5135490.45 186.82
-9755676.03 5135492.09 186.85
-9755673.64 5135502.35 185.55
-9755672.19 5135500.24 186.77
-9755676.59 5135502.28 186.80
-9755671.59 5135500.56 185.01
-9755672.23 5135502.55 186.78
-9755676.90 5135492.07 185.01
-9755665.38 5135495.51 185.01
-9755665.93 5135496.05 186.38
-9755665.70 5135490.45 184.99
-9755665.12 5135500.51 185.05
-9755665.68 5135500.56 184.97
-9755665.13 5135496.96 185.02
-9755666.57 5135490.12 186.69
-9755673.91 5135503.89 185.47
-9755672.11 5135508.86 184.99
-9755677.64 5135510.43 184.93
-9755675.60 5135510.27 185.53
-9755668.57 5135508.83 186.13
-9755674.05 5135508.48 185.67
-9755667.14 5135510.30 186.15
-9755668.92 5135503.74 186.24
-9755673.81 5135507.09 185.54
-9755673.71 5135505.34 185.54
-9755672.41 5135505.31 185.54
-9755668.97 5135507.31 185.69
-9755671.83 5135505.34 185.00
-9755671.82 5135512.07 184.99
-9755668.93 5135512.35 186.11
-9755672.63 5135512.02 185.92
-9755667.41 5135505.30 184.96
-9755667.37 5135508.73 185.81
-9755676.09 5135507.05 186.83
-9755670.62 5135505.27 184.96
-9755670.36 5135510.61 184.96
-9755672.23 5135508.40 186.79
-9755672.12 5135512.14 186.90
-9755672.05 5135503.81 186.79
-9755672.46 5135508.59 185.51
-9755670.59 5135512.10 184.94
-9755672.15 5135510.32 186.88
-9755677.17 5135502.10 185.01
-9755677.44 5135505.89 185.01
-9755667.36 5135507.14 184.94
-9755672.42 5135505.85 186.79
-9755676.22 5135512.08 186.85
-9755676.06 5135513.19 186.86
-9755677.38 5135513.35 185.01
-9755676.11 5135505.35 186.82
-9755665.87 5135510.61 184.98
-9755665.64 5135507.35 185.00
-9755665.61 5135508.54 184.99
-9755665.34 5135510.58 185.02
-9755658.90 5135499.01 185.15
-9755655.64 5135497.52 185.14
-9755654.05 5135497.05 186.04
-9755657.43 5135496.90 185.12
-9755656.87 5135490.72 185.11
-9755657.12 5135493.70 185.11
-9755662.18 5135492.51 185.14
-9755658.90 5135496.95 185.14
-9755657.15 5135492.47 185.10
-9755660.64 5135502.00 185.19
-9755655.63 5135500.45 185.15
-9755655.67 5135492.20 185.13
-9755657.42 5135500.46 185.11
-9755657.16 5135495.70 185.12
-9755661.86 5135499.05 185.14
-9755655.76 5135488.90 185.14
-9755653.91 5135490.57 186.96
-9755655.71 5135490.46 185.15
-9755653.90 5135496.80 186.94
-9755658.84 5135502.25 185.15
-9755653.98 5135489.10 187.10
-9755663.92 5135502.01 185.09
-9755657.34 5135502.00 185.11
-9755652.37 5135498.68 185.64
-9755652.52 5135493.86 185.65
-9755652.64 5135500.46 185.60
-9755652.34 5135488.76 185.64
-9755650.61 5135495.88 185.61
-9755649.18 5135497.22 185.24
-9755650.89 5135497.21 185.65
-9755649.56 5135494.17 186.90
-9755650.10 5135490.60 186.90
-9755649.79 5135497.50 186.95
-9755650.06 5135492.34 186.91
-9755650.56 5135500.51 186.76
-9755649.72 5135501.00 186.87
-9755662.11 5135508.55 185.13
-9755662.10 5135510.28 185.11
-9755655.57 5135508.81 185.16
-9755662.04 5135505.25 185.12
-9755663.88 5135507.33 185.11
-9755658.82 5135510.53 185.12
-9755659.14 5135508.73 185.14
-9755660.33 5135507.02 185.20
-9755660.36 5135510.29 185.19
-9755653.92 5135508.72 187.07
-9755659.06 5135512.02 185.12
-9755653.85 5135505.75 186.97
-9755654.14 5135507.25 187.06
-9755657.03 5135512.35 185.10
-9755658.85 5135505.51 185.15
-9755652.32 5135507.21 185.64
-9755649.10 5135507.26 185.30
-9755650.61 5135503.79 185.61
-9755650.67 5135505.42 185.64
-9755652.20 5135510.65 186.04
-9755652.69 5135504.70 186.81
-9755650.88 5135508.82 185.90
-9755652.68 5135511.45 185.98
-9755649.17 5135505.48 185.27
-9755649.75 5135505.69 186.87
-9755649.11 5135503.71 185.28
-9755649.71 5135507.50 187.10
-9755652.21 5135510.35 187.07
-9755650.50 5135506.97 185.63
-9755649.73 5135502.70 186.98
-9755649.68 5135508.75 187.04
-9755650.39 5135506.85 187.16
-9755647.31 5135510.19 185.32
-9755647.63 5135512.29 185.33
-9755647.33 5135513.77 185.33
-9755643.41 5135514.28 184.87
-9755640.54 5135513.73 185.04
-9755641.38 5135513.41 185.01
-9755639.12 5135515.52 185.02
-9755644.09 5135517.03 185.16
-9755640.83 5135516.64 185.01
-9755643.19 5135514.89 185.05
-9755639.27 5135516.08 185.01
-9755639.34 5135516.98 185.01
-9755634.34 5135513.58 186.43
-9755632.90 5135513.68 185.16
-9755636.12 5135515.39 186.06
-9755637.60 5135513.68 185.11
-9755632.81 5135515.16 185.15
-9755637.24 5135515.57 185.85
-9755629.36 5135515.47 185.07
-9755626.04 5135513.66 185.12
-9755619.28 5135513.62 184.79
-9755624.56 5135513.63 185.12
-9755622.55 5135513.99 185.09
-9755627.52 5135515.15 185.09
-9755621.97 5135513.32 185.00
-9755637.14 5135516.81 186.00
-9755634.14 5135517.04 186.43
-9755629.06 5135516.88 185.07
-9755635.87 5135516.92 186.17
-9755627.51 5135517.23 185.10
-9755619.23 5135516.84 184.71
-9755624.62 5135517.17 185.13
-9755617.79 5135515.73 182.79
-9755621.97 5135515.42 185.01
-9755642.45 5135494.16 184.97
-9755644.13 5135498.92 185.22
-9755642.67 5135498.88 185.00
-9755647.37 5135498.94 185.34
-9755644.19 5135495.63 185.26
-9755647.08 5135495.65 185.33
-9755642.43 5135488.85 184.98
-9755640.63 5135492.14 184.96
-9755642.45 5135490.94 184.98
-9755645.74 5135489.15 185.32
-9755640.62 5135498.92 184.97
-9755643.02 5135492.13 185.05
-9755642.99 5135489.14 185.04
-9755640.96 5135488.82 184.96
-9755639.20 5135497.10 184.94
-9755640.58 5135502.17 184.98
-9755647.68 5135505.44 185.33
-9755647.35 5135504.03 185.32
-9755644.36 5135510.50 185.22
-9755645.58 5135502.45 185.33
-9755645.54 5135510.21 185.32
-9755641.10 5135511.65 185.01
-9755645.86 5135505.47 185.34
-9755644.40 5135508.98 185.22
-9755642.27 5135508.69 184.98
-9755643.21 5135508.72 185.05
-9755645.93 5135508.72 185.32
-9755640.54 5135510.14 185.02
-9755640.86 5135511.95 185.03
-9755643.25 5135511.93 185.04
-9755642.37 5135502.19 184.97
-9755644.15 5135503.67 185.22
-9755642.35 5135503.65 184.97
-9755642.29 5135510.22 185.01
-9755643.23 5135507.22 185.05
-9755642.88 5135503.70 185.02
-9755639.65 5135510.19 185.01
-9755639.08 5135506.87 185.02
-9755632.55 5135497.07 186.35
-9755632.51 5135494.09 186.39
-9755634.39 5135498.89 186.42
-9755634.34 5135493.42 185.79
-9755632.63 5135498.78 186.36
-9755635.86 5135500.66 186.32
-9755635.88 5135497.40 186.31
-9755630.92 5135492.08 185.09
-9755634.13 5135490.79 186.44
-9755634.09 5135500.31 186.40
-9755635.74 5135494.11 186.32
-9755634.79 5135492.21 185.68
-9755632.66 5135500.52 186.34
-9755630.89 5135497.06 185.10
-9755627.68 5135497.35 185.08
-9755632.70 5135495.60 186.36
-9755635.85 5135495.55 186.32
-9755627.72 5135492.08 185.10
-9755637.40 5135492.35 185.04
-9755629.39 5135498.85 185.10
-9755627.93 5135495.59 185.10
-9755631.22 5135489.06 185.12
-9755637.76 5135489.15 184.97
-9755637.36 5135500.39 185.12
-9755634.31 5135502.07 186.42
-9755629.12 5135488.81 185.10
-9755637.91 5135498.91 184.99
-9755627.94 5135490.55 185.10
-9755637.73 5135495.35 185.01
-9755620.92 5135494.08 184.87
-9755621.74 5135496.76 185.06
-9755619.36 5135493.76 184.79
-9755624.43 5135490.50 185.14
-9755619.38 5135499.15 184.74
-9755625.89 5135497.36 185.12
-9755621.55 5135490.53 185.04
-9755619.16 5135497.00 184.71
-9755624.41 5135497.34 185.13
-9755625.84 5135500.30 185.14
-9755625.62 5135492.30 185.12
-9755620.88 5135500.56 184.85
-9755622.69 5135494.05 185.13
-9755624.44 5135500.63 185.13
-9755619.33 5135500.57 184.75
-9755626.16 5135495.57 185.11
-9755620.83 5135498.78 184.86
-9755620.88 5135495.56 184.86
-9755621.83 5135498.80 185.09
-9755617.95 5135497.26 184.63
-9755620.91 5135489.03 184.89
-9755621.49 5135489.00 185.07
-9755625.92 5135487.58 185.13
-9755619.45 5135487.58 184.77
-9755635.84 5135502.15 186.32
-9755634.01 5135503.88 186.30
-9755634.15 5135505.27 186.37
-9755632.90 5135503.80 186.31
-9755629.36 5135508.63 185.09
-9755637.61 5135507.13 185.08
-9755635.86 5135508.66 186.23
-9755637.32 5135505.67 185.12
-9755631.11 5135503.87 185.10
-9755631.13 5135506.87 185.10
-9755629.37 5135507.41 185.09
-9755637.32 5135510.75 185.13
-9755631.17 5135508.58 185.08
-9755630.90 5135502.42 185.10
-9755629.33 5135511.85 185.09
-9755627.89 5135512.15 185.09
-9755632.60 5135505.35 186.32
-9755629.30 5135510.44 185.09
-9755636.16 5135510.15 186.24
-9755627.62 5135504.17 185.10
-9755633.28 5135507.15 185.82
-9755630.84 5135505.42 185.09
-9755632.53 5135508.93 185.13
-9755632.84 5135511.90 185.18
-9755627.87 5135505.36 185.07
-9755632.83 5135510.78 185.01
-9755634.67 5135509.20 187.48
-9755638.17 5135509.54 185.01
-9755622.62 5135502.07 185.13
-9755624.36 5135502.07 185.12
-9755624.11 5135504.12 185.12
-9755626.06 5135508.88 185.11
-9755624.33 5135510.09 185.13
-9755620.80 5135510.37 184.83
-9755620.80 5135503.85 184.83
-9755619.28 5135510.39 184.71
-9755625.77 5135512.13 185.13
-9755619.60 5135512.12 184.80
-9755622.88 5135507.08 185.12
-9755619.04 5135503.87 184.73
-9755624.33 5135505.34 185.12
-9755624.66 5135507.12 185.13
-9755620.86 5135505.39 184.82
-9755622.52 5135510.34 185.13
-9755617.54 5135508.72 181.25
-9755616.46 5135515.84 182.62
-9755614.54 5135516.68 181.08
-9755616.04 5135514.98 181.25
-9755614.58 5135515.22 181.06
-9755612.76 5135517.02 181.05
-9755606.24 5135513.92 181.07
-9755601.25 5135513.72 181.26
-9755604.52 5135514.01 181.07
-9755609.56 5135513.46 181.03
-9755591.26 5135513.70 181.03
-9755589.83 5135513.56 181.03
-9755606.30 5135515.51 181.04
-9755607.98 5135516.98 180.98
-9755604.79 5135516.96 181.07
-9755602.77 5135517.21 181.23
-9755601.27 5135516.92 181.27
-9755599.77 5135516.92 181.27
-9755598.05 5135515.24 181.08
-9755593.07 5135516.90 181.06
-9755594.58 5135515.09 181.06
-9755596.58 5135515.37 181.08
-9755614.39 5135492.15 181.09
-9755616.17 5135490.70 181.23
-9755617.54 5135502.20 181.24
-9755618.20 5135500.58 184.63
-9755614.39 5135495.39 181.09
-9755618.04 5135490.65 184.64
-9755617.85 5135495.37 184.37
-9755617.59 5135497.47 181.26
-9755614.34 5135493.95 181.08
-9755616.11 5135498.92 181.26
-9755616.20 5135488.90 181.23
-9755618.00 5135493.68 184.41
-9755612.99 5135497.12 181.11
-9755613.00 5135493.92 181.08
-9755611.09 5135500.12 181.08
-9755611.16 5135498.66 181.10
-9755614.27 5135503.68 181.07
-9755617.51 5135511.72 181.26
-9755614.28 5135502.20 181.06
-9755616.31 5135505.46 181.21
-9755617.79 5135505.72 181.19
-9755614.56 5135506.98 181.07
-9755616.08 5135508.74 181.25
-9755612.82 5135512.32 181.08
-9755611.04 5135510.21 181.06
-9755611.01 5135512.19 181.06
-9755611.04 5135502.14 181.11
-9755611.00 5135506.97 181.06
-9755611.12 5135497.20 181.11
-9755601.18 5135493.82 187.58
-9755606.07 5135492.36 181.11
-9755601.39 5135493.91 186.10
-9755604.32 5135495.58 181.06
-9755609.57 5135498.62 181.07
-9755602.96 5135493.72 183.82
-9755604.64 5135498.59 181.09
-9755602.80 5135497.85 183.45
-9755601.43 5135492.44 185.71
-9755601.12 5135499.02 185.88
-9755604.61 5135497.33 181.10
-9755600.98 5135490.77 183.97
-9755601.38 5135492.31 181.29
-9755601.39 5135498.58 181.25
-9755607.97 5135497.38 181.08
-9755606.37 5135495.42 181.10
-9755606.34 5135498.88 181.06
-9755606.36 5135500.70 181.09
-9755603.16 5135500.67 181.08
-9755609.68 5135495.70 181.09
-9755601.02 5135493.79 181.33
-9755604.74 5135493.91 181.09
-9755602.62 5135500.49 184.43
-9755608.13 5135493.86 181.08
-9755607.83 5135492.04 181.08
-9755601.25 5135492.64 184.28
-9755607.68 5135489.00 181.09
-9755609.40 5135487.35 181.06
-9755603.25 5135497.13 181.06
-9755601.07 5135495.57 181.26
-9755604.39 5135490.53 181.08
-9755602.58 5135500.71 187.20
-9755601.03 5135500.67 181.29
-9755602.20 5135493.32 186.78
-9755601.64 5135491.67 183.22
-9755599.65 5135493.91 187.55
-9755599.53 5135500.31 181.26
-9755599.54 5135500.68 187.34
-9755599.66 5135492.42 181.26
-9755599.24 5135492.21 183.90
-9755597.69 5135494.34 184.39
-9755599.60 5135490.59 181.28
-9755596.40 5135492.21 181.09
-9755592.95 5135492.36 181.04
-9755597.76 5135500.37 185.52
-9755594.62 5135492.02 181.09
-9755599.60 5135499.09 181.26
-9755596.47 5135498.81 181.06
-9755600.01 5135494.17 185.97
-9755598.51 5135492.18 183.94
-9755597.95 5135492.28 181.11
-9755594.63 5135495.54 181.08
-9755599.62 5135495.52 184.21
-9755598.39 5135499.07 184.46
-9755591.42 5135498.79 181.06
-9755599.68 5135495.61 181.27
-9755591.29 5135497.36 181.06
-9755596.34 5135497.10 181.09
-9755589.86 5135497.06 181.04
-9755596.31 5135494.23 184.25
-9755599.33 5135500.72 184.10
-9755591.40 5135493.77 181.06
-9755594.70 5135488.78 181.08
-9755589.66 5135500.33 181.01
-9755599.66 5135488.82 181.30
-9755597.84 5135500.23 181.10
-9755589.57 5135495.85 181.07
-9755594.59 5135500.64 181.07
-9755596.79 5135492.21 184.78
-9755600.00 5135493.80 183.50
-9755589.95 5135489.07 181.04
-9755597.06 5135496.45 184.18
-9755597.88 5135491.96 183.26
-9755599.48 5135491.84 183.36
-9755597.78 5135498.84 181.08
-9755597.91 5135490.56 181.12
-9755594.42 5135487.26 181.06
-9755597.86 5135487.02 181.11
-9755607.91 5135502.22 181.07
-9755601.16 5135508.67 185.91
-9755602.89 5135510.41 184.24
-9755601.39 5135508.75 184.02
-9755604.49 5135508.66 181.06
-9755609.79 5135512.20 181.05
-9755603.08 5135508.64 181.14
-9755601.35 5135502.06 181.33
-9755601.25 5135510.39 181.32
-9755606.36 5135506.89 181.08
-9755602.81 5135508.91 183.92
-9755600.70 5135502.32 183.98
-9755602.82 5135505.63 181.21
-9755608.08 5135510.38 181.05
-9755604.38 5135501.88 181.07
-9755606.31 5135505.79 181.06
-9755601.09 5135502.45 186.36
-9755607.77 5135503.84 181.07
-9755603.09 5135502.44 181.09
-9755602.64 5135512.06 183.86
-9755609.60 5135510.51 181.07
-9755607.52 5135507.13 181.09
-9755601.07 5135510.41 187.32
-9755601.12 5135503.90 181.27
-9755602.83 5135503.57 181.10
-9755608.04 5135508.69 181.06
-9755599.67 5135512.06 186.12
-9755606.00 5135512.20 181.07
-9755600.74 5135502.66 183.36
-9755604.66 5135503.73 181.03
-9755606.46 5135502.17 181.11
