-9755342.71 5135806.53 181.22
-9755332.99 5135808.52 181.21
-9755339.46 5135808.52 181.18
-9755342.47 5135810.07 181.21
-9755342.74 5135808.60 181.20
-9755334.21 5135811.75 181.16
-9755332.73 5135806.78 181.20
-9755324.46 5135811.72 181.16
-9755327.66 5135811.75 181.16
-9755329.42 5135811.77 181.17
-9755327.72 5135808.50 181.20
-9755329.80 5135810.33 181.18
-9755326.17 5135811.75 181.16
-9755329.78 5135806.79 182.83
-9755322.98 5135811.70 181.18
-9755331.22 5135811.79 181.17
-9755326.19 5135810.23 181.16
-9755345.83 5135783.70 181.24
-9755344.36 5135790.26 181.15
-9755344.34 5135785.49 181.17
-9755344.36 5135784.01 181.24
-9755347.84 5135795.29 181.15
-9755344.24 5135803.85 181.21
-9755341.06 5135787.56 181.15
-9755337.51 5135790.51 181.12
-9755334.27 5135790.46 181.09
-9755334.27 5135788.70 181.11
-9755336.11 5135786.95 181.13
-9755334.33 5135783.93 181.22
-9755342.58 5135785.45 181.16
-9755323.10 5135790.35 181.12
-9755322.77 5135788.92 181.13
-9755319.86 5135792.21 181.16
-9755326.10 5135785.39 181.13
-9755331.07 5135785.44 181.15
-9755329.57 5135790.72 181.09
-9755329.58 5135783.90 181.20
-9755319.56 5135790.66 181.16
-9755327.80 5135786.92 181.12
-9755326.33 5135790.49 181.11
-9755323.11 5135792.22 181.12
-9755324.52 5135791.93 181.10
-9755319.84 5135787.10 181.15
-9755341.01 5135798.48 181.16
-9755337.50 5135798.80 181.11
-9755342.49 5135800.30 181.19
-9755340.71 5135803.55 181.19
-9755342.80 5135795.24 181.17
-9755336.01 5135800.26 181.13
-9755339.55 5135797.03 181.13
-9755332.76 5135793.77 181.04
-9755340.78 5135800.30 181.17
-9755339.23 5135801.80 181.16
-9755321.27 5135798.98 181.16
-9755321.02 5135793.64 181.15
-9755324.54 5135795.10 181.09
-9755321.25 5135801.64 181.18
-9755319.79 5135803.75 181.19
-9755321.22 5135803.68 181.20
-9755324.46 5135802.20 181.16
-9755326.02 5135800.50 181.13
-9755324.51 5135800.46 181.14
-9755330.96 5135798.43 181.06
-9755319.78 5135798.69 181.17
-9755317.99 5135807.00 181.22
-9755317.51 5135807.50 182.89
-9755316.23 5135805.15 181.23
-9755314.74 5135810.18 181.20
-9755306.52 5135806.94 181.25
-9755311.47 5135808.71 181.23
-9755309.75 5135808.41 181.24
-9755306.42 5135811.92 181.23
-9755311.47 5135810.24 181.20
-9755314.42 5135811.68 181.21
-9755317.75 5135792.16 181.16
-9755317.82 5135790.41 181.16
-9755318.00 5135800.41 181.19
-9755317.99 5135801.92 181.19
-9755316.35 5135785.65 181.16
-9755311.60 5135785.58 181.17
-9755309.82 5135790.35 181.12
-9755314.86 5135783.89 181.16
-9755316.28 5135792.13 181.17
-9755308.06 5135792.10 181.11
-9755311.20 5135803.62 181.20
-9755309.75 5135802.14 181.18
-9755309.78 5135798.93 181.15
-9755311.23 5135800.43 181.17
-9755306.27 5135797.09 181.11
-9755308.05 5135793.85 181.10
-9755308.07 5135798.61 181.12
-9755499.18 5135780.77 180.83
-9755497.39 5135782.26 180.80
-9755502.70 5135782.24 180.82
-9755500.48 5135759.16 180.81
-9755502.20 5135755.92 180.82
-9755498.94 5135765.98 180.84
-9755502.53 5135763.95 180.81
-9755502.49 5135758.86 180.82
-9755499.21 5135769.21 180.85
-9755502.44 5135773.74 180.81
-9755502.46 5135772.51 180.82
-9755497.45 5135772.22 180.84
-9755490.61 5135778.72 180.88
-9755477.65 5135779.20 181.37
-9755486.02 5135782.36 184.05
-9755480.89 5135782.14 181.40
-9755485.61 5135782.17 183.27
-9755487.31 5135782.36 184.01
-9755464.65 5135784.19 181.12
-9755474.43 5135778.88 181.23
-9755472.61 5135780.62 181.22
-9755467.63 5135780.58 181.19
-9755494.20 5135763.91 180.77
-9755494.21 5135760.95 180.75
-9755494.28 5135758.89 180.77
-9755487.49 5135765.91 181.06
-9755484.56 5135759.07 181.12
-9755479.22 5135759.03 181.30
-9755479.24 5135760.85 181.34
-9755487.79 5135762.36 180.99
-9755485.74 5135755.82 181.05
-9755489.24 5135755.86 180.95
-9755480.97 5135759.34 181.29
-9755479.28 5135757.26 181.26
-9755489.25 5135758.82 180.95
-9755481.29 5135760.80 181.28
-9755479.27 5135754.04 181.20
-9755489.29 5135754.37 180.93
-9755477.73 5135762.25 181.38
-9755477.77 5135764.34 181.39
-9755477.76 5135761.10 181.37
-9755477.47 5135757.54 181.32
-9755477.73 5135765.80 181.38
-9755495.71 5135770.71 180.79
-9755492.43 5135767.40 180.86
-9755494.22 5135768.95 180.78
-9755494.20 5135767.44 180.79
-9755494.16 5135777.21 180.76
-9755484.35 5135772.43 184.12
-9755479.16 5135773.81 181.41
-9755487.71 5135772.42 181.02
-9755489.15 5135770.67 180.90
-9755484.45 5135772.40 181.29
-9755489.43 5135777.46 180.89
-9755482.39 5135774.12 181.38
-9755487.74 5135768.84 181.01
-9755484.42 5135773.87 181.27
-9755489.46 5135769.15 180.90
-9755487.61 5135775.93 181.03
-9755480.91 5135769.08 181.43
-9755482.72 5135770.89 181.42
-9755485.94 5135770.62 181.18
-9755485.93 5135767.40 181.18
-9755490.99 5135769.16 180.88
-9755487.69 5135773.87 181.01
-9755477.68 5135777.09 181.39
-9755475.67 5135760.77 181.28
-9755472.45 5135759.01 181.22
-9755471.21 5135765.80 181.18
-9755472.54 5135756.01 181.33
-9755470.97 5135757.54 181.34
-9755469.20 5135764.04 181.15
-9755472.68 5135762.56 181.22
-9755467.99 5135762.50 181.16
-9755468.05 5135756.01 181.32
-9755467.72 5135760.74 181.18
-9755474.41 5135775.88 181.21
-9755474.42 5135772.27 181.22
-9755467.96 5135777.29 181.21
-9755472.66 5135774.09 181.23
-9755467.98 5135769.05 181.17
-9755467.91 5135774.02 181.20
-9755457.91 5135778.82 181.09
-9755455.89 5135779.11 181.09
-9755452.88 5135778.69 181.08
-9755451.40 5135781.93 181.12
-9755461.42 5135782.34 181.08
-9755451.25 5135782.35 192.72
-9755449.61 5135782.24 181.13
-9755443.14 5135778.99 181.17
-9755446.13 5135778.98 181.12
-9755444.94 5135778.71 181.15
-9755441.38 5135780.72 181.18
-9755438.09 5135782.41 181.22
-9755465.98 5135755.69 181.32
-9755466.24 5135765.77 181.12
-9755464.78 5135758.96 181.20
-9755456.25 5135757.69 181.29
-9755452.97 5135765.70 181.19
-9755464.42 5135763.98 181.17
-9755454.51 5135755.64 181.31
-9755459.46 5135760.77 181.19
-9755456.21 5135762.70 181.19
-9755459.46 5135762.47 181.19
-9755453.00 5135759.19 181.20
-9755462.71 5135757.40 181.32
-9755457.97 5135762.53 181.20
-9755457.93 5135763.96 181.20
-9755456.23 5135754.44 181.32
-9755449.75 5135755.59 181.31
-9755466.20 5135772.26 181.21
-9755466.19 5135767.25 181.16
-9755464.16 5135767.23 181.18
-9755457.93 5135773.71 181.13
-9755459.45 5135767.49 181.20
-9755458.21 5135772.30 181.16
-9755459.34 5135777.29 181.13
-9755462.98 5135769.01 181.22
-9755461.43 5135774.10 181.17
-9755456.18 5135768.99 181.16
-9755456.39 5135775.48 181.12
-9755449.93 5135777.24 181.10
-9755446.22 5135759.11 181.22
-9755441.50 5135760.89 181.19
-9755446.61 5135754.28 184.11
-9755441.25 5135755.84 181.31
-9755439.94 5135764.15 181.18
-9755448.10 5135754.24 184.52
-9755444.67 5135754.29 181.37
-9755448.24 5135764.17 181.21
-9755447.98 5135765.65 181.20
-9755446.27 5135754.46 181.36
-9755439.78 5135754.37 181.35
-9755443.18 5135767.44 181.20
-9755448.13 5135777.52 181.12
-9755443.14 5135777.47 181.16
-9755444.70 5135767.14 181.19
-9755439.68 5135768.93 181.19
-9755448.21 5135768.94 181.16
-9755441.42 5135768.91 181.18
-9755438.19 5135767.39 181.19
-9755425.17 5135782.18 181.08
-9755423.40 5135780.67 181.09
-9755418.60 5135782.43 181.14
-9755420.16 5135782.40 181.11
-9755430.07 5135760.90 184.50
-9755428.86 5135760.55 183.33
-9755434.98 5135759.07 181.29
-9755429.96 5135762.21 184.36
-9755428.55 5135757.56 181.37
-9755429.69 5135764.06 181.18
-9755428.25 5135756.02 181.38
-9755433.27 5135757.58 181.34
-9755434.67 5135764.09 181.18
-9755426.48 5135754.23 181.42
-9755431.73 5135764.14 181.17
-9755433.22 5135760.85 181.28
-9755436.52 5135754.36 181.38
-9755430.05 5135754.29 181.40
-9755430.43 5135760.68 183.32
-9755423.23 5135760.76 181.36
-9755423.26 5135757.26 181.40
-9755423.56 5135753.99 181.44
-9755429.94 5135767.37 181.14
-9755433.14 5135777.15 181.19
-9755432.91 5135772.13 181.16
-9755431.62 5135775.64 181.16
-9755426.96 5135768.80 181.18
-9755434.96 5135774.15 181.20
-9755429.94 5135769.15 181.16
-9755433.15 5135775.34 181.19
-9755433.16 5135767.34 181.18
-9755425.17 5135769.06 181.18
-9755423.12 5135777.07 181.15
-9755423.41 5135772.31 181.16
-9755423.14 5135769.14 181.18
-9755423.44 5135767.34 181.21
-9755421.75 5135757.45 181.41
-9755413.43 5135762.49 181.39
-9755418.20 5135760.78 181.38
-9755413.50 5135759.23 181.43
-9755414.02 5135758.92 182.13
-9755418.20 5135762.53 181.36
-9755418.22 5135754.21 181.48
-9755420.26 5135757.52 181.43
-9755416.78 5135757.76 181.43
-9755411.65 5135765.73 181.36
-9755411.74 5135754.50 181.49
-9755410.23 5135763.91 181.40
-9755418.44 5135775.88 181.17
-9755421.65 5135770.55 181.18
-9755420.17 5135773.79 181.17
-9755413.43 5135769.01 181.32
-9755421.66 5135775.82 181.14
-9755421.95 5135773.76 181.16
-9755420.17 5135770.84 181.18
-9755415.16 5135773.77 181.19
-9755421.99 5135772.34 181.17
-9755419.93 5135767.25 181.30
-9755420.10 5135767.63 182.21
-9755411.58 5135777.29 181.21
-9755411.70 5135767.51 181.35
-9755412.35 5135769.84 182.24
-9755396.81 5135782.26 181.18
-9755390.67 5135778.94 181.24
-9755382.09 5135779.21 181.31
-9755387.10 5135782.23 181.17
-9755388.90 5135782.17 181.16
-9755390.38 5135780.74 181.16
-9755378.86 5135780.61 182.12
-9755378.90 5135778.87 181.33
-9755380.32 5135781.87 181.20
-9755405.30 5135755.64 181.48
-9755403.51 5135755.93 181.49
-9755402.02 5135755.92 181.49
-9755401.65 5135772.18 181.32
-9755400.44 5135770.69 181.35
-9755398.66 5135773.71 185.52
-9755398.62 5135777.18 184.10
-9755403.72 5135769.25 181.34
-9755398.96 5135777.30 181.17
-9755398.43 5135773.95 181.34
-9755398.06 5135775.94 183.35
-9755396.94 5135772.17 181.34
-9755396.73 5135772.61 183.92
-9755391.94 5135760.88 181.55
-9755393.77 5135755.86 181.52
-9755390.09 5135763.40 183.23
-9755390.52 5135757.58 181.50
-9755395.28 5135754.41 181.52
-9755390.49 5135759.38 181.50
-9755387.22 5135764.40 181.50
-9755388.48 5135757.62 181.50
-9755387.22 5135760.85 181.48
-9755385.49 5135756.15 181.53
-9755381.96 5135762.79 181.43
-9755382.23 5135760.80 181.48
-9755380.41 5135764.06 181.47
-9755380.50 5135754.07 181.54
-9755395.42 5135774.20 184.08
-9755392.22 5135767.41 181.43
-9755390.46 5135767.69 181.42
-9755388.97 5135768.88 181.42
-9755386.90 5135774.15 181.36
-9755393.73 5135768.91 181.41
-9755387.15 5135777.15 181.31
-9755385.67 5135775.67 181.35
-9755386.88 5135770.96 181.40
-9755385.35 5135777.43 181.33
-9755380.69 5135775.66 181.35
-9755385.45 5135767.63 181.43
-9755382.45 5135775.65 181.36
-9755381.90 5135770.92 181.42
-9755380.37 5135772.09 181.41
-9755382.16 5135768.84 181.44
-9755383.94 5135773.86 181.38
-9755373.87 5135779.14 181.33
-9755377.40 5135780.62 182.10
-9755375.63 5135780.35 181.31
-9755355.61 5135779.07 181.32
-9755350.86 5135779.04 181.30
-9755360.57 5135780.59 181.32
-9755365.50 5135782.36 181.39
-9755360.86 5135782.36 181.30
-9755364.14 5135782.34 181.30
-9755365.61 5135780.57 181.33
-9755357.32 5135782.30 181.30
-9755355.59 5135782.31 181.30
-9755352.63 5135782.33 181.28
-9755355.88 5135780.84 181.31
-9755354.09 5135780.55 181.30
-9755353.60 5135782.50 182.40
-9755377.23 5135755.77 181.55
-9755377.25 5135757.58 181.54
-9755375.44 5135764.08 181.55
-9755375.45 5135760.80 181.52
-9755375.50 5135753.98 181.56
-9755377.22 5135760.79 181.50
-9755372.20 5135761.10 181.56
-9755372.26 5135757.53 181.54
-9755370.71 5135764.08 181.54
-9755370.70 5135760.75 181.52
-9755370.80 5135756.00 181.56
-9755375.36 5135768.81 181.45
-9755375.99 5135773.84 181.39
-9755375.64 5135777.67 181.32
-9755375.70 5135767.31 181.45
-9755372.42 5135768.79 181.46
-9755372.12 5135770.57 181.44
-9755370.75 5135754.02 184.92
-9755363.97 5135759.23 181.52
-9755365.72 5135757.79 181.53
-9755367.04 5135754.16 182.36
-9755368.91 5135764.00 181.50
-9755367.51 5135757.48 181.53
-9755363.95 5135763.95 181.47
-9755368.97 5135759.00 181.54
-9755360.72 5135760.99 181.49
-9755360.70 5135757.75 181.55
-9755364.06 5135754.49 182.46
-9755367.20 5135762.21 181.49
-9755364.27 5135754.24 181.58
-9755366.13 5135755.25 183.48
-9755359.07 5135754.23 181.60
-9755350.98 5135760.63 181.52
-9755357.51 5135757.43 182.41
-9755357.57 5135759.15 182.39
-9755355.68 5135757.43 181.53
-9755352.45 5135762.71 181.49
-9755357.08 5135754.51 182.30
-9755352.51 5135754.42 181.60
-9755352.42 5135765.71 181.46
-9755354.19 5135764.20 181.46
-9755348.97 5135755.86 181.59
-9755353.92 5135763.32 182.23
-9755349.24 5135757.37 181.58
-9755365.64 5135774.08 181.38
-9755360.88 5135777.29 181.36
-9755360.65 5135770.50 181.41
-9755362.12 5135772.23 181.39
-9755363.91 5135769.33 181.41
-9755362.40 5135770.49 181.41
-9755365.67 5135772.30 181.40
-9755367.12 5135775.60 181.37
-9755365.55 5135777.31 181.36
-9755362.14 5135767.27 181.44
-9755363.88 5135772.58 181.39
-9755359.14 5135775.50 181.36
-9755358.89 5135770.46 181.42
-9755354.14 5135770.42 181.41
-9755352.36 5135770.71 181.41
-9755352.38 5135772.23 181.39
-9755355.65 5135770.74 181.41
-9755355.91 5135777.25 181.34
-9755350.89 5135772.52 181.39
-9755349.39 5135777.50 181.31
-9755349.45 5135775.75 181.34
-9755346.18 5135777.23 181.34
-9755334.38 5135778.93 181.32
-9755332.60 5135777.43 181.34
-9755324.33 5135778.84 181.32
-9755326.16 5135777.08 181.35
-9755331.11 5135777.43 181.33
-9755319.60 5135779.16 181.30
-9755332.63 5135782.04 184.18
-9755332.83 5135782.02 183.15
-9755335.80 5135782.17 181.27
-9755341.16 5135780.72 181.30
-9755331.13 5135780.64 181.28
-9755327.86 5135782.14 181.26
-9755327.91 5135782.26 182.55
-9755326.09 5135780.64 181.28
-9755347.76 5135757.67 181.56
-9755347.76 5135754.14 181.60
-9755347.43 5135762.38 181.51
-9755345.69 5135762.41 181.51
-9755346.00 5135757.66 181.57
-9755345.99 5135760.58 181.55
-9755344.15 5135763.86 181.49
-9755344.23 5135754.09 181.61
-9755347.70 5135769.23 181.44
-9755345.62 5135772.48 181.40
-9755345.96 5135767.13 181.45
-9755344.11 5135769.20 181.43
-9755344.15 5135767.11 181.44
-9755342.45 5135755.88 181.59
-9755339.47 5135760.88 181.51
-9755342.40 5135763.84 181.48
-9755342.72 5135759.10 181.54
-9755340.96 5135755.80 181.59
-9755340.98 5135759.14 181.55
-9755337.46 5135754.34 181.62
-9755335.94 5135759.10 181.56
-9755342.68 5135765.67 181.47
-9755335.93 5135765.91 181.49
-9755334.16 5135765.59 181.50
-9755326.28 5135762.54 183.86
-9755331.22 5135762.30 181.54
-9755322.62 5135762.24 181.64
-9755331.00 5135755.75 181.60
-9755329.45 5135758.73 181.58
-9755324.39 5135762.29 184.36
-9755321.23 5135757.54 181.59
-9755327.99 5135764.08 181.55
-9755321.18 5135764.33 181.53
-9755326.22 5135757.54 181.60
-9755327.75 5135753.97 181.64
-9755324.81 5135754.24 181.64
-9755326.23 5135759.01 181.59
-9755329.47 5135762.28 181.55
-9755330.97 5135757.60 181.58
-9755324.73 5135760.78 181.63
-9755319.74 5135755.69 181.62
-9755341.21 5135774.25 181.37
-9755339.11 5135775.38 181.37
-9755339.41 5135773.93 181.37
-9755337.67 5135769.11 181.45
-9755321.12 5135774.10 181.40
-9755324.37 5135775.90 181.36
-9755322.60 5135774.13 181.41
-9755329.56 5135767.61 182.58
-9755327.94 5135768.78 181.47
-9755321.18 5135765.51 181.51
-9755330.91 5135767.31 181.49
-9755327.65 5135770.89 181.43
-9755319.67 5135772.35 181.42
-9755331.13 5135775.90 181.36
-9755326.44 5135775.64 181.36
-9755319.62 5135775.86 181.38
-9755319.41 5135769.33 181.46
-9755326.46 5135768.78 182.22
-9755319.69 5135765.53 181.53
-9755314.63 5135779.12 181.30
-9755316.37 5135778.81 181.32
-9755308.16 5135779.03 181.28
-9755314.91 5135782.39 181.17
-9755316.11 5135782.13 185.96
-9755309.56 5135780.54 181.25
-9755315.24 5135778.97 183.87
-9755317.70 5135760.76 181.58
-9755317.92 5135762.50 181.56
-9755317.97 5135759.54 181.59
-9755317.62 5135762.57 182.38
-9755317.91 5135775.83 181.37
-9755317.90 5135774.10 181.41
-9755317.93 5135770.81 181.45
-9755308.19 5135764.49 181.56
-9755316.14 5135763.98 181.54
-9755308.20 5135760.74 181.60
-9755312.95 5135755.97 181.61
-9755314.66 5135764.29 181.53
-9755311.47 5135764.25 181.53
-9755308.27 5135762.45 181.57
-9755309.72 5135759.19 181.56
-9755314.44 5135760.75 181.57
-9755312.96 5135757.48 181.59
-9755314.45 5135758.93 181.58
-9755308.28 5135754.18 181.61
-9755316.00 5135761.33 182.15
-9755309.73 5135752.68 181.63
-9755309.68 5135769.31 181.43
-9755308.19 5135774.02 181.37
-9755316.15 5135767.57 181.49
-9755311.37 5135770.77 181.40
-9755306.46 5135767.49 181.47
-9755314.88 5135772.24 181.40
-9755309.65 5135770.77 181.42
-9755309.66 5135765.49 181.52
-9755502.45 5135726.03 180.86
-9755502.65 5135734.29 180.84
-9755502.11 5135731.04 180.85
-9755497.32 5135737.57 180.81
-9755500.68 5135731.01 180.85
-9755499.13 5135732.84 180.84
-9755497.39 5135727.74 180.82
-9755499.03 5135750.88 180.84
-9755500.77 5135751.17 180.83
-9755499.09 5135740.86 180.82
-9755501.10 5135742.64 180.83
-9755500.54 5135741.07 180.82
-9755499.35 5135746.12 180.82
-9755497.64 5135741.12 180.81
-9755489.33 5135752.60 180.93
-9755493.90 5135726.31 180.76
-9755479.14 5135726.17 181.13
-9755494.12 5135732.67 182.19
-9755495.95 5135727.78 180.80
-9755495.13 5135733.02 182.15
-9755492.66 5135734.58 180.75
-9755495.86 5135734.27 180.78
-9755495.27 5135730.93 181.99
-9755489.39 5135733.05 180.89
-9755489.46 5135727.72 180.89
-9755489.15 5135729.77 180.90
-9755484.37 5135731.32 184.19
-9755480.83 5135735.98 181.09
-9755479.13 5135727.65 181.11
-9755490.94 5135729.56 180.86
-9755487.64 5135734.22 180.96
-9755490.82 5135739.57 180.86
-9755485.55 5135730.25 182.83
-9755481.12 5135739.53 181.08
-9755480.83 5135732.98 181.10
-9755489.35 5135737.51 180.91
-9755485.99 5135732.24 183.36
-9755486.83 5135731.73 183.46
-9755477.62 5135729.42 181.12
-9755477.59 5135738.05 181.10
-9755495.84 5135746.13 180.79
-9755494.06 5135750.84 180.76
-9755494.04 5135749.37 180.76
-9755492.60 5135745.78 180.81
-9755492.56 5135749.03 180.80
-9755495.83 5135742.57 180.78
-9755495.82 5135749.08 180.77
-9755495.87 5135741.12 180.79
-9755492.57 5135750.77 180.80
-9755480.75 5135750.76 181.11
-9755490.80 5135742.89 180.86
-9755482.85 5135749.03 181.03
-9755484.00 5135747.54 180.98
-9755482.58 5135747.55 181.00
-9755487.28 5135741.02 180.93
-9755480.80 5135744.25 181.03
-9755489.07 5135742.82 180.90
-9755481.32 5135747.48 181.03
-9755479.29 5135749.23 181.10
-9755490.83 5135744.33 180.85
-9755484.05 5135742.75 180.97
-9755487.59 5135742.52 180.92
-9755491.58 5135747.27 185.79
-9755477.90 5135742.73 181.08
-9755474.68 5135726.17 181.17
-9755472.71 5135729.51 184.12
-9755471.27 5135731.23 184.39
-9755472.35 5135732.78 184.49
-9755471.10 5135737.94 181.19
-9755471.40 5135739.41 181.17
-9755469.35 5135736.19 181.21
-9755469.72 5135729.32 181.23
-9755467.60 5135734.37 181.26
-9755476.16 5135729.73 181.15
-9755476.13 5135732.70 181.15
-9755474.36 5135727.58 181.18
-9755467.90 5135729.38 181.25
-9755467.89 5135727.91 181.25
-9755469.28 5135751.00 181.26
-9755469.30 5135745.98 181.23
-9755472.79 5135742.75 181.16
-9755472.82 5135745.96 181.18
-9755472.52 5135749.50 181.22
-9755472.87 5135743.89 181.17
-9755472.88 5135740.93 181.14
-9755469.64 5135742.72 181.20
-9755476.08 5135750.74 181.21
-9755474.29 5135747.49 181.17
-9755495.98 5135724.51 180.80
-9755484.43 5135724.70 181.02
-9755485.95 5135724.44 180.98
-9755480.92 5135724.41 181.10
-9755470.91 5135724.30 181.21
-9755461.29 5135752.45 181.33
-9755456.26 5135752.70 181.33
-9755451.27 5135752.64 181.34
-9755444.92 5135752.57 187.57
-9755441.46 5135752.51 184.33
-9755443.02 5135752.65 181.36
-9755446.34 5135752.41 181.38
-9755445.04 5135752.55 181.44
-9755444.86 5135753.80 187.12
-9755438.26 5135752.60 181.37
-9755462.91 5135726.05 181.29
-9755461.15 5135726.10 181.36
-9755467.88 5135737.97 181.24
-9755466.12 5135731.37 181.27
-9755459.37 5135727.86 181.37
-9755454.61 5135729.54 181.45
-9755456.38 5135734.64 181.37
-9755461.14 5135731.37 181.31
-9755457.86 5135737.85 181.37
-9755464.40 5135729.61 181.28
-9755464.67 5135736.16 181.27
-9755454.92 5135739.63 181.37
-9755451.46 5135731.03 185.74
-9755451.85 5135731.14 184.09
-9755466.29 5135750.65 181.28
-9755466.33 5135742.69 181.25
-9755464.59 5135744.46 181.27
-9755463.12 5135740.90 181.30
-9755461.39 5135742.68 181.32
-9755457.83 5135740.99 184.29
-9755454.49 5135745.89 181.36
-9755456.29 5135745.87 181.36
-9755453.11 5135744.09 181.37
-9755464.60 5135742.67 181.27
-9755462.81 5135747.71 181.30
-9755456.30 5135744.08 181.35
-9755461.01 5135747.40 181.31
-9755454.57 5135741.13 181.38
-9755456.03 5135747.66 181.34
-9755451.34 5135749.08 181.36
-9755451.29 5135745.82 181.38
-9755450.31 5135733.53 183.36
-9755443.21 5135729.43 202.08
-9755441.58 5135729.39 201.99
-9755438.11 5135737.76 181.60
-9755448.33 5135750.88 181.36
-9755446.37 5135751.01 184.26
-9755447.97 5135751.03 184.08
-9755449.57 5135741.08 181.40
-9755444.49 5135749.30 181.37
-9755440.07 5135750.82 181.38
-9755441.49 5135750.79 181.38
-9755443.41 5135749.30 185.41
-9755446.31 5135749.09 181.37
-9755448.10 5135741.08 181.42
-9755443.39 5135744.31 181.42
-9755446.63 5135741.10 181.43
-9755447.61 5135739.98 182.48
-9755444.82 5135747.56 181.40
-9755438.06 5135744.27 181.48
-9755438.07 5135741.01 181.52
-9755466.16 5135724.88 181.24
-9755464.70 5135724.59 181.27
-9755444.89 5135724.66 202.02
-9755428.56 5135752.54 181.44
-9755426.76 5135752.82 181.45
-9755425.05 5135752.79 181.45
-9755410.31 5135752.72 181.52
-9755438.05 5135724.68 202.03
-9755429.79 5135726.30 202.17
-9755436.58 5135726.10 202.03
-9755431.64 5135734.74 181.64
-9755436.55 5135729.34 202.02
-9755433.31 5135729.60 202.04
-9755428.47 5135732.70 181.69
-9755434.74 5135732.93 202.04
-9755434.87 5135736.21 181.62
-9755428.37 5135731.06 183.91
-9755430.13 5135732.98 181.69
-9755436.57 5135727.90 202.02
-9755428.31 5135727.80 202.20
-9755429.84 5135739.20 181.61
-9755431.61 5135732.70 181.64
-9755431.36 5135737.68 181.63
-9755429.80 5135729.59 202.06
-9755426.62 5135734.72 181.68
-9755426.51 5135727.86 202.28
-9755429.81 5135735.92 181.66
-9755436.65 5135736.25 181.58
-9755436.90 5135735.60 202.09
-9755426.85 5135737.66 181.66
-9755437.44 5135734.88 205.57
-9755425.10 5135727.78 202.38
-9755425.12 5135739.46 181.64
-9755425.17 5135732.89 181.71
-9755425.19 5135734.40 181.69
-9755423.35 5135732.95 181.73
-9755424.87 5135730.61 181.73
-9755424.00 5135731.16 181.72
-9755423.02 5135734.41 181.71
-9755433.36 5135745.73 181.50
-9755433.34 5135744.25 181.52
-9755433.36 5135742.78 181.54
-9755428.34 5135744.20 181.57
-9755436.57 5135749.58 181.42
-9755431.55 5135747.50 181.49
-9755430.12 5135742.46 181.57
-9755436.60 5135742.50 181.51
-9755434.56 5135742.49 181.53
-9755436.54 5135744.54 181.50
-9755430.69 5135749.85 182.43
-9755425.00 5135750.68 181.48
-9755423.55 5135751.03 181.50
-9755424.77 5135747.74 181.55
-9755423.31 5135726.28 202.50
-9755423.09 5135731.18 181.75
-9755418.36 5135729.65 181.79
-9755413.65 5135731.08 181.79
-9755415.11 5135734.12 181.75
-9755418.63 5135737.92 181.71
-9755416.54 5135737.93 181.72
-9755419.86 5135732.88 181.75
-9755416.86 5135734.37 181.75
-9755416.88 5135737.64 181.73
-9755421.63 5135734.67 181.72
-9755423.71 5135727.79 202.57
-9755411.91 5135737.61 181.72
-9755410.42 5135734.33 181.75
-9755410.08 5135737.60 181.72
-9755415.02 5135749.16 181.58
-9755413.57 5135750.94 181.56
-9755415.04 5135742.93 181.67
-9755416.76 5135746.23 181.62
-9755421.56 5135742.36 181.63
-9755419.78 5135741.24 181.66
-9755415.07 5135750.96 181.54
-9755421.77 5135750.69 181.51
-9755416.83 5135749.22 181.57
-9755413.28 5135744.45 181.64
-9755410.03 5135744.09 181.66
-9755410.31 5135750.91 181.55
-9755408.53 5135747.36 181.60
-9755411.85 5135742.61 181.66
-9755408.56 5135741.12 181.68
-9755429.81 5135724.54 202.21
-9755431.60 5135724.59 202.13
-9755416.87 5135724.50 202.77
-9755423.32 5135724.50 202.55
-9755418.87 5135724.47 206.09
-9755407.05 5135752.63 181.54
-9755405.31 5135752.37 181.54
-9755396.76 5135752.32 181.55
-9755392.01 5135752.28 181.55
-9755385.01 5135753.43 182.44
-9755401.83 5135731.29 181.76
-9755403.60 5135732.77 182.68
-9755403.36 5135731.19 183.88
-9755401.89 5135729.14 183.92
-9755403.28 5135737.81 181.69
-9755400.38 5135737.81 181.70
-9755404.61 5135732.82 182.31
-9755400.11 5135733.98 181.69
-9755400.38 5135736.07 181.72
-9755401.85 5135736.95 181.73
-9755397.42 5135736.01 181.70
-9755399.30 5135728.15 183.94
-9755398.63 5135729.56 181.76
-9755398.59 5135739.31 181.69
-9755397.46 5135732.19 181.73
-9755405.34 5135744.08 181.62
-9755405.02 5135749.39 181.59
-9755403.87 5135741.12 181.67
-9755403.86 5135746.14 181.62
-9755400.30 5135744.65 181.64
-9755398.59 5135745.86 181.62
-9755396.77 5135745.80 181.63
-9755397.05 5135741.03 181.68
-9755390.10 5135731.43 184.73
-9755388.64 5135736.04 185.44
-9755393.95 5135732.74 182.54
-9755388.83 5135738.99 181.73
-9755395.37 5135731.21 181.73
-9755388.54 5135732.70 181.81
-9755390.35 5135732.42 181.76
-9755393.91 5135734.29 181.70
-9755393.37 5135733.87 183.97
-9755390.38 5135732.92 185.09
-9755393.84 5135739.27 181.69
-9755387.17 5135730.89 181.83
-9755385.36 5135733.03 181.79
-9755388.58 5135733.15 185.04
-9755387.15 5135732.73 181.78
-9755385.36 5135732.65 184.86
-9755381.88 5135734.94 182.68
-9755381.71 5135734.43 184.78
-9755382.17 5135737.72 181.71
-9755383.34 5135733.95 181.80
-9755382.12 5135735.89 182.53
-9755385.32 5135736.39 185.53
-9755391.74 5135747.59 181.60
-9755388.51 5135744.30 181.65
-9755388.84 5135741.31 181.68
-9755395.27 5135750.82 181.56
-9755390.29 5135741.01 181.69
-9755387.33 5135749.34 181.59
-9755388.80 5135750.80 181.58
-9755392.10 5135742.53 181.66
-9755388.78 5135742.47 181.67
-9755383.84 5135741.02 181.69
-9755380.83 5135747.53 181.61
-9755380.57 5135749.55 181.60
-9755383.18 5135739.90 182.59
-9755385.23 5135724.27 203.90
-9755372.23 5135752.80 181.58
-9755373.81 5135752.49 182.41
-9755367.26 5135752.74 181.59
-9755362.28 5135752.72 181.61
-9755359.02 5135752.91 182.27
-9755352.49 5135752.35 182.53
-9755351.02 5135752.67 181.62
-9755354.28 5135752.62 182.33
-9755358.67 5135750.87 182.33
-9755351.04 5135750.83 181.64
-9755375.68 5135736.01 185.69
-9755373.75 5135737.74 181.77
-9755373.33 5135739.40 185.13
-9755373.91 5135732.71 185.47
-9755374.11 5135738.86 181.73
-9755372.25 5135737.55 184.61
-9755373.90 5135739.58 181.68
-9755373.84 5135738.01 181.72
-9755372.16 5135731.34 184.91
-9755370.53 5135735.92 182.26
-9755372.39 5135745.81 182.34
-9755377.33 5135742.54 185.68
-9755373.15 5135740.22 182.88
-9755376.99 5135747.45 181.63
-9755373.70 5135744.45 182.09
-9755375.85 5135744.35 185.03
-9755372.11 5135744.57 181.59
-9755372.96 5135740.54 184.27
-9755374.18 5135744.53 184.56
-9755374.32 5135746.35 184.43
-9755370.50 5135749.52 181.62
-9755355.57 5135724.60 210.80
-9755362.36 5135734.29 182.62
-9755363.81 5135737.86 182.51
-9755363.77 5135734.33 182.34
-9755367.61 5135737.68 181.78
-9755360.69 5135731.08 193.76
-9755359.10 5135737.85 182.55
-9755363.94 5135739.04 182.49
-9755369.53 5135737.60 182.12
-9755365.88 5135734.12 181.88
-9755350.96 5135732.82 193.76
-9755349.17 5135737.64 184.76
-9755356.76 5135737.70 185.05
-9755358.29 5135732.05 193.80
-9755364.29 5135749.47 181.63
-9755360.56 5135741.22 182.13
-9755369.08 5135747.73 181.63
-9755361.23 5135750.35 182.21
-9755367.57 5135747.70 181.64
-9755362.32 5135747.67 182.12
-9755360.77 5135749.44 181.63
-9755364.05 5135749.10 182.35
-9755360.50 5135744.13 181.65
-9755365.84 5135746.25 181.65
-9755360.55 5135742.68 181.71
-9755362.91 5135740.86 181.73
-9755367.53 5135749.19 181.62
-9755362.27 5135749.37 182.37
-9755369.03 5135750.94 181.61
-9755361.74 5135744.13 182.13
-9755359.05 5135746.03 184.60
-9755365.09 5135740.85 182.17
-9755351.30 5135747.61 181.62
-9755349.29 5135746.33 185.47
-9755352.53 5135744.46 185.25
-9755350.78 5135749.06 181.68
-9755354.34 5135750.67 185.39
-9755355.83 5135744.20 185.68
-9755352.87 5135745.99 185.24
-9755351.04 5135744.29 181.69
-9755355.86 5135740.92 185.48
-9755350.39 5135739.36 181.80
-9755350.73 5135746.16 181.68
-9755351.13 5135746.50 182.61
-9755352.27 5135749.37 181.62
-9755351.75 5135744.49 184.98
-9755350.76 5135741.38 181.77
-9755349.25 5135751.11 181.64
-9755349.33 5135742.55 181.73
-9755351.68 5135747.63 182.57
-9755349.10 5135747.76 185.77
-9755344.25 5135750.84 181.66
-9755337.72 5135751.09 181.67
-9755332.78 5135751.08 181.69
-9755327.75 5135751.02 181.69
-9755321.25 5135750.67 181.69
-9755326.28 5135752.83 181.66
-9755321.31 5135752.78 181.65
-9755347.67 5135724.50 206.98
-9755347.51 5135726.22 208.98
-9755347.57 5135739.31 181.85
-9755349.13 5135731.43 193.69
-9755347.26 5135727.21 209.01
-9755346.08 5135739.27 181.87
-9755348.05 5135734.01 193.75
-9755346.14 5135726.20 206.99
-9755344.02 5135726.20 206.95
-9755344.22 5135727.62 206.98
-9755347.49 5135749.09 181.68
-9755346.04 5135746.47 184.99
-9755347.52 5135742.82 181.78
-9755347.60 5135744.74 185.39
-9755347.57 5135746.31 184.90
-9755345.79 5135741.35 181.83
-9755346.06 5135747.38 185.47
-9755347.58 5135743.58 185.00
-9755348.31 5135739.76 185.51
-9755337.53 5135724.60 208.90
-9755335.98 5135724.47 193.16
-9755336.60 5135724.41 193.26
-9755325.98 5135724.65 193.67
-9755337.71 5135736.24 194.40
-9755337.69 5135726.26 193.55
-9755334.51 5135727.92 193.85
-9755339.43 5135726.15 193.78
-9755337.59 5135729.62 208.94
-9755334.48 5135729.75 193.66
-9755336.16 5135735.98 194.35
-9755340.86 5135732.66 194.35
-9755337.65 5135739.52 194.74
-9755334.44 5135737.42 194.46
-9755335.59 5135725.13 199.38
-9755332.76 5135726.54 193.28
-9755339.43 5135739.22 194.76
-9755335.16 5135726.28 208.90
-9755330.95 5135729.44 193.56
-9755330.91 5135732.71 193.88
-9755320.54 5135733.89 195.58
-9755321.15 5135735.88 193.86
-9755327.98 5135734.44 194.00
-9755323.66 5135728.10 195.83
-9755330.96 5135731.24 193.73
-9755324.34 5135728.08 195.75
-9755330.98 5135725.95 193.19
-9755331.18 5135739.48 194.59
-9755319.44 5135734.06 195.49
-9755342.82 5135747.66 185.36
-9755336.01 5135749.31 181.69
-9755341.41 5135747.46 184.67
-9755332.65 5135740.94 194.77
-9755340.88 5135741.01 194.97
-9755334.43 5135740.90 194.80
-9755342.88 5135747.72 184.73
-9755339.69 5135744.57 195.40
-9755341.10 5135743.90 195.22
-9755340.99 5135748.93 185.44
-9755339.30 5135749.13 185.33
-9755337.54 5135749.01 181.70
-9755341.96 5135740.12 194.92
-9755341.78 5135740.10 194.92
-9755327.95 5135740.91 194.68
-9755327.82 5135748.95 185.40
-9755327.69 5135747.78 183.82
-9755324.57 5135747.48 181.73
-9755327.82 5135749.14 182.63
-9755329.47 5135750.80 185.40
-9755331.19 5135744.48 195.11
-9755326.62 5135739.78 182.83
-9755323.12 5135744.25 181.77
-9755329.59 5135747.80 181.76
-9755325.99 5135742.41 181.81
-9755323.01 5135748.93 181.73
-9755331.31 5135749.54 181.72
-9755326.05 5135740.91 181.85
-9755324.63 5135742.79 181.78
-9755326.75 5135740.67 186.12
-9755322.78 5135747.76 181.73
-9755326.50 5135739.85 184.32
-9755328.05 5135749.28 181.70
-9755324.32 5135741.21 181.82
-9755327.79 5135750.88 185.25
-9755327.25 5135744.71 185.52
-9755326.66 5135739.39 185.92
-9755327.16 5135745.70 181.72
-9755326.54 5135739.46 187.46
-9755323.07 5135742.69 181.80
-9755326.04 5135745.97 181.75
-9755327.18 5135745.55 194.48
-9755327.59 5135746.23 185.46
-9755326.82 5135748.48 183.74
-9755319.79 5135749.52 181.71
-9755326.96 5135745.36 194.47
-9755326.82 5135747.21 181.72
-9755324.13 5135722.91 194.55
-9755319.68 5135731.40 195.55
-9755319.80 5135744.16 181.79
-9755317.76 5135748.01 181.72
-9755307.98 5135724.53 193.91
-9755307.93 5135732.83 193.81
-9755316.20 5135736.16 193.87
-9755311.45 5135732.85 193.92
-9755307.92 5135727.82 193.82
-9755311.43 5135731.12 193.80
-9755311.19 5135726.09 193.80
-9755314.71 5135737.65 194.01
-9755315.35 5135731.75 195.39
-9755316.21 5135731.67 195.49
-9755310.06 5135747.37 181.73
-9755308.02 5135749.14 181.68
-9755312.92 5135740.87 194.13
-9755317.59 5135740.26 194.21
-9755314.50 5135744.17 181.82
-9755308.05 5135747.67 181.71
-9755319.74 5135722.84 193.79
-9755314.49 5135722.80 193.92
-9755307.97 5135722.80 193.94
-9755502.31 5135701.45 180.90
-9755502.23 5135711.19 180.87
-9755500.73 5135711.48 180.86
-9755499.02 5135709.74 180.88
-9755498.98 5135713.29 180.89
-9755499.02 5135706.18 180.91
-9755502.44 5135723.08 180.86
-9755500.69 5135723.02 180.86
-9755496.10 5135699.64 180.89
-9755489.28 5135699.88 180.95
-9755497.52 5135711.20 180.86
-9755492.77 5135708.78 187.13
-9755492.85 5135709.35 187.17
-9755496.05 5135702.90 180.86
-9755497.47 5135712.98 180.86
-9755495.81 5135708.78 187.68
-9755482.47 5135703.42 181.05
-9755489.26 5135711.14 180.97
-9755491.06 5135703.13 180.94
-9755487.74 5135712.92 180.98
-9755483.99 5135703.08 181.04
-9755487.51 5135708.16 180.99
-9755481.26 5135709.89 181.08
-9755481.07 5135701.31 181.05
-9755479.19 5135711.40 181.10
-9755482.51 5135701.62 181.06
-9755489.32 5135704.93 180.95
-9755484.29 5135704.88 181.04
-9755480.99 5135711.12 181.08
-9755482.70 5135709.92 181.05
-9755479.26 5135701.59 181.07
-9755491.05 5135706.69 180.94
-9755492.18 5135708.87 186.59
-9755479.22 5135713.16 181.10
-9755491.44 5135708.77 184.10
-9755491.32 5135708.72 186.41
-9755491.63 5135708.80 186.99
-9755477.76 5135713.12 181.12
-9755497.43 5135719.78 180.85
-9755495.96 5135721.29 180.81
-9755494.19 5135716.20 180.78
-9755481.95 5135716.67 182.87
-9755485.66 5135717.88 181.01
-9755484.47 5135721.17 181.02
-9755487.75 5135719.72 180.95
-9755481.24 5135717.94 183.02
-9755482.77 5135717.99 181.08
-9755482.91 5135716.38 181.07
-9755482.61 5135718.37 183.11
-9755484.23 5135716.13 181.05
-9755485.99 5135722.96 180.97
-9755482.33 5135715.14 183.21
-9755490.64 5135721.23 180.89
-9755489.51 5135716.17 180.95
-9755479.44 5135721.10 181.13
-9755484.22 5135714.76 183.96
-9755489.49 5135719.72 180.93
-9755470.72 5135702.98 184.35
-9755471.06 5135701.46 185.62
-9755471.09 5135704.84 187.35
-9755472.71 5135701.67 186.07
-9755474.50 5135711.62 181.19
-9755474.98 5135706.35 184.65
-9755474.27 5135704.77 181.14
-9755475.79 5135701.53 187.29
-9755471.08 5135703.00 181.16
-9755469.66 5135710.10 183.92
-9755469.56 5135704.79 181.18
-9755472.80 5135701.58 181.10
-9755471.27 5135711.32 181.23
-9755472.84 5135706.23 181.22
-9755469.66 5135702.88 184.30
-9755467.72 5135711.52 183.96
-9755470.40 5135710.37 182.15
-9755476.25 5135714.59 181.15
-9755469.71 5135722.86 181.22
-9755474.44 5135721.08 181.17
-9755467.90 5135714.55 182.26
-9755467.96 5135721.32 181.24
-9755494.39 5135696.67 180.89
-9755494.28 5135698.12 180.87
-9755492.58 5135696.64 180.84
-9755486.33 5135698.12 181.00
-9755487.24 5135698.08 181.00
-9755487.58 5135696.63 180.97
-9755489.04 5135698.07 180.94
-9755482.57 5135696.58 181.01
-9755485.82 5135696.62 181.01
-9755482.61 5135694.79 180.99
-9755477.54 5135698.03 181.04
-9755477.58 5135696.54 181.01
-9755476.37 5135695.06 181.01
-9755473.13 5135694.75 181.01
-9755474.39 5135696.41 183.59
-9755458.03 5135699.99 181.07
-9755459.55 5135699.96 181.07
-9755452.72 5135700.08 185.18
-9755467.46 5135713.22 183.08
-9755468.14 5135710.85 181.43
-9755468.08 5135703.05 181.12
-9755466.64 5135711.24 182.38
-9755468.36 5135710.20 183.69
-9755467.16 5135713.00 181.69
-9755461.46 5135709.65 190.50
-9755456.09 5135708.31 192.67
-9755457.58 5135706.23 189.51
-9755461.79 5135710.77 185.94
-9755458.02 5135709.96 181.73
-9755459.66 5135713.34 192.26
-9755460.89 5135701.51 189.00
-9755462.52 5135711.41 192.67
-9755454.73 5135704.59 188.12
-9755454.47 5135705.09 192.40
-9755464.75 5135711.54 181.61
-9755458.09 5135704.91 190.84
-9755454.82 5135704.69 181.37
-9755457.50 5135713.22 189.41
-9755457.79 5135701.34 184.41
-9755453.17 5135706.37 189.23
-9755456.37 5135712.87 190.96
-9755456.30 5135704.51 181.36
-9755454.75 5135711.23 181.61
-9755458.00 5135701.56 185.36
-9755461.34 5135709.54 186.21
-9755458.04 5135706.65 188.01
-9755456.05 5135711.45 190.94
-9755454.65 5135709.48 187.89
-9755453.05 5135704.70 192.54
-9755458.09 5135703.03 184.30
-9755456.52 5135701.46 184.45
-9755458.42 5135704.57 189.19
-9755456.23 5135704.68 189.21
-9755454.76 5135709.75 181.69
-9755456.29 5135709.36 181.72
-9755461.27 5135703.29 181.19
-9755461.24 5135711.63 181.74
-9755453.46 5135702.06 190.60
-9755458.02 5135702.90 181.19
-9755460.82 5135706.66 191.75
-9755464.54 5135704.73 181.24
-9755459.31 5135700.42 186.86
-9755457.68 5135711.54 181.76
-9755454.77 5135708.21 181.66
-9755457.73 5135700.41 190.27
-9755453.27 5135711.50 181.53
-9755456.81 5135713.05 181.73
-9755454.81 5135707.48 184.02
-9755459.18 5135710.39 192.35
-9755460.85 5135701.39 190.11
-9755453.29 5135713.19 181.51
-9755453.06 5135702.63 186.65
-9755452.73 5135706.39 181.49
-9755458.35 5135703.97 185.80
-9755459.75 5135713.03 189.28
-9755457.72 5135704.63 184.69
-9755455.74 5135700.48 185.51
-9755452.65 5135709.53 190.37
-9755458.12 5135709.70 189.44
-9755455.20 5135702.65 186.46
-9755451.43 5135706.47 189.13
-9755451.60 5135704.68 187.35
-9755451.37 5135701.49 184.45
-9755451.00 5135704.36 186.40
-9755451.01 5135707.70 185.53
-9755451.19 5135713.27 188.85
-9755451.48 5135708.01 181.52
-9755451.31 5135706.21 182.91
-9755451.01 5135705.03 182.77
-9755450.67 5135711.24 185.35
-9755467.76 5135714.58 181.62
-9755466.32 5135714.83 189.43
-9755466.64 5135714.16 182.10
-9755467.22 5135713.96 189.97
-9755464.76 5135716.46 186.28
-9755459.61 5135717.87 192.51
-9755458.07 5135717.93 190.73
-9755462.74 5135716.33 181.74
-9755463.00 5135717.93 190.91
-9755461.34 5135716.31 192.66
-9755461.33 5135717.88 190.89
-9755457.96 5135716.27 181.75
-9755461.11 5135716.30 181.73
-9755457.87 5135719.66 190.53
-9755461.27 5135719.64 190.64
-9755454.45 5135719.50 181.48
-9755459.20 5135716.46 188.99
-9755457.92 5135717.98 181.64
-9755457.94 5135719.41 188.90
-9755454.73 5135716.21 181.52
-9755458.03 5135718.08 188.78
-9755456.58 5135721.22 187.90
-9755458.62 5135720.12 188.03
-9755454.74 5135714.97 181.55
-9755458.32 5135721.43 188.92
-9755457.90 5135715.70 185.86
-9755453.38 5135715.04 190.85
-9755461.52 5135721.13 190.89
-9755462.95 5135719.57 186.20
-9755454.78 5135713.28 187.41
-9755456.17 5135714.70 187.30
-9755460.94 5135721.14 192.43
-9755452.92 5135716.28 181.48
-9755457.98 5135714.81 181.80
-9755456.07 5135717.86 186.99
-9755457.66 5135721.29 181.48
-9755455.91 5135715.24 184.30
-9755461.22 5135718.33 181.66
-9755459.07 5135714.50 184.90
-9755456.83 5135714.66 186.11
-9755453.10 5135716.33 185.76
-9755461.89 5135719.83 188.92
-9755458.33 5135714.67 189.56
-9755458.94 5135715.68 186.54
-9755454.45 5135714.97 189.40
-9755452.88 5135713.36 185.43
-9755453.80 5135716.04 188.32
-9755455.87 5135713.66 186.78
-9755451.28 5135714.21 187.95
-9755451.49 5135714.77 181.45
-9755443.29 5135699.96 181.11
-9755444.53 5135698.12 181.01
-9755444.80 5135704.65 181.26
-9755449.58 5135706.47 187.60
-9755449.63 5135701.45 187.18
-9755444.87 5135703.41 184.32
-9755447.84 5135708.11 181.40
-9755443.30 5135706.37 181.27
-9755443.44 5135703.02 183.10
-9755448.04 5135703.25 181.30
-9755443.30 5135703.12 181.30
-9755441.36 5135711.29 202.06
-9755449.75 5135705.83 181.40
-9755441.53 5135707.91 181.26
-9755444.46 5135703.36 183.11
-9755439.78 5135704.60 181.32
-9755449.89 5135709.94 181.47
-9755439.20 5135708.26 186.04
-9755441.11 5135709.81 202.08
-9755447.92 5135710.01 181.35
-9755447.97 5135711.17 181.36
-9755449.34 5135712.72 185.34
-9755450.03 5135704.98 182.17
-9755441.15 5135709.67 187.48
-9755441.85 5135710.69 191.13
-9755448.62 5135705.26 184.06
-9755449.69 5135712.92 181.37
-9755448.41 5135709.48 182.06
-9755448.59 5135705.29 185.26
-9755441.03 5135708.87 186.52
-9755444.84 5135713.10 202.03
-9755446.27 5135713.17 191.06
-9755443.63 5135700.30 184.39
-9755447.14 5135708.24 182.14
-9755450.19 5135705.33 187.56
-9755439.03 5135708.48 198.34
-9755448.06 5135714.68 183.99
-9755443.12 5135719.61 201.99
-9755444.55 5135722.92 202.00
-9755448.14 5135714.82 198.49
-9755439.87 5135723.18 202.03
-9755439.84 5135719.64 202.03
-9755448.26 5135714.79 181.38
-9755439.91 5135714.59 202.05
-9755443.08 5135721.41 202.01
-9755446.25 5135713.17 202.10
-9755449.73 5135715.28 185.65
-9755448.87 5135716.19 205.67
-9755449.40 5135714.98 202.10
-9755450.49 5135714.27 188.07
-9755449.22 5135715.18 191.13
-9755438.11 5135716.32 202.04
-9755467.80 5135697.98 181.01
-9755466.31 5135694.94 183.82
-9755464.54 5135698.23 181.05
-9755461.01 5135698.23 181.03
-9755466.04 5135694.82 187.13
-9755451.29 5135694.64 180.95
-9755448.08 5135698.16 181.01
-9755440.13 5135694.66 183.81
-9755434.88 5135699.77 182.37
-9755433.30 5135699.77 182.65
-9755434.57 5135698.37 182.65
-9755425.07 5135698.33 181.05
-9755434.75 5135706.34 184.36
-9755436.30 5135707.18 187.24
-9755438.31 5135704.97 181.22
-9755428.47 5135703.09 182.83
-9755438.22 5135701.48 182.18
-9755431.80 5135701.60 181.09
-9755437.94 5135708.11 182.69
-9755432.68 5135705.19 186.20
-9755438.32 5135703.39 181.28
-9755436.39 5135709.79 201.79
-9755436.55 5135701.58 182.83
-9755438.12 5135713.09 201.96
-9755429.88 5135711.27 201.50
-9755433.35 5135706.40 187.12
-9755436.21 5135707.78 202.50
-9755431.55 5135703.07 181.14
-9755428.44 5135703.32 184.27
-9755431.28 5135705.45 202.21
-9755436.36 5135706.68 182.35
-9755435.04 5135706.35 181.29
-9755426.74 5135703.28 184.52
-9755430.79 5135708.92 201.49
-9755432.94 5135705.05 182.60
-9755438.11 5135708.08 198.29
-9755436.67 5135713.04 201.91
-9755432.67 5135705.31 184.76
-9755433.13 5135709.80 201.64
-9755433.14 5135711.28 201.68
-9755434.93 5135708.07 201.68
-9755431.67 5135711.29 201.60
-9755429.28 5135703.54 185.54
-9755431.66 5135713.06 201.64
-9755426.62 5135703.56 201.29
-9755431.00 5135705.07 190.53
-9755429.90 5135713.06 201.55
-9755426.57 5135703.41 186.73
-9755434.56 5135706.68 194.42
-9755436.27 5135707.00 184.13
-9755431.33 5135708.37 201.49
-9755431.50 5135704.76 201.15
-9755430.50 5135710.36 201.50
-9755428.06 5135703.96 186.77
-9755428.31 5135704.55 204.95
-9755433.52 5135706.39 201.46
-9755436.03 5135707.17 201.80
-9755427.77 5135703.89 197.81
-9755427.64 5135704.47 181.17
-9755429.33 5135703.87 190.45
-9755424.87 5135708.28 201.29
-9755424.95 5135703.09 193.99
-9755425.02 5135701.60 181.13
-9755424.94 5135703.32 201.20
-9755429.88 5135714.80 201.57
-9755443.55 5135725.43 205.52
-9755429.87 5135717.76 202.37
-9755434.88 5135716.27 201.90
-9755433.34 5135719.56 202.16
-9755433.34 5135718.12 201.87
-9755426.62 5135721.31 202.45
-9755428.08 5135721.35 202.37
-9755424.86 5135714.52 201.33
-9755416.49 5135697.99 181.05
-9755420.03 5135698.00 181.05
-9755415.00 5135699.73 181.09
-9755413.53 5135698.22 181.07
-9755411.83 5135697.96 181.05
-9755411.84 5135699.76 181.09
-9755423.67 5135702.46 182.17
-9755423.40 5135703.00 201.11
-9755413.38 5135706.45 200.72
-9755416.64 5135706.44 200.84
-9755415.17 5135703.23 200.72
-9755423.41 5135708.03 201.22
-9755418.19 5135701.05 182.65
-9755420.18 5135704.77 200.98
-9755418.37 5135711.23 201.00
-9755420.09 5135701.63 184.20
-9755417.23 5135700.19 182.61
-9755421.68 5135702.22 193.82
-9755418.46 5135701.58 197.33
-9755418.42 5135703.21 200.87
-9755415.14 5135711.25 200.79
-9755416.21 5135700.10 185.74
-9755420.14 5135701.74 201.00
-9755418.42 5135701.43 181.07
-9755420.04 5135701.74 190.11
-9755421.70 5135701.96 200.92
-9755418.45 5135701.71 189.94
-9755421.64 5135711.25 201.16
-9755418.45 5135701.21 194.26
-9755423.10 5135702.28 197.56
-9755416.64 5135701.24 193.54
-9755421.32 5135701.97 197.49
-9755423.05 5135702.26 190.28
-9755417.85 5135700.63 182.52
-9755423.33 5135702.66 181.14
-9755413.60 5135699.74 193.51
-9755416.86 5135713.03 200.98
-9755420.15 5135713.02 201.11
-9755413.44 5135700.68 193.39
-9755417.11 5135700.58 200.86
-9755413.60 5135700.43 186.68
-9755417.38 5135701.14 181.09
-9755410.30 5135699.78 185.81
-9755411.89 5135711.27 200.67
-9755410.14 5135707.94 200.62
-9755410.15 5135706.18 200.60
-9755410.20 5135699.87 184.55
-9755410.16 5135701.49 200.54
-9755410.11 5135703.23 200.57
-9755411.67 5135701.49 200.62
-9755411.64 5135700.23 189.62
-9755410.25 5135700.03 197.01
-9755411.80 5135700.89 193.29
-9755410.94 5135700.93 185.97
-9755420.10 5135719.48 202.69
-9755418.40 5135716.48 202.81
-9755420.09 5135722.99 202.63
-9755413.60 5135721.20 203.01
-9755413.63 5135719.75 203.03
-9755422.17 5135714.44 203.47
-9755410.08 5135719.69 203.12
-9755410.39 5135717.89 203.12
-9755411.88 5135719.66 203.11
-9755409.82 5135714.66 203.15
-9755412.09 5135722.96 203.06
-9755412.49 5135723.79 203.62
-9755436.55 5135696.62 181.02
-9755431.85 5135696.61 181.00
-9755428.32 5135694.79 180.98
-9755434.86 5135694.84 180.96
-9755438.59 5135694.85 186.94
-9755420.03 5135694.75 180.98
-9755423.62 5135696.53 181.02
-9755421.58 5135696.56 181.02
-9755413.63 5135694.73 180.99
-9755412.08 5135696.48 181.01
-9755405.16 5135699.78 185.64
-9755400.35 5135698.43 202.63
-9755406.86 5135699.61 181.05
-9755408.66 5135699.87 181.09
-9755400.67 5135699.05 198.68
-9755408.50 5135699.85 185.79
-9755401.05 5135699.14 197.44
-9755401.93 5135707.91 200.14
-9755406.87 5135709.72 200.42
-9755408.93 5135712.38 199.56
-9755403.39 5135703.18 200.21
-9755405.11 5135706.44 200.32
-9755406.77 5135699.67 189.50
-9755406.63 5135711.43 203.44
-9755406.90 5135711.43 200.47
-9755408.68 5135701.42 200.48
-9755406.92 5135704.66 200.41
-9755406.82 5135700.01 193.09
-9755400.16 5135701.49 203.73
-9755405.34 5135711.89 199.74
-9755405.95 5135699.28 182.97
-9755401.22 5135710.35 203.82
-9755398.75 5135701.51 203.69
-9755398.70 5135703.25 203.68
-9755398.65 5135713.09 203.68
-9755396.94 5135706.57 203.66
-9755396.88 5135704.75 203.66
-9755401.82 5135721.35 203.57
-9755403.57 5135719.63 203.49
-9755405.08 5135721.40 203.39
-9755408.37 5135714.65 203.23
-9755400.40 5135716.35 203.67
-9755401.83 5135717.81 203.60
-9755409.17 5135719.73 203.14
-9755399.82 5135721.74 207.34
-9755398.89 5135719.59 203.67
-9755397.12 5135721.30 203.67
-9755396.90 5135716.33 203.66
-9755397.05 5135699.84 207.20
-9755391.99 5135698.04 207.56
-9755395.47 5135699.79 203.66
-9755388.76 5135698.32 207.57
-9755387.24 5135700.06 181.17
-9755393.67 5135701.49 203.63
-9755393.66 5135705.02 203.64
-9755386.96 5135700.49 200.04
-9755393.62 5135709.81 203.64
-9755387.03 5135699.86 182.50
-9755387.21 5135705.00 203.61
-9755388.36 5135701.29 199.98
-9755387.18 5135700.41 189.13
-9755393.83 5135699.29 207.76
-9755388.88 5135699.60 181.14
-9755387.85 5135699.99 184.03
-9755391.89 5135701.44 203.64
-9755388.69 5135700.90 196.33
-9755387.12 5135699.84 186.53
-9755387.10 5135700.75 189.02
-9755387.70 5135700.22 196.46
-9755388.83 5135699.77 189.03
-9755388.99 5135713.02 203.63
-9755388.29 5135700.25 186.56
-9755387.44 5135701.30 199.97
-9755389.70 5135700.96 196.33
-9755387.12 5135712.99 203.61
-9755388.35 5135700.69 192.59
-9755387.65 5135700.70 192.68
-9755388.78 5135700.74 189.02
-9755385.42 5135701.44 203.63
-9755383.97 5135702.91 203.62
-9755382.57 5135701.65 203.91
-9755385.44 5135702.92 203.63
-9755382.29 5135704.58 189.36
-9755383.41 5135705.22 199.22
-9755382.35 5135702.35 187.86
-9755380.83 5135699.83 181.27
-9755382.79 5135701.34 199.21
-9755382.48 5135709.78 208.76
-9755383.56 5135700.32 198.78
-9755380.56 5135703.08 188.73
-9755380.43 5135708.00 208.30
-9755382.61 5135703.07 198.84
-9755383.98 5135700.25 197.05
-9755382.59 5135708.27 208.73
-9755382.19 5135706.25 208.79
-9755382.76 5135703.45 192.26
-9755380.61 5135706.29 200.57
-9755380.70 5135701.51 188.93
-9755384.14 5135700.20 188.59
-9755383.06 5135700.78 192.21
-9755380.42 5135711.25 208.30
-9755383.65 5135700.73 181.26
-9755382.78 5135704.58 204.54
-9755380.66 5135706.14 199.38
-9755380.80 5135705.97 205.65
-9755383.76 5135699.85 181.23
-9755383.27 5135704.57 202.49
-9755382.03 5135701.62 181.31
-9755382.48 5135706.47 188.46
-9755385.47 5135700.10 181.20
-9755382.71 5135700.59 196.62
-9755383.21 5135704.41 194.22
-9755385.54 5135700.15 188.29
-9755382.24 5135702.03 184.76
-9755380.77 5135706.16 197.22
-9755382.78 5135704.66 199.05
-9755380.53 5135706.27 188.79
-9755382.56 5135701.88 195.46
-9755382.99 5135700.88 182.91
-9755383.24 5135700.13 193.21
-9755383.66 5135709.80 208.75
-9755381.95 5135703.06 181.42
-9755382.32 5135706.54 207.52
-9755385.19 5135700.33 200.87
-9755382.84 5135704.53 200.75
-9755382.45 5135700.43 202.36
-9755380.55 5135701.60 181.30
-9755383.97 5135700.48 182.64
-9755382.84 5135704.69 193.93
-9755383.09 5135703.57 202.07
-9755383.36 5135700.68 195.52
-9755382.72 5135700.62 188.97
-9755383.04 5135703.21 198.05
-9755382.85 5135700.54 190.46
-9755384.33 5135700.24 186.54
-9755382.98 5135703.08 194.75
-9755382.85 5135700.40 184.36
-9755383.04 5135700.80 202.79
