-9754899.42 5135636.15 189.11
-9754899.75 5135634.42 187.08
-9754900.30 5135636.26 189.99
-9754894.47 5135636.08 189.02
-9754889.50 5135635.58 182.60
-9754891.22 5135635.81 187.40
-9754897.67 5135633.82 187.79
-9754895.87 5135633.91 187.64
-9754897.69 5135635.49 188.79
-9754896.02 5135634.09 185.94
-9754892.74 5135633.95 187.40
-9754894.44 5135636.21 190.79
-9754890.67 5135634.71 186.15
-9754899.26 5135633.91 188.56
-9754881.21 5135640.45 185.32
-9754884.75 5135639.01 184.46
-9754876.50 5135640.45 185.29
-9754877.98 5135638.66 185.40
-9754879.46 5135639.00 185.52
-9754876.51 5135637.48 185.48
-9754873.26 5135639.28 185.21
-9754883.29 5135636.92 184.82
-9754883.04 5135635.46 184.77
-9754883.31 5135633.71 184.63
-9754874.74 5135633.90 185.24
-9754871.69 5135657.02 185.11
-9754871.40 5135653.75 185.09
-9754871.39 5135651.99 185.10
-9754871.49 5135640.70 185.17
-9754871.47 5135638.98 185.14
-9754871.47 5135637.45 185.15
-9754871.47 5135635.65 185.13
-9754871.49 5135634.23 185.11
-9755009.74 5135632.19 176.18
-9755006.53 5135633.94 176.20
-9754995.01 5135632.38 176.95
-9754995.10 5135624.05 176.92
-9754997.79 5135634.04 177.20
-9754991.36 5135625.86 176.07
-9754988.54 5135628.83 176.20
-9754993.23 5135630.89 176.94
-9754991.53 5135633.85 177.54
-9754989.96 5135630.64 176.14
-9754993.21 5135632.38 176.93
-9754990.86 5135632.31 177.16
-9754988.24 5135627.32 176.21
-9754990.73 5135633.75 177.13
-9754986.44 5135632.33 176.20
-9754983.49 5135629.03 176.28
-9754986.69 5135633.83 176.20
-9755003.60 5135614.32 176.86
-9755001.55 5135614.33 176.88
-9754996.82 5135612.32 176.90
-9754996.57 5135614.29 176.93
-9754997.99 5135617.61 176.94
-9754996.56 5135609.27 176.93
-9754994.82 5135617.59 176.91
-9754995.38 5135614.27 176.91
-9754995.09 5135615.78 176.91
-9754990.05 5135612.55 176.21
-9754988.59 5135615.77 176.24
-9754988.58 5135612.54 176.25
-9754991.21 5135619.00 177.24
-9754988.27 5135614.27 176.25
-9754990.07 5135617.57 176.18
-9754993.32 5135614.29 176.92
-9754997.70 5135622.27 177.24
-9754998.02 5135620.61 176.92
-9754990.59 5135622.00 177.21
-9754991.53 5135622.54 177.29
-9754983.54 5135617.53 176.31
-9754984.99 5135617.49 176.28
-9754985.09 5135615.69 176.27
-9754983.25 5135619.00 176.30
-9754983.29 5135609.25 176.35
-9754981.85 5135610.69 176.37
-9754985.00 5135620.50 176.28
-9754986.47 5135620.81 176.26
-9754991.20 5135607.86 177.63
-9754983.64 5135607.75 176.35
-9754981.41 5135625.17 178.05
-9754981.42 5135628.73 177.35
-9754980.06 5135627.12 178.00
-9754981.44 5135630.53 177.35
-9754980.15 5135630.52 177.38
-9754981.43 5135627.31 177.99
-9754981.32 5135632.21 177.35
-9754980.20 5135625.70 178.06
-9754980.45 5135628.97 177.38
-9754981.22 5135624.15 178.06
-9754980.32 5135632.26 177.42
-9754971.99 5135627.55 176.30
-9754978.49 5135625.50 176.36
-9754968.79 5135625.72 176.26
-9754968.74 5135629.26 176.23
-9754979.06 5135627.51 177.56
-9754976.41 5135625.79 177.47
-9754980.04 5135624.34 178.07
-9754976.71 5135629.04 176.35
-9754968.80 5135623.98 176.26
-9754973.47 5135628.72 176.31
-9754975.55 5135628.77 176.33
-9754968.71 5135630.49 176.24
-9754972.26 5135630.81 176.29
-9754978.86 5135626.09 177.37
-9754967.29 5135627.45 176.24
-9754979.06 5135630.49 177.31
-9754978.47 5135633.80 176.33
-9754979.08 5135632.29 177.28
-9754963.47 5135623.91 176.14
-9754963.65 5135632.20 176.14
-9754963.41 5135628.93 176.94
-9754962.26 5135630.45 175.94
-9754962.01 5135625.42 175.96
-9754960.16 5135632.49 175.99
-9754958.74 5135628.96 176.03
-9754960.55 5135623.91 176.01
-9754962.31 5135624.21 175.98
-9754960.44 5135630.44 176.00
-9754962.40 5135625.81 176.89
-9754958.69 5135632.18 176.02
-9754962.59 5135624.16 176.96
-9754957.27 5135624.20 176.07
-9754956.91 5135632.19 176.05
-9754957.25 5135627.12 176.06
-9754955.46 5135625.93 176.08
-9754955.47 5135627.45 176.08
-9754975.30 5135612.71 176.40
-9754980.03 5135617.50 176.36
-9754971.80 5135611.22 176.37
-9754973.57 5135615.73 176.35
-9754980.37 5135610.96 176.39
-9754980.10 5135612.46 176.38
-9754968.83 5135612.69 176.30
-9754972.05 5135617.42 176.34
-9754970.33 5135616.02 176.31
-9754973.52 5135617.49 176.35
-9754967.08 5135609.13 176.32
-9754963.70 5135617.30 176.96
-9754965.30 5135612.67 176.24
-9754965.28 5135619.18 176.21
-9754963.57 5135609.13 176.21
-9754963.51 5135610.96 176.85
-9754975.29 5135620.77 176.36
-9754970.25 5135620.69 176.30
-9754980.32 5135620.78 176.34
-9754965.31 5135620.65 176.21
-9754970.36 5135607.70 176.36
-9754973.64 5135607.71 176.41
-9754962.33 5135619.20 176.01
-9754960.25 5135615.90 176.05
-9754962.08 5135617.45 175.99
-9754962.13 5135610.60 176.99
-9754960.28 5135617.40 176.04
-9754962.10 5135612.67 176.03
-9754960.30 5135619.45 176.02
-9754962.34 5135617.64 176.97
-9754958.80 5135612.37 176.10
-9754962.27 5135622.47 175.97
-9754962.41 5135620.95 176.97
-9754957.05 5135615.90 176.10
-9754955.25 5135612.63 176.16
-9754955.25 5135614.43 176.14
-9754957.23 5135622.41 176.07
-9754962.13 5135607.67 176.06
-9754958.58 5135607.35 176.13
-9754957.13 5135607.61 176.15
-9754953.74 5135627.16 176.11
-9754943.98 5135630.61 176.05
-9754946.94 5135629.14 176.12
-9754947.29 5135623.88 176.14
-9754950.44 5135634.18 176.12
-9754947.17 5135632.43 176.12
-9754945.74 5135627.08 176.12
-9754945.41 5135632.42 176.08
-9754943.71 5135624.16 176.09
-9754943.94 5135632.39 176.06
-9754942.47 5135632.37 176.04
-9754930.58 5135632.38 179.05
-9754930.77 5135623.96 177.67
-9754933.77 5135629.03 177.19
-9754936.06 5135624.01 176.46
-9754934.02 5135623.76 177.07
-9754931.03 5135628.96 177.71
-9754932.26 5135630.75 177.48
-9754932.52 5135627.25 177.53
-9754937.45 5135624.06 176.26
-9754929.27 5135629.20 179.57
-9754930.90 5135622.45 177.65
-9754927.14 5135628.92 179.52
-9754927.40 5135632.39 180.47
-9754927.27 5135630.60 180.76
-9754927.45 5135627.44 180.27
-9754953.76 5135615.92 176.15
-9754952.31 5135614.44 176.18
-9754943.75 5135615.77 176.14
-9754945.53 5135617.88 176.15
-9754950.56 5135617.07 176.20
-9754947.29 5135614.37 176.20
-9754952.03 5135610.81 176.20
-9754950.55 5135612.33 176.22
-9754952.37 5135609.35 176.20
-9754947.34 5135611.08 176.23
-9754950.58 5135614.07 176.21
-9754945.50 5135619.12 176.16
-9754944.09 5135612.56 176.16
-9754949.09 5135619.10 176.20
-9754948.77 5135617.60 176.20
-9754952.29 5135619.10 176.16
-9754948.79 5135615.86 176.22
-9754950.56 5135609.34 176.24
-9754950.50 5135622.39 176.17
-9754952.27 5135620.62 176.16
-9754952.12 5135607.56 176.22
-9754942.05 5135609.27 176.14
-9754940.54 5135610.75 176.11
-9754940.57 5135612.56 176.10
-9754940.83 5135619.05 176.07
-9754933.77 5135609.49 177.20
-9754930.80 5135612.41 177.54
-9754937.60 5135611.06 176.13
-9754932.53 5135615.94 177.41
-9754930.75 5135617.42 177.61
-9754939.08 5135614.04 176.07
-9754935.52 5135617.51 176.49
-9754929.02 5135617.70 177.81
-9754939.04 5135619.04 176.05
-9754934.95 5135612.44 176.79
-9754930.84 5135609.13 177.44
-9754937.33 5135617.83 176.23
-9754935.56 5135615.73 176.48
-9754939.10 5135609.30 176.09
-9754929.20 5135617.15 180.54
-9754934.91 5135616.06 176.93
-9754940.82 5135620.86 176.07
-9754933.75 5135620.74 177.07
-9754932.26 5135620.73 177.37
-9754942.35 5135607.53 176.16
-9754932.62 5135607.67 177.33
-9754937.61 5135607.80 176.14
-9754938.80 5135607.81 176.10
-9754933.89 5135608.00 176.48
-9754929.09 5135607.62 177.88
-9754925.75 5135629.11 181.06
-9754925.85 5135630.57 181.08
-9754925.71 5135632.36 180.73
-9754927.30 5135623.93 178.48
-9754926.72 5135623.50 181.68
-9754926.63 5135623.31 178.41
-9754925.75 5135624.23 183.07
-9754925.33 5135624.08 183.98
-9754924.27 5135630.52 180.85
-9754923.96 5135624.15 183.81
-9754922.50 5135624.04 180.92
-9754919.27 5135623.97 180.92
-9754917.48 5135625.94 183.79
-9754922.84 5135630.18 180.52
-9754920.14 5135632.38 180.24
-9754922.32 5135627.44 182.81
-9754917.61 5135627.39 184.41
-9754919.19 5135629.11 180.87
-9754919.57 5135625.55 180.97
-9754922.70 5135627.49 183.86
-9754915.80 5135630.75 181.04
-9754920.75 5135625.65 182.62
-9754919.00 5135626.28 185.26
-9754920.59 5135625.72 184.04
-9754914.26 5135622.55 180.67
-9754916.01 5135630.33 182.23
-9754919.10 5135622.51 182.23
-9754922.15 5135630.42 183.39
-9754917.15 5135629.03 182.08
-9754920.64 5135626.50 185.04
-9754912.50 5135630.55 180.40
-9754919.61 5135624.41 183.93
-9754920.94 5135630.37 183.67
-9754917.86 5135627.37 185.25
-9754922.49 5135622.63 179.35
-9754912.50 5135629.02 180.41
-9754923.36 5135628.70 182.89
-9754917.33 5135628.26 183.88
-9754923.60 5135627.44 183.15
-9754923.06 5135632.61 181.06
-9754912.76 5135627.26 180.43
-9754916.48 5135625.50 184.04
-9754918.88 5135626.98 185.22
-9754919.56 5135629.43 180.06
-9754911.05 5135627.29 180.39
-9754911.02 5135625.49 180.42
-9754913.42 5135623.44 182.27
-9754911.00 5135624.03 180.41
-9754909.25 5135627.21 180.37
-9754910.95 5135629.06 180.39
-9754906.29 5135632.27 180.33
-9754907.74 5135632.59 180.34
-9754909.49 5135629.06 180.38
-9754906.02 5135626.03 180.35
-9754907.53 5135623.98 180.38
-9754902.75 5135623.99 185.71
-9754902.80 5135624.03 187.53
-9754901.06 5135624.22 187.64
-9754902.89 5135625.58 185.77
-9754902.74 5135632.28 180.28
-9754901.09 5135625.60 189.28
-9754900.67 5135627.75 191.28
-9754901.35 5135628.84 190.20
-9754903.74 5135624.01 185.51
-9754900.90 5135624.25 188.58
-9754900.78 5135630.77 185.54
-9754900.72 5135630.46 190.69
-9754927.27 5135608.98 178.65
-9754927.25 5135614.13 179.20
-9754926.99 5135610.94 178.53
-9754927.24 5135612.88 178.49
-9754925.84 5135610.89 179.05
-9754925.72 5135614.28 180.61
-9754926.16 5135619.32 182.56
-9754924.08 5135618.96 179.27
-9754924.37 5135615.95 180.91
-9754925.49 5135619.77 185.67
-9754925.16 5135612.76 180.66
-9754923.83 5135610.98 180.69
-9754925.65 5135617.73 183.26
-9754924.41 5135619.54 182.90
-9754924.73 5135610.70 182.45
-9754925.11 5135610.10 182.39
-9754926.65 5135622.37 178.45
-9754927.34 5135622.44 182.84
-9754926.98 5135619.88 183.15
-9754926.86 5135622.11 180.55
-9754925.60 5135607.82 182.79
-9754926.16 5135607.89 178.73
-9754923.83 5135608.09 184.06
-9754924.08 5135607.53 180.79
-9754922.61 5135614.48 182.99
-9754922.13 5135609.09 182.77
-9754920.81 5135615.99 186.03
-9754920.86 5135610.78 180.78
-9754915.90 5135612.70 182.57
-9754916.01 5135615.95 180.95
-9754914.37 5135614.14 182.72
-9754917.53 5135617.43 182.43
-9754922.43 5135612.72 181.86
-9754914.27 5135610.82 182.76
-9754917.61 5135612.78 183.97
-9754914.33 5135617.34 182.65
-9754916.19 5135609.38 182.49
-9754923.77 5135613.97 182.49
-9754917.74 5135612.64 182.54
-9754920.79 5135616.09 179.71
-9754924.34 5135617.45 184.26
-9754919.02 5135608.85 182.77
-9754915.77 5135612.58 184.16
-9754919.13 5135610.93 183.96
-9754919.12 5135614.31 185.73
-9754919.71 5135612.67 182.57
-9754920.70 5135609.06 179.29
-9754918.92 5135612.96 185.87
-9754919.10 5135617.60 184.36
-9754920.46 5135612.14 182.75
-9754921.25 5135608.91 182.86
-9754914.36 5135619.33 182.38
-9754919.34 5135617.65 185.25
-9754919.00 5135618.90 182.52
-9754919.04 5135615.93 179.84
-9754913.30 5135610.96 182.34
-9754922.46 5135619.35 180.91
-9754921.13 5135616.90 185.70
-9754920.88 5135612.65 185.61
-9754924.40 5135617.92 185.40
-9754922.04 5135617.11 183.82
-9754923.01 5135609.03 183.86
-9754912.54 5135617.47 180.48
-9754922.47 5135616.95 185.11
-9754919.65 5135611.11 181.80
-9754913.19 5135609.47 182.83
-9754912.86 5135618.97 180.51
-9754913.41 5135612.24 182.97
-9754915.02 5135611.19 183.96
-9754917.47 5135617.37 184.73
-9754917.69 5135609.60 183.44
-9754910.82 5135612.48 180.50
-9754906.34 5135619.24 180.41
-9754909.63 5135619.27 180.43
-9754909.26 5135617.47 180.45
-9754922.52 5135620.80 180.97
-9754922.19 5135622.41 182.72
-9754918.94 5135620.82 182.51
-9754920.76 5135620.68 181.85
-9754919.61 5135620.83 179.91
-9754923.75 5135620.99 186.06
-9754922.77 5135620.58 179.29
-9754922.16 5135620.65 184.52
-9754922.44 5135622.59 184.24
-9754916.38 5135621.21 183.39
-9754923.34 5135622.84 185.03
-9754913.39 5135620.73 183.19
-9754906.05 5135620.99 180.40
-9754920.76 5135607.55 180.72
-9754917.56 5135607.60 182.54
-9754913.27 5135607.86 182.90
-9754907.61 5135607.70 180.49
-9754905.83 5135607.41 180.47
-9754904.62 5135616.03 180.41
-9754904.30 5135619.25 180.38
-9754900.83 5135620.80 185.75
-9754902.44 5135620.96 185.50
-9754902.85 5135607.68 180.42
-9754904.66 5135607.66 180.45
-9754901.12 5135607.41 180.42
-9754899.51 5135627.42 189.37
-9754899.46 5135630.61 189.22
-9754899.35 5135629.02 191.12
-9754899.33 5135627.60 191.63
-9754899.28 5135632.42 189.05
-9754891.30 5135628.79 189.04
-9754896.14 5135627.30 190.84
-9754895.95 5135629.18 189.21
-9754894.48 5135627.22 184.18
-9754893.22 5135627.33 189.31
-9754894.50 5135632.36 187.42
-9754888.25 5135630.88 184.31
-9754892.86 5135629.13 188.91
-9754892.79 5135632.30 189.11
-9754897.79 5135630.24 190.90
-9754892.79 5135625.56 190.77
-9754889.65 5135627.40 187.61
-9754891.38 5135632.23 189.17
-9754891.56 5135625.39 190.44
-9754887.78 5135625.64 184.33
-9754894.54 5135624.06 190.70
-9754891.14 5135622.56 189.17
-9754891.31 5135630.50 189.14
-9754891.33 5135632.40 187.56
-9754895.81 5135630.82 190.74
-9754891.06 5135630.59 187.36
-9754891.37 5135627.70 185.93
-9754896.04 5135632.26 187.61
-9754889.57 5135627.25 185.98
-9754889.23 5135624.08 184.68
-9754894.58 5135628.89 188.61
-9754891.36 5135629.13 186.05
-9754896.06 5135622.49 190.57
-9754888.36 5135627.65 184.23
-9754889.90 5135626.09 185.45
-9754891.62 5135628.74 190.25
-9754892.85 5135628.73 185.54
-9754892.85 5135622.20 191.01
-9754896.30 5135625.95 189.10
-9754894.50 5135622.58 190.40
-9754889.53 5135627.29 184.16
-9754892.92 5135624.02 190.81
-9754897.81 5135624.37 190.89
-9754893.05 5135629.16 191.92
-9754891.40 5135625.08 185.65
-9754896.03 5135632.32 190.39
-9754889.83 5135625.95 187.71
-9754894.07 5135625.99 191.61
-9754890.99 5135632.31 184.12
-9754896.14 5135623.59 187.37
-9754886.27 5135630.51 183.90
-9754888.41 5135628.42 185.64
-9754891.42 5135622.88 190.27
-9754888.05 5135624.88 184.25
-9754889.62 5135628.53 187.24
-9754888.27 5135622.48 184.68
-9754890.01 5135622.10 187.57
-9754888.63 5135625.51 188.66
-9754890.38 5135631.22 188.37
-9754894.98 5135630.10 192.26
-9754897.40 5135624.87 191.70
-9754888.35 5135625.33 188.14
-9754889.78 5135632.31 183.87
-9754898.64 5135631.37 188.14
-9754892.74 5135632.39 184.82
-9754890.15 5135631.53 188.33
-9754886.29 5135624.00 184.01
-9754890.58 5135624.88 184.05
-9754891.58 5135633.28 184.14
-9754892.86 5135633.76 181.88
-9754884.51 5135629.02 184.41
-9754884.84 5135630.55 184.01
-9754878.04 5135628.93 185.29
-9754879.49 5135630.40 185.54
-9754884.60 5135625.77 184.49
-9754879.77 5135627.45 185.39
-9754872.98 5135627.39 185.22
-9754876.55 5135629.18 185.30
-9754883.35 5135632.11 185.80
-9754876.30 5135622.39 185.28
-9754884.48 5135632.26 184.42
-9754873.02 5135628.87 185.22
-9754882.18 5135633.65 185.03
-9754899.35 5135619.22 185.71
-9754894.63 5135609.66 189.04
-9754889.54 5135615.70 184.11
-9754889.59 5135616.05 182.30
-9754889.56 5135610.86 187.33
-9754894.60 5135615.79 189.12
-9754889.71 5135609.38 187.18
-9754889.56 5135612.50 185.83
-9754892.84 5135614.05 187.62
-9754893.03 5135610.62 189.15
-9754892.98 5135609.37 188.85
-9754893.95 5135614.52 185.61
-9754894.67 5135617.60 185.98
-9754896.03 5135612.45 189.10
-9754888.35 5135612.64 185.33
-9754896.08 5135610.92 189.34
-9754893.06 5135617.69 185.36
-9754897.92 5135619.21 185.74
-9754892.23 5135614.04 184.63
-9754892.96 5135610.91 187.34
-9754897.27 5135611.00 188.97
-9754891.24 5135617.47 184.42
-9754897.69 5135614.48 184.91
-9754897.25 5135617.79 187.25
-9754894.40 5135619.14 187.42
-9754891.10 5135612.56 188.70
-9754892.77 5135617.61 181.08
-9754892.79 5135617.19 188.54
-9754890.22 5135615.93 185.34
-9754894.84 5135617.31 188.39
-9754897.57 5135615.22 188.68
-9754890.62 5135614.53 188.74
-9754889.90 5135613.97 188.55
-9754892.84 5135611.10 185.75
-9754890.07 5135609.08 184.40
-9754896.17 5135609.11 184.19
-9754897.54 5135612.18 188.65
-9754888.16 5135614.13 184.49
-9754888.27 5135611.01 186.15
-9754897.68 5135607.64 186.21
-9754892.83 5135607.41 187.44
-9754891.00 5135619.35 181.90
-9754889.61 5135609.31 182.12
-9754896.11 5135609.59 188.89
-9754892.13 5135617.40 181.74
-9754888.54 5135614.39 186.39
-9754891.04 5135617.06 186.54
-9754892.83 5135618.95 185.77
-9754897.80 5135619.15 184.71
-9754888.36 5135614.35 187.27
-9754897.23 5135608.79 188.57
-9754888.67 5135615.02 187.27
-9754891.22 5135607.87 187.17
-9754896.37 5135607.61 187.56
-9754893.84 5135610.93 182.62
-9754898.67 5135617.83 186.75
-9754893.60 5135618.55 183.25
-9754897.18 5135616.93 188.67
-9754888.63 5135609.91 186.69
-9754888.47 5135612.51 184.76
-9754899.13 5135617.10 185.01
-9754899.02 5135612.05 188.32
-9754890.03 5135616.90 187.36
-9754890.19 5135616.89 186.66
-9754891.66 5135618.75 181.51
-9754891.97 5135608.10 188.50
-9754893.11 5135619.19 187.30
-9754891.65 5135607.19 184.20
-9754888.33 5135611.89 186.70
-9754897.91 5135620.98 187.82
-9754897.56 5135620.90 188.46
-9754891.72 5135619.02 187.65
-9754895.42 5135620.72 189.18
-9754887.79 5135620.80 183.44
-9754886.01 5135620.76 183.94
-9754899.38 5135608.14 185.01
-9754892.29 5135607.90 188.36
-9754893.20 5135606.46 186.21
-9754879.58 5135617.37 185.12
-9754877.78 5135615.83 185.24
-9754884.59 5135617.15 184.35
-9754874.86 5135614.11 185.27
-9754879.57 5135614.10 185.09
-9754882.81 5135617.42 184.79
-9754884.33 5135609.41 184.21
-9754883.09 5135615.65 184.69
-9754881.33 5135619.45 184.88
-9754876.31 5135619.12 185.29
-9754876.41 5135607.27 185.33
-9754874.60 5135607.28 185.27
-9754880.77 5135619.15 185.04
-9754878.07 5135620.90 185.29
-9754884.63 5135620.66 184.47
-9754881.04 5135620.93 185.14
-9754882.41 5135607.36 185.76
-9754881.41 5135606.10 184.72
-9754874.63 5135605.77 185.28
-9754871.53 5135625.56 185.26
-9754871.55 5135628.85 185.17
-9754873.11 5135612.62 185.29
-9754873.12 5135617.61 185.31
-9754871.60 5135619.11 185.28
-9754871.59 5135620.88 185.30
-9754990.17 5135604.45 177.23
-9754988.61 5135606.02 176.26
-9754988.33 5135604.50 176.28
-9754985.09 5135605.69 176.33
-9754986.83 5135606.00 176.32
-9754983.35 5135606.28 176.35
-9754996.71 5135591.16 176.92
-9754989.92 5135591.21 176.33
-9754989.96 5135586.43 176.37
-9754991.66 5135589.41 176.90
-9754994.89 5135595.96 176.89
-9754993.38 5135602.78 176.90
-9754990.19 5135594.45 176.37
-9754989.85 5135595.96 176.28
-9754990.18 5135597.70 176.29
-9754989.86 5135601.01 176.25
-9754981.68 5135587.88 176.50
-9754986.96 5135597.66 176.37
-9754984.85 5135599.47 176.37
-9754994.99 5135581.43 176.93
-9754991.78 5135581.11 176.96
-9754986.72 5135583.18 176.49
-9754985.22 5135581.42 176.51
-9754981.82 5135605.96 176.39
-9754970.36 5135606.19 176.36
-9754978.37 5135605.96 176.43
-9754980.09 5135605.92 176.40
-9754978.30 5135604.48 176.45
-9754960.65 5135605.80 176.10
-9754960.32 5135604.37 176.10
-9754958.87 5135604.36 176.14
-9754955.64 5135606.11 176.17
-9754975.17 5135591.06 176.53
-9754968.67 5135587.86 176.48
-9754977.01 5135588.13 176.57
-9754978.70 5135586.39 176.56
-9754975.48 5135587.86 176.57
-9754971.92 5135592.55 176.49
-9754976.64 5135592.94 176.54
-9754971.96 5135584.56 176.55
-9754966.96 5135586.04 176.49
-9754973.44 5135584.58 176.56
-9754977.00 5135584.31 176.61
-9754966.94 5135587.79 176.47
-9754965.19 5135591.06 176.41
-9754963.71 5135587.80 176.38
-9754965.13 5135592.85 176.39
-9754978.34 5135594.42 176.50
-9754976.91 5135594.41 176.53
-9754970.36 5135601.13 176.40
-9754973.63 5135599.34 177.62
-9754973.64 5135600.85 176.44
-9754973.63 5135599.11 176.45
-9754968.37 5135596.08 176.42
-9754973.72 5135600.92 177.71
-9754975.44 5135597.46 177.73
-9754973.70 5135597.48 177.62
-9754971.86 5135597.62 176.45
-9754973.33 5135596.08 177.62
-9754978.37 5135597.62 176.49
-9754975.39 5135599.43 177.63
-9754971.88 5135602.36 176.42
-9754973.74 5135602.06 177.56
-9754973.72 5135594.35 176.49
-9754973.42 5135592.99 178.27
-9754975.34 5135600.86 177.70
-9754974.80 5135592.85 178.43
-9754974.89 5135594.64 178.38
-9754975.27 5135596.48 177.74
-9754976.92 5135599.74 176.49
-9754975.12 5135597.61 176.49
-9754971.87 5135601.16 176.42
-9754966.90 5135595.79 176.40
-9754975.11 5135601.92 177.60
-9754963.62 5135600.83 176.27
-9754963.65 5135597.57 176.29
-9754963.96 5135594.28 176.33
-9754965.42 5135594.35 176.39
-9754963.21 5135602.66 177.06
-9754961.95 5135586.40 176.06
-9754958.96 5135591.33 176.22
-9754963.04 5135592.75 177.07
-9754960.11 5135602.60 176.12
-9754961.87 5135597.60 176.12
-9754958.90 5135601.11 176.17
-9754960.70 5135600.79 176.11
-9754956.87 5135589.54 176.26
-9754956.94 5135586.00 176.29
-9754955.39 5135596.02 176.25
-9754955.42 5135597.82 176.24
-9754978.51 5135581.07 176.60
-9754975.22 5135581.01 176.62
-9754971.96 5135583.07 176.56
-9754973.79 5135583.08 176.60
-9754968.77 5135581.31 176.54
-9754963.76 5135583.06 176.42
-9754965.21 5135581.26 176.49
-9754961.94 5135583.00 177.20
-9754962.00 5135581.20 177.21
-9754958.73 5135579.79 176.31
-9754963.03 5135584.65 177.03
-9754956.99 5135579.43 176.34
-9754955.45 5135581.51 176.34
-9754953.85 5135604.04 176.23
-9754947.33 5135603.99 176.25
-9754947.34 5135605.75 176.24
-9754944.14 5135605.74 176.21
-9754942.38 5135603.96 176.17
-9754930.86 5135604.39 177.65
-9754934.14 5135605.64 176.68
-9754937.64 5135605.99 176.13
-9754937.67 5135604.29 176.14
-9754929.24 5135604.30 177.86
-9754954.00 5135586.23 176.33
-9754950.72 5135586.25 176.37
-9754948.70 5135586.20 176.40
-9754945.39 5135587.99 176.35
-9754948.95 5135589.48 176.36
-9754948.91 5135590.97 176.36
-9754945.74 5135586.23 176.36
-9754947.13 5135591.21 176.35
-9754943.91 5135589.73 176.31
-9754952.26 5135584.81 176.36
-9754953.88 5135602.86 176.24
-9754953.61 5135594.22 176.28
-9754953.89 5135597.80 176.26
-9754943.87 5135599.25 176.24
-9754948.85 5135602.75 176.29
-9754945.70 5135592.74 176.30
-9754950.64 5135597.52 176.31
-9754952.09 5135602.55 176.26
-9754948.89 5135599.56 176.31
-9754944.15 5135601.00 176.24
-9754952.16 5135599.57 176.26
-9754947.12 5135592.71 176.33
-9754942.48 5135591.50 176.27
-9754942.19 5135585.91 176.32
-9754942.45 5135589.45 176.29
-9754940.40 5135591.21 176.25
-9754940.42 5135584.71 176.31
-9754932.18 5135589.39 177.15
-9754937.19 5135586.20 176.26
-9754935.74 5135587.70 176.44
-9754934.25 5135587.87 176.72
-9754937.18 5135589.37 176.24
-9754938.92 5135591.19 176.24
-9754934.20 5135586.39 176.76
-9754931.91 5135584.89 177.63
-9754934.22 5135590.89 176.73
-9754930.73 5135584.31 177.34
-9754937.16 5135584.66 176.27
-9754933.34 5135584.64 176.97
-9754942.37 5135602.75 176.18
-9754940.34 5135601.05 176.17
-9754942.35 5135599.23 176.21
-9754940.33 5135597.77 176.18
-9754930.99 5135597.60 177.42
-9754932.45 5135596.12 177.38
-9754934.46 5135599.42 176.69
-9754932.34 5135602.70 177.35
-9754932.04 5135597.61 177.66
-9754929.18 5135589.30 177.70
-9754938.95 5135593.00 176.21
-9754937.11 5135600.94 176.20
-9754937.44 5135597.96 176.79
-9754934.51 5135597.71 176.67
-9754933.86 5135592.90 176.81
-9754933.51 5135599.08 177.12
-9754933.95 5135597.89 176.94
-9754932.10 5135594.64 177.43
-9754939.13 5135601.31 176.15
-9754933.85 5135602.38 176.80
-9754950.71 5135582.68 176.40
-9754949.00 5135581.47 176.44
-9754945.73 5135581.49 176.38
-9754942.19 5135582.99 176.36
-9754940.40 5135582.65 176.32
-9754934.26 5135581.39 176.65
-9754932.17 5135582.83 177.08
-9754933.65 5135579.94 176.81
-9754939.00 5135581.16 176.32
-9754930.72 5135583.03 177.41
-9754936.32 5135581.12 176.94
-9754936.56 5135579.94 176.99
-9754929.28 5135579.53 177.58
-9754926.78 5135604.04 178.45
-9754925.75 5135605.66 181.27
-9754919.19 5135604.23 180.82
-9754917.38 5135603.97 182.94
-9754914.41 5135604.32 182.42
-9754919.17 5135604.38 182.75
-9754915.57 5135608.24 183.44
-9754917.95 5135604.24 185.81
-9754920.51 5135604.26 182.97
-9754923.91 5135605.09 182.15
-9754920.91 5135604.04 183.99
-9754915.97 5135605.89 181.21
-9754923.45 5135603.90 180.20
-9754916.66 5135605.19 184.44
-9754925.28 5135604.93 181.22
-9754917.32 5135605.47 183.46
-9754904.64 5135605.92 180.46
-9754902.65 5135604.41 180.44
-9754901.13 5135604.38 180.43
-9754927.74 5135589.28 178.00
-9754927.74 5135584.54 177.89
-9754925.68 5135587.81 178.53
-9754925.78 5135587.55 178.32
-9754925.43 5135586.23 178.80
-9754927.34 5135600.81 178.45
-9754926.79 5135596.31 178.54
-9754925.59 5135594.31 178.85
-9754925.97 5135597.54 178.65
-9754925.57 5135595.96 178.83
-9754925.34 5135593.07 178.96
-9754925.90 5135599.35 178.38
-9754925.89 5135600.71 178.71
-9754925.93 5135597.80 178.43
-9754925.95 5135599.56 178.80
-9754924.43 5135601.03 179.12
-9754917.71 5135587.64 180.75
-9754917.52 5135586.08 180.97
-9754919.22 5135586.14 180.60
-9754924.12 5135591.01 179.19
-9754914.24 5135584.90 180.91
-9754919.16 5135584.71 180.33
-9754920.73 5135587.61 180.26
-9754922.73 5135591.20 179.37
-9754920.66 5135591.17 180.33
-9754912.74 5135586.15 180.88
-9754913.92 5135584.83 181.73
-9754910.97 5135586.39 180.67
-9754909.17 5135587.86 180.63
-9754907.70 5135591.13 180.60
-9754906.23 5135589.33 180.58
-9754920.73 5135602.31 182.75
-9754917.65 5135600.92 180.99
-9754917.40 5135602.70 181.11
-9754917.62 5135597.73 180.88
-9754920.88 5135601.00 180.74
-9754921.14 5135600.85 182.54
-9754920.82 5135602.62 184.06
-9754915.89 5135599.39 181.13
-9754914.35 5135601.18 182.29
-9754920.69 5135592.94 180.25
-9754915.91 5135602.69 181.08
-9754917.53 5135601.14 182.21
-9754922.45 5135603.03 180.62
-9754917.64 5135601.12 184.54
-9754924.11 5135599.27 179.04
-9754917.75 5135599.36 180.82
-9754917.67 5135596.12 180.71
-9754920.98 5135597.43 179.64
-9754918.70 5135597.98 182.88
-9754919.51 5135601.29 185.96
-9754919.17 5135602.71 181.24
-9754917.46 5135602.54 183.96
-9754916.01 5135600.36 184.40
-9754919.18 5135600.87 182.38
-9754916.10 5135599.56 184.04
-9754912.69 5135596.22 180.79
-9754920.96 5135599.90 184.02
-9754912.63 5135592.88 180.80
-9754920.33 5135595.91 180.29
-9754920.58 5135599.42 185.35
-9754919.09 5135599.10 183.87
-9754920.93 5135600.62 183.84
-9754919.24 5135592.39 180.16
-9754919.19 5135600.13 185.52
-9754919.18 5135594.16 179.95
-9754921.73 5135602.36 185.22
-9754912.62 5135602.37 180.64
-9754913.42 5135603.28 182.23
-9754915.03 5135600.12 182.98
-9754915.66 5135599.66 182.75
-9754914.51 5135601.72 183.90
-9754911.22 5135597.62 180.61
-9754909.18 5135594.38 180.59
-9754907.90 5135599.37 180.54
-9754906.19 5135597.67 180.54
-9754904.43 5135591.09 180.54
-9754904.42 5135584.32 180.59
-9754901.20 5135586.31 180.52
-9754903.02 5135586.35 180.56
-9754902.89 5135600.84 180.46
-9754902.61 5135602.66 180.44
-9754902.63 5135597.61 180.48
-9754901.16 5135601.17 180.44
-9754927.78 5135579.52 177.80
-9754925.94 5135582.70 178.58
-9754926.04 5135581.59 178.87
-9754926.02 5135579.80 178.30
-9754916.02 5135582.90 180.58
-9754919.20 5135581.19 184.76
-9754914.90 5135580.79 185.92
-9754917.47 5135582.87 180.82
-9754917.71 5135581.24 184.40
-9754913.90 5135581.36 181.76
-9754920.73 5135580.98 184.28
-9754916.00 5135581.37 180.58
-9754921.00 5135579.86 183.89
-9754916.05 5135582.97 184.32
-9754920.62 5135579.52 182.59
-9754920.94 5135582.66 179.48
-9754917.56 5135582.79 185.18
-9754914.62 5135579.93 185.39
-9754917.60 5135582.99 184.19
-9754919.51 5135582.91 179.81
-9754912.81 5135582.83 180.88
-9754918.68 5135582.63 185.65
-9754914.90 5135579.17 182.35
-9754919.50 5135582.41 183.60
-9754917.60 5135583.81 184.56
-9754920.39 5135582.33 184.44
-9754909.48 5135583.14 180.66
-9754906.31 5135583.13 180.62
-9754909.23 5135581.05 180.66
-9754910.98 5135581.07 180.70
-9754900.97 5135583.09 180.55
-9754900.95 5135581.28 180.53
-9754899.62 5135604.09 180.41
-9754892.84 5135606.09 181.09
-9754889.59 5135604.18 182.38
-9754894.70 5135604.34 180.59
-9754892.88 5135604.35 181.09
-9754894.29 5135606.12 180.69
-9754889.34 5135606.05 182.34
-9754895.13 5135606.23 184.70
-9754893.42 5135606.53 184.91
-9754897.03 5135606.30 185.22
-9754893.97 5135606.75 186.97
-9754880.20 5135604.05 185.00
-9754876.42 5135604.30 185.36
-9754883.01 5135603.95 185.77
-9754874.61 5135604.36 185.28
-9754876.39 5135602.51 185.36
-9754901.12 5135595.14 187.18
-9754897.52 5135591.09 186.94
-9754897.70 5135586.04 180.56
-9754894.54 5135587.38 187.29
-9754894.25 5135589.62 185.68
-9754891.27 5135584.42 187.72
-9754892.95 5135589.35 185.64
-9754896.30 5135586.24 185.82
-9754896.34 5135591.14 185.89
-9754892.87 5135584.52 187.54
-9754891.18 5135587.69 182.39
-9754896.24 5135589.25 180.63
-9754890.09 5135585.73 186.33
-9754891.09 5135586.19 187.41
-9754892.89 5135587.06 187.54
-9754891.01 5135584.54 188.76
-9754892.91 5135584.31 188.93
-9754891.17 5135589.12 182.55
-9754896.48 5135589.59 186.08
-9754894.45 5135588.06 180.67
-9754897.74 5135588.11 180.55
-9754886.51 5135587.95 183.02
-9754891.58 5135587.51 186.91
-9754889.49 5135586.10 187.56
-9754896.50 5135587.80 180.63
-9754890.11 5135586.11 184.31
-9754889.48 5135590.95 184.47
-9754894.56 5135584.46 180.64
-9754889.49 5135584.42 182.00
-9754894.47 5135587.56 186.49
-9754894.51 5135584.67 189.10
-9754892.83 5135591.19 185.66
-9754894.03 5135589.16 184.46
-9754889.77 5135584.84 184.61
-9754892.48 5135585.81 188.57
-9754889.71 5135591.27 182.27
-9754892.77 5135589.78 184.43
-9754894.50 5135586.30 180.67
-9754890.43 5135589.14 185.00
-9754892.93 5135591.66 187.78
-9754888.62 5135585.62 187.56
-9754897.46 5135586.03 186.74
-9754890.69 5135585.27 182.05
-9754894.48 5135591.44 188.64
-9754899.46 5135596.19 187.43
-9754899.53 5135597.51 186.20
-9754899.78 5135597.78 184.83
-9754900.12 5135592.95 184.96
-9754900.59 5135598.79 186.82
-9754897.73 5135597.75 189.24
-9754897.62 5135599.51 180.56
-9754890.98 5135592.74 187.51
-9754892.74 5135602.26 187.25
-9754896.00 5135601.16 187.71
-9754891.36 5135600.82 187.45
-9754896.20 5135594.53 188.81
-9754889.41 5135596.03 187.19
-9754896.11 5135600.96 185.34
-9754891.21 5135594.42 189.16
-9754894.49 5135599.23 187.66
-9754895.53 5135596.01 185.99
-9754889.40 5135599.32 185.67
-9754892.96 5135595.97 189.29
-9754887.73 5135593.21 184.30
-9754894.54 5135601.00 187.38
-9754887.96 5135599.46 184.19
-9754889.68 5135602.09 184.01
-9754891.02 5135594.28 187.48
-9754891.09 5135602.91 185.96
-9754895.66 5135592.96 189.23
-9754898.00 5135592.81 187.62
-9754887.96 5135596.09 187.16
-9754897.70 5135594.44 186.10
-9754892.79 5135599.40 189.29
-9754892.42 5135592.95 189.26
-9754898.00 5135595.04 189.00
-9754889.50 5135602.31 185.45
-9754887.91 5135600.89 184.21
-9754893.08 5135599.18 190.45
-9754896.19 5135599.32 189.04
-9754899.38 5135596.04 188.42
-9754888.00 5135597.64 183.92
-9754891.15 5135595.88 189.17
-9754889.99 5135601.14 187.47
-9754887.96 5135599.71 185.96
-9754887.68 5135597.78 182.45
-9754888.37 5135595.81 184.87
-9754897.92 5135601.12 187.39
-9754889.53 5135596.22 189.20
-9754894.60 5135602.07 185.81
-9754891.23 5135602.73 184.47
-9754887.95 5135597.82 186.45
-9754894.36 5135593.02 187.65
-9754889.56 5135592.45 187.56
-9754894.70 5135599.48 190.36
-9754889.70 5135601.24 184.02
-9754893.02 5135595.04 183.16
-9754889.67 5135602.52 182.65
-9754898.75 5135591.73 187.65
-9754896.19 5135599.40 190.21
-9754893.89 5135602.69 183.83
-9754890.51 5135602.53 181.79
-9754893.21 5135600.58 189.32
-9754888.58 5135598.62 187.27
-9754899.08 5135592.57 187.77
-9754897.38 5135601.90 188.99
-9754886.46 5135601.21 182.94
-9754895.83 5135596.09 190.22
-9754892.61 5135592.80 186.20
-9754887.93 5135595.92 182.48
-9754890.00 5135597.76 188.87
-9754898.80 5135600.31 189.05
-9754890.64 5135597.92 184.05
-9754893.78 5135600.25 190.28
-9754894.37 5135599.90 186.26
-9754897.19 5135597.73 190.18
-9754893.64 5135594.92 190.07
-9754898.84 5135602.08 187.30
-9754881.32 5135587.64 185.82
-9754879.46 5135588.04 185.23
-9754884.51 5135590.79 184.05
-9754876.21 5135589.49 185.67
-9754881.43 5135584.40 185.68
-9754881.49 5135586.06 184.78
-9754884.45 5135586.04 183.76
-9754878.01 5135587.72 185.57
-9754879.99 5135586.06 185.00
-9754876.50 5135591.25 185.35
-9754879.99 5135584.52 184.96
-9754881.46 5135591.36 185.83
-9754876.39 5135599.27 185.39
-9754883.03 5135594.58 185.56
-9754881.45 5135596.00 185.68
-9754882.95 5135596.10 184.57
-9754882.47 5135592.82 185.84
-9754881.15 5135600.78 185.90
-9754877.92 5135599.58 185.35
-9754884.68 5135594.50 184.34
-9754884.84 5135599.19 184.27
-9754874.69 5135592.76 185.34
-9754877.91 5135596.32 185.39
-9754882.71 5135596.08 185.46
-9754874.72 5135594.25 185.34
-9754883.18 5135599.63 185.38
-9754879.71 5135593.92 185.96
-9754883.18 5135599.40 184.26
-9754899.43 5135583.06 180.51
-9754898.04 5135581.21 187.47
-9754896.36 5135581.24 187.57
-9754891.52 5135582.73 187.69
-9754889.42 5135582.88 189.07
-9754889.55 5135581.32 185.43
-9754889.11 5135583.16 182.24
-9754887.99 5135582.79 184.19
-9754896.24 5135579.75 187.40
-9754887.86 5135581.01 184.01
-9754891.36 5135579.69 188.86
-9754894.52 5135581.12 189.36
-9754888.14 5135581.04 185.16
-9754896.28 5135582.95 188.81
-9754891.24 5135581.23 181.49
-9754889.45 5135579.40 182.37
-9754887.99 5135581.14 182.55
-9754894.54 5135582.96 189.03
-9754888.34 5135581.74 189.07
-9754895.74 5135583.83 189.15
-9754888.11 5135581.15 187.29
-9754888.45 5135579.01 187.60
-9754888.00 5135582.71 186.25
-9754897.29 5135579.77 188.68
-9754889.34 5135584.13 188.45
-9754894.16 5135582.60 190.30
-9754888.38 5135579.65 183.73
-9754888.17 5135580.25 188.34
-9754888.02 5135583.72 188.50
-9754884.71 5135583.13 184.33
-9754886.04 5135580.21 184.37
-9754883.19 5135581.31 185.34
-9754884.50 5135581.10 183.95
-9754884.85 5135579.69 184.15
-9754878.31 5135583.04 185.18
-9754878.01 5135580.67 184.99
-9754881.75 5135583.53 185.39
-9754884.56 5135582.43 185.45
-9754885.11 5135582.55 183.24
-9754878.04 5135579.50 184.95
-9754874.76 5135581.26 185.01
-9754874.78 5135579.50 185.00
-9754874.19 5135580.04 185.02
-9754881.24 5135579.50 184.64
-9754874.45 5135581.21 185.02
-9754883.94 5135580.15 185.04
-9754881.90 5135579.13 185.46
-9754873.17 5135602.56 185.27
-9754871.43 5135602.54 185.22
-9754873.28 5135584.46 185.19
-9754871.18 5135588.02 185.14
-9754871.14 5135591.25 185.21
-9754873.24 5135599.25 185.32
-9754871.41 5135599.54 185.26
-9754873.31 5135583.02 185.12
-9754872.97 5135581.20 185.06
-9754990.03 5135578.11 177.48
-9754990.07 5135574.56 177.51
-9754988.88 5135569.58 176.53
-9754982.03 5135576.08 176.61
-9754988.60 5135564.56 176.60
-9754986.82 5135564.86 176.67
-9754983.62 5135561.52 178.17
-9754985.23 5135564.72 177.70
-9754986.55 5135558.27 176.74
-9754983.34 5135560.06 177.86
-9754983.66 5135563.32 178.09
-9754984.77 5135560.36 177.85
-9754984.77 5135562.89 178.07
-9754983.34 5135564.54 177.69
-9754985.11 5135556.17 176.79
-9754983.62 5135554.73 176.82
-9754984.78 5135561.79 178.21
-9754973.45 5135579.90 176.61
-9754976.76 5135579.87 176.64
-9754981.79 5135566.58 176.70
-9754968.84 5135572.75 176.63
-9754975.29 5135571.30 176.71
-9754975.25 5135577.79 176.65
-9754970.59 5135572.99 176.64
-9754978.77 5135577.81 176.63
-9754978.60 5135566.58 176.75
-9754976.75 5135571.28 176.73
-9754972.04 5135571.26 176.69
-9754978.54 5135571.25 176.69
-9754970.56 5135574.49 176.63
-9754973.52 5135569.78 176.72
-9754975.63 5135566.16 176.79
-9754968.53 5135566.44 176.71
-9754967.28 5135576.28 176.58
-9754967.02 5135571.24 176.61
-9754965.36 5135568.24 176.63
-9754965.57 5135572.97 176.58
-9754963.82 5135574.78 176.50
-9754963.55 5135566.48 176.59
-9754967.09 5135566.51 176.67
-9754966.71 5135577.74 176.56
-9754961.81 5135567.85 176.26
-9754962.27 5135577.98 177.26
-9754962.06 5135569.65 177.34
-9754962.08 5135567.91 177.35
-9754961.92 5135572.81 176.22
-9754962.03 5135571.44 177.31
-9754962.19 5135577.74 176.39
-9754962.03 5135576.28 176.42
-9754960.52 5135576.53 176.28
-9754961.18 5135575.71 176.96
-9754958.80 5135575.02 176.34
-9754959.07 5135572.96 176.36
-9754958.51 5135571.47 176.39
-9754960.58 5135566.42 176.39
-9754958.50 5135566.45 176.44
-9754956.99 5135571.16 176.42
-9754955.23 5135574.74 176.41
-9754956.99 5135576.23 176.37
-9754955.20 5135572.94 176.42
-9754955.54 5135567.86 176.47
-9754981.90 5135553.25 176.87
-9754980.32 5135563.28 176.78
-9754972.11 5135564.73 176.77
-9754973.59 5135563.26 176.80
-9754976.78 5135563.25 176.81
-9754970.39 5135553.11 176.89
-9754970.08 5135561.74 176.78
-9754973.52 5135561.20 176.82
-9754972.15 5135553.47 176.91
-9754968.82 5135559.96 176.77
-9754966.77 5135564.71 176.70
-9754965.33 5135561.41 176.71
-9754965.09 5135558.19 176.74
-9754967.09 5135559.97 176.75
-9754966.82 5135553.44 176.83
-9754967.13 5135558.18 176.78
-9754966.50 5135556.69 176.78
-9754964.48 5135553.11 176.79
-9754962.06 5135564.66 177.40
-9754960.60 5135559.65 176.45
-9754961.76 5135558.12 176.32
-9754962.07 5135553.39 177.50
-9754958.56 5135561.70 176.49
-9754958.53 5135564.63 176.45
-9754960.94 5135553.50 176.95
-9754955.30 5135555.17 176.60
-9754953.77 5135574.42 176.44
-9754950.57 5135568.15 176.53
-9754949.02 5135576.42 176.48
-9754946.97 5135576.44 176.46
-9754947.30 5135571.09 176.52
-9754952.04 5135574.74 176.45
-9754945.82 5135569.59 176.51
-9754945.53 5135566.40 176.55
-9754947.00 5135572.88 176.50
-9754945.44 5135572.93 176.49
-9754950.56 5135566.36 176.55
-9754945.43 5135576.42 176.45
-9754942.55 5135571.41 176.46
-9754942.30 5135568.14 176.49
-9754940.47 5135569.59 176.46
-9754937.59 5135571.35 176.39
-9754937.21 5135574.60 176.34
-9754938.73 5135571.37 176.41
-9754930.49 5135571.57 177.37
-9754930.79 5135566.24 177.32
-9754934.01 5135571.28 176.75
-9754935.82 5135566.30 176.48
-9754936.06 5135576.35 177.03
-9754935.81 5135571.61 176.44
-9754934.04 5135574.88 176.68
-9754932.56 5135571.30 177.00
-9754937.24 5135566.65 176.43
-9754935.51 5135569.56 176.46
-9754929.38 5135566.20 177.54
-9754944.07 5135563.12 176.56
-9754948.90 5135558.41 176.66
-9754950.57 5135563.17 176.59
-9754952.41 5135556.34 176.64
-9754953.88 5135553.08 176.65
-9754945.85 5135559.90 176.62
-9754948.84 5135559.88 176.64
-9754950.60 5135561.39 176.60
-9754949.10 5135555.09 176.71
-9754950.62 5135564.64 176.56
-9754952.41 5135553.09 176.68
-9754948.83 5135553.37 176.71
-9754948.81 5135564.88 176.59
-9754947.02 5135563.09 176.60
-9754952.06 5135561.68 176.59
-9754945.61 5135558.38 176.64
-9754943.86 5135554.76 176.66
-9754943.77 5135564.86 176.54
-9754947.05 5135564.90 176.57
-9754943.81 5135558.35 176.62
-9754940.53 5135562.80 176.52
-9754942.38 5135554.76 176.64
-9754939.10 5135561.61 176.52
-9754938.77 5135563.36 176.48
-9754937.32 5135564.82 176.46
-9754935.87 5135560.06 176.53
-9754937.31 5135561.57 176.49
-9754932.41 5135554.99 177.23
-9754932.34 5135556.77 177.19
-9754934.67 5135557.98 176.75
-9754937.38 5135556.81 176.54
-9754930.87 5135554.99 177.43
-9754932.29 5135564.77 177.09
-9754934.35 5135559.80 176.72
-9754934.40 5135561.55 176.75
-9754934.68 5135556.82 176.78
-9754929.05 5135559.67 177.67
-9754929.37 5135564.73 177.66
-9754927.52 5135574.75 178.01
-9754927.59 5135566.14 177.99
-9754927.37 5135569.42 177.89
-9754926.03 5135574.42 178.35
-9754925.21 5135566.68 178.83
-9754925.49 5135570.29 178.57
-9754925.42 5135571.16 178.60
-9754925.45 5135576.21 178.52
-9754926.14 5135576.54 178.27
-9754919.31 5135566.19 184.05
-9754922.55 5135573.37 181.12
-9754920.79 5135568.11 179.58
-9754924.07 5135572.97 179.00
-9754919.00 5135567.83 182.54
-9754915.83 5135571.33 180.88
-9754919.35 5135574.66 185.75
-9754917.36 5135566.54 182.19
-9754920.95 5135576.88 182.42
-9754915.99 5135576.18 184.37
-9754917.52 5135573.62 182.76
-9754917.57 5135569.82 180.49
-9754919.24 5135569.97 186.05
-9754914.34 5135567.51 185.93
-9754922.76 5135573.00 182.69
-9754922.65 5135569.63 179.40
-9754920.86 5135568.06 182.75
-9754922.52 5135570.84 184.87
-9754918.74 5135571.65 180.22
-9754912.83 5135568.00 180.98
-9754915.78 5135577.68 185.56
-9754915.72 5135576.35 180.66
-9754921.91 5135572.00 180.94
-9754922.54 5135574.46 182.46
-9754920.68 5135577.90 180.95
-9754917.64 5135571.28 180.50
-9754922.11 5135578.22 182.37
-9754922.42 5135571.10 185.30
-9754920.00 5135574.23 181.50
-9754915.81 5135564.78 180.59
-9754917.38 5135574.60 184.05
-9754919.31 5135569.86 179.88
-9754912.79 5135571.24 180.94
-9754922.28 5135574.64 179.14
-9754918.99 5135576.61 185.56
-9754914.90 5135576.46 184.17
-9754920.54 5135566.00 186.16
-9754914.55 5135571.49 181.04
-9754912.66 5135569.90 181.79
-9754919.38 5135569.30 181.49
-9754920.81 5135574.38 179.57
-9754921.13 5135577.77 182.04
-9754923.98 5135571.36 182.56
-9754922.56 5135577.90 179.41
-9754919.12 5135578.06 182.98
-9754920.87 5135566.60 184.62
-9754912.84 5135574.80 181.78
-9754921.00 5135569.76 183.20
-9754922.26 5135570.24 184.34
-9754921.38 5135574.43 183.86
-9754920.70 5135575.93 185.38
-9754914.03 5135572.62 181.88
-9754912.80 5135573.34 180.93
-9754924.18 5135564.90 179.03
-9754921.11 5135574.50 185.79
-9754912.57 5135569.82 180.96
-9754917.61 5135571.13 182.59
-9754920.67 5135578.32 185.61
-9754916.48 5135575.40 183.15
-9754916.57 5135564.73 184.41
-9754921.92 5135570.37 183.10
-9754920.91 5135565.26 185.86
-9754917.81 5135574.46 185.07
-9754912.92 5135569.20 184.36
-9754920.87 5135564.66 182.77
-9754907.46 5135574.82 180.67
-9754911.10 5135571.30 180.74
-9754909.56 5135574.55 180.69
-9754909.34 5135568.04 180.72
-9754909.24 5135578.13 180.68
-9754906.05 5135574.52 180.66
-9754912.80 5135577.81 180.91
-9754913.09 5135568.43 184.01
-9754906.02 5135576.56 180.64
-9754906.06 5135568.01 180.68
-9754907.76 5135577.82 180.64
-9754912.85 5135566.53 181.82
-9754902.77 5135578.07 180.57
-9754904.27 5135573.00 180.63
-9754901.00 5135571.20 180.58
-9754901.33 5135573.03 180.58
-9754901.30 5135577.73 180.55
-9754927.65 5135556.71 178.00
-9754925.20 5135564.68 178.97
-9754925.78 5135562.06 178.55
-9754926.17 5135553.11 178.60
-9754922.63 5135559.82 182.14
-9754917.23 5135554.87 182.49
-9754922.56 5135563.30 179.46
-9754917.34 5135558.31 180.62
-9754915.82 5135563.00 180.81
-9754914.17 5135554.55 182.69
-9754915.76 5135555.32 185.79
-9754914.44 5135554.88 184.14
-9754921.06 5135559.71 182.19
-9754915.67 5135553.36 183.88
-9754917.58 5135556.67 184.39
-9754919.10 5135557.93 180.22
-9754917.60 5135561.55 180.59
-9754916.13 5135559.70 180.95
-9754917.32 5135555.00 180.96
-9754915.82 5135553.19 182.92
-9754918.79 5135560.64 181.71
-9754919.37 5135563.23 184.81
-9754919.12 5135553.26 182.52
-9754924.07 5135554.86 178.89
-9754922.68 5135553.36 179.24
-9754919.52 5135562.66 182.83
-9754922.58 5135561.31 179.28
-9754919.15 5135561.44 184.18
-9754922.53 5135561.73 184.13
-9754917.36 5135558.24 182.86
-9754915.91 5135554.72 180.60
-9754919.24 5135559.89 183.03
-9754914.45 5135556.35 185.14
-9754914.55 5135554.74 185.72
-9754922.39 5135559.63 181.42
-9754924.15 5135559.73 183.96
-9754912.83 5135563.09 181.00
-9754920.73 5135561.59 185.55
-9754920.33 5135556.69 184.28
-9754920.71 5135558.49 184.48
-9754914.35 5135559.39 182.42
-9754920.91 5135553.17 182.51
-9754919.47 5135556.61 179.71
-9754919.61 5135563.42 179.84
-9754920.87 5135554.84 179.58
-9754915.93 5135552.97 185.10
-9754914.23 5135563.43 183.76
-9754917.88 5135562.75 180.55
-9754919.10 5135563.64 180.22
-9754919.80 5135559.25 185.09
-9754923.64 5135560.28 182.67
-9754917.60 5135561.61 183.21
-9754917.61 5135563.44 184.57
-9754920.94 5135562.78 185.35
-9754918.21 5135557.44 180.07
-9754917.22 5135559.84 180.46
-9754922.37 5135563.04 185.34
-9754912.62 5135559.66 181.01
-9754922.74 5135564.21 183.01
-9754923.45 5135562.72 181.56
-9754916.47 5135557.60 185.97
-9754902.81 5135565.04 180.63
-9754906.04 5135564.74 180.70
-9754907.84 5135564.79 180.72
-9754907.57 5135558.20 180.74
-9754907.57 5135563.03 180.74
-9754910.87 5135556.72 180.79
-9754907.89 5135561.20 180.73
-9754905.82 5135559.72 180.72
-9754906.16 5135554.98 180.73
-9754913.45 5135556.19 184.39
-9754920.16 5135564.55 184.06
-9754902.56 5135563.19 180.66
-9754904.36 5135557.95 180.70
-9754902.86 5135561.15 180.66
-9754900.84 5135558.24 180.64
-9754899.40 5135566.50 187.63
-9754897.74 5135564.91 189.09
-9754894.71 5135569.60 187.70
-9754889.41 5135568.15 187.50
-9754896.11 5135566.33 189.27
-9754894.57 5135576.30 185.66
-9754891.12 5135568.19 189.23
-9754889.59 5135566.58 189.32
-9754892.56 5135569.68 185.98
-9754891.15 5135567.89 186.26
-9754896.01 5135565.00 189.19
-9754897.82 5135568.25 189.12
-9754892.85 5135566.35 189.30
-9754891.08 5135576.62 186.02
-9754893.12 5135569.66 188.80
-9754889.67 5135568.09 189.00
-9754888.03 5135571.42 182.68
-9754891.47 5135566.22 190.27
-9754889.59 5135572.87 182.27
-9754888.45 5135566.30 187.13
-9754889.61 5135569.75 187.31
-9754896.08 5135577.88 187.50
-9754891.46 5135576.45 184.42
-9754892.94 5135566.30 190.22
-9754897.89 5135566.27 189.16
-9754889.96 5135569.61 184.75
-9754899.36 5135568.94 186.32
-9754891.33 5135573.21 181.35
-9754889.88 5135576.41 185.56
-9754894.33 5135564.80 189.19
-9754894.29 5135570.99 187.33
-9754890.31 5135569.78 188.84
-9754899.21 5135568.00 187.37
-9754897.81 5135574.75 180.55
-9754889.24 5135569.68 186.19
-9754889.48 5135566.05 182.16
-9754892.50 5135577.73 186.87
-9754893.25 5135572.50 185.77
-9754892.78 5135569.46 181.00
-9754892.46 5135576.47 183.78
-9754889.63 5135564.85 187.57
-9754889.58 5135568.13 185.91
-9754888.68 5135567.94 185.89
-9754887.82 5135564.89 182.29
-9754890.80 5135574.43 182.40
-9754894.31 5135578.06 187.61
-9754898.89 5135569.10 187.63
-9754898.78 5135565.98 184.67
-9754886.42 5135572.35 184.09
-9754888.35 5135572.81 183.86
-9754891.19 5135564.64 185.84
-9754888.72 5135566.43 188.46
-9754892.80 5135565.08 186.35
-9754898.15 5135566.58 184.75
-9754888.96 5135577.80 184.98
-9754896.05 5135564.74 180.72
-9754890.32 5135569.07 181.72
-9754899.13 5135564.62 188.66
-9754886.57 5135574.57 182.68
-9754890.55 5135570.38 184.81
-9754891.91 5135574.86 185.06
-9754888.75 5135565.70 186.00
-9754888.68 5135567.25 186.87
-9754890.00 5135570.63 184.45
-9754888.42 5135578.48 187.84
-9754893.04 5135578.00 188.81
-9754888.02 5135578.30 185.70
-9754888.66 5135578.17 184.91
-9754886.34 5135571.74 184.42
-9754886.27 5135576.00 184.21
-9754883.10 5135567.99 184.18
-9754882.82 5135573.01 184.00
-9754879.78 5135569.90 185.82
-9754881.32 5135577.58 184.36
-9754878.07 5135566.45 185.97
-9754878.15 5135565.01 185.60
-9754881.59 5135573.03 185.86
-9754879.77 5135574.74 185.85
-9754884.54 5135576.28 184.50
-9754884.52 5135577.84 183.71
-9754883.00 5135578.03 184.37
-9754883.16 5135566.44 185.40
-9754885.15 5135567.94 185.20
-9754885.09 5135574.58 183.16
-9754884.58 5135566.43 183.78
-9754882.85 5135569.50 184.12
-9754882.76 5135569.52 185.48
-9754874.92 5135564.64 185.24
-9754878.08 5135577.62 185.45
-9754884.81 5135569.81 183.30
-9754878.06 5135577.97 184.93
-9754881.55 5135576.54 184.70
-9754876.54 5135574.73 184.97
-9754878.36 5135568.55 184.97
-9754880.15 5135573.00 184.92
-9754884.76 5135576.44 185.17
-9754882.47 5135570.90 185.53
-9754881.35 5135572.68 184.50
-9754881.51 5135577.68 185.18
-9754884.58 5135565.05 183.64
-9754885.79 5135566.24 185.03
-9754878.72 5135567.07 185.00
-9754899.43 5135554.80 187.30
-9754899.31 5135559.92 180.62
-9754896.18 5135554.88 189.04
-9754891.15 5135559.44 189.24
-9754889.70 5135555.01 189.13
-9754896.21 5135558.09 188.96
-9754892.94 5135561.58 189.20
-9754889.49 5135553.40 187.53
-9754894.34 5135556.50 190.59
-9754887.88 5135563.27 185.97
-9754889.53 5135563.08 188.82
-9754896.11 5135556.11 186.13
-9754896.11 5135556.80 187.40
-9754891.32 5135558.11 187.97
-9754892.95 5135553.61 189.06
-9754894.42 5135553.21 189.12
-9754891.16 5135563.00 189.13
-9754891.15 5135559.90 185.70
-9754894.35 5135560.12 186.08
-9754897.37 5135560.58 186.17
-9754889.41 5135551.56 187.44
-9754891.39 5135562.96 186.32
-9754894.65 5135562.02 188.46
-9754889.70 5135558.34 184.13
-9754887.88 5135556.53 182.33
-9754890.62 5135558.18 185.62
-9754887.66 5135554.61 184.36
-9754892.82 5135559.98 185.75
-9754887.61 5135558.06 182.36
-9754889.62 5135558.18 185.86
-9754889.60 5135557.99 182.14
-9754887.92 5135554.88 185.86
-9754887.58 5135561.64 185.95
-9754894.57 5135563.09 189.10
-9754891.43 5135553.23 190.29
-9754887.98 5135553.07 187.62
-9754889.78 5135561.56 188.83
-9754894.72 5135558.13 187.72
-9754889.97 5135557.99 189.08
-9754894.42 5135553.34 190.31
-9754889.45 5135563.16 186.04
-9754892.63 5135556.36 180.98
-9754889.40 5135556.62 189.26
