-9754933.89 5135396.57 178.67
-9754939.22 5135396.58 178.78
-9754932.70 5135398.58 178.63
-9754940.68 5135393.28 178.81
-9754932.13 5135395.05 178.65
-9754940.39 5135399.78 178.74
-9754942.40 5135403.10 178.73
-9754932.70 5135401.51 178.59
-9754930.67 5135391.79 178.65
-9754948.67 5135391.88 178.84
-9754945.74 5135390.08 178.89
-9754943.98 5135390.40 178.89
-9754935.73 5135391.79 178.78
-9754934.21 5135390.05 178.76
-9754922.65 5135413.32 179.45
-9754917.61 5135411.20 180.28
-9754924.09 5135411.51 179.20
-9754919.32 5135414.71 179.96
-9754925.88 5135414.81 179.02
-9754912.63 5135414.95 181.16
-9754928.83 5135406.53 178.62
-9754927.38 5135405.04 178.85
-9754928.88 5135398.55 178.61
-9754927.43 5135395.00 178.84
-9754927.40 5135399.75 178.84
-9754927.40 5135403.56 178.85
-9754916.16 5135406.69 180.58
-9754922.70 5135406.53 179.50
-9754922.67 5135404.72 179.48
-9754920.90 5135405.28 179.76
-9754925.87 5135410.06 179.08
-9754910.49 5135406.80 182.39
-9754909.47 5135404.74 182.38
-9754907.62 5135404.81 181.34
-9754909.43 5135406.59 181.52
-9754925.94 5135396.72 179.08
-9754924.16 5135400.22 179.24
-9754920.97 5135396.69 179.71
-9754920.93 5135400.27 179.75
-9754922.75 5135395.21 179.45
-9754918.54 5135399.64 180.16
-9754919.20 5135391.60 180.02
-9754912.74 5135394.80 181.14
-9754912.71 5135398.38 181.11
-9754910.26 5135395.46 182.40
-9754909.20 5135392.07 181.59
-9754919.46 5135403.46 180.00
-9754924.16 5135401.76 179.23
-9754909.66 5135401.60 181.38
-9754906.17 5135406.57 181.30
-9754905.96 5135391.79 181.35
-9754904.46 5135395.10 181.33
-9754902.63 5135401.51 181.29
-9754927.47 5135390.26 178.86
-9754925.69 5135389.96 179.13
-9754919.56 5135388.37 179.93
-9754917.50 5135388.67 180.23
-9754909.25 5135390.28 182.43
-9754897.71 5135393.20 181.24
-9754899.18 5135391.70 181.26
-9754897.73 5135392.06 181.23
-9754892.70 5135390.10 189.31
-9754896.24 5135389.95 181.21
-9755080.63 5135376.79 181.99
-9755079.10 5135378.84 181.21
-9755078.75 5135381.94 180.63
-9755078.68 5135383.78 181.04
-9755079.67 5135386.88 181.75
-9755078.71 5135385.10 180.93
-9755077.29 5135380.36 180.84
-9755077.21 5135386.93 180.63
-9755077.30 5135378.87 180.87
-9755069.04 5135378.86 180.95
-9755070.82 5135380.32 180.89
-9755074.34 5135383.65 180.77
-9755075.56 5135378.85 180.90
-9755075.53 5135385.13 180.71
-9755067.56 5135383.57 180.77
-9755066.11 5135378.54 180.54
-9755068.72 5135385.04 180.79
-9755069.02 5135382.09 180.89
-9755067.54 5135388.62 180.69
-9755075.49 5135383.33 180.77
-9755074.04 5135378.59 180.91
-9755067.59 5135380.05 180.81
-9755070.81 5135377.06 180.99
-9755069.30 5135386.57 180.70
-9755066.08 5135385.35 180.56
-9755070.81 5135386.82 180.70
-9755070.84 5135385.11 180.76
-9755075.82 5135381.83 180.81
-9755078.84 5135375.34 180.98
-9755077.67 5135375.35 180.97
-9755074.07 5135375.01 181.01
-9755072.30 5135375.01 181.03
-9755069.09 5135375.31 181.09
-9755069.07 5135373.50 181.12
-9755070.87 5135373.56 181.08
-9755081.03 5135367.29 182.45
-9755080.64 5135363.49 182.23
-9755081.50 5135374.07 181.66
-9755081.45 5135371.18 181.65
-9755078.89 5135367.04 181.15
-9755079.39 5135363.41 182.23
-9755079.45 5135367.03 182.18
-9755075.83 5135373.50 181.05
-9755077.11 5135365.56 181.21
-9755072.37 5135373.52 181.07
-9755072.32 5135372.11 181.11
-9755070.92 5135363.72 181.29
-9755075.89 5135372.05 181.07
-9755065.83 5135373.52 180.52
-9755069.11 5135369.05 181.21
-9755070.91 5135366.98 181.23
-9755069.16 5135363.72 181.31
-9755075.96 5135363.80 181.26
-9755067.31 5135372.02 180.83
-9755067.69 5135367.00 180.96
-9755074.13 5135368.78 181.16
-9755072.36 5135367.00 181.22
-9755067.72 5135363.70 181.05
-9755067.67 5135369.03 180.91
-9755066.13 5135372.01 180.52
-9755065.89 5135368.49 180.51
-9755064.28 5135383.28 180.26
-9755064.29 5135388.60 180.28
-9755060.77 5135388.34 179.77
-9755062.25 5135386.82 180.01
-9755062.01 5135377.86 180.33
-9755063.12 5135383.90 180.12
-9755062.87 5135380.78 180.57
-9755064.37 5135375.28 180.25
-9755061.06 5135375.29 179.71
-9755052.56 5135378.55 178.87
-9755059.03 5135376.82 179.37
-9755056.03 5135383.60 178.85
-9755057.78 5135383.59 179.16
-9755054.57 5135383.61 178.74
-9755053.98 5135380.31 178.80
-9755057.53 5135385.06 179.14
-9755052.81 5135383.30 178.81
-9755052.47 5135388.61 178.77
-9755059.52 5135386.88 179.49
-9755055.79 5135378.58 178.89
-9755058.98 5135385.39 179.46
-9755051.00 5135387.16 178.80
-9755057.49 5135388.40 179.08
-9755049.29 5135377.07 178.95
-9755051.02 5135388.28 178.80
-9755047.77 5135383.55 178.88
-9755047.82 5135382.06 178.90
-9755047.79 5135385.36 178.88
-9755047.82 5135378.49 178.95
-9755047.77 5135388.29 178.84
-9755042.78 5135383.22 178.93
-9755042.52 5135384.99 178.92
-9755044.57 5135378.47 178.98
-9755044.29 5135383.29 178.94
-9755042.81 5135387.06 178.91
-9755044.50 5135385.35 178.91
-9755044.56 5135381.74 178.95
-9755046.04 5135385.04 178.89
-9755042.85 5135376.75 179.01
-9755042.83 5135378.49 178.98
-9755046.03 5135380.29 178.94
-9755046.30 5135386.86 178.88
-9755045.72 5135383.56 178.91
-9755041.27 5135388.49 178.86
-9755054.01 5135375.31 178.81
-9755057.57 5135375.32 179.18
-9755052.56 5135373.81 178.90
-9755047.86 5135375.25 178.97
-9755057.86 5135373.55 179.25
-9755049.29 5135375.25 178.96
-9755041.37 5135376.97 178.98
-9755046.09 5135375.29 178.99
-9755044.56 5135373.70 179.03
-9755041.29 5135381.72 178.92
-9755039.80 5135380.30 178.94
-9755039.28 5135378.47 178.95
-9755039.23 5135386.76 178.85
-9755039.54 5135383.23 178.90
-9755038.07 5135383.77 178.88
-9755039.45 5135388.55 178.84
-9755064.18 5135365.23 180.70
-9755064.41 5135370.32 180.29
-9755062.60 5135365.55 180.37
-9755062.60 5135372.01 179.96
-9755062.66 5135364.95 180.05
-9755060.83 5135372.03 179.71
-9755062.92 5135368.74 180.09
-9755062.39 5135363.66 180.25
-9755060.83 5135368.79 179.75
-9755064.25 5135365.04 180.04
-9755059.34 5135370.26 179.49
-9755054.08 5135370.26 178.86
-9755056.13 5135372.03 178.99
-9755052.60 5135370.54 178.94
-9755057.61 5135370.56 179.23
-9755051.17 5135365.50 179.02
-9755056.12 5135365.54 179.11
-9755051.12 5135368.81 178.98
-9755057.61 5135372.07 179.20
-9755056.09 5135370.28 179.01
-9755059.08 5135372.04 179.45
-9755052.62 5135365.52 178.99
-9755049.34 5135368.72 179.02
-9755049.34 5135372.05 178.98
-9755049.38 5135367.03 179.03
-9755047.62 5135368.76 179.04
-9755047.61 5135365.45 179.08
-9755045.82 5135372.00 179.04
-9755046.10 5135365.19 179.09
-9755044.37 5135365.49 179.10
-9755044.35 5135366.94 179.11
-9755046.14 5135363.98 179.12
-9755042.87 5135366.93 179.11
-9755041.11 5135372.26 179.02
-9755039.59 5135368.68 179.06
-9755039.59 5135367.19 179.06
-9755039.59 5135363.94 179.09
-9755039.62 5135370.45 179.03
-9755037.85 5135375.52 178.96
-9755036.06 5135378.45 178.91
-9755029.52 5135380.28 179.11
-9755029.49 5135381.67 179.09
-9755029.56 5135383.42 179.07
-9755026.04 5135380.19 179.05
-9755028.08 5135380.16 178.97
-9755031.60 5135376.94 178.84
-9755024.54 5135376.86 179.11
-9755031.30 5135381.98 178.78
-9755031.25 5135383.46 178.77
-9755028.02 5135386.96 178.92
-9755036.31 5135376.96 178.92
-9755034.80 5135383.45 178.83
-9755025.99 5135376.85 179.08
-9755028.11 5135376.93 179.00
-9755024.83 5135375.13 179.13
-9755035.93 5135388.52 178.80
-9755028.10 5135375.15 179.02
-9755032.80 5135375.18 178.89
-9755034.57 5135375.19 178.92
-9755023.07 5135375.42 179.15
-9755031.25 5135388.52 178.70
-9755029.51 5135388.20 179.06
-9755028.05 5135388.20 178.92
-9755028.12 5135373.67 179.04
-9755037.83 5135373.70 178.98
-9755031.34 5135373.69 178.88
-9755034.60 5135373.66 178.93
-9755024.56 5135373.66 179.15
-9755022.78 5135373.61 179.17
-9755019.48 5135383.68 179.13
-9755016.29 5135376.89 179.23
-9755018.33 5135378.92 179.19
-9755014.54 5135375.35 179.26
-9755017.99 5135377.09 179.22
-9755012.97 5135386.88 179.12
-9755016.58 5135378.59 179.21
-9755014.82 5135377.17 179.23
-9755014.77 5135383.34 179.17
-9755011.51 5135385.44 179.11
-9755016.31 5135375.41 179.25
-9755013.04 5135375.35 179.23
-9755013.03 5135378.29 179.20
-9755016.62 5135373.61 179.26
-9755017.76 5135373.62 179.23
-9755037.84 5135368.68 179.04
-9755037.55 5135367.21 179.05
-9755037.85 5135370.46 179.02
-9755024.90 5135365.59 179.23
-9755026.08 5135365.38 179.20
-9755026.34 5135370.43 179.14
-9755036.08 5135368.69 179.01
-9755027.79 5135372.18 179.07
-9755036.06 5135371.63 178.98
-9755034.58 5135372.26 178.95
-9755031.33 5135372.18 178.88
-9755027.86 5135363.88 179.14
-9755024.53 5135372.14 179.15
-9755034.34 5135367.23 179.01
-9755031.38 5135370.39 178.92
-9755024.56 5135368.91 179.19
-9755028.15 5135365.32 179.11
-9755036.42 5135363.93 179.06
-9755026.36 5135368.62 179.16
-9755024.58 5135370.37 179.19
-9755033.17 5135363.58 179.01
-9755023.08 5135372.14 179.18
-9755022.90 5135363.86 179.26
-9755021.35 5135365.61 179.27
-9755019.94 5135365.63 179.31
-9755021.31 5135367.08 179.26
-9755019.58 5135367.09 179.29
-9755017.77 5135370.32 179.28
-9755016.36 5135367.11 179.32
-9755017.81 5135372.13 179.26
-9755017.87 5135363.79 179.33
-9755014.89 5135363.80 179.39
-9755014.88 5135365.30 179.37
-9755013.05 5135372.08 179.27
-9755014.57 5135368.79 179.34
-9755011.36 5135370.27 179.28
-9755011.40 5135365.30 179.32
-9755013.11 5135368.82 179.31
-9755011.32 5135368.79 179.28
-9755009.76 5135382.10 179.13
-9755009.71 5135385.38 179.10
-9755005.03 5135380.04 179.09
-9755006.54 5135378.87 179.12
-9755008.30 5135385.40 179.07
-9755006.56 5135376.84 179.14
-9755003.30 5135380.34 179.02
-9755005.06 5135381.86 179.07
-9755006.45 5135387.11 179.02
-9755003.01 5135378.55 179.03
-9755003.25 5135386.54 178.94
-9755003.33 5135382.14 179.00
-9755003.32 5135375.25 179.08
-9755006.46 5135388.62 179.01
-9755003.37 5135373.54 179.10
-9755001.26 5135375.26 179.23
-9754998.56 5135378.49 179.18
-9754996.80 5135380.30 179.17
-9754996.87 5135377.01 179.19
-9755002.04 5135380.14 180.09
-9754996.86 5135375.46 179.20
-9754995.09 5135381.76 179.14
-9754993.54 5135378.74 179.16
-9754993.29 5135381.77 179.15
-9754994.74 5135384.99 179.12
-9754991.71 5135383.55 179.12
-9754991.57 5135378.50 179.17
-9754995.01 5135380.18 179.16
-9754991.59 5135375.26 179.23
-9754988.33 5135378.77 179.17
-9754988.52 5135383.45 179.14
-9754986.80 5135377.21 180.64
-9754985.10 5135375.15 179.09
-9754988.21 5135388.23 179.09
-9754987.00 5135387.39 180.35
-9754987.03 5135387.79 180.38
-9755001.55 5135373.77 179.17
-9754996.59 5135373.52 179.23
-9755000.10 5135373.22 179.22
-9754998.32 5135374.00 179.23
-9755001.59 5135373.74 180.09
-9754993.36 5135373.41 179.23
-9754991.55 5135373.74 179.23
-9755009.83 5135370.29 179.27
-9755003.09 5135368.79 179.14
-9755008.37 5135371.77 179.23
-9755008.42 5135365.19 179.28
-9755003.10 5135365.23 179.16
-9755003.32 5135370.22 179.13
-9755006.65 5135361.95 179.28
-9754999.81 5135370.52 179.24
-9754998.39 5135370.23 179.27
-9755000.15 5135364.01 179.30
-9755001.65 5135365.43 179.17
-9754996.91 5135367.22 179.27
-9755001.57 5135363.68 180.17
-9755001.70 5135361.96 179.18
-9754998.37 5135363.72 179.32
-9754998.04 5135371.98 179.25
-9755000.73 5135365.50 180.20
-9755000.72 5135370.82 180.08
-9754993.34 5135367.24 179.29
-9754995.13 5135367.20 179.31
-9754991.59 5135363.96 179.34
-9754995.09 5135372.04 179.24
-9754991.86 5135371.91 179.24
-9754991.55 5135367.15 179.28
-9754990.09 5135371.96 179.25
-9754990.39 5135370.19 179.27
-9754990.14 5135368.70 179.27
-9754990.41 5135363.98 179.33
-9754991.58 5135361.91 179.34
-9754988.34 5135367.16 179.30
-9754988.27 5135370.47 179.26
-9754988.34 5135371.93 179.25
-9754986.62 5135363.55 180.23
-9754986.62 5135361.82 179.36
-9754990.15 5135362.16 179.35
-9754985.85 5135365.61 180.15
-9754986.10 5135362.44 180.78
-9754983.45 5135386.97 179.02
-9754983.59 5135376.66 179.13
-9754983.52 5135381.69 179.07
-9754983.56 5135375.17 179.15
-9754981.75 5135383.76 179.08
-9754975.33 5135378.37 179.22
-9754975.21 5135383.72 179.17
-9754970.29 5135380.14 179.23
-9754970.25 5135382.19 179.20
-9754977.05 5135376.90 179.22
-9754970.51 5135386.95 179.15
-9754978.79 5135380.17 179.15
-9754970.26 5135376.82 179.26
-9754973.51 5135378.40 179.26
-9754975.30 5135380.41 179.20
-9754973.48 5135384.91 179.18
-9754972.04 5135386.96 179.18
-9754981.80 5135376.64 179.15
-9754978.53 5135375.11 179.20
-9754980.29 5135380.19 179.13
-9754978.54 5135377.25 179.20
-9754980.27 5135386.99 179.06
-9754971.77 5135375.15 179.30
-9754975.33 5135375.44 179.26
-9754981.54 5135378.69 179.14
-9754968.54 5135378.92 179.22
-9754970.57 5135375.08 179.27
-9754968.81 5135380.12 179.21
-9754968.46 5135386.96 179.14
-9754981.75 5135375.20 179.17
-9754968.53 5135375.39 179.26
-9754965.55 5135380.11 179.16
-9754967.00 5135386.89 179.11
-9754965.28 5135375.35 179.22
-9754973.48 5135388.71 179.16
-9754976.72 5135388.49 179.11
-9754971.98 5135388.42 179.15
-9754975.23 5135388.74 179.13
-9754978.77 5135388.50 179.09
-9754968.81 5135388.41 179.13
-9754966.73 5135388.39 179.09
-9754962.25 5135383.63 179.07
-9754963.81 5135378.34 179.16
-9754963.84 5135376.80 179.18
-9754962.32 5135380.42 179.11
-9754962.37 5135375.35 179.18
-9754962.30 5135385.09 179.06
-9754963.81 5135383.69 179.11
-9754963.47 5135388.70 179.06
-9754960.53 5135375.59 179.11
-9754957.05 5135377.08 178.83
-9754956.77 5135375.37 178.88
-9754957.25 5135386.60 178.74
-9754962.07 5135373.57 179.18
-9754958.82 5135373.53 179.09
-9754957.35 5135373.80 178.88
-9754983.34 5135365.41 179.23
-9754983.62 5135371.89 179.17
-9754983.35 5135361.82 179.28
-9754973.54 5135370.39 179.32
-9754970.37 5135367.07 179.35
-9754976.87 5135370.38 179.27
-9754972.07 5135371.86 179.33
-9754979.78 5135368.63 179.26
-9754975.33 5135372.18 179.27
-9754978.31 5135365.05 179.31
-9754968.51 5135371.79 179.30
-9754972.10 5135368.55 179.36
-9754970.07 5135370.34 179.32
-9754978.63 5135363.85 179.31
-9754980.35 5135367.17 179.26
-9754970.65 5135371.85 179.30
-9754981.85 5135370.42 179.21
-9754976.84 5135363.57 179.36
-9754978.60 5135362.48 179.33
-9754970.36 5135362.02 179.40
-9754980.39 5135362.18 179.31
-9754968.58 5135367.08 179.34
-9754965.65 5135371.79 179.25
-9754967.14 5135365.33 179.34
-9754968.62 5135363.82 179.37
-9754967.18 5135363.83 179.34
-9754966.78 5135368.54 179.31
-9754967.10 5135370.34 179.29
-9754967.15 5135362.02 179.37
-9754963.85 5135363.81 179.31
-9754961.85 5135365.59 179.25
-9754963.85 5135370.31 179.25
-9754961.82 5135363.84 179.28
-9754962.13 5135370.37 179.21
-9754958.78 5135370.30 179.13
-9754958.85 5135368.83 179.12
-9754956.85 5135363.80 178.98
-9754957.37 5135365.54 178.94
-9754955.79 5135385.10 178.81
-9754955.24 5135381.83 178.84
-9754955.52 5135378.56 178.88
-9754955.23 5135383.65 178.84
-9754948.78 5135382.09 178.95
-9754948.73 5135387.08 178.90
-9754951.97 5135382.06 178.91
-9754947.28 5135378.84 178.99
-9754947.24 5135385.05 178.92
-9754950.50 5135385.33 178.90
-9754954.04 5135380.03 178.89
-9754953.75 5135383.30 178.87
-9754945.49 5135381.79 178.99
-9754954.04 5135388.65 178.80
-9754948.99 5135388.57 178.88
-9754947.22 5135388.54 178.89
-9754945.76 5135388.79 178.91
-9754945.58 5135375.55 179.05
-9754950.57 5135373.48 179.02
-9754944.03 5135386.77 178.94
-9754942.35 5135376.68 179.02
-9754942.29 5135379.95 178.99
-9754933.98 5135385.25 178.81
-9754935.46 5135386.73 178.83
-9754937.27 5135377.28 178.97
-9754932.52 5135383.47 178.78
-9754940.52 5135376.75 178.99
-9754939.28 5135383.54 178.91
-9754932.19 5135382.00 178.80
-9754937.57 5135380.25 178.95
-9754932.52 5135384.98 178.77
-9754932.58 5135375.19 178.88
-9754932.51 5135386.74 178.75
-9754934.02 5135383.81 178.82
-9754938.76 5135376.70 178.98
-9754940.45 5135375.28 179.01
-9754940.49 5135386.76 178.88
-9754930.67 5135388.79 178.70
-9754930.77 5135381.98 178.75
-9754942.31 5135373.99 179.04
-9754930.52 5135373.37 178.84
-9754955.31 5135370.28 178.97
-9754950.59 5135369.07 179.06
-9754952.11 5135365.54 179.06
-9754948.80 5135365.46 179.12
-9754950.59 5135365.47 179.09
-9754953.88 5135363.77 179.06
-9754953.88 5135362.21 179.06
-9754945.61 5135365.47 179.14
-9754943.78 5135370.48 179.09
-9754942.36 5135361.92 179.16
-9754942.37 5135363.71 179.15
-9754944.13 5135362.25 179.18
-9754942.30 5135371.95 179.06
-9754935.85 5135365.41 179.08
-9754940.57 5135369.96 179.06
-9754939.07 5135372.21 179.03
-9754935.85 5135368.71 179.02
-9754932.66 5135365.46 178.99
-9754933.81 5135365.43 179.03
-9754935.84 5135367.22 179.06
-9754940.55 5135368.72 179.06
-9754939.15 5135362.13 179.13
-9754938.82 5135367.18 179.08
-9754934.08 5135371.98 178.95
-9754932.30 5135370.46 178.92
-9754930.81 5135367.19 178.93
-9754930.59 5135365.43 178.93
-9754928.97 5135383.80 178.69
-9754928.96 5135386.70 178.68
-9754928.95 5135381.98 178.71
-9754927.24 5135376.95 178.92
-9754924.35 5135375.11 179.35
-9754917.25 5135378.59 180.26
-9754925.75 5135381.62 179.18
-9754916.23 5135383.84 181.02
-9754917.45 5135380.32 180.24
-9754921.01 5135380.40 179.68
-9754916.05 5135385.06 180.93
-9754919.22 5135386.89 180.00
-9754922.48 5135383.70 179.49
-9754915.78 5135377.12 180.50
-9754924.26 5135386.95 179.24
-9754919.54 5135383.66 179.95
-9754925.73 5135386.96 179.15
-9754914.25 5135380.01 180.82
-9754918.62 5135383.65 180.08
-9754918.40 5135377.71 180.07
-9754918.37 5135378.00 180.07
-9754914.00 5135375.25 180.82
-9754912.78 5135378.51 181.11
-9754909.01 5135377.24 181.40
-9754909.33 5135380.20 181.60
-9754912.48 5135383.54 181.16
-9754911.06 5135383.51 181.49
-9754911.41 5135375.54 181.34
-9754910.97 5135385.01 181.52
-9754907.78 5135375.48 181.42
-9754912.48 5135387.12 181.13
-9754907.81 5135380.26 181.44
-9754910.26 5135387.32 182.19
-9754915.80 5135373.56 180.54
-9754924.05 5135373.64 179.37
-9754919.58 5135373.53 179.95
-9754917.27 5135373.81 180.28
-9754909.37 5135373.52 181.64
-9754912.56 5135373.75 181.12
-9754902.43 5135386.72 181.31
-9754906.34 5135373.70 181.37
-9754929.05 5135371.93 178.84
-9754929.09 5135368.64 178.87
-9754927.91 5135363.91 178.90
-9754927.28 5135368.65 178.84
-9754915.79 5135372.02 180.56
-9754924.08 5135363.90 179.33
-9754918.75 5135372.06 180.10
-9754922.60 5135363.85 179.44
-9754919.35 5135367.09 179.89
-9754916.11 5135363.75 180.42
-9754922.62 5135362.10 179.48
-9754917.54 5135370.27 180.30
-9754918.75 5135370.28 180.11
-9754918.50 5135369.12 180.11
-9754907.62 5135370.17 181.40
-9754911.09 5135368.72 181.39
-9754912.88 5135365.49 181.01
-9754909.35 5135365.48 182.44
-9754908.47 5135365.08 182.47
-9754909.37 5135368.64 182.44
-9754912.88 5135368.74 181.03
-9754907.52 5135369.04 181.41
-9754907.88 5135367.18 181.47
-9754907.81 5135372.22 181.41
-9754908.12 5135363.80 181.90
-9754905.83 5135370.48 181.36
-9754904.33 5135368.75 181.34
-9754906.06 5135371.91 181.37
-9754906.18 5135363.62 181.35
-9754902.55 5135373.70 181.32
-9754904.31 5135370.17 181.34
-9754904.34 5135367.21 181.34
-9754904.27 5135371.93 181.34
-9754906.14 5135368.74 181.35
-9754904.63 5135362.19 181.33
-9754902.83 5135363.98 181.31
-9754902.59 5135366.88 181.32
-9754902.61 5135362.41 181.31
-9754901.27 5135377.23 181.31
-9754901.03 5135375.51 181.31
-9754893.09 5135377.00 186.28
-9754891.35 5135385.01 190.80
-9754889.18 5135376.99 189.85
-9754899.26 5135380.19 181.27
-9754891.27 5135375.23 186.17
-9754889.54 5135380.44 189.41
-9754889.61 5135386.84 190.59
-9754899.60 5135376.64 181.30
-9754893.99 5135377.89 186.29
-9754892.49 5135382.24 188.55
-9754892.76 5135378.67 181.35
-9754894.32 5135383.96 188.43
-9754890.85 5135384.03 190.00
-9754890.22 5135379.22 186.40
-9754892.82 5135375.60 190.08
-9754894.65 5135373.90 187.54
-9754892.92 5135374.43 190.06
-9754886.40 5135377.16 188.77
-9754886.34 5135376.92 187.24
-9754886.16 5135373.57 187.57
-9754884.42 5135373.95 187.77
-9754901.07 5135363.90 181.28
-9754890.95 5135363.70 189.29
-9754891.03 5135367.07 188.63
-9754894.65 5135367.15 181.21
-9754899.56 5135372.25 181.28
-9754890.62 5135362.27 190.60
-9754889.58 5135372.16 187.71
-9754889.63 5135363.79 189.21
-9754891.50 5135369.10 187.61
-9754891.21 5135372.44 190.68
-9754889.54 5135363.64 187.55
-9754894.59 5135363.96 181.19
-9754891.22 5135362.19 187.70
-9754899.28 5135370.42 181.28
-9754892.83 5135372.08 187.70
-9754899.38 5135362.15 181.25
-9754889.66 5135367.02 188.65
-9754890.68 5135363.70 190.66
-9754888.14 5135370.52 189.08
-9754894.12 5135370.14 187.03
-9754889.91 5135361.95 181.34
-9754893.94 5135363.16 185.56
-9754887.79 5135362.03 189.27
-9754886.60 5135363.83 187.57
-9754886.07 5135368.58 189.31
-9754886.35 5135369.07 187.38
-9754884.67 5135368.61 184.03
-9754886.17 5135365.25 188.92
-9754884.55 5135365.20 182.74
-9754886.61 5135361.89 190.62
-9754884.61 5135368.54 187.53
-9754883.12 5135371.70 189.06
-9754884.36 5135363.45 187.48
-9754884.57 5135366.69 184.43
-9754882.86 5135363.76 182.57
-9754886.53 5135362.81 187.83
-9754883.35 5135366.71 183.69
-9754886.52 5135363.58 181.71
-9754883.24 5135369.98 188.14
-9755080.66 5135355.72 181.25
-9755080.96 5135360.50 182.33
-9755080.64 5135357.39 181.37
-9755079.99 5135362.01 181.29
-9755078.91 5135359.06 181.29
-9755078.94 5135360.53 181.27
-9755078.94 5135355.45 181.35
-9755079.84 5135360.57 182.24
-9755077.11 5135359.05 181.31
-9755079.16 5135362.02 181.24
-9755077.41 5135361.96 181.27
-9755070.99 5135355.47 181.41
-9755069.43 5135356.90 182.29
-9755075.70 5135359.06 181.34
-9755066.04 5135360.51 181.01
-9755065.92 5135358.71 181.01
-9755067.44 5135355.70 181.03
-9755065.97 5135355.47 180.96
-9755070.69 5135359.00 181.36
-9755067.41 5135360.46 180.87
-9755072.44 5135355.45 181.42
-9755067.68 5135362.22 181.00
-9755069.18 5135362.25 181.33
-9755070.88 5135362.26 181.31
-9755072.40 5135362.23 181.33
-9755065.89 5135361.95 180.72
-9755080.68 5135354.08 181.28
-9755080.88 5135351.92 181.34
-9755080.51 5135345.44 181.45
-9755080.49 5135335.98 181.54
-9755079.00 5135347.47 181.44
-9755077.50 5135347.22 181.47
-9755075.70 5135353.95 181.41
-9755068.89 5135350.40 181.44
-9755070.71 5135349.17 182.47
-9755067.39 5135353.92 181.15
-9755069.21 5135352.48 181.53
-9755075.78 5135348.94 181.45
-9755072.47 5135353.98 181.45
-9755069.24 5135347.12 181.54
-9755066.01 5135352.23 180.95
-9755068.99 5135347.41 182.08
-9755072.48 5135347.21 181.50
-9755070.90 5135347.41 182.49
-9755068.18 5135347.10 181.73
-9755075.73 5135351.92 181.44
-9755071.04 5135352.16 181.49
-9755068.04 5135351.79 181.74
-9755078.98 5135342.45 181.50
-9755078.99 5135345.68 181.47
-9755077.27 5135339.15 181.56
-9755076.01 5135345.71 181.49
-9755073.94 5135343.91 181.54
-9755065.74 5135343.87 180.86
-9755070.76 5135343.86 182.52
-9755070.47 5135342.37 181.68
-9755065.78 5135342.47 185.64
-9755075.80 5135342.46 181.54
-9755067.43 5135342.22 186.24
-9755065.71 5135343.55 183.09
-9755065.78 5135344.40 183.84
-9755067.23 5135337.43 181.08
-9755065.85 5135342.18 184.48
-9755069.28 5135340.58 181.88
-9755070.82 5135335.77 182.63
-9755066.07 5135337.66 180.93
-9755066.01 5135343.80 185.48
-9755067.33 5135337.61 183.32
-9755065.46 5135337.57 184.17
-9755067.48 5135337.35 183.38
-9755066.06 5135342.39 181.01
-9755068.75 5135335.60 181.32
-9755066.66 5135341.23 185.50
-9755068.39 5135342.26 185.25
-9755071.74 5135335.50 182.63
-9755066.15 5135345.12 183.26
-9755066.94 5135343.61 185.35
-9755064.44 5135357.20 180.87
-9755062.74 5135357.49 180.69
-9755062.39 5135355.42 180.55
-9755062.49 5135358.41 180.52
-9755061.17 5135358.91 180.38
-9755061.18 5135355.62 180.42
-9755061.76 5135360.19 180.03
-9755055.92 5135355.78 179.22
-9755055.92 5135358.71 179.16
-9755054.39 5135360.50 178.97
-9755052.62 5135355.49 179.06
-9755050.87 5135355.48 179.12
-9755049.46 5135358.75 179.10
-9755049.48 5135355.68 179.14
-9755047.64 5135358.96 179.13
-9755047.66 5135355.41 179.16
-9755054.12 5135362.25 178.94
-9755046.20 5135357.16 179.17
-9755044.48 5135355.41 179.20
-9755042.91 5135355.65 179.21
-9755046.15 5135362.20 179.12
-9755044.10 5135362.21 179.15
-9755039.42 5135355.39 179.18
-9755041.46 5135362.18 179.13
-9755062.73 5135350.39 180.54
-9755062.46 5135348.94 180.57
-9755064.26 5135348.93 180.85
-9755064.24 5135347.18 180.73
-9755061.02 5135348.98 180.41
-9755060.97 5135352.24 180.41
-9755065.52 5135338.46 184.38
-9755064.99 5135343.85 183.62
-9755064.98 5135343.01 185.76
-9755063.98 5135344.08 180.87
-9755062.38 5135345.43 180.51
-9755062.50 5135343.83 180.54
-9755064.29 5135342.40 180.61
-9755062.25 5135339.14 180.49
-9755064.11 5135337.31 183.92
-9755061.04 5135342.39 180.53
-9755064.56 5135340.93 180.66
-9755060.80 5135337.63 180.67
-9755062.82 5135342.08 180.60
-9755060.75 5135335.53 180.55
-9755062.81 5135335.47 185.75
-9755055.97 5135347.46 179.38
-9755058.93 5135347.41 179.87
-9755058.94 5135347.48 180.35
-9755054.48 5135352.19 179.10
-9755059.72 5135352.84 180.31
-9755052.70 5135350.44 179.10
-9755055.92 5135352.18 179.25
-9755054.47 5135354.00 179.08
-9755059.21 5135352.49 179.82
-9755050.93 5135350.41 179.16
-9755052.97 5135353.67 179.06
-9755059.44 5135353.98 179.81
-9755059.47 5135353.93 180.26
-9755049.46 5135348.97 179.18
-9755049.44 5135352.19 179.16
-9755049.46 5135347.38 179.19
-9755047.39 5135352.17 179.19
-9755047.75 5135348.90 179.22
-9755044.15 5135348.85 179.27
-9755043.00 5135347.39 179.28
-9755044.71 5135353.59 179.22
-9755042.98 5135352.12 179.27
-9755046.20 5135348.84 179.25
-9755052.47 5135342.06 179.16
-9755057.79 5135339.14 179.78
-9755050.98 5135345.38 179.20
-9755052.51 5135337.41 179.20
-9755054.24 5135338.88 179.26
-9755054.22 5135342.18 179.22
-9755059.27 5135340.65 180.02
-9755054.19 5135345.66 179.17
-9755050.99 5135339.17 179.24
-9755058.95 5135341.39 180.24
-9755057.77 5135337.38 179.81
-9755058.99 5135338.80 179.96
-9755059.80 5135337.70 180.48
-9755055.75 5135335.90 179.50
-9755050.96 5135342.09 179.23
-9755059.87 5135338.81 180.09
-9755053.07 5135335.60 179.20
-9755059.34 5135335.68 180.42
-9755049.55 5135337.65 179.29
-9755049.52 5135340.95 179.25
-9755049.23 5135345.63 179.21
-9755046.26 5135345.64 179.28
-9755045.98 5135338.83 179.34
-9755042.69 5135343.82 179.33
-9755044.55 5135342.33 179.32
-9755043.04 5135338.79 179.36
-9755044.59 5135337.33 179.36
-9755042.70 5135345.92 179.31
-9755046.05 5135335.86 179.37
-9755040.91 5135353.91 179.21
-9755039.41 5135354.15 179.19
-9755041.19 5135350.67 179.25
-9755040.97 5135347.39 179.27
-9755041.26 5135344.18 179.31
-9755039.52 5135337.30 179.34
-9755027.90 5135355.56 179.20
-9755027.85 5135358.87 179.18
-9755036.45 5135355.36 179.15
-9755026.43 5135355.59 179.24
-9755034.33 5135358.88 179.07
-9755032.92 5135358.58 179.07
-9755031.15 5135355.32 179.07
-9755031.14 5135360.67 179.01
-9755023.19 5135358.81 179.30
-9755037.62 5135361.88 179.11
-9755034.63 5135361.88 179.06
-9755021.39 5135357.31 179.35
-9755019.65 5135360.62 179.34
-9755012.91 5135357.25 179.42
-9755016.70 5135357.00 179.41
-9755018.21 5135358.82 179.38
-9755011.44 5135355.75 179.43
-9755016.39 5135358.75 179.39
-9755011.70 5135358.79 179.39
-9755011.41 5135360.23 179.38
-9755037.68 5135353.85 179.18
-9755037.96 5135348.85 179.22
-9755024.67 5135352.31 179.34
-9755034.48 5135350.59 179.17
-9755035.92 5135347.34 179.22
-9755029.70 5135350.57 179.07
-9755031.20 5135349.09 179.12
-9755036.47 5135352.06 179.18
-9755026.46 5135352.02 179.28
-9755031.20 5135347.33 179.14
-9755029.14 5135348.78 180.08
-9755032.95 5135352.65 179.12
-9755031.19 5135350.61 179.10
-9755023.24 5135352.33 179.36
-9755023.22 5135353.79 179.34
-9755037.68 5135342.61 179.27
-9755038.01 5135340.82 179.30
-9755027.70 5135344.03 179.31
-9755028.06 5135342.25 179.32
-9755029.49 5135337.26 179.18
-9755029.71 5135345.82 179.11
-9755028.07 5135339.26 179.36
-9755028.15 5135338.87 180.11
-9755029.46 5135342.59 179.15
-9755029.50 5135339.03 179.16
-9755026.50 5135345.54 179.33
-9755031.20 5135340.49 179.19
-9755034.53 5135342.61 179.23
-9755026.55 5135337.19 179.40
-9755029.47 5135340.81 179.14
-9755029.46 5135340.78 180.14
-9755034.49 5135339.04 179.26
-9755032.70 5135345.56 179.18
-9755034.43 5135345.53 179.21
-9755034.48 5135340.55 179.25
-9755033.05 5135339.32 179.26
-9755032.68 5135337.56 179.24
-9755035.97 5135343.82 179.25
-9755031.29 5135339.29 179.20
-9755028.33 5135335.72 180.18
-9755034.47 5135337.27 179.27
-9755031.20 5135342.58 179.17
-9755024.52 5135339.03 179.45
-9755028.37 5135341.97 180.12
-9755031.32 5135335.74 179.23
-9755028.09 5135337.64 180.14
-9755022.99 5135338.97 179.47
-9755021.16 5135349.06 179.42
-9755021.17 5135350.54 179.41
-9755021.48 5135353.79 179.37
-9755019.46 5135347.28 179.45
-9755016.47 5135348.75 179.48
-9755018.20 5135354.02 179.43
-9755013.23 5135350.43 179.48
-9755013.19 5135353.72 179.45
-9755014.71 5135350.44 179.49
-9755016.13 5135352.22 179.47
-9755018.18 5135350.52 179.44
-9755018.22 5135347.53 179.47
-9755011.41 5135353.69 179.44
-9755011.47 5135347.19 179.48
-9755021.46 5135345.78 179.43
-9755021.24 5135340.73 179.48
-9755021.27 5135335.67 179.52
-9755021.22 5135344.01 179.45
-9755012.97 5135339.21 179.58
-9755018.25 5135340.69 179.53
-9755018.27 5135339.23 179.55
-9755017.94 5135345.78 179.49
-9755016.20 5135340.72 179.55
-9755011.21 5135335.97 179.58
-9755011.45 5135345.73 179.51
-9755011.76 5135338.91 179.56
-9755011.51 5135342.44 179.54
-9755011.48 5135343.90 179.51
-9755009.92 5135356.97 179.39
-9755009.90 5135355.50 179.41
-9755009.60 5135359.02 179.37
-9755008.20 5135355.46 179.39
-9755006.64 5135357.23 179.34
-9755008.16 5135358.75 179.35
-9755006.64 5135358.68 179.32
-9755004.89 5135357.23 179.31
-9755006.66 5135360.51 179.31
-9755003.45 5135359.03 179.25
-9755005.17 5135360.51 179.30
-9755003.43 5135360.50 179.23
-9755001.68 5135360.49 179.16
-9755001.42 5135355.72 179.27
-9755000.20 5135355.43 179.38
-9754996.38 5135360.41 179.34
-9754991.65 5135357.38 179.38
-9754990.24 5135358.92 179.36
-9754993.43 5135358.61 179.36
-9754988.37 5135355.63 179.40
-9754986.93 5135357.38 179.39
-9754988.11 5135358.90 179.39
-9754988.45 5135357.42 179.40
-9754985.19 5135353.84 179.28
-9754985.58 5135355.59 180.24
-9754986.95 5135354.17 179.43
-9754988.38 5135362.44 179.36
-9755009.96 5135354.01 179.42
-9755009.94 5135352.24 179.42
-9755009.62 5135348.99 179.47
-9755006.42 5135352.43 179.38
-9755008.13 5135352.55 179.42
-9755003.19 5135347.70 179.35
-9755008.23 5135348.93 179.44
-9755006.42 5135348.99 179.40
-9755008.21 5135350.73 179.43
-9755004.67 5135352.20 179.35
-9755010.04 5135343.93 179.51
-9755004.97 5135345.66 179.42
-9755008.31 5135337.41 179.53
-9755006.48 5135345.69 179.42
-9755005.00 5135343.90 179.42
-9755005.01 5135339.15 179.46
-9755005.02 5135342.43 179.44
-9755008.23 5135345.68 179.46
-9755006.70 5135342.45 179.46
-9755003.51 5135340.63 179.42
-9755003.23 5135343.91 179.38
-9755003.29 5135337.68 179.44
-9755003.53 5135335.88 179.46
-9755001.70 5135353.94 179.26
-9754998.16 5135350.70 179.43
-9755001.68 5135352.17 179.27
-9754996.70 5135350.37 179.45
-9754998.19 5135348.93 179.45
-9754999.95 5135353.96 179.41
-9754998.50 5135347.38 179.44
-9754996.70 5135348.88 179.45
-9754996.73 5135352.18 179.43
-9755000.55 5135352.45 180.76
-9755001.38 5135349.38 180.31
-9755000.58 5135353.94 180.27
-9755000.43 5135345.29 181.06
-9754993.66 5135353.94 179.42
-9754991.94 5135353.91 179.44
-9754991.68 5135352.12 179.45
-9754995.16 5135350.59 179.45
-9754995.23 5135348.93 179.47
-9754993.47 5135349.11 179.46
-9754995.18 5135353.89 179.42
-9754989.89 5135347.38 179.49
-9754991.69 5135350.59 179.45
-9754991.77 5135345.59 179.49
-9754988.47 5135347.32 179.49
-9754986.64 5135352.35 179.43
-9754984.87 5135350.58 179.31
-9754984.93 5135348.88 179.33
-9754986.65 5135352.53 180.34
-9754988.45 5135352.12 179.45
-9754985.45 5135350.59 180.36
-9754985.30 5135349.03 180.27
-9754988.45 5135348.85 179.48
-9754985.20 5135345.58 179.33
-9754986.41 5135347.55 180.39
-9754986.13 5135345.52 180.92
-9754985.46 5135345.46 180.37
-9754986.98 5135345.56 179.50
-9754990.26 5135345.61 179.49
-9755001.46 5135342.11 179.33
-9755001.49 5135340.63 179.34
-9755000.03 5135340.64 179.49
-9755000.00 5135338.88 179.51
-9754996.72 5135340.87 179.55
-9754998.51 5135345.72 179.48
-9754999.78 5135337.37 179.52
-9754998.44 5135344.16 179.50
-9755000.33 5135341.20 180.42
-9755000.54 5135337.83 180.84
-9755001.14 5135335.63 180.47
-9754996.73 5135345.67 179.48
-9754996.77 5135342.34 179.52
-9754993.22 5135338.76 179.55
-9754994.98 5135343.85 179.51
-9754993.47 5135344.15 179.53
-9754993.24 5135337.29 179.57
-9754991.77 5135335.84 179.58
-9754993.24 5135335.86 179.56
-9754989.70 5135340.85 179.55
-9754993.20 5135345.57 179.51
-9754986.75 5135339.37 179.57
-9754985.42 5135339.06 180.44
-9754985.28 5135337.27 179.44
-9754986.76 5135335.53 179.61
-9754985.28 5135335.74 179.45
-9754985.28 5135342.31 179.41
-9754986.15 5135337.46 180.46
-9754983.71 5135353.84 179.33
-9754975.42 5135357.36 179.42
-9754973.68 5135357.35 179.45
-9754980.43 5135357.04 179.35
-9754971.88 5135358.88 179.45
-9754976.59 5135358.85 179.41
-9754975.15 5135358.86 179.41
-9754970.40 5135357.28 179.46
-9754981.94 5135357.37 179.34
-9754973.68 5135355.87 179.46
-9754971.92 5135353.80 179.50
-9754968.68 5135357.33 179.42
-9754965.39 5135355.84 179.40
-9754965.15 5135357.28 179.40
-9754968.63 5135360.57 179.39
-9754965.35 5135360.56 179.35
-9754965.38 5135353.71 179.42
-9754963.68 5135355.45 179.38
-9754963.95 5135358.76 179.35
-9754960.41 5135359.02 179.27
-9754958.94 5135356.98 179.23
-9754958.62 5135355.44 179.27
-9754956.87 5135355.74 179.05
-9754957.09 5135358.72 179.02
-9754958.88 5135360.53 179.20
-9754981.62 5135352.09 179.39
-9754980.20 5135347.31 179.43
-9754980.22 5135348.80 179.42
-9754976.69 5135350.83 179.47
-9754978.75 5135348.78 179.45
-9754971.90 5135351.98 179.51
-9754976.99 5135345.51 179.52
-9754981.68 5135345.48 179.43
-9754966.95 5135348.74 179.49
-9754966.88 5135350.55 179.47
-9754965.46 5135350.47 179.45
-9754965.41 5135347.24 179.47
-9754968.73 5135345.43 179.54
-9754968.76 5135347.24 179.51
-9754983.53 5135340.75 179.45
-9754983.49 5135341.97 179.43
-9754978.49 5135339.02 179.54
-9754973.44 5135343.96 179.55
-9754975.26 5135340.45 179.59
-9754971.72 5135340.77 179.61
-9754976.76 5135337.51 179.58
-9754978.45 5135340.50 179.53
-9754970.21 5135335.69 179.63
-9754979.99 5135338.99 179.52
-9754978.46 5135337.20 179.55
-9754972.07 5135335.71 179.65
-9754965.49 5135343.98 179.50
-9754967.28 5135340.68 179.56
-9754965.48 5135338.91 179.54
-9754967.00 5135337.46 179.59
-9754963.68 5135350.43 179.43
-9754963.44 5135347.21 179.44
-9754961.92 5135349.00 179.41
-9754963.70 5135345.70 179.47
-9754960.38 5135352.50 179.33
-9754958.65 5135350.44 179.30
-9754957.26 5135350.42 179.09
-9754957.12 5135347.21 179.14
-9754956.92 5135352.22 179.07
-9754960.23 5135339.19 179.44
-9754961.96 5135343.93 179.48
-9754963.39 5135343.96 179.48
-9754963.74 5135340.37 179.52
-9754962.26 5135337.15 179.52
-9754958.71 5135343.92 179.34
-9754957.23 5135340.69 179.22
-9754958.72 5135339.22 179.39
-9754957.31 5135343.97 179.28
-9754957.24 5135342.37 180.17
-9754958.18 5135337.73 180.25
-9754959.05 5135335.89 179.44
-9754957.20 5135335.76 179.39
-9754957.21 5135345.73 179.15
-9754952.12 5135358.71 179.12
-9754948.91 5135355.70 179.20
-9754948.88 5135359.00 179.16
-9754953.63 5135353.67 179.15
-9754950.43 5135353.96 179.20
-9754953.88 5135358.75 179.10
-9754952.18 5135353.95 179.17
-9754945.69 5135355.68 179.22
-9754945.64 5135358.99 179.20
-9754955.33 5135360.51 179.05
-9754953.85 5135360.79 179.08
-9754952.17 5135360.46 179.12
-9754950.39 5135360.47 179.14
-9754947.39 5135360.43 179.17
-9754944.20 5135357.18 179.22
-9754944.19 5135355.38 179.25
-9754942.08 5135357.16 179.21
-9754942.12 5135353.62 179.22
-9754940.62 5135357.21 179.19
-9754940.94 5135358.94 179.18
-9754937.38 5135355.64 179.18
-9754935.65 5135355.35 179.16
-9754940.38 5135355.36 179.20
-9754944.13 5135360.76 179.19
-9754942.14 5135360.36 179.19
-9754932.35 5135360.67 179.04
-9754933.84 5135360.35 179.08
-9754930.96 5135357.14 179.04
-9754930.61 5135355.60 179.06
-9754930.89 5135360.39 179.00
-9754955.69 5135352.20 179.12
-9754950.38 5135350.72 179.23
-9754953.71 5135347.18 179.21
-9754952.30 5135347.12 179.23
-9754953.71 5135350.42 179.17
-9754952.18 5135352.51 179.19
-9754950.47 5135347.12 179.25
-9754953.92 5135345.67 179.22
-9754945.73 5135348.89 179.29
-9754945.36 5135350.62 179.27
-9754952.18 5135345.66 179.22
-9754952.26 5135342.44 179.28
-9754954.01 5135335.95 179.30
-9754949.02 5135340.58 179.32
-9754945.74 5135345.65 179.31
-9754952.28 5135339.14 179.29
-9754950.47 5135339.16 179.33
-9754950.44 5135340.62 179.30
-9754945.69 5135340.61 179.37
-9754945.78 5135337.31 179.39
-9754945.74 5135339.13 179.38
-9754942.45 5135347.15 179.31
-9754943.59 5135352.16 179.27
-9754938.89 5135352.11 179.21
-9754938.90 5135350.30 179.24
-9754933.94 5135347.06 179.22
-9754940.36 5135352.13 179.23
-9754940.40 5135350.34 179.25
-9754932.44 5135350.57 179.15
-9754937.17 5135345.56 179.25
-9754932.47 5135345.62 179.21
-9754930.73 5135350.91 179.11
-9754943.67 5135339.08 179.39
-9754944.06 5135337.64 179.41
-9754942.22 5135342.38 179.35
-9754938.99 5135337.29 179.37
-9754935.71 5135339.34 179.32
-9754937.47 5135340.82 179.33
-9754937.14 5135343.77 179.28
-9754939.25 5135344.13 179.30
-9754938.91 5135342.33 179.33
-9754937.22 5135339.08 179.31
-9754933.96 5135337.56 179.32
-9754935.74 5135337.31 179.32
-9754932.51 5135337.55 179.30
-9754930.72 5135343.78 179.18
-9754929.12 5135358.89 178.98
-9754929.12 5135357.40 179.01
-9754927.66 5135355.60 179.00
-9754922.64 5135355.53 179.51
-9754917.65 5135353.77 180.23
-9754925.91 5135355.62 179.00
-9754915.94 5135357.26 180.48
-9754920.66 5135354.07 179.67
-9754915.91 5135353.71 180.52
-9754914.11 5135358.96 180.85
-9754918.23 5135359.32 180.07
-9754909.40 5135358.93 181.61
-9754914.14 5135353.97 180.79
-9754911.14 5135357.18 181.37
-9754912.93 5135357.17 180.99
-9754907.64 5135357.15 181.41
-9754911.20 5135358.96 181.37
-9754908.32 5135356.15 182.40
-9754909.13 5135353.85 182.40
-9754908.41 5135356.90 182.11
-9754907.67 5135353.63 181.41
-9754925.85 5135360.63 179.09
-9754917.36 5135360.52 180.24
-9754911.18 5135360.73 181.32
-9754907.33 5135360.45 181.37
-9754905.87 5135355.69 181.32
-9754906.20 5135357.20 181.35
-9754905.90 5135353.91 181.33
-9754904.36 5135360.71 181.31
-9754902.65 5135360.38 181.31
-9754929.17 5135348.81 179.10
-9754929.19 5135350.62 179.08
-9754929.19 5135352.07 179.07
-9754927.44 5135347.35 179.08
-9754927.47 5135345.50 179.10
-9754927.42 5135348.80 179.06
-9754930.73 5135334.05 179.28
-9754927.45 5135344.05 179.10
-9754929.01 5135334.27 179.26
-9754924.14 5135352.33 179.27
-9754919.18 5135350.74 179.86
-9754923.94 5135347.28 179.21
-9754922.68 5135352.01 179.48
-9754925.65 5135348.82 179.02
-9754917.40 5135352.24 180.18
-9754919.51 5135345.72 179.74
-9754924.18 5135345.56 179.16
-9754917.38 5135350.43 180.18
-9754914.42 5135350.70 180.76
-9754912.72 5135347.12 180.99
-9754912.73 5135348.85 180.96
-9754909.20 5135347.25 182.37
-9754907.37 5135350.60 181.35
-9754909.42 5135350.59 182.35
-9754907.44 5135349.12 181.38
-9754909.49 5135347.39 181.60
-9754909.42 5135348.88 181.60
-9754910.98 5135349.16 181.36
-9754909.10 5135345.63 182.37
-9754910.99 5135345.89 181.29
-9754907.66 5135347.06 181.45
-9754927.51 5135334.27 179.23
-9754924.25 5135337.29 179.13
-9754921.03 5135337.49 179.51
-9754923.95 5135336.00 179.15
-9754922.75 5135338.99 179.31
-9754915.70 5135344.20 180.43
-9754924.23 5135340.79 179.09
-9754925.97 5135340.78 179.14
-9754917.69 5135340.49 179.95
-9754917.15 5135342.49 180.19
-9754916.00 5135337.44 180.22
-9754917.70 5135342.20 180.06
-9754919.20 5135340.71 179.77
-9754924.20 5135338.99 179.11
-9754915.71 5135334.14 180.23
-9754909.20 5135344.16 181.51
-9754910.97 5135335.54 181.13
-9754910.99 5135338.83 181.20
-9754907.65 5135344.40 181.18
-9754912.78 5135340.59 180.92
-9754914.23 5135338.87 180.54
-9754909.24 5135335.85 181.48
-9754908.98 5135338.99 182.35
-9754912.79 5135335.84 180.76
-9754907.76 5135335.85 181.42
-9754907.48 5135342.66 181.41
-9754908.01 5135342.74 182.38
-9754907.71 5135339.10 181.43
-9754909.21 5135344.01 182.37
-9754907.75 5135337.37 181.44
-9754904.43 5135350.63 181.30
-9754902.96 5135352.08 181.28
-9754904.44 5135347.45 181.27
-9754906.19 5135345.88 181.31
-9754907.79 5135333.82 181.44
-9754906.26 5135335.81 181.27
-9754904.45 5135335.50 181.22
-9754904.51 5135340.84 181.26
-9754905.96 5135343.79 181.29
-9754906.29 5135337.35 181.27
-9754904.28 5135334.06 181.23
-9754900.89 5135358.90 181.27
-9754891.25 5135358.75 188.90
-9754894.37 5135354.09 181.17
-9754892.59 5135358.85 188.63
-9754894.58 5135358.93 185.97
-9754897.94 5135357.11 181.19
-9754899.34 5135355.63 181.24
-9754897.65 5135355.61 181.19
-9754889.65 5135353.78 181.30
-9754889.67 5135360.68 190.38
-9754893.72 5135361.73 187.70
-9754887.96 5135358.72 190.39
-9754886.24 5135357.20 190.05
-9754877.94 5135358.90 185.43
-9754882.98 5135358.80 185.54
-9754882.69 5135353.88 184.26
-9754884.75 5135355.69 185.58
-9754882.98 5135356.26 185.81
-9754880.25 5135357.76 183.34
-9754886.34 5135354.70 186.66
-9754888.36 5135359.19 183.93
-9754887.93 5135359.69 185.23
-9754885.89 5135360.74 190.58
-9754884.30 5135360.23 187.90
-9754882.12 5135360.63 185.21
-9754900.91 5135345.87 181.21
-9754901.22 5135352.43 181.25
-9754896.21 5135352.34 181.16
-9754897.71 5135348.82 181.17
-9754889.73 5135350.21 181.28
-9754891.20 5135347.57 181.25
-9754896.16 5135350.86 181.15
-9754891.19 5135352.06 181.27
-9754894.68 5135352.37 181.14
-9754899.72 5135350.65 181.23
-9754898.01 5135345.88 181.15
-9754897.67 5135347.02 181.14
-9754894.41 5135349.10 181.11
-9754899.72 5135345.61 181.19
-9754887.97 5135350.46 182.20
-9754900.98 5135340.52 181.19
-9754900.98 5135342.27 181.19
-9754892.69 5135337.50 181.10
-9754894.53 5135339.34 181.09
-9754899.55 5135335.77 181.15
-9754897.74 5135339.05 181.12
-9754894.45 5135337.20 181.08
-9754890.98 5135336.86 187.78
-9754894.71 5135344.07 181.09
-9754894.77 5135342.27 181.09
-9754899.22 5135337.30 181.15
-9754893.02 5135339.03 181.09
-9754890.93 5135340.80 181.24
-9754894.80 5135335.79 181.08
-9754897.69 5135344.07 181.14
-9754892.45 5135336.92 187.98
-9754891.29 5135335.73 181.19
-9754889.74 5135337.15 181.24
-9754889.54 5135336.57 187.69
-9754894.37 5135337.07 188.02
-9754897.75 5135334.01 181.09
-9754889.56 5135339.86 181.94
-9754887.79 5135345.64 182.49
-9754876.20 5135352.35 184.62
-9754881.49 5135347.42 182.80
-9754886.15 5135349.01 182.39
-9754877.92 5135350.67 184.05
-9754879.72 5135345.96 183.86
-9754882.92 5135345.43 182.52
-9754876.45 5135349.06 185.65
-9754876.51 5135347.38 184.76
-9754886.58 5135345.52 182.55
-9754884.55 5135345.31 183.51
-9754887.12 5135347.74 183.39
-9754888.32 5135335.72 181.45
-9754888.01 5135334.24 181.62
-9754888.68 5135336.91 187.52
-9754887.66 5135339.33 181.82
-9754886.11 5135340.61 182.90
-9754884.41 5135335.77 182.77
-9754881.27 5135340.58 182.95
-9754884.71 5135340.62 183.85
-9754881.50 5135342.45 182.91
-9754884.52 5135338.99 182.82
-9754883.04 5135337.62 182.65
-9754886.14 5135337.30 182.77
-9754876.53 5135338.93 185.92
-9754886.85 5135335.39 181.71
-9754885.69 5135336.16 183.64
-9754879.81 5135342.49 183.22
-9754880.06 5135344.18 183.30
-9754883.43 5135337.61 183.77
-9754886.83 5135337.52 181.69
-9754879.84 5135342.83 185.07
-9754887.59 5135336.49 182.53
-9754886.55 5135333.93 181.69
-9754883.03 5135334.39 183.93
-9754874.37 5135343.76 185.73
-9755080.96 5135317.58 181.53
-9755080.89 5135322.62 181.53
-9755080.86 5135329.14 181.55
-9755078.88 5135319.35 181.57
-9755078.86 5135322.63 181.56
-9755077.37 5135327.33 181.57
-9755078.78 5135334.18 181.56
-9755072.38 5135319.29 182.61
-9755068.82 5135319.33 181.28
-9755074.14 5135317.53 181.60
-9755066.13 5135317.83 180.69
-9755067.37 5135319.31 181.12
-9755072.41 5135319.05 181.64
-9755075.32 5135321.07 181.59
-9755069.33 5135327.13 184.23
-9755065.56 5135325.91 185.46
-9755067.36 5135325.81 184.13
-9755067.38 5135327.64 184.50
-9755072.32 5135325.82 182.64
-9755067.31 5135326.00 183.36
-9755067.57 5135327.42 185.98
-9755074.12 5135322.53 181.62
-9755069.10 5135325.84 181.44
-9755074.18 5135320.85 181.60
-9755069.10 5135321.14 181.34
-9755075.56 5135329.35 181.60
-9755071.09 5135330.87 182.62
-9755065.79 5135324.18 184.48
-9755070.87 5135321.06 181.70
-9755069.21 5135324.28 184.04
-9755071.98 5135324.36 181.67
-9755071.36 5135324.23 182.54
-9755065.83 5135332.46 184.47
-9755066.50 5135332.70 185.76
-9755068.83 5135322.59 181.35
-9755065.94 5135325.63 184.60
-9755067.29 5135329.04 181.15
-9755065.56 5135326.10 180.89
-9755075.60 5135325.81 181.60
-9755069.09 5135331.11 181.75
-9755066.86 5135323.25 185.36
-9755066.08 5135324.67 185.55
-9755074.07 5135332.35 181.62
-9755072.63 5135330.88 181.68
-9755068.78 5135323.32 185.27
-9755073.25 5135321.10 181.69
-9755070.57 5135325.84 185.63
-9755070.27 5135329.35 181.70
-9755066.76 5135331.58 184.00
-9755067.05 5135331.58 185.29
-9755070.87 5135334.30 182.63
-9755065.75 5135334.29 184.28
-9755068.45 5135336.00 183.41
-9755072.41 5135316.01 182.59
-9755080.69 5135309.63 181.53
-9755078.89 5135312.87 181.55
-9755074.20 5135316.07 181.61
-9755068.83 5135316.04 181.20
-9755070.93 5135314.53 181.55
-9755074.17 5135311.35 181.64
-9755072.47 5135312.79 182.60
-9755069.21 5135312.51 181.28
-9755072.54 5135310.99 182.60
-9755073.34 5135312.80 182.58
-9755067.42 5135312.53 181.03
-9755072.56 5135309.45 182.61
-9755073.59 5135309.19 182.63
-9755064.01 5135319.43 180.93
-9755064.40 5135326.11 180.78
-9755064.27 5135321.08 180.86
-9755062.62 5135321.00 180.92
-9755062.55 5135326.10 180.68
-9755062.86 5135332.37 180.42
-9755063.82 5135330.90 184.16
-9755062.87 5135329.39 180.83
-9755064.10 5135322.56 180.68
-9755061.11 5135321.00 180.77
-9755060.71 5135325.82 180.72
-9755060.91 5135330.50 180.66
-9755060.82 5135324.04 180.75
-9755063.27 5135330.92 184.41
-9755061.71 5135332.65 185.10
-9755064.94 5135327.19 184.83
-9755063.99 5135334.31 186.15
-9755062.96 5135333.88 184.02
-9755064.31 5135333.83 180.69
-9755062.94 5135333.51 185.65
-9755062.82 5135334.13 180.41
-9755063.11 5135335.35 183.31
-9755061.66 5135333.58 185.52
-9755061.59 5135334.92 184.58
-9755062.86 5135334.45 183.26
-9755060.95 5135317.39 213.98
-9755054.40 5135317.82 179.55
-9755054.04 5135319.32 179.49
-9755055.83 5135319.31 179.68
-9755059.41 5135319.01 180.09
-9755052.56 5135319.33 179.31
-9755059.11 5135319.36 180.06
-9755058.67 5135321.07 180.45
-9755055.81 5135330.90 179.55
-9755060.00 5135332.70 180.41
-9755057.62 5135325.81 179.82
-9755052.62 5135321.09 179.31
-9755055.73 5135332.64 179.50
-9755059.10 5135324.62 180.06
-9755057.92 5135327.19 180.13
-9755051.10 5135325.83 179.34
-9755054.34 5135329.08 179.35
-9755059.25 5135329.64 180.30
-9755051.04 5135330.87 179.31
-9755051.09 5135322.27 179.37
-9755049.36 5135321.10 179.42
-9755047.87 5135322.53 179.43
-9755047.83 5135329.07 179.39
-9755058.14 5135334.91 180.23
-9755059.35 5135334.20 180.47
-9755057.55 5135333.85 179.77
-9755052.51 5135334.13 179.24
-9755049.27 5135333.80 179.33
-9755047.77 5135334.40 179.34
-9755044.31 5135317.78 179.52
-9755046.13 5135317.80 179.48
-9755044.32 5135327.81 179.44
-9755044.58 5135332.64 179.40
-9755046.37 5135329.08 179.41
-9755046.05 5135324.30 179.45
-9755042.53 5135334.06 179.41
-9755060.81 5135315.94 214.07
-9755041.40 5135317.77 179.54
-9755039.56 5135332.29 179.39
-9755041.07 5135322.81 179.49
-9755039.54 5135334.31 179.37
-9755041.32 5135333.98 179.38
-9755064.17 5135314.33 180.36
-9755064.14 5135309.48 180.79
-9755064.17 5135310.74 180.57
-9755062.65 5135312.77 180.33
-9755064.29 5135316.19 214.40
-9755062.38 5135314.56 180.29
-9755052.63 5135312.48 179.40
-9755055.88 5135312.82 179.78
-9755057.38 5135312.78 179.94
-9755058.57 5135314.58 180.03
-9755059.44 5135312.79 180.16
-9755057.68 5135310.76 180.01
-9755059.18 5135309.27 180.22
-9755058.26 5135311.32 180.08
-9755055.92 5135311.37 179.78
-9755058.28 5135309.56 180.12
-9755058.56 5135313.10 180.07
-9755047.93 5135312.79 179.49
-9755047.93 5135311.27 179.51
-9755047.65 5135309.22 179.54
-9755045.86 5135314.54 179.52
-9755039.68 5135312.72 179.55
-9755041.16 5135312.41 179.57
-9755037.87 5135317.41 179.49
-9755029.60 5135319.49 179.33
-9755026.38 5135317.70 179.53
-9755034.61 5135317.72 179.45
-9755032.88 5135317.71 179.41
-9755036.11 5135317.73 179.48
-9755031.34 5135319.23 179.39
-9755028.11 5135317.64 180.34
