-9755326.04 5135292.85 182.61
-9755326.01 5135294.62 182.90
-9755324.26 5135294.68 181.56
-9755329.28 5135296.27 181.41
-9755327.95 5135293.25 182.47
-9755326.14 5135287.57 190.77
-9755334.58 5135292.75 181.47
-9755331.21 5135289.57 190.67
-9755331.32 5135293.03 181.56
-9755332.84 5135292.97 181.48
-9755331.09 5135291.46 181.53
-9755324.61 5135292.94 181.56
-9755331.16 5135287.84 190.13
-9755336.16 5135291.23 181.48
-9755326.05 5135292.67 181.54
-9755335.11 5135291.01 183.39
-9755330.48 5135293.77 183.39
-9755322.79 5135298.00 181.43
-9755322.86 5135306.27 187.38
-9755322.74 5135302.85 184.33
-9755322.71 5135301.33 184.06
-9755324.88 5135302.53 186.69
-9755321.07 5135301.14 184.20
-9755322.78 5135302.17 181.43
-9755316.27 5135297.93 181.48
-9755317.74 5135299.45 181.45
-9755311.05 5135299.36 181.49
-9755319.57 5135304.42 184.15
-9755311.28 5135304.55 184.13
-9755316.42 5135302.89 182.79
-9755319.51 5135306.14 185.91
-9755316.20 5135301.55 183.13
-9755313.08 5135306.17 186.98
-9755319.53 5135300.94 181.43
-9755317.98 5135306.39 185.51
-9755317.83 5135306.15 181.55
-9755319.76 5135304.51 185.79
-9755313.12 5135304.49 185.93
-9755319.21 5135301.44 183.00
-9755319.35 5135302.98 183.01
-9755310.86 5135302.51 182.72
-9755311.42 5135305.70 184.55
-9755311.28 5135304.17 183.28
-9755317.80 5135301.28 183.07
-9755317.72 5135302.16 181.44
-9755316.35 5135301.21 181.48
-9755311.33 5135302.28 181.54
-9755319.34 5135306.11 184.30
-9755312.72 5135305.70 181.57
-9755314.73 5135302.07 181.51
-9755320.01 5135303.61 185.77
-9755309.74 5135302.35 181.55
-9755312.45 5135305.08 181.50
-9755314.74 5135306.20 185.01
-9755320.74 5135304.90 181.48
-9755322.71 5135279.77 190.04
-9755322.66 5135286.31 190.10
-9755322.92 5135289.55 190.66
-9755322.82 5135291.16 181.53
-9755323.16 5135292.91 181.57
-9755316.21 5135279.76 190.03
-9755317.97 5135277.99 190.06
-9755316.18 5135284.47 190.06
-9755314.41 5135282.98 190.04
-9755311.17 5135281.49 190.03
-9755311.20 5135277.94 190.13
-9755312.96 5135281.49 190.04
-9755314.70 5135278.24 190.09
-9755316.21 5135286.27 190.08
-9755314.66 5135291.40 182.42
-9755311.47 5135287.98 190.12
-9755318.20 5135288.05 190.12
-9755312.81 5135292.91 181.55
-9755311.06 5135292.90 182.49
-9755319.43 5135288.10 190.13
-9755314.42 5135288.02 190.11
-9755314.64 5135294.04 182.11
-9755314.77 5135289.79 190.67
-9755312.71 5135291.96 181.41
-9755316.29 5135293.27 182.18
-9755365.67 5135271.87 181.08
-9755367.15 5135271.71 185.97
-9755362.46 5135273.34 180.92
-9755365.66 5135276.36 181.08
-9755370.46 5135276.19 183.61
-9755355.65 5135276.59 181.01
-9755353.91 5135274.78 180.99
-9755375.75 5135266.63 181.41
-9755375.78 5135264.82 181.41
-9755369.06 5135261.54 181.07
-9755372.54 5135263.34 181.42
-9755372.26 5135261.86 181.37
-9755369.21 5135264.93 182.45
-9755372.21 5135268.38 181.38
-9755367.35 5135269.74 182.42
-9755370.49 5135269.68 183.70
-9755369.04 5135263.10 181.26
-9755367.09 5135266.86 185.36
-9755368.65 5135268.18 184.80
-9755362.22 5135264.75 180.96
-9755355.72 5135261.75 181.07
-9755347.68 5135271.80 181.23
-9755345.65 5135271.77 181.30
-9755345.92 5135272.94 181.29
-9755342.71 5135272.93 181.36
-9755334.25 5135271.27 190.11
-9755335.99 5135271.58 190.16
-9755331.27 5135271.56 190.08
-9755330.98 5135273.33 190.08
-9755346.22 5135274.73 181.28
-9755332.76 5135276.59 190.19
-9755325.37 5135276.28 189.97
-9755324.47 5135276.56 190.05
-9755350.80 5135261.49 181.03
-9755349.19 5135269.69 180.92
-9755348.96 5135264.97 180.97
-9755349.20 5135266.50 180.95
-9755347.77 5135261.64 184.22
-9755347.52 5135260.22 181.23
-9755347.59 5135265.00 185.89
-9755347.40 5135265.00 181.24
-9755347.44 5135262.94 181.22
-9755342.49 5135259.85 181.36
-9755324.50 5135259.67 189.54
-9755345.97 5135263.09 184.41
-9755342.76 5135266.69 181.35
-9755344.17 5135269.70 181.32
-9755344.22 5135268.23 181.30
-9755344.22 5135261.68 181.33
-9755345.95 5135263.26 185.69
-9755345.97 5135263.50 181.27
-9755341.03 5135261.71 181.45
-9755344.18 5135263.16 181.33
-9755340.96 5135268.47 181.41
-9755344.21 5135264.93 181.31
-9755345.73 5135261.93 181.30
-9755324.53 5135270.02 190.09
-9755334.54 5135268.32 190.11
-9755336.06 5135268.29 190.63
-9755326.35 5135261.75 190.12
-9755336.01 5135269.77 190.60
-9755325.95 5135259.53 190.65
-9755336.04 5135266.50 190.62
-9755325.00 5135259.51 182.46
-9755331.31 5135266.56 190.10
-9755328.04 5135266.50 190.09
-9755334.30 5135261.80 190.12
-9755324.57 5135259.94 190.65
-9755336.04 5135263.24 190.62
-9755336.97 5135264.53 190.60
-9755326.03 5135266.47 190.09
-9755331.07 5135261.79 190.11
-9755326.02 5135268.25 190.09
-9755324.01 5135259.84 187.07
-9755323.32 5135273.01 190.83
-9755323.00 5135274.81 190.05
-9755321.21 5135276.25 190.11
-9755311.22 5135271.41 190.06
-9755314.47 5135271.52 190.08
-9755316.22 5135273.24 190.06
-9755318.05 5135273.26 190.05
-9755312.98 5135273.27 190.07
-9755314.76 5135276.44 190.16
-9755319.48 5135274.75 190.06
-9755318.01 5135274.72 190.06
-9755311.46 5135274.68 190.12
-9755322.86 5135259.69 181.63
-9755322.79 5135266.51 190.11
-9755323.01 5135259.39 189.62
-9755322.69 5135259.70 186.90
-9755321.68 5135259.58 189.77
-9755321.27 5135268.27 190.10
-9755318.02 5135269.67 190.08
-9755313.00 5135269.98 190.09
-9755313.30 5135259.91 183.59
-9755314.55 5135263.18 190.10
-9755317.82 5135259.92 190.65
-9755313.11 5135259.92 190.66
-9755314.51 5135266.44 190.08
-9755318.07 5135266.44 190.08
-9755319.07 5135259.78 189.66
-9755313.02 5135266.68 190.09
-9755319.28 5135261.71 190.11
-9755314.52 5135268.16 190.08
-9755313.04 5135268.19 190.09
-9755316.22 5135260.00 181.66
-9755319.39 5135259.64 187.51
-9755317.76 5135260.03 186.93
-9755313.15 5135259.71 183.25
-9755319.70 5135259.50 184.32
-9755319.32 5135259.41 186.11
-9755318.08 5135259.91 181.70
-9755319.52 5135266.45 190.09
-9755316.29 5135261.41 190.12
-9755315.71 5135259.65 189.80
-9755314.54 5135264.96 190.08
-9755314.25 5135259.49 188.71
-9755314.87 5135260.09 181.67
-9755311.42 5135259.87 189.61
-9755311.51 5135259.74 181.67
-9755311.26 5135269.95 190.09
-9755317.76 5135264.93 190.07
-9755311.33 5135260.10 186.92
-9755313.01 5135259.94 181.66
-9755320.59 5135259.51 182.14
-9755317.21 5135259.57 186.23
-9755313.37 5135259.58 185.47
-9755309.54 5135358.98 185.64
-9755309.82 5135347.30 182.05
-9755309.58 5135330.89 185.83
-9755309.92 5135334.19 187.48
-9755309.94 5135309.61 185.64
-9755309.41 5135320.92 182.45
-9755309.63 5135291.34 182.52
-9755309.71 5135353.80 182.33
-9755309.74 5135355.82 185.64
-9755309.67 5135326.03 181.56
-9755309.46 5135312.57 184.36
-9755309.64 5135316.02 184.03
-9755309.78 5135316.45 182.48
-9755294.89 5135441.32 184.32
-9755293.35 5135438.30 184.97
-9755295.20 5135436.26 185.71
-9755294.67 5135426.61 187.49
-9755293.16 5135431.47 186.22
-9755293.26 5135416.52 189.04
-9755293.34 5135414.81 190.13
-9755299.69 5135418.62 188.10
-9755297.98 5135412.93 191.21
-9755296.89 5135411.70 192.02
-9755299.76 5135413.19 192.00
-9755296.00 5135413.41 193.02
-9755303.04 5135406.45 188.98
-9755300.13 5135408.87 192.02
-9755302.72 5135409.87 192.05
-9755296.82 5135410.75 190.00
-9755294.47 5135414.34 191.69
-9755294.09 5135414.23 191.46
-9755298.05 5135401.71 189.01
-9755298.05 5135399.93 189.01
-9755296.58 5135403.17 189.00
-9755303.12 5135401.75 188.97
-9755301.60 5135399.94 188.99
-9755298.01 5135394.77 192.82
-9755295.05 5135396.29 192.64
-9755294.94 5135395.18 192.49
-9755293.13 5135395.27 192.45
-9755294.70 5135394.68 202.97
-9755293.22 5135396.15 192.60
-9755293.23 5135395.23 203.73
-9755304.58 5135393.29 192.69
-9755301.36 5135393.76 192.60
-9755303.23 5135391.87 202.84
-9755299.97 5135391.75 192.36
-9755296.45 5135394.79 208.50
-9755292.96 5135393.00 203.61
-9755293.40 5135393.50 192.36
-9755294.90 5135393.21 192.35
-9755293.41 5135391.70 192.34
-9755298.20 5135381.58 188.96
-9755305.71 5135380.25 182.69
-9755304.69 5135383.72 193.33
-9755302.94 5135383.77 193.31
-9755305.21 5135380.14 186.20
-9755299.76 5135384.53 191.32
-9755297.97 5135386.72 193.82
-9755296.42 5135386.72 192.31
-9755299.95 5135380.38 188.93
-9755308.20 5135380.30 186.40
-9755305.99 5135378.35 184.03
-9755296.39 5135385.14 192.51
-9755301.77 5135383.61 191.42
-9755305.77 5135383.59 186.18
-9755298.17 5135380.09 188.95
-9755297.83 5135385.21 189.00
-9755296.29 5135385.19 189.10
-9755296.41 5135380.35 188.96
-9755304.90 5135380.16 183.93
-9755296.30 5135383.42 181.83
-9755299.62 5135383.65 188.98
-9755298.01 5135382.00 181.67
-9755306.20 5135382.64 192.74
-9755305.26 5135383.23 191.11
-9755298.16 5135385.18 181.70
-9755296.67 5135384.83 181.72
-9755296.63 5135383.66 181.66
-9755301.40 5135386.75 192.30
-9755301.41 5135380.40 188.93
-9755305.05 5135381.84 184.54
-9755306.52 5135382.96 190.44
-9755299.56 5135384.06 193.27
-9755298.04 5135383.67 181.66
-9755307.98 5135383.19 186.36
-9755306.31 5135378.07 181.57
-9755307.85 5135382.10 192.41
-9755296.56 5135385.23 190.74
-9755308.39 5135382.32 189.01
-9755297.50 5135380.48 181.64
-9755296.60 5135385.42 187.45
-9755304.64 5135389.99 192.36
-9755296.95 5135384.85 185.84
-9755303.92 5135382.24 189.07
-9755307.94 5135382.31 193.29
-9755301.43 5135390.03 192.34
-9755306.70 5135382.46 187.25
-9755301.74 5135382.67 192.52
-9755295.92 5135382.03 188.12
-9755296.95 5135384.98 183.91
-9755300.03 5135384.27 191.31
-9755298.03 5135385.09 182.48
-9755305.60 5135381.32 184.54
-9755296.31 5135385.22 182.15
-9755304.09 5135381.26 181.62
-9755293.35 5135381.82 182.87
-9755294.95 5135389.98 192.31
-9755294.63 5135385.51 192.38
-9755294.86 5135383.62 182.37
-9755294.98 5135386.73 192.30
-9755293.20 5135385.82 193.32
-9755294.77 5135385.19 182.74
-9755292.91 5135386.04 186.46
-9755293.30 5135385.84 184.51
-9755293.70 5135385.13 183.09
-9755292.51 5135383.89 183.44
-9755294.30 5135378.57 182.09
-9755294.76 5135385.30 193.27
-9755295.00 5135385.68 189.02
-9755294.82 5135380.08 181.98
-9755292.67 5135386.56 187.65
-9755294.63 5135381.89 182.21
-9755294.98 5135385.63 187.39
-9755293.77 5135385.71 189.05
-9755293.44 5135385.83 186.24
-9755294.55 5135385.36 183.63
-9755295.22 5135380.09 188.12
-9755292.76 5135386.55 189.41
-9755294.87 5135385.59 186.46
-9755295.80 5135381.90 181.78
-9755293.09 5135385.96 190.33
-9755305.25 5135389.31 203.63
-9755301.53 5135390.44 203.60
-9755306.26 5135376.95 184.23
-9755299.70 5135376.81 188.96
-9755296.43 5135377.11 188.96
-9755298.20 5135376.83 188.96
-9755305.45 5135377.43 186.26
-9755302.34 5135377.74 189.10
-9755305.53 5135377.30 184.51
-9755294.64 5135377.65 188.22
-9755293.64 5135377.99 188.50
-9755306.53 5135372.24 182.39
-9755299.69 5135367.12 181.64
-9755296.46 5135365.35 181.61
-9755298.20 5135365.36 181.61
-9755306.53 5135371.74 183.99
-9755306.38 5135375.16 183.94
-9755304.92 5135366.83 181.66
-9755307.96 5135367.21 186.34
-9755297.58 5135369.60 185.45
-9755306.19 5135368.93 181.63
-9755307.09 5135367.27 186.19
-9755303.24 5135365.39 181.63
-9755306.37 5135375.40 181.63
-9755307.60 5135366.77 184.40
-9755296.46 5135370.13 185.47
-9755301.18 5135368.84 184.34
-9755304.93 5135373.64 181.62
-9755307.47 5135367.16 182.28
-9755299.72 5135373.57 188.94
-9755306.44 5135371.72 186.04
-9755307.43 5135365.61 182.74
-9755306.33 5135375.74 182.77
-9755296.44 5135373.56 188.94
-9755307.97 5135372.26 186.37
-9755298.22 5135368.94 181.65
-9755307.02 5135365.22 183.79
-9755298.25 5135370.32 188.96
-9755299.46 5135368.90 189.10
-9755296.48 5135375.40 188.96
-9755307.39 5135368.47 182.64
-9755298.20 5135370.61 181.62
-9755296.48 5135370.35 181.66
-9755307.43 5135369.70 183.83
-9755306.46 5135366.82 181.65
-9755307.37 5135365.33 183.79
-9755307.50 5135368.40 181.67
-9755296.86 5135369.91 184.72
-9755298.40 5135368.83 185.40
-9755296.44 5135368.89 181.65
-9755296.54 5135371.58 181.64
-9755296.44 5135366.83 181.63
-9755307.61 5135365.42 181.64
-9755295.87 5135370.05 188.10
-9755307.11 5135365.31 182.62
-9755306.20 5135372.23 181.64
-9755307.49 5135370.45 181.63
-9755297.34 5135369.39 188.08
-9755293.31 5135373.55 188.93
-9755295.04 5135370.30 188.99
-9755294.71 5135372.06 188.95
-9755294.94 5135370.31 181.63
-9755293.18 5135368.82 181.63
-9755293.18 5135370.54 189.07
-9755294.06 5135370.66 183.72
-9755295.20 5135371.74 181.64
-9755292.66 5135371.84 181.70
-9755292.62 5135375.93 188.30
-9755295.12 5135369.97 188.10
-9755306.26 5135360.46 185.52
-9755306.20 5135361.81 183.86
-9755303.25 5135360.29 181.54
-9755304.84 5135358.69 185.46
-9755306.54 5135362.23 185.51
-9755303.00 5135361.79 181.57
-9755306.08 5135362.34 181.49
-9755297.98 5135358.81 181.51
-9755304.33 5135360.37 182.67
-9755303.24 5135358.85 181.51
-9755308.02 5135362.25 185.59
-9755303.26 5135357.07 181.49
-9755304.63 5135357.56 184.44
-9755303.59 5135360.70 182.62
-9755305.95 5135357.13 183.04
-9755306.22 5135357.14 181.60
-9755305.82 5135360.57 183.69
-9755305.57 5135358.81 181.58
-9755308.03 5135362.23 187.18
-9755309.19 5135362.21 187.18
-9755295.03 5135359.08 181.51
-9755294.72 5135357.03 181.45
-9755306.65 5135363.42 182.73
-9755299.72 5135363.90 181.59
-9755307.23 5135364.02 181.65
-9755293.18 5135363.55 181.57
-9755309.27 5135350.77 184.13
-9755301.54 5135355.58 181.45
-9755307.99 5135357.09 181.67
-9755306.32 5135350.49 183.98
-9755298.28 5135353.81 181.42
-9755306.44 5135353.80 181.45
-9755304.75 5135349.01 184.54
-9755301.28 5135349.05 181.35
-9755304.83 5135350.77 182.10
-9755304.65 5135351.97 182.57
-9755298.32 5135350.56 181.36
-9755299.80 5135350.85 181.38
-9755307.80 5135349.59 183.72
-9755306.33 5135350.89 181.42
-9755299.78 5135352.35 181.41
-9755306.98 5135350.44 182.80
-9755308.09 5135349.36 182.96
-9755296.55 5135350.55 181.37
-9755305.35 5135353.58 182.62
-9755308.38 5135356.02 184.61
-9755305.18 5135354.72 183.99
-9755295.87 5135355.87 182.56
-9755295.93 5135354.37 182.52
-9755295.64 5135354.42 182.48
-9755299.77 5135344.05 181.27
-9755306.28 5135345.53 181.37
-9755307.86 5135345.56 183.92
-9755304.86 5135340.52 181.25
-9755306.31 5135345.70 183.90
-9755304.77 5135345.52 181.28
-9755304.79 5135343.75 181.30
-9755296.62 5135340.43 181.22
-9755299.62 5135342.16 185.71
-9755306.03 5135339.01 181.23
-9755296.29 5135339.10 181.20
-9755303.08 5135340.50 181.26
-9755296.55 5135345.53 181.29
-9755296.57 5135343.74 181.27
-9755308.07 5135340.52 181.25
-9755301.26 5135345.77 181.30
-9755301.24 5135347.28 181.32
-9755299.84 5135340.50 181.25
-9755300.03 5135340.97 184.44
-9755300.09 5135345.54 181.28
-9755298.75 5135339.36 184.69
-9755309.15 5135347.78 184.61
-9755296.11 5135343.69 184.40
-9755303.36 5135346.06 182.58
-9755304.88 5135345.20 182.50
-9755302.85 5135337.52 181.20
-9755296.31 5135343.52 185.21
-9755298.50 5135338.54 186.58
-9755299.92 5135337.28 181.21
-9755295.15 5135342.42 186.06
-9755294.46 5135340.74 187.63
-9755294.89 5135340.93 188.95
-9755294.83 5135344.04 181.25
-9755294.83 5135339.20 189.35
-9755292.81 5135339.19 184.35
-9755292.93 5135338.84 185.89
-9755294.68 5135339.06 190.75
-9755293.31 5135342.23 181.22
-9755293.57 5135338.90 181.19
-9755293.32 5135347.26 181.29
-9755293.28 5135340.53 181.21
-9755292.80 5135340.29 184.29
-9755294.81 5135340.80 181.22
-9755293.13 5135337.34 187.34
-9755294.85 5135338.95 181.20
-9755294.61 5135339.31 187.87
-9755293.03 5135345.55 181.27
-9755294.71 5135337.18 189.03
-9755294.53 5135339.55 184.31
-9755295.12 5135339.69 185.93
-9755295.73 5135338.90 183.95
-9755294.42 5135336.98 188.00
-9755306.45 5135320.92 182.49
-9755298.15 5135320.88 182.54
-9755302.93 5135321.17 182.48
-9755304.69 5135319.42 182.58
-9755296.18 5135319.36 182.53
-9755296.97 5135337.66 184.92
-9755308.12 5135334.07 181.16
-9755297.86 5135334.01 181.10
-9755304.55 5135333.98 181.15
-9755302.85 5135332.49 181.16
-9755306.13 5135326.01 181.65
-9755298.22 5135334.08 185.80
-9755308.13 5135332.37 184.41
-9755303.14 5135334.00 181.16
-9755303.19 5135322.68 182.32
-9755299.84 5135333.94 181.12
-9755303.44 5135326.29 181.68
-9755307.86 5135329.32 181.19
-9755304.65 5135329.26 181.19
-9755296.90 5135337.49 187.04
-9755302.88 5135329.27 181.22
-9755298.12 5135335.95 187.72
-9755304.92 5135325.98 181.69
-9755298.20 5135325.94 181.89
-9755306.41 5135327.84 181.33
-9755296.97 5135335.59 187.53
-9755309.29 5135334.12 184.00
-9755301.67 5135327.75 181.48
-9755296.42 5135322.94 182.39
-9755309.59 5135332.33 184.14
-9755301.41 5135325.70 181.86
-9755296.39 5135327.70 181.62
-9755298.07 5135332.48 181.11
-9755308.03 5135336.25 184.40
-9755307.86 5135335.78 181.20
-9755294.70 5135334.14 187.65
-9755294.93 5135335.94 188.97
-9755294.56 5135334.38 183.65
-9755293.13 5135334.39 184.04
-9755294.96 5135322.61 182.42
-9755293.47 5135334.06 185.95
-9755293.21 5135334.23 187.59
-9755294.89 5135333.97 181.08
-9755295.83 5135329.25 182.06
-9755294.88 5135331.03 181.14
-9755294.91 5135325.93 181.99
-9755294.93 5135324.13 182.28
-9755296.27 5135335.73 181.19
-9755295.14 5135335.80 185.07
-9755294.86 5135333.00 184.99
-9755294.56 5135336.00 181.16
-9755297.42 5135337.95 183.98
-9755306.06 5135337.29 184.78
-9755294.97 5135335.83 190.62
-9755303.05 5135312.61 184.30
-9755297.97 5135312.90 185.82
-9755307.96 5135314.31 185.92
-9755298.09 5135314.29 187.59
-9755298.18 5135317.57 184.12
-9755308.01 5135311.12 184.43
-9755299.67 5135312.46 184.18
-9755296.54 5135314.43 186.04
-9755301.27 5135310.99 185.85
-9755301.34 5135314.35 185.75
-9755308.00 5135316.08 185.60
-9755306.52 5135316.06 184.28
-9755298.26 5135317.51 185.75
-9755306.42 5135317.67 182.63
-9755306.62 5135312.86 184.58
-9755308.19 5135312.63 184.14
-9755299.69 5135315.91 187.23
-9755304.61 5135313.93 185.34
-9755309.19 5135313.96 187.39
-9755298.30 5135312.58 182.36
-9755299.99 5135313.24 187.39
-9755302.82 5135311.64 184.28
-9755308.04 5135316.16 184.18
-9755296.77 5135316.14 182.62
-9755303.01 5135314.21 184.04
-9755297.07 5135314.41 187.25
-9755298.20 5135311.39 182.19
-9755296.45 5135314.88 184.11
-9755307.77 5135316.76 183.09
-9755309.49 5135315.70 186.77
-9755305.98 5135314.64 182.56
-9755302.63 5135312.66 186.71
-9755294.99 5135315.83 182.60
-9755295.00 5135317.89 182.61
-9755294.89 5135310.80 187.51
-9755304.78 5135304.70 185.76
-9755303.01 5135302.80 184.17
-9755301.54 5135305.95 185.76
-9755304.53 5135303.12 184.48
-9755304.78 5135301.15 181.56
-9755308.06 5135307.72 186.07
-9755299.75 5135306.34 183.84
-9755299.78 5135304.53 183.95
-9755308.08 5135299.68 181.52
-9755306.56 5135299.72 181.54
-9755302.96 5135307.74 187.43
-9755296.50 5135301.32 181.57
-9755310.01 5135304.25 182.98
-9755302.97 5135305.90 185.83
-9755303.04 5135299.65 181.56
-9755303.10 5135308.14 189.11
-9755301.27 5135302.39 183.07
-9755296.56 5135299.27 181.56
-9755303.02 5135302.80 181.59
-9755301.36 5135302.63 181.54
-9755303.20 5135301.42 183.32
-9755299.57 5135302.54 183.04
-9755299.77 5135307.39 181.69
-9755297.39 5135306.49 185.43
-9755308.05 5135302.54 182.95
-9755306.15 5135302.51 182.99
-9755300.97 5135308.26 184.36
-9755297.93 5135301.97 182.72
-9755298.02 5135302.55 181.62
-9755306.25 5135302.66 181.55
-9755307.52 5135304.19 185.33
-9755299.74 5135306.23 183.36
-9755296.57 5135306.06 181.61
-9755301.41 5135305.82 181.56
-9755297.41 5135307.42 185.29
-9755301.00 5135307.18 181.66
-9755300.79 5135304.90 181.55
-9755303.00 5135305.22 181.55
-9755296.55 5135302.50 181.56
-9755294.76 5135302.72 184.04
-9755293.22 5135304.36 184.31
-9755293.25 5135301.02 181.55
-9755293.51 5135302.54 181.58
-9755292.95 5135306.07 187.42
-9755293.53 5135307.22 181.69
-9755292.75 5135306.05 183.94
-9755294.82 5135302.71 181.56
-9755295.11 5135299.56 181.55
-9755293.84 5135307.71 184.43
-9755301.44 5135309.56 185.87
-9755300.92 5135309.53 184.53
-9755298.23 5135310.02 185.53
-9755298.55 5135307.85 181.74
-9755299.75 5135309.36 181.86
-9755301.08 5135309.33 181.98
-9755302.46 5135309.56 186.05
-9755307.98 5135310.29 186.87
-9755293.25 5135309.32 187.53
-9755294.95 5135308.04 181.76
-9755295.30 5135308.02 187.21
-9755296.18 5135309.46 187.10
-9755293.32 5135309.51 182.03
-9755296.16 5135310.24 186.93
-9755301.28 5135293.50 182.04
-9755301.88 5135292.36 180.81
-9755299.81 5135292.81 181.75
-9755303.07 5135292.88 181.48
-9755308.04 5135293.14 181.52
-9755304.56 5135291.32 181.48
-9755304.57 5135294.56 181.48
-9755308.09 5135291.35 181.49
-9755298.00 5135292.85 178.88
-9755299.64 5135293.10 181.61
-9755302.77 5135294.02 182.10
-9755296.61 5135294.56 181.55
-9755297.73 5135290.89 181.27
-9755300.99 5135292.50 178.86
-9755296.57 5135294.41 182.07
-9755296.67 5135290.67 190.38
-9755293.13 5135290.55 189.37
-9755301.28 5135296.08 181.53
-9755303.05 5135297.85 181.53
-9755298.05 5135296.34 181.58
-9755293.28 5135296.28 182.82
-9755307.87 5135289.72 190.67
-9755306.45 5135287.99 190.13
-9755301.39 5135287.98 190.12
-9755296.44 5135286.46 190.10
-9755301.68 5135284.69 190.09
-9755295.19 5135290.26 189.34
-9755294.94 5135282.91 190.05
-9755306.17 5135279.69 190.09
-9755304.67 5135279.71 190.09
-9755298.23 5135279.67 190.06
-9755295.01 5135279.61 190.06
-9755293.23 5135279.64 190.05
-9755301.44 5135281.44 190.05
-9755299.69 5135281.75 190.05
-9755294.65 5135281.41 190.03
-9755304.80 5135264.88 190.08
-9755299.77 5135263.37 190.11
-9755306.29 5135264.87 190.09
-9755309.54 5135263.11 190.11
-9755308.02 5135266.37 190.07
-9755309.51 5135261.66 190.13
-9755296.55 5135264.84 190.10
-9755298.00 5135266.64 190.09
-9755293.32 5135261.60 190.14
-9755293.01 5135266.62 190.08
-9755298.30 5135271.58 191.38
-9755308.02 5135271.46 190.09
-9755304.71 5135274.64 190.15
-9755307.97 5135276.49 190.20
-9755298.23 5135274.80 193.81
-9755309.77 5135268.46 190.07
-9755301.50 5135278.18 190.13
-9755299.76 5135269.89 190.08
-9755298.30 5135268.09 190.09
-9755309.74 5135274.99 190.14
-9755303.06 5135273.17 191.41
-9755299.57 5135274.77 193.73
-9755307.99 5135278.20 190.14
-9755301.50 5135276.28 193.66
-9755296.49 5135278.15 190.11
-9755300.86 5135273.56 192.50
-9755296.52 5135269.86 190.09
-9755296.26 5135273.56 193.66
-9755293.27 5135268.38 190.07
-9755295.30 5135273.60 193.65
-9755292.61 5135274.81 192.63
-9755293.20 5135278.12 190.09
-9755293.29 5135276.37 193.83
-9755296.07 5135273.72 192.69
-9755304.75 5135259.87 190.66
-9755309.68 5135259.88 183.42
-9755304.79 5135259.97 186.90
-9755306.77 5135259.92 182.56
-9755304.51 5135259.78 189.80
-9755299.83 5135259.99 186.89
-9755305.02 5135259.92 181.66
-9755309.76 5135259.82 189.37
-9755299.76 5135259.91 181.64
-9755298.00 5135259.90 181.67
-9755304.75 5135259.88 183.33
-9755299.82 5135260.08 183.41
-9755300.98 5135259.85 186.07
-9755299.83 5135260.13 190.67
-9755307.76 5135259.98 181.66
-9755309.55 5135259.90 190.66
-9755302.96 5135259.94 183.41
-9755300.70 5135259.52 183.90
-9755301.44 5135259.99 182.19
-9755303.01 5135259.94 181.66
-9755306.46 5135260.01 183.41
-9755306.95 5135259.78 185.97
-9755306.94 5135259.96 189.27
-9755299.76 5135260.21 182.52
-9755296.67 5135259.97 186.90
-9755300.43 5135259.68 185.86
-9755294.84 5135260.05 190.68
-9755294.44 5135260.09 182.31
-9755294.57 5135260.02 183.97
-9755294.70 5135260.10 189.17
-9755293.63 5135260.07 189.95
-9755293.29 5135260.19 186.17
-9755309.48 5135382.12 193.31
-9755309.46 5135366.98 186.32
-9755309.52 5135353.90 181.48
-9755309.60 5135337.41 185.54
-9755309.61 5135339.03 181.25
-9755309.94 5135329.30 181.12
-9755309.59 5135330.74 181.15
-9755309.29 5135334.19 185.74
-9755309.79 5135299.70 181.51
-9755309.82 5135306.21 185.93
-9755309.56 5135408.26 190.25
-9755309.77 5135362.27 185.64
-9755309.61 5135348.96 182.06
-9755309.59 5135345.82 182.07
-9755309.84 5135344.11 181.31
-9755309.43 5135336.14 185.45
-9755309.95 5135329.48 184.56
-9755309.92 5135332.51 181.15
-9755309.44 5135307.64 181.63
-9755309.78 5135304.95 185.57
-9755309.57 5135294.33 181.54
-9755494.21 5135460.80 203.37
-9755484.41 5135459.38 200.26
-9755487.40 5135458.98 203.13
-9755492.40 5135459.27 203.26
-9755487.74 5135459.29 203.16
-9755490.92 5135461.09 203.34
-9755482.67 5135459.39 200.28
-9755486.26 5135459.87 203.16
-9755487.42 5135461.02 203.26
-9755485.67 5135459.77 199.47
-9755484.68 5135460.86 200.76
-9755497.53 5135462.60 203.49
-9755499.14 5135467.59 203.49
-9755495.91 5135466.10 203.48
-9755499.14 5135469.08 203.45
-9755497.37 5135469.37 203.47
-9755494.18 5135462.56 203.47
-9755500.02 5135467.86 203.59
-9755482.63 5135465.86 199.91
-9755485.90 5135467.53 203.49
-9755482.63 5135462.36 200.11
-9755489.13 5135462.77 203.39
-9755487.68 5135462.80 203.37
-9755485.92 5135462.74 203.99
-9755489.10 5135469.31 203.50
-9755482.67 5135467.49 203.50
-9755490.94 5135464.02 203.50
-9755485.85 5135460.72 199.55
-9755480.85 5135469.24 203.47
-9755485.89 5135466.02 203.51
-9755484.36 5135462.62 200.04
-9755480.92 5135462.61 200.13
-9755489.42 5135467.53 203.52
-9755487.66 5135467.54 203.51
-9755481.18 5135467.48 203.48
-9755482.63 5135469.30 203.48
-9755481.09 5135466.58 203.56
-9755479.10 5135462.61 200.17
-9755479.32 5135465.92 199.96
-9755479.41 5135464.11 200.07
-9755479.42 5135461.13 200.25
-9755480.56 5135466.77 203.03
-9755477.43 5135459.31 200.39
-9755471.79 5135459.01 189.56
-9755472.62 5135459.33 185.79
-9755472.47 5135459.27 187.86
-9755476.18 5135459.32 200.42
-9755471.05 5135459.39 186.04
-9755472.72 5135459.46 189.56
-9755471.63 5135459.40 184.36
-9755477.65 5135460.86 200.29
-9755472.59 5135459.43 196.90
-9755472.59 5135459.60 196.52
-9755472.57 5135459.18 193.78
-9755472.92 5135459.30 200.43
-9755474.61 5135467.53 184.02
-9755472.86 5135460.91 185.80
-9755472.80 5135462.66 184.17
-9755471.34 5135462.66 186.20
-9755474.44 5135462.66 192.90
-9755474.77 5135468.85 185.85
-9755474.60 5135467.36 182.66
-9755472.75 5135467.34 181.65
-9755475.49 5135466.14 192.68
-9755474.26 5135467.67 185.99
-9755473.27 5135464.06 182.79
-9755472.86 5135462.72 185.75
-9755472.83 5135461.18 186.68
-9755474.25 5135466.07 192.72
-9755475.70 5135469.55 197.14
-9755476.12 5135465.85 200.00
-9755475.85 5135467.66 199.88
-9755474.21 5135466.08 184.25
-9755473.36 5135464.08 185.90
-9755473.13 5135464.20 183.95
-9755475.96 5135469.19 186.22
-9755473.85 5135460.99 185.74
-9755476.06 5135468.84 192.51
-9755474.90 5135469.07 182.39
-9755474.68 5135467.38 189.06
-9755472.86 5135460.69 190.16
-9755474.81 5135468.67 184.41
-9755473.15 5135462.39 192.97
-9755472.71 5135461.01 184.46
-9755475.71 5135465.70 185.45
-9755473.40 5135462.17 197.30
-9755474.38 5135465.81 181.69
-9755473.10 5135462.59 182.66
-9755476.08 5135467.73 192.55
-9755472.80 5135460.92 196.81
-9755474.29 5135464.17 193.65
-9755472.72 5135464.38 181.63
-9755472.86 5135461.03 189.52
-9755473.93 5135461.04 189.34
-9755474.74 5135467.82 196.36
-9755474.24 5135466.16 196.43
-9755470.97 5135464.37 181.58
-9755472.76 5135462.84 181.65
-9755474.33 5135464.11 196.44
-9755475.86 5135469.44 200.80
-9755473.20 5135462.53 200.37
-9755475.81 5135467.82 196.21
-9755471.31 5135462.86 181.62
-9755474.93 5135467.74 192.72
-9755475.60 5135468.04 193.43
-9755475.19 5135468.61 196.34
-9755474.00 5135464.66 181.68
-9755473.17 5135462.69 189.37
-9755474.68 5135467.84 199.71
-9755473.29 5135462.01 193.73
-9755476.13 5135469.57 186.68
-9755475.53 5135466.02 196.31
-9755473.77 5135463.85 196.59
-9755472.85 5135460.32 193.79
-9755475.44 5135466.16 188.98
-9755475.00 5135467.39 197.13
-9755475.18 5135468.68 192.65
-9755474.11 5135463.37 196.50
-9755495.99 5135457.44 204.06
-9755484.45 5135457.58 199.32
-9755490.99 5135457.55 203.13
-9755492.44 5135457.49 203.13
-9755479.42 5135457.56 200.44
-9755471.13 5135457.62 185.88
-9755472.88 5135457.97 196.80
-9755471.21 5135457.65 189.53
-9755471.39 5135457.28 186.68
-9755472.84 5135457.47 189.47
-9755471.63 5135457.86 193.18
-9755472.29 5135458.28 190.74
-9755471.41 5135457.53 200.58
-9755471.76 5135457.50 197.33
-9755472.43 5135457.35 203.89
-9755469.55 5135459.09 186.36
-9755468.38 5135459.03 186.62
-9755454.61 5135459.44 220.59
-9755468.10 5135460.82 186.75
-9755469.55 5135461.12 186.51
-9755469.27 5135462.64 186.69
-9755468.69 5135460.88 186.68
-9755456.30 5135460.92 220.77
-9755454.58 5135462.61 220.58
-9755457.82 5135469.11 220.61
-9755462.94 5135464.22 207.16
-9755454.83 5135460.95 220.61
-9755456.50 5135465.93 220.62
-9755456.25 5135469.09 220.61
-9755457.81 5135465.87 220.75
-9755456.26 5135467.69 220.60
-9755454.44 5135467.63 220.59
-9755464.34 5135466.39 207.20
-9755457.35 5135462.94 220.78
-9755459.22 5135467.50 220.79
-9755452.74 5135464.37 220.60
-9755452.98 5135460.79 220.60
-9755453.05 5135466.75 222.67
-9755452.77 5135465.96 220.65
-9755453.05 5135469.26 220.64
-9755452.78 5135464.14 221.88
-9755444.85 5135459.17 231.04
-9755442.99 5135459.31 220.82
-9755441.33 5135459.36 220.81
-9755443.21 5135459.12 233.40
-9755443.03 5135464.41 220.82
-9755441.59 5135469.17 220.86
-9755442.99 5135469.11 220.88
-9755447.85 5135465.99 230.97
-9755444.88 5135464.41 231.57
-9755446.91 5135469.56 232.65
-9755446.25 5135467.66 220.79
-9755451.79 5135463.69 222.53
-9755446.67 5135467.87 232.13
-9755446.51 5135467.54 233.36
-9755443.08 5135461.15 220.78
-9755446.72 5135467.45 230.09
-9755444.97 5135465.12 230.59
-9755444.01 5135462.35 226.59
-9755448.03 5135467.35 233.27
-9755443.21 5135467.59 220.80
-9755441.60 5135464.43 220.84
-9755441.51 5135462.85 220.83
-9755444.83 5135467.67 220.81
-9755443.09 5135462.62 220.76
-9755447.07 5135469.20 227.11
-9755447.89 5135466.14 233.35
-9755451.50 5135467.65 220.69
-9755451.27 5135463.22 222.78
-9755448.05 5135469.17 220.77
-9755447.05 5135461.39 226.71
-9755448.15 5135466.89 231.78
-9755444.94 5135465.17 226.63
-9755444.61 5135463.94 228.71
-9755444.61 5135464.28 226.03
-9755444.28 5135461.08 227.07
-9755445.89 5135467.67 228.69
-9755445.69 5135464.83 229.07
-9755446.57 5135469.59 228.62
-9755445.49 5135467.06 233.96
-9755445.56 5135465.12 229.07
-9755446.58 5135469.90 229.62
-9755469.59 5135457.57 186.25
-9755468.08 5135457.88 186.60
-9755467.80 5135457.87 186.68
-9755454.59 5135457.96 220.67
-9755443.02 5135457.56 233.52
-9755446.37 5135457.90 225.94
-9755443.58 5135459.84 226.02
-9755442.23 5135458.01 230.55
-9755442.02 5135457.80 228.67
-9755441.51 5135457.46 220.81
-9755442.78 5135457.16 227.09
-9755442.21 5135457.19 225.99
-9755436.52 5135459.29 208.53
-9755433.33 5135459.23 207.33
-9755438.05 5135459.35 220.89
-9755434.78 5135459.21 220.96
-9755429.94 5135459.67 205.52
-9755432.31 5135459.03 206.79
-9755439.84 5135459.44 220.87
-9755433.45 5135459.30 220.53
-9755430.54 5135459.07 206.58
-9755426.44 5135459.21 203.50
-9755440.82 5135469.06 208.55
-9755434.63 5135462.63 207.33
-9755436.70 5135469.18 206.83
-9755436.42 5135467.61 207.35
-9755438.20 5135464.11 208.51
-9755437.84 5135464.04 207.95
-9755439.35 5135465.93 208.53
-9755436.41 5135462.98 207.41
-9755436.36 5135469.45 206.31
-9755439.61 5135469.05 207.98
-9755436.46 5135464.37 207.39
-9755439.72 5135467.32 220.90
-9755436.52 5135460.81 208.53
-9755439.79 5135464.34 220.91
-9755431.60 5135469.22 204.03
-9755431.41 5135465.88 205.10
-9755439.96 5135467.61 208.52
-9755436.57 5135466.39 220.56
-9755437.94 5135462.54 208.53
-9755430.26 5135460.91 205.41
-9755433.30 5135469.20 205.77
-9755439.93 5135469.09 208.52
-9755434.70 5135464.71 206.26
-9755430.48 5135463.82 205.12
-9755431.69 5135464.46 205.61
-9755434.77 5135462.65 220.47
-9755438.17 5135469.19 207.40
-9755433.20 5135460.84 206.82
-9755439.81 5135460.88 220.86
-9755436.56 5135464.37 220.95
-9755428.41 5135462.75 204.04
-9755438.16 5135465.76 208.47
-9755434.88 5135466.06 206.82
-9755429.97 5135464.26 204.09
-9755431.56 5135467.41 205.18
-9755436.52 5135466.94 220.55
-9755429.16 5135469.37 198.53
-9755439.11 5135467.66 207.96
-9755433.67 5135459.83 221.39
-9755433.77 5135463.52 206.81
-9755428.33 5135469.19 197.93
-9755435.40 5135464.42 218.94
-9755434.27 5135461.32 218.73
-9755434.82 5135462.61 218.97
-9755439.28 5135464.91 208.57
-9755437.08 5135468.58 218.74
-9755436.72 5135466.99 218.95
-9755433.87 5135460.17 219.06
-9755432.52 5135468.11 204.68
-9755437.37 5135460.14 208.52
-9755427.81 5135466.22 198.76
-9755426.61 5135462.41 204.02
-9755426.65 5135468.91 197.47
-9755427.71 5135466.01 197.94
-9755424.94 5135459.42 204.04
-9755420.04 5135459.21 187.65
-9755423.02 5135459.42 197.50
-9755423.58 5135459.11 198.47
-9755418.27 5135459.22 187.18
-9755424.63 5135458.81 198.05
-9755424.92 5135459.16 199.69
-9755418.22 5135459.18 196.73
-9755421.56 5135459.67 187.36
-9755418.32 5135458.98 196.15
-9755420.06 5135457.55 187.29
-9755423.41 5135459.50 196.28
-9755415.07 5135459.31 186.22
-9755426.02 5135459.26 196.40
-9755420.13 5135457.75 197.14
-9755416.35 5135458.10 187.07
-9755424.46 5135457.70 197.97
-9755413.48 5135459.44 185.85
-9755411.81 5135457.56 185.76
-9755425.62 5135463.06 203.74
-9755420.11 5135462.57 186.93
-9755415.02 5135462.66 186.00
-9755423.50 5135467.64 187.69
-9755415.07 5135469.13 185.96
-9755416.82 5135462.40 186.22
-9755418.54 5135466.30 186.89
-9755416.76 5135467.67 185.82
-9755422.94 5135465.99 196.13
-9755424.86 5135469.15 197.15
-9755426.07 5135460.94 196.39
-9755423.40 5135462.44 197.25
-9755425.26 5135460.63 204.02
-9755425.44 5135463.90 203.65
-9755425.07 5135465.97 197.46
-9755416.77 5135464.37 186.19
-9755420.04 5135461.06 187.60
-9755420.39 5135467.35 187.14
-9755421.80 5135462.64 187.26
-9755421.21 5135467.60 187.22
-9755419.95 5135467.41 186.43
-9755421.62 5135465.77 187.50
-9755423.37 5135466.19 187.54
-9755423.37 5135461.02 196.25
-9755423.02 5135464.09 187.32
-9755418.28 5135464.12 186.44
-9755418.25 5135462.64 186.56
-9755425.17 5135461.15 197.95
-9755421.83 5135460.86 187.33
-9755416.68 5135461.07 186.97
-9755420.18 5135462.49 196.73
-9755421.60 5135464.23 196.10
-9755425.01 5135469.14 187.29
-9755418.30 5135461.94 187.10
-9755421.31 5135469.20 187.17
-9755420.47 5135464.19 196.71
-9755424.69 5135467.54 187.30
-9755425.49 5135462.21 198.46
-9755417.47 5135465.61 186.83
-9755417.18 5135462.68 186.86
-9755415.69 5135462.27 186.72
-9755420.92 5135466.51 186.65
-9755413.30 5135469.17 185.71
-9755411.71 5135467.74 184.94
-9755413.50 5135464.09 186.06
-9755411.73 5135461.16 185.94
-9755427.92 5135457.51 205.23
-9755429.92 5135457.43 203.61
-9755428.49 5135457.67 203.56
-9755431.74 5135457.58 206.80
-9755434.72 5135457.82 207.94
-9755433.18 5135457.56 207.40
-9755429.91 5135457.59 206.60
-9755435.02 5135457.51 208.54
-9755439.70 5135457.89 220.85
-9755429.72 5135457.31 206.26
-9755426.73 5135457.70 203.51
-9755421.89 5135457.66 197.45
-9755419.51 5135458.00 196.13
-9755424.88 5135456.24 203.47
-9755426.43 5135455.93 203.48
-9755423.64 5135457.54 198.58
-9755421.64 5135456.22 197.48
-9755423.51 5135456.05 198.64
-9755420.93 5135458.16 187.32
-9755425.54 5135458.39 196.41
-9755420.16 5135455.89 197.28
-9755415.26 5135457.87 186.86
-9755424.26 5135457.50 199.85
-9755416.82 5135456.06 186.78
-9755411.79 5135455.79 185.82
-9755402.02 5135457.60 184.02
-9755408.63 5135457.55 185.71
-9755405.31 5135459.37 185.10
-9755407.05 5135457.51 185.53
-9755405.24 5135467.68 183.92
-9755408.37 5135462.71 185.34
-9755410.24 5135462.79 185.68
-9755406.70 5135462.62 184.50
-9755410.26 5135467.65 184.73
-9755407.32 5135461.19 185.25
-9755402.11 5135464.04 184.11
-9755405.18 5135462.68 184.15
-9755409.98 5135469.19 184.54
-9755408.50 5135464.34 185.17
-9755408.89 5135461.01 185.48
-9755403.47 5135467.66 184.14
-9755410.70 5135467.39 185.36
-9755408.46 5135469.19 184.32
-9755402.00 5135467.55 183.90
-9755407.25 5135463.89 185.14
-9755409.94 5135465.93 184.79
-9755401.69 5135466.23 183.34
-9755400.20 5135467.47 183.00
-9755401.12 5135464.78 183.36
-9755398.77 5135459.37 183.93
-9755398.52 5135459.11 183.35
-9755395.55 5135459.33 183.58
-9755395.25 5135457.63 182.99
-9755396.70 5135459.36 183.01
-9755390.21 5135457.59 182.57
-9755397.05 5135457.61 183.18
-9755388.75 5135459.43 181.84
-9755392.05 5135457.92 182.46
-9755388.86 5135457.94 182.49
-9755385.51 5135459.42 181.21
-9755386.89 5135459.02 182.16
-9755387.00 5135457.63 181.69
-9755387.05 5135457.60 182.33
-9755383.79 5135457.68 181.21
-9755393.75 5135469.37 182.50
-9755398.47 5135464.19 183.05
-9755396.92 5135464.18 182.77
-9755396.95 5135465.92 182.62
-9755398.42 5135462.65 183.74
-9755398.48 5135465.93 182.94
-9755392.26 5135462.65 182.72
-9755395.21 5135462.66 182.60
-9755396.76 5135462.03 183.46
-9755398.76 5135467.44 182.79
-9755388.81 5135460.91 181.69
-9755388.47 5135462.59 182.14
-9755399.01 5135467.64 183.49
-9755397.68 5135461.74 195.03
-9755398.91 5135469.25 194.54
-9755389.23 5135468.54 181.74
-9755387.26 5135465.92 181.25
-9755383.70 5135464.08 181.30
-9755386.96 5135462.67 181.73
-9755387.01 5135462.67 181.23
-9755386.62 5135461.26 181.30
-9755383.70 5135467.73 181.31
-9755383.74 5135462.65 181.28
-9755383.95 5135465.64 181.32
-9755383.95 5135469.49 181.34
-9755382.26 5135464.46 181.31
-9755386.27 5135461.15 181.99
-9755410.31 5135456.11 185.56
-9755403.56 5135456.10 184.36
-9755402.01 5135456.17 184.12
-9755400.29 5135456.13 184.40
-9755388.77 5135455.84 182.62
-9755393.48 5135456.16 182.79
-9755397.05 5135455.89 183.40
-9755385.47 5135455.87 182.15
-9755387.05 5135456.06 182.29
-9755383.75 5135455.91 181.19
-9755380.53 5135457.62 181.28
-9755378.72 5135457.61 181.28
-9755375.77 5135457.54 181.28
-9755380.45 5135469.44 181.34
-9755380.78 5135464.42 181.31
-9755377.50 5135465.89 181.33
-9755376.96 5135462.60 181.30
-9755377.20 5135467.38 181.34
-9755378.63 5135469.15 181.34
-9755375.76 5135462.64 181.32
-9755374.00 5135464.36 181.32
-9755374.00 5135469.11 181.33
-9755372.21 5135464.35 181.31
-9755372.22 5135460.83 181.29
-9755372.20 5135469.39 181.32
-9755367.25 5135459.00 181.27
-9755369.02 5135457.60 181.29
-9755354.25 5135457.49 181.26
-9755357.23 5135459.25 181.27
-9755355.72 5135459.26 181.27
-9755357.20 5135457.77 181.27
-9755352.52 5135457.45 181.26
-9755368.99 5135462.88 181.29
-9755365.71 5135466.11 181.31
-9755367.47 5135466.14 181.30
-9755362.42 5135466.11 181.29
-9755365.46 5135462.89 181.29
-9755365.44 5135460.76 181.28
-9755363.93 5135467.30 181.30
-9755370.75 5135464.37 181.30
-9755365.98 5135467.63 181.30
-9755363.95 5135464.03 181.30
-9755365.71 5135469.04 181.31
-9755358.91 5135464.00 181.29
-9755355.66 5135467.85 181.29
-9755355.68 5135469.29 181.30
-9755354.19 5135466.03 181.29
-9755357.79 5135461.05 181.28
-9755353.97 5135462.48 181.28
-9755354.51 5135469.02 181.30
-9755352.47 5135466.03 181.28
-9755360.99 5135461.09 181.29
-9755357.47 5135464.02 181.28
-9755355.68 5135465.77 181.30
-9755359.18 5135467.89 181.30
-9755367.25 5135455.75 181.27
-9755364.31 5135456.06 181.27
-9755369.03 5135456.03 181.26
-9755357.24 5135456.00 181.26
-9755360.49 5135456.01 181.27
-9755351.03 5135458.03 181.25
-9755350.75 5135458.91 181.26
-9755349.26 5135459.50 181.25
-9755347.48 5135457.74 181.25
-9755345.99 5135459.21 181.25
-9755349.20 5135465.76 181.27
-9755349.22 5135462.49 181.26
-9755347.71 5135469.27 181.29
-9755347.78 5135461.26 181.26
-9755347.42 5135467.75 181.28
-9755347.74 5135465.99 181.28
-9755345.94 5135464.50 181.27
-9755345.66 5135469.27 181.29
-9755341.00 5135457.70 181.24
-9755339.50 5135457.97 181.24
-9755344.53 5135457.45 181.24
-9755339.53 5135459.14 181.24
-9755340.71 5135459.13 181.24
-9755335.97 5135459.44 181.25
-9755327.73 5135459.12 181.25
-9755340.64 5135469.23 181.29
-9755339.21 5135464.20 181.26
-9755342.70 5135464.22 181.26
-9755339.13 5135465.97 181.28
-9755342.68 5135469.22 181.29
-9755335.96 5135462.68 181.26
-9755335.93 5135465.98 181.28
-9755342.74 5135462.69 181.26
-9755335.99 5135461.22 181.26
-9755329.49 5135464.14 181.27
-9755334.46 5135464.17 181.28
-9755327.72 5135462.64 181.26
-9755334.42 5135469.48 181.29
-9755322.63 5135467.64 181.26
-9755327.97 5135464.13 181.27
-9755326.22 5135465.60 181.26
-9755327.72 5135461.15 181.25
-9755329.42 5135467.38 181.28
-9755324.43 5135466.14 181.25
-9755322.96 5135465.89 181.26
-9755325.97 5135461.15 181.26
-9755334.45 5135466.24 181.27
-9755326.21 5135462.31 181.26
-9755349.28 5135455.93 181.24
-9755346.01 5135455.96 181.23
-9755337.49 5135455.91 181.24
-9755339.54 5135455.90 181.24
-9755332.76 5135456.12 181.25
-9755327.74 5135455.86 181.24
-9755326.28 5135456.12 181.24
-9755331.00 5135456.17 181.24
-9755319.48 5135457.85 181.23
-9755321.20 5135462.59 181.26
-9755321.46 5135469.12 181.26
-9755319.71 5135469.36 181.26
-9755319.43 5135465.83 181.27
-9755314.50 5135457.82 181.21
-9755316.25 5135457.84 181.22
-9755313.00 5135459.31 181.21
-9755311.51 5135459.30 181.21
-9755313.16 5135469.35 181.25
-9755316.20 5135464.09 181.24
-9755314.70 5135469.42 181.26
-9755316.16 5135469.09 181.27
-9755314.70 5135467.33 181.25
-9755312.90 5135467.58 181.26
-9755321.22 5135456.39 181.23
-9755319.76 5135456.11 181.23
-9755313.00 5135456.07 181.21
-9755502.37 5135442.92 181.40
-9755500.58 5135444.40 181.44
-9755500.86 5135446.46 181.45
-9755502.48 5135435.38 184.95
-9755502.33 5135449.40 181.48
-9755502.31 5135451.20 181.48
-9755500.83 5135450.90 181.50
-9755502.44 5135429.87 181.22
-9755500.63 5135429.56 181.32
-9755495.90 5135433.09 181.44
-9755480.75 5135432.93 201.74
-9755488.42 5135432.65 201.99
-9755495.91 5135434.59 181.47
-9755499.45 5135439.66 181.42
-9755482.60 5135434.71 201.88
-9755489.24 5135444.47 202.41
-9755489.22 5135436.25 202.12
-9755484.23 5135444.75 202.34
-9755484.29 5135439.46 202.18
-9755486.06 5135437.98 202.13
-9755489.24 5135446.28 202.52
-9755487.59 5135434.75 201.94
-9755482.79 5135441.20 202.26
-9755482.55 5135436.16 201.98
-9755484.26 5135442.71 202.26
-9755481.05 5135436.46 201.97
-9755489.29 5135441.27 202.26
-9755490.75 5135444.50 202.44
-9755484.25 5135436.20 201.99
-9755491.81 5135443.00 202.48
-9755487.55 5135437.70 202.13
-9755492.41 5135446.07 202.59
-9755490.75 5135446.27 202.55
-9755492.22 5135444.88 202.56
-9755492.18 5135444.40 203.44
-9755490.69 5135442.23 205.78
-9755481.04 5135444.42 202.29
-9755481.05 5135441.17 202.23
-9755479.23 5135446.03 200.99
-9755479.82 5135445.75 202.37
-9755495.73 5135456.50 204.08
-9755494.20 5135456.05 203.06
-9755495.08 5135456.92 203.14
-9755494.20 5135454.26 202.96
-9755491.00 5135452.80 202.90
-9755484.22 5135449.21 202.62
-9755489.18 5135449.22 202.72
-9755492.51 5135450.97 202.88
-9755482.79 5135452.74 200.67
-9755482.70 5135456.13 200.42
-9755484.53 5135451.02 202.74
-9755482.70 5135454.32 200.46
-9755485.93 5135447.77 202.56
-9755490.71 5135451.02 202.85
-9755487.72 5135454.22 202.89
-9755485.97 5135452.74 202.85
-9755489.18 5135452.74 202.90
-9755494.18 5135451.32 202.94
-9755493.09 5135449.07 203.57
-9755480.95 5135449.26 200.78
-9755480.96 5135454.34 200.49
-9755492.74 5135452.79 202.89
-9755493.36 5135448.62 203.54
-9755481.27 5135449.15 202.44
-9755482.51 5135451.00 199.03
-9755493.95 5135452.25 206.42
-9755484.45 5135456.46 199.24
-9755481.36 5135449.32 203.48
-9755479.23 5135449.56 200.78
-9755474.27 5135432.92 201.66
-9755476.72 5135436.41 202.23
-9755476.32 5135437.94 201.40
-9755472.78 5135434.65 201.65
-9755474.25 5135437.90 201.45
-9755476.00 5135446.28 201.04
-9755474.22 5135444.74 201.07
-9755472.74 5135439.44 201.39
-9755472.75 5135443.03 201.17
-9755475.99 5135444.48 201.06
-9755472.79 5135436.12 201.60
-9755477.42 5135444.51 201.06
-9755472.75 5135444.47 201.09
-9755477.58 5135439.63 202.09
-9755474.28 5135439.75 201.33
-9755478.75 5135440.11 201.44
-9755472.74 5135449.50 200.92
-9755474.18 5135450.99 200.80
-9755471.06 5135456.12 185.57
-9755472.26 5135456.43 185.85
-9755477.46 5135449.50 200.83
-9755471.15 5135455.81 193.40
-9755475.94 5135456.02 200.48
-9755472.71 5135447.72 201.02
-9755471.20 5135454.51 200.64
-9755471.14 5135452.75 189.80
-9755471.33 5135454.35 186.04
-9755470.98 5135454.35 186.95
-9755471.14 5135452.91 186.12
-9755471.08 5135455.80 186.67
-9755477.98 5135456.07 200.47
-9755471.48 5135454.57 189.63
-9755471.13 5135455.98 189.35
-9755477.65 5135454.58 200.52
-9755471.19 5135455.85 197.02
-9755471.04 5135455.90 184.36
-9755471.07 5135454.44 197.11
-9755471.25 5135449.50 200.93
-9755472.23 5135456.28 189.54
-9755471.01 5135451.49 189.91
-9755477.42 5135452.82 200.64
-9755471.17 5135452.95 197.06
-9755471.12 5135451.42 186.25
-9755471.09 5135452.75 193.42
-9755470.78 5135453.20 187.03
-9755470.68 5135454.86 183.97
-9755470.81 5135451.34 197.18
-9755497.40 5135429.57 181.38
-9755495.94 5135431.62 181.43
-9755485.80 5135431.51 201.73
-9755487.23 5135430.04 201.76
-9755486.40 5135429.09 205.42
-9755481.14 5135427.93 201.66
-9755476.03 5135428.16 201.65
-9755471.05 5135431.40 201.64
-9755472.82 5135428.16 201.64
-9755469.58 5135432.90 201.65
-9755463.39 5135432.86 184.14
-9755463.31 5135432.57 187.11
-9755462.84 5135431.29 186.05
-9755464.40 5135433.26 187.01
-9755463.38 5135432.43 190.78
-9755458.93 5135431.80 186.76
-9755463.37 5135432.89 194.44
-9755463.59 5135432.70 198.09
-9755469.07 5135446.05 197.40
-9755467.97 5135444.49 197.45
-9755467.60 5135444.67 190.32
-9755469.54 5135439.68 201.42
-9755468.03 5135446.50 197.52
-9755468.18 5135446.32 186.82
-9755468.71 5135444.93 190.13
-9755467.75 5135446.30 200.86
-9755468.31 5135446.21 204.58
-9755467.70 5135444.78 193.93
-9755467.96 5135445.61 198.31
-9755464.49 5135436.17 187.10
-9755467.69 5135444.50 201.95
-9755464.38 5135436.23 185.91
-9755467.77 5135443.05 197.57
-9755459.45 5135436.17 186.61
-9755466.33 5135441.29 184.20
-9755467.49 5135444.63 184.34
-9755467.29 5135441.55 186.68
-9755464.56 5135437.98 185.91
-9755465.13 5135436.64 199.14
-9755465.95 5135439.66 201.55
-9755468.75 5135445.18 186.46
-9755464.13 5135434.39 185.89
-9755466.36 5135439.74 187.69
-9755459.67 5135437.99 186.53
-9755461.16 5135436.23 186.57
-9755463.47 5135444.18 186.62
-9755466.13 5135444.59 186.05
-9755466.27 5135437.90 197.92
-9755457.86 5135434.74 186.37
-9755462.99 5135436.50 186.16
-9755467.53 5135444.24 198.38
-9755464.67 5135445.97 186.49
-9755464.51 5135436.34 190.58
-9755466.43 5135441.03 198.77
-9755466.73 5135442.47 187.32
-9755462.61 5135443.01 186.74
-9755465.05 5135437.80 190.70
-9755467.35 5135443.47 198.40
-9755464.99 5135437.68 194.42
-9755465.02 5135436.29 202.02
-9755466.29 5135439.38 190.54
-9755464.83 5135435.99 198.06
-9755462.83 5135446.29 186.61
-9755464.97 5135437.66 187.08
-9755466.29 5135441.32 197.84
-9755462.92 5135444.53 186.73
-9755462.00 5135442.98 186.70
-9755459.69 5135434.43 186.75
-9755466.35 5135439.44 197.86
-9755462.90 5135441.27 186.54
-9755459.06 5135434.45 186.66
-9755466.15 5135440.99 190.51
-9755462.94 5135439.78 186.41
-9755467.66 5135442.88 190.29
-9755467.20 5135443.49 202.28
-9755466.22 5135441.67 201.30
-9755466.23 5135440.68 187.38
-9755467.33 5135443.08 186.71
-9755467.47 5135438.82 201.50
-9755461.12 5135437.97 186.71
-9755462.93 5135442.72 186.65
-9755456.46 5135446.16 207.08
-9755461.13 5135439.48 186.75
-9755463.49 5135434.15 184.24
-9755466.63 5135442.47 194.08
-9755465.04 5135436.56 188.94
-9755466.91 5135442.85 197.74
-9755465.31 5135436.74 193.00
-9755465.34 5135439.15 186.96
-9755465.18 5135437.70 197.84
-9755465.34 5135437.72 198.80
-9755465.72 5135436.00 190.71
-9755456.04 5135444.77 207.19
-9755465.75 5135435.99 198.04
-9755465.22 5135438.87 201.62
-9755467.07 5135440.34 186.74
-9755463.32 5135433.96 186.90
-9755453.11 5135439.60 207.14
-9755453.31 5135437.78 207.20
-9755469.33 5135452.64 185.98
-9755469.22 5135449.24 187.14
-9755469.43 5135449.29 197.30
-9755468.60 5135447.68 190.82
-9755468.11 5135456.12 186.47
-9755469.55 5135454.34 186.04
-9755467.86 5135447.92 185.88
-9755469.73 5135450.77 190.46
-9755470.14 5135454.08 184.05
-9755469.40 5135447.79 197.35
-9755470.94 5135451.45 193.53
-9755468.15 5135447.77 187.36
-9755469.90 5135452.66 184.14
-9755468.51 5135449.41 184.17
-9755468.79 5135447.82 187.45
-9755469.58 5135456.10 186.14
-9755469.15 5135449.66 190.84
-9755467.85 5135452.57 186.28
-9755468.52 5135447.89 197.46
-9755468.59 5135447.76 193.86
-9755469.97 5135452.60 186.99
-9755469.68 5135450.99 193.67
-9755470.21 5135454.15 200.59
-9755469.75 5135452.27 200.65
-9755468.56 5135447.48 199.34
-9755469.36 5135447.60 193.69
-9755469.39 5135447.86 190.09
-9755469.20 5135449.85 189.81
-9755470.05 5135452.60 193.48
-9755469.51 5135451.14 197.29
-9755469.66 5135450.33 201.66
-9755467.89 5135451.06 186.14
-9755467.85 5135454.31 186.40
-9755468.61 5135447.60 196.03
-9755470.02 5135452.10 201.67
-9755469.39 5135447.41 204.50
-9755470.34 5135451.59 187.08
-9755468.48 5135447.38 189.39
-9755470.48 5135452.96 201.53
