-9755290.02 5135805.01 181.24
-9755291.47 5135803.56 181.22
-9755291.38 5135815.36 181.15
-9755288.23 5135805.29 181.24
-9755288.20 5135810.02 181.20
-9755288.20 5135813.35 181.18
-9755286.72 5135806.80 181.24
-9755285.19 5135816.87 181.12
-9755280.23 5135808.78 181.21
-9755283.23 5135807.07 181.22
-9755284.98 5135800.63 181.16
-9755284.67 5135808.57 181.22
-9755283.25 5135800.23 181.15
-9755281.75 5135803.84 181.19
-9755284.94 5135805.31 181.22
-9755279.93 5135803.76 181.20
-9755283.45 5135808.81 181.21
-9755281.64 5135813.26 181.15
-9755276.59 5135826.87 181.10
-9755278.44 5135811.82 181.18
-9755278.13 5135815.03 181.14
-9755275.11 5135823.60 181.11
-9755271.90 5135825.08 181.15
-9755268.39 5135820.31 181.17
-9755271.91 5135818.22 181.15
-9755271.93 5135821.77 181.15
-9755266.93 5135825.05 181.18
-9755265.05 5135826.53 181.21
-9755265.14 5135822.04 181.23
-9755258.91 5135821.70 181.21
-9755258.63 5135819.96 181.21
-9755255.33 5135824.91 181.17
-9755263.73 5135818.42 181.21
-9755263.36 5135821.79 181.24
-9755252.09 5135826.71 181.16
-9755255.15 5135818.41 181.18
-9755253.61 5135825.21 181.15
-9755263.66 5135825.24 181.24
-9755253.63 5135820.18 181.15
-9755252.13 5135821.95 181.15
-9755251.84 5135818.47 181.14
-9755278.14 5135806.72 181.23
-9755276.75 5135801.70 181.16
-9755276.66 5135813.56 181.14
-9755273.45 5135805.21 181.22
-9755274.97 5135803.48 181.19
-9755268.41 5135811.98 181.21
-9755271.68 5135813.24 181.19
-9755268.44 5135808.43 181.23
-9755258.66 5135816.96 181.21
-9755257.14 5135816.93 181.18
-9755260.41 5135815.18 181.22
-9755266.94 5135805.20 181.22
-9755266.89 5135813.42 181.21
-9755263.69 5135807.19 181.26
-9755256.90 5135813.75 181.22
-9755258.77 5135801.87 181.20
-9755256.65 5135805.11 181.21
-9755265.14 5135813.79 181.21
-9755261.69 5135800.44 181.16
-9755261.61 5135811.66 181.24
-9755255.22 5135808.68 181.23
-9755260.46 5135810.14 181.24
-9755263.67 5135812.01 181.24
-9755255.14 5135811.65 181.23
-9755260.45 5135813.71 181.22
-9755253.36 5135811.89 181.23
-9755251.87 5135813.39 181.19
-9755250.38 5135821.89 181.12
-9755250.34 5135820.18 181.11
-9755250.31 5135826.70 181.14
-9755248.65 5135818.38 181.12
-9755245.29 5135826.69 181.10
-9755247.14 5135821.66 181.10
-9755245.36 5135819.90 181.10
-9755247.06 5135824.63 181.10
-9755240.61 5135818.65 181.09
-9755245.39 5135818.67 181.11
-9755238.56 5135821.92 181.06
-9755238.60 5135818.60 181.09
-9755233.85 5135821.85 181.10
-9755237.07 5135825.38 181.06
-9755237.36 5135826.60 181.05
-9755237.14 5135818.64 181.10
-9755232.07 5135821.91 181.12
-9755233.52 5135823.38 181.10
-9755230.63 5135819.77 181.14
-9755234.18 5135818.36 181.11
-9755232.10 5135818.60 181.12
-9755232.09 5135825.12 181.13
-9755235.38 5135821.89 181.09
-9755229.10 5135825.12 181.16
-9755227.39 5135823.59 181.18
-9755227.33 5135821.79 181.17
-9755225.60 5135822.11 181.22
-9755225.62 5135822.97 181.19
-9755225.56 5135820.32 181.19
-9755224.08 5135823.55 181.27
-9755248.65 5135816.64 181.16
-9755250.47 5135812.17 181.19
-9755250.20 5135810.13 181.22
-9755250.72 5135801.89 181.17
-9755248.66 5135808.60 181.22
-9755248.69 5135813.35 181.17
-9755248.67 5135815.46 181.16
-9755235.40 5135815.08 181.11
-9755228.87 5135816.58 181.17
-9755247.24 5135803.57 181.17
-9755247.51 5135806.84 181.23
-9755242.18 5135813.38 181.14
-9755238.93 5135810.34 181.20
-9755240.77 5135808.60 181.21
-9755238.70 5135803.53 181.19
-9755238.67 5135808.29 181.22
-9755243.66 5135810.37 181.19
-9755238.62 5135811.80 181.18
-9755238.96 5135806.80 181.22
-9755240.70 5135812.09 181.16
-9755240.69 5135806.83 181.22
-9755245.44 5135808.59 181.22
-9755243.90 5135813.63 181.16
-9755238.99 5135802.05 181.17
-9755235.72 5135806.80 181.22
-9755236.95 5135800.29 181.16
-9755235.73 5135808.85 181.21
-9755236.91 5135806.81 181.23
-9755232.14 5135803.51 181.17
-9755232.14 5135813.27 181.16
-9755233.93 5135805.01 181.20
-9755225.59 5135816.84 181.20
-9755228.87 5135815.37 181.17
-9755228.96 5135806.80 181.21
-9755227.19 5135805.21 181.18
-9755227.23 5135800.20 181.18
-9755225.72 5135803.73 181.18
-9755224.12 5135814.97 181.23
-9755222.36 5135821.80 181.40
-9755220.90 5135821.76 181.43
-9755219.09 5135825.00 181.56
-9755220.89 5135817.01 181.44
-9755218.89 5135825.57 185.20
-9755215.63 5135825.11 185.70
-9755217.65 5135823.80 181.61
-9755218.48 5135825.33 184.13
-9755214.06 5135823.63 185.91
-9755214.08 5135820.23 181.69
-9755212.56 5135823.63 185.76
-9755212.33 5135821.47 181.69
-9755217.68 5135821.72 181.58
-9755217.39 5135820.28 181.61
-9755212.39 5135820.25 181.69
-9755212.95 5135825.72 183.31
-9755212.63 5135818.48 181.71
-9755214.14 5135816.98 181.69
-9755215.37 5135825.24 183.21
-9755211.52 5135825.85 183.34
-9755211.32 5135824.15 185.52
-9755217.35 5135825.01 181.63
-9755217.30 5135824.58 183.30
-9755212.39 5135816.99 181.70
-9755202.61 5135820.21 181.30
-9755205.83 5135824.98 181.46
-9755207.61 5135820.24 181.48
-9755204.41 5135818.42 181.31
-9755201.13 5135818.39 181.28
-9755197.92 5135820.21 181.25
-9755215.63 5135814.96 181.69
-9755210.60 5135815.19 181.61
-9755222.43 5135811.73 181.41
-9755219.06 5135808.63 183.19
-9755218.98 5135807.18 184.13
-9755219.03 5135808.55 184.31
-9755218.94 5135811.96 184.14
-9755222.43 5135810.52 181.40
-9755220.70 5135807.31 181.43
-9755219.41 5135806.81 183.22
-9755219.21 5135808.76 181.48
-9755218.95 5135803.72 181.44
-9755220.64 5135810.82 183.37
-9755218.62 5135808.57 185.52
-9755217.43 5135806.72 185.74
-9755217.14 5135808.58 184.39
-9755217.73 5135810.35 184.19
-9755217.50 5135800.43 181.42
-9755215.77 5135808.83 185.84
-9755217.50 5135811.81 186.14
-9755215.70 5135810.10 184.06
-9755211.09 5135808.64 184.16
-9755214.30 5135810.40 187.14
-9755216.93 5135810.65 186.78
-9755215.37 5135809.72 183.00
-9755211.22 5135809.83 182.91
-9755213.86 5135806.88 183.11
-9755218.44 5135813.04 184.50
-9755214.69 5135812.82 183.85
-9755217.52 5135805.77 183.15
-9755217.06 5135812.86 186.24
-9755211.63 5135809.25 185.18
-9755212.67 5135811.93 183.20
-9755214.21 5135805.92 185.40
-9755213.27 5135809.31 186.77
-9755217.50 5135808.79 183.30
-9755215.61 5135808.73 183.14
-9755213.24 5135812.96 183.84
-9755216.24 5135806.10 185.54
-9755213.78 5135809.37 187.11
-9755197.66 5135814.86 181.26
-9755209.21 5135800.40 181.51
-9755207.40 5135810.17 181.49
-9755203.90 5135806.90 181.29
-9755207.42 5135811.63 181.49
-9755199.48 5135803.88 181.29
-9755205.95 5135808.37 181.48
-9755197.42 5135803.64 181.29
-9755197.69 5135807.17 181.29
-9755202.37 5135808.61 181.30
-9755204.23 5135801.84 181.29
-9755205.99 5135801.87 181.46
-9755207.35 5135813.37 181.50
-9755196.11 5135820.16 181.24
-9755194.40 5135816.88 181.24
-9755194.31 5135825.17 181.24
-9755192.86 5135821.95 181.23
-9755190.84 5135818.64 181.21
-9755191.15 5135816.62 181.21
-9755189.40 5135820.14 181.20
-9755187.59 5135821.88 181.20
-9755187.90 5135816.83 181.18
-9755186.15 5135818.64 181.18
-9755184.38 5135816.80 181.17
-9755181.09 5135819.85 181.14
-9755174.87 5135821.84 181.19
-9755182.59 5135820.10 181.13
-9755179.67 5135818.59 181.13
-9755172.86 5135821.83 181.20
-9755182.87 5135823.65 181.17
-9755173.11 5135823.29 181.21
-9755181.36 5135823.36 181.16
-9755172.86 5135825.04 181.23
-9755177.86 5135816.49 181.17
-9755171.10 5135823.28 181.23
-9755192.67 5135815.39 181.22
-9755194.36 5135814.82 181.23
-9755194.47 5135808.62 181.26
-9755194.18 5135807.14 181.26
-9755195.91 5135803.57 181.28
-9755192.97 5135808.30 181.26
-9755194.17 5135800.35 181.28
-9755190.90 5135803.82 181.27
-9755190.93 5135805.09 181.26
-9755196.13 5135813.37 181.26
-9755187.63 5135815.39 181.19
-9755189.46 5135805.36 181.27
-9755187.68 5135805.32 181.27
-9755186.17 5135803.49 181.28
-9755184.74 5135803.53 181.28
-9755186.17 5135810.08 181.23
-9755187.71 5135800.30 181.28
-9755187.66 5135802.09 181.29
-9755184.46 5135802.32 181.28
-9755184.38 5135811.82 181.22
-9755184.41 5135808.88 181.22
-9755182.96 5135808.53 181.23
-9755174.69 5135810.30 181.21
-9755174.72 5135805.53 181.26
-9755177.94 5135802.03 181.27
-9755182.93 5135805.29 181.26
-9755181.24 5135800.24 181.29
-9755181.14 5135810.35 181.21
-9755179.42 5135803.48 181.26
-9755173.19 5135812.06 181.22
-9755177.91 5135808.79 181.21
-9755179.39 5135809.98 181.21
-9755174.42 5135802.00 181.28
-9755179.67 5135805.55 181.26
-9755172.93 5135803.44 181.27
-9755179.46 5135801.98 181.28
-9755172.66 5135805.22 181.26
-9755186.18 5135813.59 181.20
-9755176.44 5135813.54 181.19
-9755174.37 5135813.57 181.20
-9755173.19 5135813.52 181.20
-9755169.58 5135824.77 181.24
-9755169.90 5135818.57 181.22
-9755168.37 5135823.27 181.25
-9755161.34 5135823.54 181.26
-9755164.85 5135824.99 181.25
-9755161.38 5135821.74 181.26
-9755163.08 5135821.74 181.25
-9755164.58 5135818.78 181.24
-9755163.12 5135823.23 181.24
-9755166.35 5135819.96 181.25
-9755166.39 5135816.72 181.24
-9755161.70 5135816.73 181.26
-9755158.08 5135825.28 181.29
-9755158.40 5135818.45 181.28
-9755156.63 5135821.69 181.30
-9755156.63 5135818.48 181.30
-9755144.84 5135820.11 181.20
-9755143.33 5135823.45 181.19
-9755149.84 5135823.45 181.25
-9755146.61 5135821.65 181.21
-9755163.15 5135814.93 181.27
-9755167.85 5135815.28 181.25
-9755158.46 5135815.22 181.29
-9755169.96 5135806.68 181.27
-9755169.94 5135810.23 181.25
-9755169.42 5135805.53 181.27
-9755163.23 5135801.92 181.29
-9755161.42 5135806.93 181.29
-9755166.77 5135800.48 181.28
-9755163.18 5135808.69 181.28
-9755167.95 5135801.98 181.29
-9755166.46 5135803.73 181.27
-9755163.25 5135803.72 181.29
-9755166.62 5135801.94 192.94
-9755164.67 5135810.23 181.26
-9755157.94 5135798.59 181.32
-9755154.99 5135800.38 181.33
-9755154.94 5135801.87 181.32
-9755158.16 5135813.73 181.30
-9755143.11 5135815.14 181.20
-9755143.13 5135806.82 181.25
-9755144.91 5135806.84 181.26
-9755144.91 5135803.90 181.29
-9755146.70 5135803.89 181.29
-9755143.38 5135810.39 181.23
-9755146.75 5135798.85 181.30
-9755151.66 5135813.37 181.30
-9755143.42 5135813.37 181.21
-9755136.86 5135818.62 181.12
-9755141.57 5135821.63 181.16
-9755140.11 5135821.94 181.15
-9755133.61 5135823.38 181.18
-9755131.85 5135820.11 181.18
-9755130.08 5135820.09 181.19
-9755126.80 5135824.77 181.22
-9755117.04 5135825.36 181.29
-9755116.82 5135820.28 181.29
-9755120.34 5135823.30 181.26
-9755118.59 5135818.55 181.28
-9755116.81 5135823.23 181.29
-9755116.82 5135818.50 181.28
-9755138.36 5135815.11 181.16
-9755136.66 5135807.12 181.23
-9755141.70 5135802.07 181.28
-9755133.15 5135805.30 181.23
-9755136.72 5135798.52 181.28
-9755135.10 5135813.31 181.21
-9755131.92 5135810.33 181.24
-9755131.63 5135813.55 181.22
-9755130.19 5135805.59 181.28
-9755117.19 5135805.08 184.18
-9755128.40 5135805.54 181.26
-9755121.93 5135803.47 181.28
-9755128.42 5135803.53 181.28
-9755118.08 5135805.03 185.04
-9755116.86 5135807.00 181.26
-9755126.62 5135806.76 181.26
-9755117.19 5135808.52 181.27
-9755120.21 5135800.16 181.29
-9755121.95 5135802.27 181.29
-9755116.85 5135805.51 181.29
-9755130.14 5135813.61 181.23
-9755121.89 5135813.22 181.27
-9755120.40 5135813.48 181.27
-9755107.11 5135818.45 181.14
-9755111.70 5135819.56 182.16
-9755110.45 5135816.98 182.26
-9755102.11 5135820.24 181.06
-9755103.82 5135818.46 181.00
-9755102.08 5135816.68 181.07
-9755105.35 5135816.73 181.18
-9755095.54 5135821.67 181.23
-9755100.36 5135816.66 181.13
-9755092.33 5135818.41 181.28
-9755094.14 5135816.92 181.26
-9755092.34 5135821.62 181.28
-9755093.87 5135818.43 181.24
-9755088.79 5135825.17 181.35
-9755115.16 5135800.31 183.85
-9755115.13 5135803.56 184.17
-9755115.29 5135811.91 182.66
-9755115.15 5135802.21 181.53
-9755116.63 5135798.69 181.30
-9755115.74 5135807.39 181.46
-9755115.17 5135798.65 181.49
-9755114.97 5135813.17 182.34
-9755110.08 5135814.96 182.39
-9755113.88 5135815.24 181.52
-9755111.87 5135815.11 183.48
-9755101.88 5135815.19 181.07
-9755095.64 5135815.14 181.24
-9755112.22 5135811.86 183.80
-9755104.95 5135800.12 187.58
-9755113.75 5135801.74 185.67
-9755103.73 5135802.21 187.57
-9755110.47 5135811.90 183.43
-9755113.05 5135808.36 184.67
-9755102.88 5135801.94 187.03
-9755105.23 5135801.80 187.49
-9755110.14 5135804.57 187.22
-9755107.22 5135800.78 187.29
-9755110.23 5135802.06 185.94
-9755107.17 5135806.65 181.25
-9755104.22 5135803.54 184.12
-9755103.62 5135799.32 184.43
-9755105.43 5135808.44 181.23
-9755104.12 5135799.09 185.41
-9755111.22 5135801.27 181.57
-9755104.08 5135803.53 187.53
-9755110.93 5135801.10 181.57
-9755114.27 5135806.85 184.97
-9755109.42 5135806.46 185.10
-9755110.11 5135813.73 181.40
-9755095.67 5135808.63 181.25
-9755100.40 5135810.43 181.14
-9755095.43 5135803.62 181.26
-9755095.72 5135798.55 181.26
-9755090.65 5135812.14 181.34
-9755092.47 5135798.54 181.33
-9755084.08 5135821.83 181.80
-9755085.46 5135825.19 181.33
-9755084.38 5135823.34 181.82
-9755084.12 5135816.85 181.38
-9755086.45 5135819.30 182.30
-9755082.41 5135802.21 182.54
-9755085.42 5135802.06 181.53
-9755082.18 5135800.39 183.17
-9755085.39 5135801.91 184.25
-9755083.85 5135807.08 181.40
-9755085.70 5135808.52 182.40
-9755083.76 5135800.23 184.15
-9755087.19 5135801.69 184.01
-9755087.14 5135805.29 181.48
-9755085.63 5135807.00 182.69
-9755085.71 5135800.40 185.46
-9755086.81 5135812.05 182.38
-9755082.21 5135806.94 182.54
-9755087.25 5135800.34 184.27
-9755085.76 5135798.61 184.04
-9755083.89 5135805.24 182.81
-9755082.38 5135798.78 184.10
-9755087.02 5135803.59 182.33
-9755086.89 5135806.72 183.44
-9755085.75 5135805.13 182.36
-9755085.42 5135810.25 183.90
-9755081.86 5135808.13 183.65
-9755086.83 5135805.19 183.44
-9755086.33 5135805.32 183.45
-9755084.37 5135807.33 182.39
-9755081.77 5135807.69 183.56
-9755085.35 5135799.16 185.56
-9755082.89 5135804.78 185.23
-9755083.50 5135806.19 184.18
-9755082.35 5135813.68 182.72
-9755083.55 5135813.14 182.84
-9755288.18 5135798.81 181.19
-9755289.72 5135798.77 181.20
-9755286.73 5135798.82 181.19
-9755290.02 5135797.03 181.19
-9755291.52 5135796.74 181.19
-9755291.45 5135795.24 181.19
-9755290.08 5135790.48 181.19
-9755286.51 5135790.53 181.15
-9755289.85 5135780.43 181.18
-9755289.86 5135782.24 181.18
-9755291.32 5135780.40 181.18
-9755290.11 5135783.68 181.19
-9755285.03 5135790.21 181.12
-9755281.50 5135788.69 181.08
-9755285.03 5135795.48 181.15
-9755283.57 5135797.01 181.12
-9755281.46 5135797.33 181.12
-9755281.49 5135795.54 181.12
-9755281.83 5135792.25 181.08
-9755281.27 5135783.95 181.08
-9755280.09 5135782.23 181.09
-9755289.88 5135773.93 181.28
-9755291.38 5135774.23 181.30
-9755290.12 5135778.97 181.17
-9755286.65 5135775.36 181.17
-9755283.65 5135778.96 181.14
-9755286.61 5135777.46 181.17
-9755285.13 5135775.73 181.16
-9755281.88 5135778.66 181.13
-9755280.11 5135774.19 181.16
-9755274.95 5135798.68 181.11
-9755263.46 5135798.64 181.16
-9755276.77 5135792.29 181.05
-9755278.30 5135792.24 181.06
-9755276.46 5135795.17 181.08
-9755276.75 5135793.97 181.08
-9755276.80 5135790.43 181.05
-9755276.80 5135788.69 181.05
-9755272.07 5135788.63 181.04
-9755271.81 5135795.50 181.08
-9755275.00 5135793.98 181.08
-9755268.54 5135795.14 181.11
-9755275.30 5135795.47 181.09
-9755268.53 5135793.97 181.09
-9755268.57 5135787.17 181.05
-9755275.01 5135790.45 181.03
-9755270.26 5135793.65 181.07
-9755270.28 5135797.21 181.10
-9755268.29 5135790.40 181.07
-9755278.32 5135783.68 181.05
-9755278.31 5135780.64 181.09
-9755276.62 5135782.15 181.08
-9755278.61 5135782.11 181.08
-9755278.64 5135778.94 181.11
-9755275.10 5135780.68 181.08
-9755273.33 5135783.62 181.03
-9755268.58 5135785.37 181.06
-9755271.88 5135778.85 181.09
-9755267.06 5135793.92 181.11
-9755265.27 5135793.65 181.14
-9755253.43 5135788.84 181.12
-9755258.52 5135790.58 181.17
-9755253.53 5135790.29 181.11
-9755262.09 5135787.13 181.19
-9755258.79 5135793.88 181.18
-9755255.35 5135790.60 181.13
-9755260.27 5135793.60 181.19
-9755255.28 5135788.83 181.14
-9755251.75 5135787.39 181.11
-9755252.23 5135795.57 181.12
-9755266.80 5135785.35 181.10
-9755266.84 5135780.62 181.11
-9755266.81 5135782.09 181.09
-9755265.09 5135782.07 181.12
-9755266.80 5135779.13 181.10
-9755253.49 5135785.31 181.17
-9755257.12 5135780.59 181.20
-9755258.63 5135782.35 181.20
-9755261.84 5135785.30 181.18
-9755253.56 5135782.33 181.15
-9755262.12 5135780.58 181.19
-9755252.09 5135785.85 181.12
-9755251.75 5135785.45 182.40
-9755263.65 5135779.07 181.17
-9755273.37 5135775.61 181.13
-9755271.87 5135777.41 181.11
-9755271.90 5135775.63 181.12
-9755275.11 5135777.13 181.11
-9755262.20 5135774.03 181.22
-9755258.39 5135775.87 181.22
-9755256.76 5135775.84 181.20
-9755256.88 5135774.05 181.21
-9755263.64 5135777.30 181.18
-9755255.11 5135772.24 181.19
-9755253.59 5135772.55 181.18
-9755243.73 5135798.78 181.12
-9755247.28 5135798.86 181.11
-9755248.82 5135792.07 181.09
-9755248.55 5135788.79 181.11
-9755250.29 5135782.31 181.13
-9755250.30 5135779.02 181.14
-9755243.73 5135788.79 181.06
-9755244.07 5135792.08 181.10
-9755240.56 5135792.02 181.07
-9755245.52 5135790.55 181.09
-9755233.73 5135793.75 181.11
-9755232.21 5135795.25 181.13
-9755231.95 5135788.66 181.12
-9755233.74 5135795.25 181.13
-9755236.97 5135788.73 181.09
-9755232.29 5135787.25 181.13
-9755230.53 5135788.67 181.14
-9755235.52 5135796.73 181.12
-9755245.58 5135782.53 181.11
-9755242.07 5135780.46 181.10
-9755243.87 5135780.48 181.11
-9755247.04 5135783.72 181.12
-9755245.32 5135783.75 181.11
-9755247.02 5135785.47 181.99
-9755245.34 5135780.51 181.12
-9755242.09 5135782.20 181.10
-9755247.19 5135785.62 192.73
-9755242.33 5135785.47 181.07
-9755238.81 5135785.48 181.09
-9755247.10 5135779.04 181.11
-9755242.08 5135778.99 181.13
-9755245.63 5135779.02 181.11
-9755247.28 5135784.11 181.75
-9755232.35 5135780.38 181.16
-9755233.80 5135782.18 181.13
-9755230.56 5135780.67 181.17
-9755235.35 5135780.48 181.16
-9755234.11 5135778.93 181.17
-9755227.29 5135795.21 181.17
-9755228.72 5135795.49 181.17
-9755225.82 5135791.88 181.18
-9755229.05 5135792.24 181.15
-9755228.83 5135785.42 181.17
-9755227.36 5135780.32 181.19
-9755250.33 5135775.74 181.16
-9755250.35 5135774.02 181.16
-9755240.31 5135777.51 181.12
-9755247.16 5135777.52 181.12
-9755243.90 5135777.21 181.11
-9755238.53 5135774.19 181.17
-9755243.59 5135772.21 181.15
-9755232.35 5135777.18 181.21
-9755233.88 5135777.50 181.20
-9755233.87 5135775.67 181.19
-9755232.03 5135773.90 181.19
-9755234.11 5135774.25 181.19
-9755232.12 5135772.44 181.16
-9755227.33 5135775.64 181.19
-9755223.94 5135798.74 181.19
-9755219.26 5135798.69 181.40
-9755215.74 5135798.67 181.45
-9755199.24 5135798.87 181.31
-9755220.82 5135788.97 181.41
-9755220.47 5135793.97 181.40
-9755223.78 5135788.93 181.18
-9755217.48 5135795.10 181.55
-9755212.51 5135790.36 181.72
-9755212.88 5135787.02 182.95
-9755217.49 5135793.64 181.54
-9755215.79 5135793.94 181.64
-9755210.74 5135792.09 181.66
-9755214.07 5135787.36 181.65
-9755212.52 5135793.59 181.73
-9755217.54 5135792.41 181.54
-9755212.51 5135795.33 181.71
-9755219.35 5135782.37 181.41
-9755220.54 5135782.08 181.41
-9755219.09 5135780.33 181.42
-9755214.06 5135782.04 181.66
-9755212.60 5135782.04 181.68
-9755214.17 5135782.55 184.45
-9755214.32 5135784.05 181.58
-9755217.63 5135780.61 181.52
-9755214.19 5135784.32 183.15
-9755213.17 5135785.39 181.78
-9755214.98 5135782.80 184.08
-9755210.83 5135778.77 181.62
-9755206.10 5135787.37 181.45
-9755199.49 5135797.08 181.30
-9755204.27 5135792.39 181.31
-9755207.55 5135787.37 181.48
-9755201.01 5135797.10 181.29
-9755197.75 5135795.58 181.28
-9755197.47 5135793.57 181.27
-9755204.30 5135788.84 181.30
-9755206.08 5135785.27 181.46
-9755207.50 5135792.12 181.49
-9755207.53 5135784.09 181.48
-9755206.10 5135780.87 181.45
-9755202.83 5135782.27 181.29
-9755204.05 5135782.00 181.31
-9755200.80 5135783.77 181.28
-9755197.84 5135780.50 181.25
-9755204.35 5135780.82 181.36
-9755208.81 5135783.48 183.04
-9755197.53 5135782.29 181.25
-9755224.12 5135777.38 181.19
-9755220.89 5135774.10 181.39
-9755225.89 5135772.35 181.17
-9755217.61 5135777.36 181.51
-9755212.61 5135774.06 181.66
-9755217.64 5135774.07 181.47
-9755212.36 5135777.59 181.67
-9755214.14 5135772.42 184.32
-9755212.95 5135773.94 184.04
-9755210.87 5135775.53 181.62
-9755212.61 5135772.27 181.65
-9755212.58 5135772.12 185.83
-9755205.84 5135777.28 181.47
-9755209.37 5135775.51 181.58
-9755207.60 5135777.28 181.50
-9755199.04 5135777.21 181.26
-9755200.85 5135775.74 181.27
-9755197.92 5135773.97 181.26
-9755204.08 5135772.23 181.32
-9755200.85 5135772.53 181.29
-9755190.96 5135798.80 181.30
-9755189.46 5135798.80 181.29
-9755184.19 5135798.79 181.27
-9755183.00 5135798.75 181.29
-9755180.94 5135798.78 181.29
-9755176.20 5135798.77 181.29
-9755179.47 5135798.49 181.28
-9755194.25 5135795.58 181.26
-9755191.03 5135790.52 181.24
-9755193.03 5135797.03 181.28
-9755196.08 5135781.95 181.24
-9755192.57 5135780.49 181.23
-9755192.83 5135782.25 181.22
-9755194.31 5135782.00 181.23
-9755195.83 5135779.01 181.24
-9755191.06 5135780.48 181.22
-9755191.09 5135782.27 181.20
-9755189.57 5135786.97 181.22
-9755184.53 5135788.99 181.22
-9755187.74 5135797.02 181.28
-9755185.98 5135785.46 181.20
-9755178.06 5135786.88 181.18
-9755184.56 5135785.43 181.18
-9755178.02 5135795.49 181.26
-9755174.78 5135792.24 181.23
-9755179.48 5135793.74 181.24
-9755173.00 5135793.96 181.26
-9755175.97 5135788.96 181.21
-9755173.02 5135786.89 181.21
-9755180.96 5135792.22 181.23
-9755179.83 5135785.44 181.18
-9755187.78 5135784.00 181.19
-9755186.34 5135778.98 181.19
-9755178.06 5135783.66 181.16
-9755176.02 5135783.92 181.17
-9755177.82 5135780.65 181.15
-9755176.30 5135782.14 181.16
-9755181.07 5135779.22 181.14
-9755179.53 5135782.17 181.15
-9755171.29 5135785.40 181.22
-9755194.31 5135773.97 181.24
-9755192.56 5135773.95 181.23
-9755192.55 5135775.47 181.22
-9755192.85 5135777.21 181.22
-9755191.12 5135774.25 181.22
-9755187.82 5135777.20 181.20
-9755184.32 5135777.22 181.18
-9755189.31 5135772.42 181.23
-9755184.61 5135775.70 181.20
-9755179.32 5135775.67 181.18
-9755181.11 5135773.87 181.19
-9755171.05 5135775.59 181.23
-9755161.48 5135798.62 181.30
-9755169.79 5135793.67 181.28
-9755163.23 5135797.17 181.29
-9755161.25 5135785.62 181.27
-9755166.21 5135792.19 181.27
-9755164.78 5135788.90 181.26
-9755168.02 5135791.91 181.28
-9755166.53 5135788.60 181.27
-9755167.98 5135797.19 181.30
-9755166.54 5135790.70 181.27
-9755164.79 5135787.10 181.28
-9755157.97 5135793.91 181.31
-9755159.76 5135792.14 181.29
-9755159.79 5135787.41 181.28
-9755159.76 5135790.34 181.29
-9755159.78 5135788.55 181.28
-9755156.21 5135795.36 181.31
-9755156.20 5135797.15 181.32
-9755153.23 5135797.12 181.30
-9755154.71 5135797.11 181.31
-9755168.01 5135782.12 181.25
-9755163.07 5135778.83 181.27
-9755162.74 5135780.59 181.25
-9755156.57 5135782.33 181.31
-9755156.58 5135780.86 181.30
-9755153.06 5135780.53 181.30
-9755146.78 5135792.36 181.27
-9755146.47 5135795.33 181.28
-9755145.05 5135787.05 181.24
-9755143.24 5135787.00 181.24
-9755148.34 5135782.29 181.25
-9755146.80 5135780.52 181.25
-9755146.50 5135784.04 181.25
-9755169.59 5135775.60 181.24
-9755169.80 5135777.35 181.23
-9755169.57 5135774.10 181.24
-9755166.38 5135775.56 181.26
-9755161.30 5135775.86 181.28
-9755158.06 5135775.53 181.30
-9755159.51 5135777.32 181.29
-9755155.10 5135777.29 181.32
-9755149.81 5135777.26 181.27
-9755146.36 5135773.97 181.27
-9755145.09 5135777.24 181.25
-9755141.51 5135786.97 181.23
-9755134.99 5135790.51 181.22
-9755138.57 5135780.74 181.16
-9755141.84 5135782.22 181.20
-9755140.04 5135780.44 181.18
-9755133.46 5135795.22 181.25
-9755130.28 5135790.17 181.24
-9755123.79 5135790.75 181.25
-9755116.51 5135790.59 184.27
-9755118.72 5135795.47 181.30
-9755121.97 5135793.67 181.27
-9755118.52 5135786.89 181.30
-9755128.49 5135792.25 181.25
-9755128.26 5135785.45 181.22
-9755126.73 5135785.40 181.22
-9755126.73 5135792.23 181.24
-9755123.47 5135795.16 181.27
-9755117.05 5135790.40 181.28
-9755133.29 5135778.93 181.18
-9755131.54 5135778.66 181.19
-9755123.27 5135782.13 181.23
-9755118.24 5135778.87 181.28
-9755120.28 5135780.36 181.26
-9755125.34 5135781.87 181.22
-9755121.81 5135778.87 181.26
-9755118.84 5135783.62 181.29
-9755117.07 5135778.83 181.28
-9755135.07 5135777.16 181.20
-9755134.80 5135773.94 181.22
-9755138.29 5135777.51 181.18
-9755139.81 5135773.96 181.22
-9755141.85 5135775.75 181.22
-9755136.53 5135775.75 181.21
-9755136.90 5135772.17 181.21
-9755141.60 5135772.48 181.24
-9755133.59 5135773.90 181.21
-9755133.34 5135775.67 181.20
-9755131.57 5135773.86 181.21
-9755120.06 5135777.05 181.27
-9755125.05 5135777.14 181.23
-9755120.33 5135775.86 181.27
-9755116.53 5135774.11 181.30
-9755116.81 5135775.65 181.30
-9755126.83 5135775.68 181.22
-9755122.08 5135775.64 181.26
-9755121.60 5135772.36 181.27
-9755116.71 5135777.09 184.61
-9755116.85 5135775.85 184.79
-9755115.23 5135797.09 184.71
-9755107.02 5135796.58 187.30
-9755102.25 5135797.90 187.10
-9755115.34 5135793.87 184.39
-9755115.55 5135790.40 181.41
-9755115.59 5135787.43 181.45
-9755115.56 5135795.46 181.44
-9755115.35 5135793.93 181.46
-9755115.85 5135792.01 181.32
-9755115.29 5135780.59 181.49
-9755115.40 5135779.12 184.29
-9755108.81 5135791.94 185.95
-9755105.54 5135787.12 187.70
-9755105.22 5135793.79 189.08
-9755113.56 5135785.50 184.33
-9755107.07 5135785.38 185.89
-9755113.48 5135795.47 185.84
-9755107.10 5135795.53 184.49
-9755109.93 5135793.93 181.42
-9755101.99 5135795.53 185.94
-9755110.23 5135787.36 181.50
-9755110.29 5135790.34 185.69
-9755111.79 5135785.56 184.28
-9755103.82 5135785.47 185.68
-9755110.23 5135787.24 184.30
-9755107.01 5135785.73 184.33
-9755105.66 5135787.16 185.72
-9755106.97 5135788.50 184.54
-9755105.26 5135788.85 188.81
-9755113.83 5135787.43 185.89
-9755105.48 5135792.05 181.30
-9755107.10 5135792.16 187.21
-9755109.15 5135788.95 184.21
-9755108.68 5135792.10 187.43
-9755106.44 5135793.24 189.51
-9755108.80 5135787.11 181.43
-9755107.64 5135790.48 184.88
-9755111.60 5135793.48 184.41
-9755105.31 5135787.54 188.71
-9755102.28 5135793.75 189.26
-9755105.19 5135794.71 188.94
-9755110.41 5135795.54 187.03
-9755102.25 5135794.24 186.20
-9755104.11 5135791.96 190.27
-9755103.86 5135790.22 184.23
-9755110.38 5135785.34 186.87
-9755103.10 5135795.27 188.95
-9755102.34 5135788.55 181.10
-9755104.63 5135790.56 190.01
-9755107.09 5135787.91 188.82
-9755113.46 5135794.45 181.53
-9755102.08 5135787.90 188.88
-9755100.83 5135796.79 187.02
-9755100.59 5135792.34 189.05
-9755100.87 5135796.66 185.99
-9755100.51 5135790.48 189.30
-9755100.30 5135788.81 189.13
-9755100.92 5135787.03 185.89
-9755100.83 5135795.03 189.42
-9755100.48 5135790.54 181.16
-9755099.43 5135787.60 187.10
-9755099.37 5135793.45 188.42
-9755113.61 5135780.46 184.18
-9755111.74 5135782.22 185.69
-9755113.54 5135784.06 184.09
-9755108.57 5135780.61 185.89
-9755110.30 5135783.86 184.25
-9755105.42 5135782.09 185.65
-9755105.51 5135783.55 185.72
-9755108.54 5135783.98 187.25
-9755104.08 5135784.18 183.97
-9755113.59 5135779.04 187.17
-9755107.32 5135784.16 186.89
-9755103.83 5135778.77 181.15
-9755103.55 5135782.06 181.17
-9755113.61 5135780.63 181.52
-9755111.67 5135784.10 186.99
-9755113.49 5135782.26 181.50
-9755102.34 5135782.03 181.12
-9755107.77 5135780.97 186.91
-9755102.04 5135784.41 186.78
-9755100.23 5135780.85 181.18
-9755097.31 5135779.05 181.26
-9755095.57 5135782.22 181.29
-9755091.94 5135787.27 181.35
-9755092.23 5135792.02 181.35
-9755088.68 5135793.79 181.41
-9755092.28 5135788.76 181.36
-9755090.47 5135785.23 181.37
-9755088.73 5135787.24 181.39
-9755094.03 5135785.83 181.30
-9755089.05 5135780.44 181.37
-9755115.20 5135772.11 186.13
-9755115.25 5135775.50 184.28
-9755115.55 5135777.09 181.35
-9755115.11 5135772.31 187.70
-9755115.08 5135774.04 184.17
-9755113.62 5135777.33 185.82
-9755113.55 5135775.64 185.89
-9755112.02 5135777.42 184.44
-9755112.22 5135775.97 184.13
-9755113.57 5135773.68 189.31
-9755107.08 5135772.04 189.51
-9755105.12 5135772.40 190.91
-9755105.22 5135773.92 188.97
-9755105.34 5135774.09 187.65
-9755105.30 5135772.31 187.75
-9755106.82 5135777.14 185.50
-9755112.11 5135773.63 187.61
-9755105.69 5135775.60 187.60
-9755105.35 5135774.38 181.31
-9755104.11 5135775.53 187.93
-9755113.61 5135772.68 187.18
-9755103.85 5135775.53 181.25
-9755110.42 5135775.41 186.79
-9755105.37 5135775.52 188.40
-9755107.80 5135774.79 184.36
-9755109.30 5135772.70 186.18
-9755106.80 5135772.04 191.02
-9755107.04 5135772.98 185.99
-9755114.52 5135775.05 186.67
-9755102.00 5135777.25 181.14
-9755098.93 5135773.64 189.04
-9755100.41 5135772.40 190.55
-9755095.25 5135777.22 181.30
-9755100.43 5135773.90 190.26
-9755097.37 5135775.54 181.27
-9755098.82 5135777.27 181.23
-9755099.53 5135774.86 187.62
-9755093.56 5135772.51 181.32
-9755090.87 5135772.24 181.34
-9755088.78 5135772.49 181.37
-9755082.21 5135797.17 182.41
-9755087.20 5135796.76 181.49
-9755084.02 5135796.89 182.45
-9755085.71 5135797.10 184.39
-9755088.68 5135794.67 185.96
-9755085.36 5135785.64 185.95
-9755082.05 5135787.38 182.30
-9755085.51 5135792.34 185.37
-9755087.12 5135795.24 185.92
-9755082.22 5135795.65 183.87
-9755087.21 5135793.71 181.50
-9755082.09 5135793.76 184.19
-9755085.77 5135789.02 181.54
-9755087.36 5135793.53 187.42
-9755084.05 5135787.25 181.32
-9755087.24 5135787.27 181.48
-9755087.20 5135790.66 183.40
-9755084.42 5135792.85 184.04
-9755082.21 5135788.65 182.50
-9755087.50 5135793.82 185.68
-9755082.56 5135786.92 181.03
-9755083.69 5135792.28 187.57
-9755087.18 5135795.29 181.48
-9755083.10 5135796.28 183.92
-9755084.11 5135786.75 185.58
-9755082.29 5135788.91 183.92
-9755087.10 5135790.47 182.41
-9755082.52 5135790.47 181.06
-9755084.03 5135785.39 183.09
-9755088.46 5135792.79 184.24
-9755087.52 5135792.02 181.47
-9755085.57 5135785.50 187.50
-9755088.39 5135793.18 185.69
-9755087.12 5135796.28 185.88
-9755084.73 5135796.33 183.76
-9755084.58 5135787.44 182.88
-9755083.98 5135793.47 188.47
-9755084.34 5135786.69 184.22
-9755082.79 5135786.47 185.17
-9755082.27 5135778.89 182.66
-9755083.95 5135780.20 181.05
-9755085.48 5135782.94 185.50
-9755087.09 5135780.56 184.15
-9755087.24 5135780.69 181.48
-9755082.33 5135779.93 182.45
-9755087.29 5135778.68 181.48
-9755084.46 5135779.85 184.88
-9755084.01 5135784.02 187.01
-9755086.68 5135779.94 185.83
-9755085.58 5135775.64 183.61
-9755082.30 5135772.37 182.63
-9755085.52 5135775.39 181.46
-9755087.08 5135772.42 181.55
-9755087.37 5135773.92 185.79
-9755084.65 5135775.74 183.69
-9755085.66 5135772.34 183.73
-9755087.18 5135775.67 182.37
-9755082.03 5135773.90 183.96
-9755087.04 5135772.47 185.90
-9755082.58 5135776.64 183.84
-9755291.68 5135762.00 185.53
-9755291.96 5135769.21 181.37
-9755290.64 5135763.41 185.18
-9755289.83 5135772.48 181.32
-9755292.12 5135762.77 186.84
-9755286.61 5135760.80 182.47
-9755283.17 5135760.87 181.42
-9755279.89 5135767.64 181.33
-9755280.19 5135765.54 181.36
-9755283.67 5135769.29 183.68
-9755281.66 5135764.09 181.40
-9755283.44 5135767.68 181.36
-9755286.68 5135772.11 181.29
-9755279.85 5135772.07 181.17
-9755283.45 5135771.80 185.04
-9755282.22 5135772.51 183.87
-9755284.26 5135770.37 185.15
-9755291.16 5135759.14 181.48
-9755288.46 5135755.86 181.53
-9755289.94 5135755.85 181.55
-9755289.72 5135750.82 181.65
-9755291.47 5135752.57 181.61
-9755290.03 5135746.37 181.72
-9755284.96 5135757.62 181.49
-9755286.71 5135757.30 181.50
-9755284.93 5135759.41 181.45
-9755279.95 5135757.28 181.48
-9755281.41 5135757.55 181.48
-9755284.73 5135754.37 181.56
-9755286.77 5135752.57 181.59
-9755280.00 5135747.82 181.61
-9755279.97 5135755.81 181.51
-9755286.49 5135746.05 181.77
-9755283.57 5135746.07 181.72
-9755286.51 5135746.93 181.73
-9755278.14 5135770.56 181.23
-9755278.11 5135772.39 181.17
-9755278.14 5135765.82 181.34
-9755276.60 5135767.32 181.30
-9755276.38 5135760.82 181.40
-9755273.43 5135762.28 181.38
-9755275.17 5135770.60 181.18
-9755273.37 5135772.39 181.14
-9755271.89 5135772.65 181.13
-9755273.43 5135764.35 181.35
-9755270.20 5135760.81 181.38
-9755268.21 5135764.30 181.30
-9755273.40 5135770.84 181.17
-9755266.68 5135762.58 181.32
-9755266.64 5135763.84 183.19
-9755266.95 5135769.07 181.19
-9755267.01 5135765.72 183.19
-9755267.41 5135765.36 184.06
-9755266.72 5135760.76 181.34
-9755267.81 5135764.51 185.05
-9755263.60 5135772.65 181.19
-9755263.64 5135767.23 181.20
-9755260.40 5135762.53 181.20
-9755258.71 5135769.01 181.21
-9755260.10 5135770.45 181.21
-9755258.61 5135763.95 181.18
-9755261.87 5135769.02 181.19
-9755256.87 5135768.74 181.19
-9755261.91 5135770.79 181.22
-9755258.40 5135762.18 181.19
-9755253.68 5135760.96 181.27
-9755260.12 5135772.52 181.23
-9755251.85 5135762.48 181.20
-9755265.58 5135763.97 183.23
-9755278.45 5135757.57 181.45
-9755276.68 5135759.02 181.41
-9755273.49 5135757.54 181.40
-9755271.70 5135757.57 181.39
-9755274.95 5135759.02 181.41
-9755278.50 5135749.25 181.56
-9755278.53 5135752.54 181.54
-9755276.74 5135752.75 181.51
-9755273.52 5135747.78 181.54
-9755275.04 5135747.71 181.55
-9755274.95 5135752.50 181.49
-9755268.49 5135750.99 181.47
-9755270.27 5135749.25 181.49
-9755270.22 5135750.97 181.48
-9755274.97 5135751.01 181.51
-9755276.72 5135751.05 181.53
-9755259.91 5135758.92 181.32
-9755264.88 5135757.50 181.38
-9755253.10 5135757.67 183.18
-9755255.21 5135757.44 181.33
-9755253.64 5135759.23 181.30
-9755251.97 5135757.37 181.34
-9755261.35 5135759.29 184.78
-9755263.43 5135754.20 181.40
-9755253.81 5135749.41 181.46
-9755254.02 5135754.21 181.39
-9755255.23 5135752.69 181.41
-9755263.42 5135756.03 181.37
-9755258.72 5135750.94 181.44
-9755261.99 5135754.23 181.41
-9755260.18 5135755.99 181.38
-9755254.66 5135756.08 184.36
-9755263.75 5135749.19 181.47
-9755252.28 5135756.16 183.15
-9755260.25 5135749.44 181.45
-9755248.62 5135771.02 181.16
-9755247.14 5135770.45 181.15
-9755240.42 5135770.70 181.19
-9755245.40 5135762.70 181.20
-9755238.94 5135762.67 181.19
-9755233.67 5135762.65 181.19
-9755230.62 5135767.34 181.12
-9755233.93 5135767.71 181.14
-9755235.61 5135770.95 181.18
-9755230.67 5135760.84 181.28
-9755237.17 5135763.87 181.18
-9755235.39 5135764.11 181.18
-9755234.16 5135768.89 181.15
-9755230.58 5135765.65 181.13
-9755228.88 5135767.38 181.15
-9755227.40 5135765.56 181.16
-9755228.89 5135768.88 181.14
-9755227.41 5135762.62 181.20
-9755225.63 5135770.59 181.19
-9755227.45 5135760.84 181.30
-9755225.68 5135764.11 181.19
-9755250.48 5135754.15 181.39
-9755250.97 5135756.69 183.65
-9755248.75 5135754.48 181.40
-9755233.97 5135757.61 181.36
-9755245.44 5135759.15 181.33
-9755238.66 5135759.09 181.32
-9755230.68 5135758.79 181.34
-9755235.67 5135759.10 181.33
-9755243.72 5135752.59 181.45
-9755246.93 5135752.65 181.43
-9755245.49 5135752.40 181.44
-9755243.73 5135747.60 181.49
-9755245.78 5135754.12 181.41
-9755238.96 5135755.83 181.39
-9755240.19 5135745.91 184.14
-9755240.19 5135746.28 183.35
-9755237.21 5135754.07 181.41
-9755236.97 5135747.57 181.50
-9755235.47 5135750.80 181.46
-9755232.20 5135755.84 181.39
-9755235.47 5135747.59 181.49
-9755233.71 5135752.26 181.44
-9755237.46 5135755.85 181.38
-9755235.76 5135749.33 181.48
-9755230.79 5135749.32 181.48
-9755228.85 5135758.20 182.48
-9755227.48 5135759.05 181.35
-9755228.95 5135759.09 181.34
-9755225.75 5135747.77 181.49
-9755225.76 5135751.08 181.45
-9755222.35 5135770.83 181.38
-9755223.90 5135762.57 181.25
-9755222.39 5135765.85 181.37
-9755222.40 5135769.06 181.39
-9755220.66 5135761.06 181.38
-9755224.20 5135764.35 181.19
-9755219.20 5135762.30 181.40
-9755212.37 5135770.78 181.66
-9755217.42 5135764.01 181.48
-9755217.36 5135765.49 181.49
-9755217.67 5135767.60 181.47
-9755217.43 5135761.02 181.40
-9755212.69 5135762.26 181.54
-9755213.90 5135761.03 181.46
-9755213.87 5135771.23 184.10
-9755213.16 5135771.68 182.71
-9755202.70 5135761.00 181.30
-9755205.61 5135762.49 181.47
-9755204.08 5135769.01 181.33
-9755209.41 5135765.80 181.57
-9755200.84 5135769.25 181.29
-9755197.62 5135770.69 181.26
-9755209.12 5135765.26 183.79
-9755208.88 5135764.84 183.20
-9755209.09 5135765.17 183.20
-9755220.66 5135757.22 181.41
-9755218.92 5135757.79 181.42
-9755222.18 5135755.73 181.41
-9755218.92 5135753.97 181.42
-9755218.98 5135747.76 181.51
-9755214.24 5135752.46 181.45
-9755217.44 5135755.73 181.42
-9755217.48 5135751.00 181.46
-9755214.22 5135755.71 181.48
-9755210.67 5135754.24 181.50
-9755199.20 5135752.37 181.30
-9755201.24 5135755.92 181.29
-9755202.74 5135749.18 181.30
-9755206.02 5135745.91 181.49
-9755201.27 5135750.87 181.30
-9755201.00 5135745.89 181.30
-9755202.42 5135756.29 181.29
-9755199.26 5135746.18 181.30
-9755197.43 5135750.90 181.27
-9755195.86 5135768.93 181.27
-9755194.40 5135768.96 181.26
-9755196.21 5135762.41 181.30
-9755196.16 5135767.46 181.28
-9755195.89 5135759.43 181.30
-9755191.14 5135770.98 181.25
-9755190.87 5135759.14 181.30
-9755186.14 5135764.17 181.28
-9755189.38 5135767.43 181.26
-9755186.16 5135767.14 181.25
-9755189.42 5135762.68 181.28
-9755181.42 5135760.55 181.28
-9755182.89 5135767.09 181.24
-9755179.67 5135768.87 181.23
-9755174.63 5135762.59 181.27
-9755176.44 5135759.36 181.28
-9755179.42 5135759.12 181.30
-9755172.93 5135761.10 181.27
-9755171.41 5135762.27 181.27
-9755195.96 5135754.14 181.30
-9755196.24 5135755.62 181.29
-9755192.70 5135752.61 181.28
-9755192.69 5135755.93 181.30
-9755190.95 5135749.37 181.26
-9755181.20 5135757.29 181.30
-9755174.68 5135757.58 181.29
-9755189.50 5135747.58 181.24
-9755187.72 5135746.11 181.23
-9755184.20 5135752.57 181.26
-9755182.95 5135755.85 181.29
-9755181.25 5135746.05 181.21
-9755179.43 5135756.09 181.30
-9755173.25 5135751.05 181.24
-9755181.20 5135754.33 181.29
-9755172.99 5135749.26 181.24
-9755162.88 5135764.05 181.30
-9755166.41 5135762.52 181.30
-9755166.39 5135767.29 181.30
-9755169.60 5135768.82 181.28
-9755169.65 5135765.49 181.28
-9755167.87 5135760.80 181.30
-9755163.15 5135768.76 181.30
-9755161.38 5135758.98 181.31
-9755158.13 5135767.54 181.31
-9755158.12 5135764.01 181.31
-9755159.92 5135767.28 181.30
-9755156.64 5135769.33 181.32
-9755156.37 5135760.70 181.32
-9755156.71 5135759.28 181.32
-9755146.67 5135760.96 181.31
-9755144.86 5135762.72 181.29
-9755145.13 5135770.72 181.27
-9755151.38 5135762.76 181.31
-9755151.33 5135769.00 181.30
-9755144.89 5135765.68 181.27
-9755143.42 5135760.65 181.30
-9755166.41 5135756.02 181.30
-9755159.68 5135755.69 181.31
-9755162.98 5135749.51 181.28
-9755166.20 5135749.24 181.27
-9755169.72 5135749.21 181.26
-9755162.96 5135752.44 181.29
-9755164.68 5135754.56 181.30
-9755166.45 5135751.00 181.28
-9755163.22 5135754.24 181.30
-9755159.98 5135752.43 181.29
-9755157.94 5135749.16 181.29
-9755159.74 5135745.96 181.27
-9755158.21 5135750.95 181.29
-9755161.50 5135744.17 181.27
-9755156.16 5135747.67 181.30
-9755154.72 5135745.86 181.30
-9755156.47 5135744.45 181.28
-9755152.95 5135752.67 181.30
-9755149.96 5135757.43 181.31
-9755148.17 5135755.62 181.27
-9755148.27 5135747.63 181.26
-9755151.75 5135749.15 181.29
-9755149.66 5135750.98 181.27
-9755135.13 5135769.20 181.23
-9755136.90 5135767.39 181.24
-9755138.08 5135765.95 181.26
-9755141.70 5135759.40 181.31
-9755141.63 5135764.19 181.28
-9755135.13 5135764.14 181.27
-9755136.94 5135760.61 181.28
-9755140.21 5135759.12 181.32
-9755133.64 5135769.20 181.24
-9755131.65 5135760.59 181.29
-9755130.13 5135762.67 181.29
-9755129.89 5135760.56 181.29
-9755128.37 5135767.36 181.25
-9755118.41 5135767.23 187.75
-9755118.11 5135767.17 186.42
-9755118.40 5135760.46 181.31
-9755118.14 5135768.82 186.26
-9755117.80 5135770.42 187.98
-9755118.59 5135770.88 181.27
-9755118.31 5135769.09 181.29
-9755117.07 5135770.86 186.57
-9755116.72 5135767.20 189.33
-9755126.92 5135759.42 181.29
-9755126.89 5135764.36 181.27
-9755123.65 5135759.34 181.28
-9755117.21 5135759.30 181.30
-9755117.86 5135766.41 187.67
-9755134.89 5135757.66 181.28
-9755136.73 5135757.34 181.29
-9755138.46 5135756.14 181.28
-9755138.20 5135750.82 181.26
-9755138.15 5135752.59 181.27
-9755138.19 5135746.06 181.21
-9755134.97 5135746.10 181.19
-9755135.25 5135744.04 181.17
-9755131.67 5135757.37 181.27
-9755126.67 5135757.30 181.28
-9755118.70 5135756.07 181.29
-9755133.46 5135750.81 181.22
-9755131.71 5135747.82 181.20
-9755129.95 5135746.05 181.22
-9755125.21 5135754.00 181.26
-9755116.88 5135754.56 181.30
-9755125.19 5135745.99 181.24
-9755116.66 5135747.75 181.30
-9755122.00 5135749.26 181.26
-9755118.42 5135747.46 181.30
-9755116.95 5135752.53 181.30
-9755118.74 5135751.03 181.29
-9755126.95 5135752.84 181.25
-9755121.69 5135744.52 181.26
-9755128.46 5135744.59 181.22
-9755115.40 5135764.34 181.44
-9755116.32 5135764.26 186.41
-9755115.63 5135767.26 181.33
-9755115.19 5135770.53 181.47
-9755115.17 5135765.72 189.34
-9755115.21 5135767.39 190.36
-9755109.94 5135763.75 186.29
-9755107.17 5135764.35 187.19
-9755105.41 5135769.14 190.92
-9755113.68 5135770.73 189.10
-9755108.70 5135767.45 189.22
-9755105.38 5135765.90 189.01
-9755108.64 5135764.00 187.28
-9755108.32 5135765.76 187.36
-9755112.02 5135767.26 188.95
-9755107.04 5135760.81 185.71
-9755103.63 5135762.47 187.78
-9755103.66 5135768.89 190.70
-9755105.48 5135770.65 190.81
-9755106.95 5135767.31 190.74
-9755107.00 5135768.90 189.31
-9755105.43 5135762.50 185.70
-9755105.72 5135770.73 187.56
-9755108.66 5135767.43 188.16
-9755110.50 5135767.28 190.41
-9755108.95 5135764.45 189.42
-9755113.38 5135760.99 181.60
-9755107.19 5135763.95 185.63
-9755108.69 5135770.71 189.27
-9755107.16 5135762.75 187.50
-9755113.13 5135762.06 185.50
-9755113.89 5135760.87 182.70
-9755103.74 5135766.99 191.94
-9755113.74 5135763.10 188.56
-9755110.31 5135760.75 183.82
-9755105.43 5135766.64 187.89
-9755103.31 5135769.28 186.06
-9755107.18 5135769.41 191.85
-9755107.15 5135759.23 181.35
-9755113.46 5135759.86 183.03
-9755107.44 5135769.24 186.10
-9755104.20 5135765.83 191.88
-9755114.01 5135770.98 184.52
-9755105.39 5135759.23 181.33
-9755110.40 5135758.95 181.56
-9755103.98 5135759.25 181.27
-9755106.73 5135763.11 188.45
-9755111.94 5135759.71 184.24
-9755105.41 5135761.59 188.43
-9755104.92 5135771.25 184.89
-9755102.03 5135765.73 187.28
-9755102.48 5135767.45 186.44
-9755102.14 5135760.98 181.12
-9755100.41 5135768.93 189.12
-9755100.01 5135770.80 186.35
-9755098.86 5135770.51 189.48
-9755100.41 5135764.69 188.98
-9755097.17 5135766.32 187.11
-9755097.80 5135770.34 189.35
-9755101.57 5135764.82 190.73
-9755098.99 5135763.23 188.60
-9755101.60 5135768.81 191.61
-9755090.33 5135760.92 181.35
-9755092.09 5135767.48 181.35
-9755093.86 5135760.64 181.32
-9755090.66 5135764.17 181.36
-9755090.30 5135770.68 181.37
-9755115.49 5135747.72 181.31
-9755115.32 5135752.64 184.86
-9755110.65 5135759.18 183.02
-9755110.01 5135757.47 182.99
-9755111.99 5135755.71 182.71
-9755113.91 5135757.79 181.59
-9755113.68 5135755.72 181.58
-9755112.07 5135755.86 184.68
-9755112.87 5135755.95 182.17
-9755102.22 5135755.72 181.13
-9755108.80 5135749.35 185.73
-9755113.78 5135751.13 184.71
-9755113.71 5135754.25 181.56
-9755112.11 5135750.70 185.84
-9755110.31 5135750.73 185.96
-9755110.10 5135749.28 185.70
-9755112.27 5135747.68 181.57
-9755107.15 5135754.16 184.01
-9755109.10 5135751.27 187.54
-9755111.75 5135754.26 185.85
-9755113.65 5135749.06 185.74
-9755110.81 5135753.13 185.79
-9755113.49 5135749.13 183.79
-9755105.48 5135754.37 184.22
-9755113.37 5135751.05 181.55
-9755108.77 5135748.94 181.42
-9755111.97 5135752.56 185.79
-9755112.24 5135754.56 184.23
-9755113.95 5135752.41 181.57
-9755110.57 5135754.88 181.61
-9755112.26 5135753.13 184.71
-9755113.09 5135748.45 185.60
-9755108.73 5135745.89 181.51
-9755110.21 5135744.44 181.50
-9755113.91 5135750.85 182.76
-9755101.96 5135747.65 181.09
-9755100.46 5135747.66 181.14
-9755100.44 5135752.46 181.16
-9755097.44 5135754.13 181.29
-9755100.44 5135744.45 181.14
-9755095.75 5135745.87 181.32
-9755095.76 5135747.60 181.33
-9755093.94 5135754.15 181.34
-9755095.50 5135744.38 181.33
-9755085.67 5135760.91 181.51
-9755085.56 5135765.44 182.62
-9755084.13 5135770.60 182.69
-9755086.53 5135763.90 186.14
-9755085.63 5135765.91 181.50
-9755082.18 5135770.66 180.90
-9755085.50 5135767.24 183.96
-9755086.85 5135760.65 185.72
-9755085.68 5135764.09 182.55
-9755087.10 5135764.11 181.56
-9755087.39 5135762.10 182.37
-9755082.70 5135765.58 185.54
-9755085.72 5135760.87 182.62
-9755087.32 5135769.16 182.39
-9755084.03 5135767.49 184.10
-9755082.36 5135762.35 182.43
-9755087.36 5135767.14 181.52
-9755084.01 5135759.52 184.62
-9755083.91 5135762.54 184.47
-9755085.56 5135762.34 181.54
-9755083.89 5135765.93 181.25
-9755085.66 5135759.69 186.76
-9755086.53 5135766.08 187.39
-9755082.95 5135766.89 185.59
-9755087.02 5135759.22 184.93
-9755086.46 5135766.65 186.49
-9755087.43 5135757.64 181.51
-9755083.91 5135755.81 182.44
-9755082.38 5135754.13 180.97
-9755083.91 5135745.88 184.53
-9755087.47 5135754.38 181.48
-9755083.97 5135754.45 182.42
-9755082.47 5135752.12 182.03
-9755083.88 5135744.26 185.96
-9755086.91 5135746.01 182.42
-9755083.96 5135744.32 181.41
-9755087.12 5135752.59 181.55
-9755083.66 5135747.58 181.30
-9755085.71 5135747.57 181.54
-9755083.47 5135745.80 187.10
-9755083.95 5135747.36 185.62
-9755086.06 5135746.06 182.42
-9755082.15 5135747.41 183.77
-9755087.24 5135744.33 181.57
-9755083.37 5135746.83 184.49
-9755290.04 5135746.08 181.74
-9755288.12 5135745.97 194.15
-9755291.54 5135744.28 181.79
-9755291.75 5135743.36 181.82
-9755291.36 5135744.27 193.91
-9755291.62 5135741.09 194.01
-9755288.61 5135744.79 182.51
-9755291.82 5135746.08 181.73
-9755288.11 5135742.81 194.01
-9755289.39 5135743.93 182.26
-9755288.68 5135744.46 184.25
-9755286.56 5135744.29 193.91
-9755286.65 5135741.02 193.83
-9755282.98 5135745.75 181.73
-9755288.50 5135727.78 193.92
-9755289.90 5135737.78 193.94
-9755291.64 5135736.32 193.89
-9755291.45 5135723.01 193.97
-9755289.67 5135726.22 193.94
-9755290.02 5135724.42 193.94
-9755288.23 5135721.16 193.89
-9755284.93 5135734.49 193.82
-9755283.98 5135735.97 194.17
-9755284.96 5135724.47 193.86
-9755283.54 5135722.93 193.89
-9755284.95 5135726.20 193.95
-9755281.71 5135722.96 194.15
-9755286.88 5135722.93 194.93
-9755291.48 5135721.24 193.91
-9755288.24 5135719.42 194.11
-9755278.23 5135744.53 181.64
-9755275.06 5135742.73 181.65
-9755269.99 5135744.50 181.58
-9755276.80 5135742.47 181.67
-9755270.03 5135740.97 181.44
-9755268.21 5135740.95 181.17
-9755267.05 5135744.48 181.53
-9755266.78 5135740.94 181.09
-9755258.51 5135744.38 181.52
-9755256.76 5135742.90 181.53
-9755253.52 5135742.64 181.52
-9755258.54 5135742.36 181.35
-9755265.32 5135742.44 181.35
-9755252.00 5135744.36 181.53
-9755251.98 5135742.63 181.52
-9755252.02 5135741.13 181.49
-9755270.05 5135729.68 181.52
-9755275.06 5135729.37 181.30
-9755274.83 5135731.32 181.91
-9755276.58 5135729.74 181.71
-9755275.11 5135727.67 181.82
-9755274.87 5135727.95 181.40
-9755273.65 5135727.69 181.21
-9755276.57 5135727.94 181.71
-9755273.58 5135739.49 181.60
-9755277.45 5135732.63 181.73
-9755275.07 5135737.65 181.64
-9755271.84 5135737.74 181.17
-9755270.05 5135737.75 180.84
-9755268.56 5135734.42 181.21
-9755275.03 5135739.54 181.62
-9755273.41 5135724.65 181.69
-9755276.60 5135726.49 181.71
-9755275.70 5135723.19 181.72
-9755263.34 5135729.62 181.64
-9755265.09 5135729.67 181.59
-9755256.84 5135729.57 181.95
-9755260.23 5135729.54 183.03
-9755255.52 5135731.27 190.93
-9755253.63 5135729.48 189.67
-9755262.22 5135727.89 181.65
-9755256.82 5135731.10 181.98
-9755262.12 5135727.78 184.32
-9755258.61 5135731.34 181.96
-9755261.89 5135731.28 185.93
-9755258.67 5135729.44 185.39
-9755259.73 5135728.84 183.97
-9755253.14 5135728.01 192.15
-9755253.89 5135727.77 181.87
-9755254.90 5135730.68 189.24
-9755261.30 5135728.81 186.08
-9755254.72 5135729.84 185.10
-9755252.25 5135729.76 192.23
-9755254.74 5135729.47 183.99
-9755258.64 5135727.93 185.71
-9755262.12 5135731.20 184.44
-9755251.99 5135731.20 192.70
-9755267.12 5135739.45 180.80
-9755266.82 5135737.67 180.78
-9755266.81 5135736.22 181.05
-9755266.20 5135733.08 184.31
-9755261.72 5135732.62 185.75
-9755263.61 5135734.17 185.88
-9755263.43 5135733.17 185.65
-9755263.58 5135734.25 184.33
-9755252.15 5135731.20 185.34
-9755253.93 5135733.29 189.05
-9755253.52 5135737.83 187.41
-9755256.72 5135737.86 187.88
-9755261.78 5135734.31 181.87
