-9755065.92 5135746.09 177.77
-9755062.62 5135749.10 177.01
-9755069.24 5135744.34 184.04
-9755072.75 5135747.60 178.99
-9755067.33 5135752.65 177.92
-9755072.37 5135752.61 178.88
-9755069.13 5135751.13 178.25
-9755062.63 5135754.15 177.02
-9755062.74 5135745.86 177.11
-9755065.89 5135744.39 177.81
-9755069.21 5135745.88 178.32
-9755071.55 5135754.35 180.95
-9755069.15 5135749.64 178.44
-9755070.69 5135744.16 180.77
-9755067.96 5135745.71 184.23
-9755064.19 5135744.37 177.42
-9755062.63 5135752.41 177.06
-9755070.25 5135752.67 178.40
-9755069.22 5135743.66 185.54
-9755071.47 5135754.76 182.80
-9755069.42 5135754.16 178.47
-9755069.78 5135747.35 178.44
-9755071.94 5135745.26 183.95
-9755070.00 5135744.46 178.42
-9755062.72 5135744.10 177.11
-9755068.32 5135755.35 178.46
-9755062.20 5135764.03 176.56
-9755061.95 5135765.75 176.38
-9755062.19 5135762.18 176.53
-9755062.18 5135760.74 176.51
-9755061.52 5135767.55 176.94
-9755061.42 5135760.39 177.11
-9755061.06 5135768.97 176.40
-9755061.08 5135767.24 176.38
-9755060.82 5135765.72 176.38
-9755061.56 5135765.37 177.32
-9755060.77 5135763.95 176.37
-9755059.06 5135764.24 176.43
-9755059.27 5135769.26 176.46
-9755061.39 5135759.42 177.13
-9755059.33 5135767.21 176.44
-9755059.37 5135762.45 176.41
-9755059.33 5135765.77 176.42
-9755057.81 5135768.97 176.47
-9755059.38 5135759.17 176.38
-9755057.89 5135763.95 176.44
-9755057.57 5135759.18 176.41
-9755057.58 5135762.73 176.44
-9755055.78 5135763.92 176.47
-9755054.33 5135768.95 176.52
-9755052.53 5135767.48 176.53
-9755050.78 5135767.43 176.54
-9755054.35 5135760.96 176.47
-9755056.10 5135767.21 176.49
-9755055.76 5135762.45 176.45
-9755050.85 5135762.44 176.50
-9755056.04 5135770.41 176.51
-9755052.86 5135762.44 176.47
-9755054.61 5135763.90 176.49
-9755049.25 5135770.99 176.56
-9755056.10 5135769.23 176.50
-9755054.27 5135770.73 176.54
-9755054.31 5135765.70 176.50
-9755049.29 5135767.44 176.54
-9755049.32 5135762.70 176.50
-9755049.33 5135764.15 176.51
-9755049.34 5135765.66 176.53
-9755051.30 5135770.71 176.56
-9755056.07 5135765.67 176.49
-9755051.06 5135759.18 176.48
-9755047.52 5135765.62 176.50
-9755049.64 5135759.15 176.48
-9755047.78 5135764.19 176.49
-9755046.06 5135767.13 176.50
-9755047.86 5135759.13 176.45
-9755046.00 5135770.65 176.52
-9755046.37 5135760.94 176.45
-9755044.04 5135760.88 176.43
-9755044.55 5135768.88 176.50
-9755046.10 5135764.21 176.47
-9755044.58 5135762.65 176.45
-9755046.06 5135759.40 176.44
-9755044.01 5135764.15 176.45
-9755044.52 5135770.65 176.49
-9755041.38 5135764.11 176.41
-9755039.57 5135764.10 176.38
-9755041.07 5135762.61 176.39
-9755041.32 5135768.87 176.43
-9755042.57 5135764.10 176.43
-9755042.84 5135760.88 176.41
-9755041.31 5135767.71 176.44
-9755042.81 5135769.15 176.44
-9755039.55 5135767.42 176.39
-9755039.59 5135759.09 176.34
-9755036.70 5135760.68 176.13
-9755037.80 5135767.33 176.35
-9755036.57 5135762.57 176.35
-9755036.04 5135764.13 176.65
-9755036.01 5135767.30 176.69
-9755038.09 5135760.82 176.31
-9755036.04 5135765.59 176.67
-9755037.43 5135764.10 177.43
-9755036.25 5135769.09 177.52
-9755036.35 5135760.79 177.42
-9755036.39 5135765.83 177.47
-9755036.41 5135767.30 177.47
-9755037.54 5135762.52 177.27
-9755059.40 5135755.91 176.35
-9755060.97 5135757.08 177.02
-9755059.37 5135757.72 176.37
-9755060.86 5135745.97 176.26
-9755060.92 5135745.88 177.05
-9755057.63 5135747.38 176.31
-9755060.72 5135744.45 177.04
-9755057.66 5135749.40 176.33
-9755057.32 5135750.91 176.34
-9755056.17 5135757.74 176.40
-9755047.58 5135757.61 176.43
-9755051.13 5135757.66 176.46
-9755049.35 5135757.63 176.48
-9755047.58 5135755.91 176.42
-9755046.38 5135757.65 176.43
-9755044.37 5135757.31 176.42
-9755042.87 5135757.62 176.38
-9755039.62 5135755.83 176.32
-9755041.39 5135757.62 176.35
-9755056.18 5135750.94 176.37
-9755049.11 5135750.84 176.41
-9755055.84 5135754.18 176.40
-9755054.42 5135745.89 176.36
-9755052.58 5135750.90 176.39
-9755052.63 5135752.37 176.41
-9755050.81 5135754.13 176.44
-9755047.67 5135749.07 176.39
-9755047.66 5135745.79 176.38
-9755044.33 5135754.40 176.38
-9755044.38 5135752.31 176.38
-9755044.38 5135749.05 176.35
-9755044.43 5135745.79 176.32
-9755042.94 5135744.30 176.29
-9755042.91 5135750.83 176.33
-9755042.94 5135746.08 176.31
-9755041.11 5135751.14 176.30
-9755039.68 5135752.58 176.28
-9755041.16 5135747.54 176.28
-9755041.15 5135749.36 176.30
-9755037.89 5135755.79 176.27
-9755036.36 5135757.54 177.39
-9755035.94 5135752.54 177.42
-9755036.39 5135749.62 176.39
-9755036.09 5135754.23 177.38
-9755037.88 5135749.32 176.22
-9755037.89 5135750.85 176.24
-9755036.26 5135746.06 176.27
-9755036.19 5135744.24 177.33
-9755037.90 5135747.53 176.21
-9755037.09 5135744.19 177.32
-9755034.84 5135770.60 176.74
-9755023.09 5135764.03 176.88
-9755024.58 5135762.53 176.85
-9755033.08 5135765.57 176.75
-9755027.79 5135762.56 176.81
-9755027.77 5135767.25 176.85
-9755033.03 5135768.77 176.77
-9755024.52 5135765.76 176.88
-9755026.03 5135767.54 176.87
-9755027.85 5135759.01 176.78
-9755026.30 5135764.06 176.83
-9755026.33 5135760.80 176.81
-9755021.28 5135768.99 176.90
-9755027.79 5135759.57 176.79
-9755024.55 5135761.03 176.84
-9755023.08 5135767.22 176.90
-9755024.53 5135769.03 176.89
-9755021.62 5135767.26 176.90
-9755031.37 5135759.32 176.73
-9755032.79 5135764.07 176.75
-9755027.80 5135764.01 176.82
-9755029.56 5135765.50 176.80
-9755026.02 5135762.27 176.82
-9755023.08 5135759.25 176.85
-9755032.84 5135767.59 176.77
-9755029.56 5135762.88 176.78
-9755031.00 5135768.76 176.81
-9755024.57 5135759.26 176.82
-9755030.18 5135764.09 176.78
-9755030.46 5135764.07 176.79
-9755019.84 5135765.72 176.86
-9755016.57 5135767.21 176.84
-9755018.34 5135763.97 176.85
-9755016.62 5135763.98 176.82
-9755018.33 5135769.00 176.87
-9755018.07 5135766.05 176.86
-9755015.74 5135760.36 176.78
-9755009.83 5135762.67 177.74
-9755010.03 5135765.87 177.73
-9755007.99 5135765.63 177.37
-9755009.93 5135763.88 177.39
-9755009.87 5135759.23 177.64
-9755009.67 5135760.83 176.49
-9755014.85 5135759.25 176.76
-9755015.07 5135768.94 176.82
-9755014.54 5135762.47 176.78
-9755008.22 5135769.25 177.36
-9755014.80 5135767.16 176.80
-9755013.05 5135762.79 176.75
-9755009.58 5135769.22 177.37
-9755013.04 5135769.27 176.80
-9755008.05 5135763.89 177.39
-9755014.55 5135763.96 176.78
-9755008.32 5135760.89 177.36
-9755011.29 5135759.22 176.69
-9755013.33 5135765.74 176.77
-9755012.78 5135767.22 176.78
-9755009.84 5135758.53 176.61
-9755009.89 5135762.14 176.78
-9755008.45 5135767.51 182.80
-9755008.18 5135764.17 182.86
-9755008.32 5135769.29 182.84
-9755008.11 5135769.05 186.71
-9755010.47 5135765.70 176.76
-9755008.32 5135759.16 177.35
-9755033.17 5135755.78 176.67
-9755026.36 5135756.06 176.78
-9755031.09 5135755.77 176.72
-9755019.59 5135755.97 176.80
-9755027.84 5135757.54 176.78
-9755023.09 5135757.48 176.83
-9755021.61 5135757.47 176.83
-9755026.40 5135757.21 176.78
-9755019.87 5135757.50 176.80
-9755034.67 5135750.76 176.59
-9755024.64 5135747.47 176.74
-9755029.90 5135752.80 176.71
-9755023.16 5135747.68 176.76
-9755026.08 5135754.29 176.78
-9755023.17 5135750.95 176.78
-9755027.88 5135751.03 176.72
-9755033.15 5135750.99 176.63
-9755026.08 5135750.70 176.75
-9755024.61 5135753.95 176.78
-9755024.61 5135749.50 176.76
-9755031.13 5135750.72 176.67
-9755026.40 5135748.03 176.72
-9755021.37 5135752.43 176.79
-9755031.15 5135744.24 176.63
-9755029.67 5135747.46 176.67
-9755021.42 5135744.17 176.74
-9755032.81 5135752.53 176.66
-9755031.46 5135745.76 176.64
-9755027.89 5135752.82 176.73
-9755031.46 5135747.80 176.64
-9755020.82 5135750.94 176.78
-9755022.92 5135744.48 176.75
-9755021.09 5135752.73 176.78
-9755019.62 5135750.64 176.76
-9755019.61 5135752.76 176.77
-9755016.66 5135755.97 176.77
-9755018.47 5135756.00 176.79
-9755009.83 5135755.64 177.52
-9755013.38 5135755.94 176.71
-9755017.89 5135745.92 176.72
-9755016.62 5135754.17 176.75
-9755019.03 5135753.88 176.78
-9755017.86 5135750.94 176.74
-9755017.80 5135752.71 176.77
-9755016.41 5135745.88 176.69
-9755009.66 5135749.38 177.48
-9755014.60 5135747.71 176.68
-9755008.36 5135750.83 177.30
-9755014.89 5135749.14 176.70
-9755011.68 5135744.38 176.61
-9755013.24 5135746.40 177.77
-9755013.54 5135744.18 177.77
-9755010.17 5135752.71 176.68
-9755009.50 5135749.34 176.53
-9755009.93 5135747.69 176.62
-9755009.63 5135744.37 177.38
-9755014.55 5135746.15 177.64
-9755009.66 5135746.14 177.59
-9755011.37 5135750.94 176.64
-9755014.76 5135744.28 177.75
-9755008.14 5135752.69 177.31
-9755008.17 5135754.33 177.33
-9755009.66 5135744.08 176.61
-9755014.41 5135748.76 177.71
-9755013.67 5135749.13 178.30
-9755013.64 5135748.30 178.26
-9755008.22 5135750.94 186.69
-9755008.29 5135754.16 186.51
-9755014.30 5135747.99 178.29
-9755008.65 5135750.44 186.25
-9755006.65 5135767.58 186.63
-9755007.57 5135764.04 186.63
-9755008.07 5135762.46 182.81
-9755008.28 5135764.46 183.74
-9755008.08 5135758.95 182.90
-9755007.52 5135762.26 186.62
-9755007.81 5135760.91 183.73
-9755006.65 5135760.77 186.57
-9755008.09 5135762.42 183.74
-9755008.06 5135759.17 183.72
-9755006.62 5135769.01 186.64
-9755008.07 5135757.42 182.79
-9755008.06 5135765.90 183.75
-9755000.14 5135769.01 186.70
-9755003.14 5135762.52 186.69
-9755004.88 5135761.07 186.63
-9755004.89 5135762.54 186.63
-9754999.85 5135767.54 186.70
-9755001.65 5135765.78 187.22
-9755001.59 5135758.63 187.37
-9755003.36 5135769.01 186.68
-9755004.91 5135765.82 186.64
-9755001.64 5135760.72 186.71
-9754999.82 5135764.02 186.70
-9755000.16 5135762.51 186.70
-9755004.24 5135768.75 186.67
-9755006.93 5135768.96 187.40
-9755003.97 5135768.76 186.66
-9754996.62 5135765.75 186.62
-9754998.42 5135760.72 186.67
-9754996.62 5135762.50 186.61
-9754995.16 5135767.50 186.63
-9754995.13 5135765.75 186.63
-9754993.93 5135765.79 186.54
-9754998.37 5135767.48 186.66
-9754996.58 5135767.54 186.62
-9754994.59 5135762.18 186.67
-9754993.44 5135760.97 186.21
-9754993.38 5135760.32 186.85
-9754998.66 5135768.99 186.67
-9754993.92 5135763.72 186.71
-9754993.92 5135767.54 186.78
-9754993.85 5135759.38 186.73
-9754993.98 5135768.69 186.65
-9754991.50 5135762.33 176.70
-9754988.56 5135769.20 176.82
-9754990.07 5135764.11 176.75
-9754992.09 5135769.10 176.63
-9754990.30 5135768.54 176.78
-9754986.51 5135767.63 176.83
-9754989.79 5135759.08 176.73
-9754986.87 5135759.03 176.75
-9754988.59 5135764.09 176.78
-9754991.77 5135770.60 176.78
-9754987.14 5135762.00 176.78
-9754990.29 5135769.13 176.79
-9754994.06 5135770.67 186.72
-9754994.07 5135769.53 186.74
-9754992.61 5135770.13 176.71
-9754983.57 5135765.55 176.86
-9754984.99 5135768.83 176.87
-9754985.08 5135762.60 176.84
-9754981.87 5135769.37 177.74
-9754981.82 5135762.31 176.86
-9754985.05 5135760.86 176.81
-9754986.56 5135757.57 176.75
-9754983.35 5135757.54 176.81
-9755006.43 5135755.75 186.62
-9755007.55 5135757.50 186.65
-9755006.68 5135756.59 187.08
-9755003.21 5135757.42 186.66
-9754999.91 5135757.46 186.69
-9755008.12 5135747.37 186.73
-9755008.06 5135750.90 182.83
-9755008.07 5135754.45 182.46
-9755006.93 5135754.37 177.32
-9755008.00 5135745.89 182.80
-9755006.72 5135752.48 186.63
-9755007.88 5135754.05 183.75
-9755007.79 5135744.71 183.73
-9755007.33 5135746.14 182.93
-9755007.63 5135745.79 183.73
-9755007.97 5135749.08 183.74
-9755008.71 5135751.91 186.57
-9755008.24 5135747.63 186.63
-9755007.30 5135751.43 183.04
-9755007.91 5135744.14 182.92
-9755007.93 5135751.21 183.68
-9755007.89 5135747.99 183.68
-9755007.34 5135747.72 183.76
-9755006.44 5135745.96 186.66
-9755007.84 5135744.16 185.92
-9755007.36 5135747.70 182.91
-9755006.38 5135752.84 187.03
-9755003.45 5135754.21 186.68
-9755004.67 5135749.21 186.64
-9755001.44 5135751.00 187.19
-9755001.44 5135747.71 186.70
-9755002.27 5135756.61 186.65
-9755003.18 5135752.47 186.68
-9755005.00 5135747.73 186.64
-9755003.24 5135747.44 186.67
-9755003.79 5135750.98 186.66
-9755004.97 5135754.23 186.62
-9755004.71 5135745.96 186.65
-9755000.57 5135749.56 187.16
-9755003.19 5135746.26 186.68
-9754999.98 5135752.45 187.24
-9755000.01 5135744.46 186.69
-9754993.44 5135755.34 186.84
-9754986.84 5135755.81 176.74
-9754988.36 5135756.11 176.72
-9754994.34 5135757.45 186.69
-9754993.62 5135757.54 186.54
-9754993.46 5135757.75 186.92
-9754983.91 5135755.47 176.78
-9754983.35 5135756.03 176.79
-9754981.84 5135756.07 176.82
-9754998.47 5135754.16 187.28
-9754996.72 5135750.96 186.62
-9754998.50 5135749.21 186.67
-9754998.50 5135750.92 186.67
-9754996.71 5135752.41 186.61
-9754994.90 5135750.94 186.64
-9754993.55 5135747.58 186.72
-9754993.47 5135749.12 186.72
-9754993.58 5135750.90 186.73
-9754994.92 5135754.19 186.64
-9754993.61 5135746.17 186.68
-9754998.15 5135750.97 186.65
-9754993.59 5135750.49 186.61
-9754998.20 5135744.40 186.65
-9754994.35 5135754.44 186.68
-9754993.37 5135744.38 186.73
-9754997.21 5135753.38 186.90
-9754989.91 5135744.29 176.61
-9754988.40 5135747.82 176.67
-9754989.81 5135751.06 176.66
-9754990.11 5135752.86 176.68
-9754988.34 5135749.02 176.67
-9754986.88 5135751.07 176.71
-9754986.60 5135749.30 176.70
-9754986.63 5135746.03 176.68
-9754993.41 5135746.11 186.62
-9754993.42 5135753.25 186.35
-9754993.32 5135744.15 186.63
-9754983.67 5135750.74 176.76
-9754983.37 5135744.53 176.72
-9754981.90 5135751.03 176.78
-9754983.37 5135746.01 176.72
-9754983.30 5135752.50 176.77
-9754985.12 5135744.25 176.70
-9754981.55 5135749.27 176.77
-9754981.91 5135747.52 176.76
-9754985.10 5135749.30 176.72
-9754985.12 5135751.04 176.74
-9754981.56 5135751.03 176.79
-9754980.37 5135761.07 176.88
-9754980.03 5135764.05 176.90
-9754968.56 5135760.73 176.72
-9754966.76 5135765.73 176.68
-9754970.27 5135767.58 176.79
-9754977.12 5135760.77 176.84
-9754978.28 5135762.27 176.87
-9754973.56 5135764.27 176.81
-9754973.84 5135765.77 176.81
-9754973.53 5135769.08 176.84
-9754973.61 5135760.76 176.79
-9754970.33 5135757.47 176.72
-9754973.63 5135757.47 176.76
-9754978.35 5135757.52 176.84
-9754965.54 5135766.06 176.19
-9754970.01 5135766.66 176.78
-9754963.51 5135760.74 176.35
-9754962.05 5135767.48 176.43
-9754962.03 5135765.45 176.41
-9754963.54 5135757.46 176.30
-9754964.29 5135759.16 177.22
-9754961.82 5135757.45 176.35
-9754960.51 5135764.25 176.42
-9754960.55 5135760.72 176.40
-9754958.77 5135769.00 176.48
-9754960.57 5135765.73 176.42
-9754960.02 5135757.43 176.38
-9754953.76 5135767.47 176.52
-9754955.58 5135757.12 176.45
-9754953.79 5135764.19 176.51
-9754980.36 5135756.04 176.84
-9754971.85 5135755.99 176.74
-9754966.25 5135757.91 177.08
-9754965.45 5135754.20 176.36
-9754962.09 5135756.00 176.34
-9754975.68 5135756.33 176.79
-9754980.12 5135749.29 176.80
-9754980.12 5135747.18 176.78
-9754972.17 5135754.23 176.73
-9754973.61 5135754.23 176.74
-9754975.13 5135749.24 176.74
-9754978.64 5135745.66 176.77
-9754978.66 5135744.50 176.75
-9754975.09 5135754.25 176.76
-9754973.35 5135750.98 176.72
-9754968.66 5135745.94 176.62
-9754971.87 5135750.95 176.71
-9754968.64 5135751.22 176.65
-9754973.63 5135752.42 176.73
-9754979.25 5135747.44 176.79
-9754968.61 5135749.49 176.64
-9754976.94 5135745.68 176.75
-9754977.17 5135750.69 176.77
-9754967.15 5135750.97 176.61
-9754977.16 5135751.31 176.79
-9754965.35 5135751.18 177.39
-9754964.53 5135743.74 177.34
-9754965.42 5135744.40 177.35
-9754965.36 5135747.66 177.37
-9754963.61 5135744.42 176.21
-9754962.12 5135754.17 176.34
-9754958.85 5135755.93 176.39
-9754953.85 5135755.89 176.46
-9754960.31 5135752.73 176.35
-9754960.38 5135745.88 176.29
-9754958.84 5135754.13 176.38
-9754960.67 5135747.67 176.30
-9754957.11 5135752.71 176.39
-9754956.82 5135750.92 176.39
-9754955.41 5135744.42 176.36
-9754953.90 5135746.19 176.38
-9754951.98 5135767.47 176.54
-9754950.30 5135757.65 176.47
-9754943.76 5135764.14 176.38
-9754948.80 5135763.89 176.50
-9754949.03 5135768.93 176.53
-9754948.84 5135757.67 176.46
-9754947.29 5135769.18 176.51
-9754945.28 5135760.85 176.41
-9754949.07 5135765.67 176.50
-9754946.99 5135762.36 176.47
-9754947.39 5135757.38 176.43
-9754943.79 5135757.93 176.35
-9754940.80 5135767.05 176.73
-9754939.93 5135758.59 179.19
-9754939.05 5135768.83 177.19
-9754940.55 5135759.08 176.62
-9754940.82 5135760.87 176.64
-9754938.72 5135765.85 177.15
-9754939.99 5135761.17 176.81
-9754938.84 5135758.62 180.66
-9754939.10 5135758.28 180.60
-9754928.83 5135767.51 184.69
-9754930.79 5135763.98 178.77
-9754935.80 5135765.85 177.72
-9754937.54 5135769.10 177.41
-9754937.08 5135760.80 177.44
-9754932.90 5135760.75 178.20
-9754934.06 5135762.27 178.06
-9754928.84 5135769.02 184.31
-9754934.32 5135767.24 178.03
-9754929.33 5135767.48 179.09
-9754933.80 5135760.77 178.03
-9754930.51 5135769.25 178.85
-9754931.98 5135767.25 178.49
-9754930.54 5135767.48 178.79
-9754929.09 5135759.25 179.08
-9754930.49 5135766.00 178.83
-9754929.34 5135760.99 179.00
-9754932.57 5135768.98 178.40
-9754934.39 5135757.50 177.82
-9754932.62 5135759.24 178.32
-9754928.77 5135757.69 179.13
-9754929.05 5135765.72 179.04
-9754937.04 5135764.06 177.48
-9754927.57 5135767.50 179.46
-9754927.28 5135768.98 179.51
-9754927.31 5135760.64 179.40
-9754927.39 5135769.03 184.04
-9754927.57 5135759.07 186.16
-9754927.63 5135767.82 183.36
-9754927.14 5135770.33 182.59
-9754952.06 5135755.89 176.47
-9754950.60 5135755.91 176.46
-9754945.58 5135754.07 176.38
-9754952.38 5135751.17 176.44
-9754952.43 5135744.38 176.39
-9754952.41 5135746.18 176.39
-9754947.12 5135745.82 176.34
-9754950.34 5135749.09 176.42
-9754943.85 5135746.08 176.27
-9754950.28 5135752.62 176.42
-9754947.36 5135750.82 176.39
-9754943.86 5135749.03 176.28
-9754943.88 5135752.33 176.30
-9754945.34 5135744.31 176.31
-9754947.07 5135747.61 176.35
-9754942.36 5135749.64 176.25
-9754932.60 5135754.21 178.16
-9754934.10 5135754.18 177.91
-9754935.59 5135754.29 177.62
-9754927.34 5135755.93 179.35
-9754940.97 5135749.00 176.48
-9754939.68 5135753.46 176.73
-9754939.68 5135749.02 176.74
-9754938.84 5135746.06 176.88
-9754939.70 5135746.05 176.74
-9754935.57 5135747.77 177.56
-9754932.67 5135751.04 178.06
-9754937.38 5135746.03 177.15
-9754935.91 5135752.51 177.46
-9754934.16 5135745.69 177.67
-9754932.38 5135744.20 178.06
-9754933.85 5135747.73 177.81
-9754931.21 5135744.46 178.29
-9754934.21 5135744.19 177.76
-9754932.41 5135742.97 178.05
-9754931.49 5135751.84 178.34
-9754933.90 5135742.71 177.77
-9754931.51 5135753.56 178.36
-9754927.62 5135749.39 179.27
-9754925.90 5135759.12 185.72
-9754925.88 5135767.53 184.33
-9754925.88 5135762.40 179.80
-9754925.70 5135769.10 184.36
-9754925.88 5135758.91 184.28
-9754925.87 5135760.67 179.73
-9754925.78 5135764.21 179.82
-9754925.77 5135767.67 179.96
-9754925.97 5135769.03 179.76
-9754926.00 5135759.31 179.37
-9754925.80 5135767.19 183.01
-9754925.89 5135757.67 179.62
-9754925.90 5135761.85 185.61
-9754925.51 5135769.74 182.55
-9754924.10 5135761.06 184.58
-9754924.13 5135759.15 185.96
-9754924.19 5135759.31 187.24
-9754924.05 5135767.29 184.43
-9754924.21 5135760.91 185.84
-9754924.35 5135757.58 184.29
-9754923.94 5135758.70 184.80
-9754923.99 5135765.93 180.21
-9754924.05 5135758.49 180.14
-9754924.43 5135768.68 184.26
-9754924.11 5135757.44 180.14
-9754924.37 5135757.28 180.04
-9754924.65 5135758.65 183.36
-9754924.93 5135768.32 180.06
-9754922.68 5135767.52 183.98
-9754919.34 5135762.68 180.58
-9754916.00 5135769.11 180.47
-9754921.00 5135760.97 185.93
-9754921.11 5135767.43 180.66
-9754920.89 5135757.66 185.92
-9754914.25 5135765.54 180.43
-9754919.28 5135769.16 180.55
-9754922.27 5135768.85 187.03
-9754912.76 5135768.83 180.40
-9754916.06 5135765.86 180.48
-9754914.36 5135757.54 180.47
-9754917.86 5135765.90 180.55
-9754922.63 5135757.32 182.58
-9754906.09 5135767.30 180.29
-9754909.31 5135760.80 180.37
-9754907.50 5135769.35 180.30
-9754911.01 5135768.79 180.37
-9754906.04 5135765.51 180.29
-9754907.54 5135760.83 180.33
-9754906.03 5135769.07 180.28
-9754909.08 5135757.52 180.37
-9754904.35 5135759.31 180.28
-9754904.32 5135762.57 180.27
-9754904.30 5135757.53 180.28
-9754901.01 5135767.57 180.41
-9754902.83 5135762.52 180.24
-9754899.31 5135759.26 180.47
-9754899.61 5135762.54 180.45
-9754899.57 5135765.72 180.45
-9754899.33 5135757.80 180.47
-9754925.90 5135756.20 179.62
-9754925.90 5135754.17 184.34
-9754924.19 5135754.34 186.04
-9754924.15 5135755.74 179.99
-9754926.20 5135750.84 179.58
-9754925.58 5135747.89 179.64
-9754925.65 5135742.86 179.59
-9754924.44 5135749.32 179.90
-9754924.42 5135744.31 179.91
-9754924.41 5135752.59 179.94
-9754924.24 5135746.01 179.89
-9754922.70 5135754.23 184.26
-9754922.44 5135754.51 186.00
-9754921.17 5135754.30 184.33
-9754912.62 5135753.95 180.43
-9754920.92 5135755.97 183.00
-9754922.63 5135754.06 180.29
-9754907.56 5135755.75 180.35
-9754911.10 5135754.03 180.40
-9754909.08 5135754.29 180.38
-9754911.13 5135755.75 180.39
-9754909.35 5135756.06 180.38
-9754919.42 5135749.01 180.72
-9754914.11 5135752.81 180.48
-9754920.90 5135746.06 180.65
-9754915.90 5135744.22 180.55
-9754920.93 5135747.52 180.61
-9754914.12 5135751.08 180.48
-9754915.85 5135749.29 180.52
-9754917.39 5135746.04 180.61
-9754920.87 5135752.87 180.66
-9754915.83 5135752.56 180.51
-9754912.92 5135745.73 180.47
-9754914.14 5135749.60 180.48
-9754914.12 5135747.49 180.48
-9754912.67 5135747.49 180.45
-9754912.58 5135752.61 180.44
-9754917.40 5135742.76 180.65
-9754922.12 5135742.55 180.30
-9754916.20 5135742.46 180.57
-9754914.12 5135742.50 180.50
-9754923.58 5135750.51 180.14
-9754909.39 5135745.98 180.40
-9754907.57 5135750.75 180.35
-9754911.18 5135747.75 180.42
-9754907.63 5135752.80 180.33
-9754910.90 5135745.75 180.43
-9754909.46 5135744.26 180.41
-9754909.14 5135747.73 180.40
-9754909.40 5135751.01 180.39
-9754904.38 5135751.02 180.27
-9754910.86 5135744.21 180.43
-9754905.92 5135744.22 180.32
-9754909.36 5135752.50 180.39
-9754904.39 5135746.00 180.31
-9754910.95 5135742.74 180.45
-9754907.61 5135742.74 180.36
-9754902.93 5135754.26 180.22
-9754899.60 5135754.21 180.44
-9754902.88 5135747.45 180.28
-9754902.98 5135752.78 180.22
-9754901.13 5135750.93 180.35
-9754901.19 5135744.47 180.27
-9754899.40 5135749.17 180.45
-9754899.67 5135742.67 180.48
-9754899.37 5135751.01 180.44
-9754901.14 5135742.69 180.29
-9754898.11 5135767.30 180.48
-9754896.35 5135760.70 180.72
-9754890.94 5135763.88 184.19
-9754894.54 5135767.16 181.24
-9754888.31 5135766.30 186.00
-9754889.56 5135762.69 184.11
-9754894.54 5135764.18 181.43
-9754894.58 5135769.23 181.37
-9754894.86 5135761.00 181.19
-9754894.33 5135759.18 182.57
-9754889.78 5135764.09 184.29
-9754886.37 5135767.54 186.02
-9754894.84 5135765.69 181.24
-9754886.10 5135764.60 185.05
-9754886.64 5135764.30 184.78
-9754894.18 5135757.60 182.09
-9754887.80 5135768.97 186.02
-9754896.03 5135765.69 180.73
-9754896.02 5135758.96 182.46
-9754889.63 5135760.90 183.16
-9754889.19 5135768.99 185.32
-9754886.50 5135762.38 184.54
-9754886.32 5135768.99 185.40
-9754892.22 5135763.77 183.57
-9754892.84 5135767.11 182.67
-9754889.56 5135767.27 184.82
-9754893.09 5135765.95 181.54
-9754896.02 5135769.00 180.66
-9754891.11 5135764.23 182.61
-9754888.12 5135764.04 184.22
-9754888.15 5135757.91 184.19
-9754893.11 5135763.90 181.64
-9754886.41 5135757.51 184.47
-9754894.66 5135762.43 182.10
-9754885.80 5135762.77 185.43
-9754889.60 5135765.75 185.16
-9754889.88 5135762.01 183.26
-9754893.13 5135762.38 181.69
-9754888.72 5135759.35 183.31
-9754887.32 5135767.18 186.81
-9754884.66 5135759.21 185.27
-9754884.45 5135758.04 185.66
-9754883.13 5135768.99 185.62
-9754874.81 5135768.96 185.60
-9754882.41 5135770.18 186.94
-9754883.15 5135757.42 185.97
-9754883.14 5135763.97 185.75
-9754879.53 5135768.97 185.42
-9754879.96 5135760.53 188.58
-9754873.09 5135767.43 185.62
-9754873.11 5135764.20 185.97
-9754878.13 5135760.63 186.36
-9754874.87 5135765.93 185.86
-9754881.09 5135759.20 186.40
-9754876.36 5135760.93 186.35
-9754883.36 5135768.81 186.86
-9754882.91 5135759.18 186.07
-9754873.06 5135760.88 186.18
-9754872.82 5135759.10 186.19
-9754878.17 5135757.64 186.42
-9754878.13 5135762.46 186.29
-9754881.28 5135760.92 188.25
-9754881.15 5135757.31 188.16
-9754889.94 5135755.81 182.73
-9754886.39 5135756.06 184.48
-9754896.38 5135755.98 180.73
-9754894.88 5135754.07 182.25
-9754886.38 5135754.19 186.12
-9754894.65 5135755.91 181.29
-9754887.57 5135755.79 183.86
-9754897.59 5135754.12 182.60
-9754888.75 5135756.96 183.24
-9754890.37 5135755.63 183.67
-9754889.34 5135749.31 182.88
-9754886.14 5135747.73 185.45
-9754888.18 5135749.24 184.90
-9754892.60 5135750.80 182.32
-9754892.93 5135749.34 182.31
-9754896.13 5135742.88 181.86
-9754892.80 5135747.57 182.50
-9754896.09 5135747.63 182.14
-9754889.65 5135749.41 184.08
-9754889.57 5135744.43 184.39
-9754886.11 5135745.92 185.54
-9754895.97 5135747.61 181.00
-9754892.67 5135744.06 181.64
-9754894.63 5135749.08 181.95
-9754896.11 5135742.61 180.52
-9754886.45 5135752.46 184.98
-9754889.45 5135742.74 184.27
-9754891.20 5135744.61 182.41
-9754886.18 5135749.13 184.89
-9754888.65 5135750.03 182.21
-9754886.15 5135742.68 184.52
-9754887.96 5135745.95 184.71
-9754887.94 5135743.02 184.53
-9754892.65 5135745.29 181.71
-9754895.26 5135742.56 181.85
-9754885.22 5135755.06 184.68
-9754884.86 5135754.18 185.60
-9754874.65 5135754.12 186.36
-9754881.40 5135754.35 187.64
-9754874.92 5135755.88 186.31
-9754879.66 5135754.15 186.41
-9754881.38 5135755.93 186.42
-9754882.85 5135755.92 186.02
-9754881.09 5135755.80 187.83
-9754879.65 5135755.86 186.41
-9754884.67 5135749.17 185.10
-9754884.65 5135744.09 185.41
-9754884.64 5135750.95 185.00
-9754881.41 5135747.86 186.47
-9754881.42 5135752.66 186.45
-9754879.67 5135750.90 186.44
-9754882.98 5135750.99 185.01
-9754875.00 5135747.56 186.39
-9754882.84 5135752.49 185.95
-9754874.72 5135750.82 186.39
-9754877.94 5135746.12 186.88
-9754882.94 5135749.40 186.80
-9754876.59 5135745.79 186.85
-9754882.91 5135752.39 185.01
-9754882.88 5135752.64 186.80
-9754872.89 5135749.36 186.38
-9754874.65 5135751.11 186.80
-9754878.29 5135747.61 186.42
-9754876.43 5135752.37 186.39
-9754882.89 5135742.80 186.81
-9754880.71 5135748.63 186.77
-9754880.60 5135747.71 196.07
-9754877.09 5135748.71 186.89
-9754871.60 5135764.19 185.76
-9754871.61 5135768.94 185.69
-9754871.39 5135757.67 185.90
-9754871.64 5135754.22 186.02
-9754871.62 5135755.81 186.70
-9754871.45 5135742.52 186.36
-9755079.10 5135742.80 181.38
-9755077.21 5135741.16 182.86
-9755080.52 5135742.62 184.55
-9755080.69 5135742.84 180.78
-9755077.44 5135742.56 180.73
-9755080.69 5135741.06 180.85
-9755077.58 5135740.91 184.02
-9755077.31 5135741.42 181.55
-9755080.72 5135740.89 182.40
-9755079.01 5135740.76 180.42
-9755077.67 5135739.22 180.56
-9755077.37 5135739.81 184.26
-9755077.17 5135744.13 182.69
-9755075.76 5135740.89 182.47
-9755075.40 5135742.45 181.30
-9755075.75 5135741.19 184.28
-9755075.78 5135739.70 182.58
-9755081.39 5135744.01 186.83
-9755076.06 5135739.89 186.04
-9755075.72 5135740.99 179.50
-9755075.72 5135742.81 179.73
-9755076.55 5135740.98 181.59
-9755075.44 5135739.31 179.75
-9755076.92 5135739.57 180.05
-9755073.91 5135740.90 182.53
-9755074.01 5135742.63 184.21
-9755074.05 5135740.93 184.51
-9755074.14 5135741.00 185.50
-9755073.99 5135742.84 179.36
-9755074.14 5135742.26 186.89
-9755072.28 5135742.83 184.05
-9755068.79 5135743.22 181.31
-9755070.99 5135742.59 184.09
-9755072.41 5135743.00 182.39
-9755066.04 5135741.12 184.18
-9755071.06 5135741.11 180.98
-9755067.74 5135742.68 184.21
-9755070.66 5135742.35 180.99
-9755067.65 5135740.89 182.75
-9755067.76 5135742.72 182.56
-9755070.74 5135741.05 184.19
-9755069.30 5135741.12 184.28
-9755070.99 5135740.79 178.77
-9755067.49 5135739.38 182.68
-9755072.50 5135741.08 179.08
-9755068.94 5135741.41 178.37
-9755067.82 5135740.57 181.34
-9755072.52 5135739.45 182.34
-9755072.49 5135742.84 179.04
-9755072.43 5135740.87 182.74
-9755069.21 5135742.94 179.53
-9755070.73 5135742.73 179.49
-9755069.28 5135742.71 178.11
-9755062.73 5135742.58 177.15
-9755072.24 5135740.80 185.50
-9755068.87 5135739.27 181.31
-9755073.13 5135742.96 180.66
-9755067.79 5135739.33 184.08
-9755072.58 5135741.14 180.90
-9755067.16 5135739.30 181.01
-9755069.55 5135740.80 178.46
-9755073.70 5135739.21 181.51
-9755069.21 5135739.31 178.43
-9755071.00 5135739.27 178.80
-9755069.30 5135739.93 178.46
-9755069.15 5135743.92 180.98
-9755067.87 5135743.83 185.28
-9755080.56 5135727.93 182.96
-9755078.98 5135727.92 182.75
-9755078.95 5135729.40 184.01
-9755077.54 5135729.19 180.49
-9755079.10 5135729.26 185.26
-9755078.79 5135729.10 182.93
-9755080.59 5135729.31 181.15
-9755080.80 5135729.80 182.69
-9755079.07 5135727.75 180.85
-9755080.53 5135726.25 181.16
-9755077.28 5135726.39 184.32
-9755077.30 5135726.06 182.97
-9755077.98 5135729.28 183.75
-9755078.78 5135726.00 184.06
-9755080.21 5135734.54 184.05
-9755080.79 5135735.96 181.06
-9755078.91 5135733.24 184.21
-9755080.56 5135736.13 184.19
-9755077.27 5135737.78 180.74
-9755079.32 5135735.56 185.34
-9755078.92 5135734.39 184.08
-9755080.51 5135733.00 184.24
-9755077.26 5135736.27 180.85
-9755081.08 5135736.30 182.30
-9755079.03 5135731.26 180.84
-9755080.48 5135731.28 181.15
-9755079.31 5135734.24 180.87
-9755080.46 5135734.52 181.16
-9755080.48 5135732.75 181.14
-9755080.78 5135736.10 185.20
-9755080.24 5135733.23 185.03
-9755077.41 5135730.49 181.86
-9755079.54 5135733.55 183.12
-9755080.43 5135737.04 183.47
-9755077.29 5135725.96 180.45
-9755080.68 5135722.79 184.25
-9755079.08 5135723.10 185.25
-9755080.82 5135721.46 181.25
-9755080.54 5135724.32 185.23
-9755077.56 5135724.51 180.47
-9755078.86 5135722.84 184.12
-9755077.40 5135721.50 182.63
-9755077.33 5135721.30 184.08
-9755079.02 5135721.80 182.89
-9755078.50 5135722.27 182.92
-9755077.34 5135724.85 184.27
-9755077.29 5135723.00 182.82
-9755078.84 5135724.30 185.28
-9755080.83 5135723.04 182.20
-9755077.59 5135721.49 180.62
-9755078.07 5135722.85 185.09
-9755079.13 5135722.97 180.86
-9755080.58 5135721.88 182.80
-9755077.32 5135719.53 184.17
-9755075.50 5135729.76 179.93
-9755075.76 5135725.89 183.04
-9755076.08 5135733.05 180.09
-9755075.76 5135738.11 179.88
-9755075.49 5135732.76 179.95
-9755075.43 5135736.05 179.84
-9755076.08 5135730.98 180.13
-9755074.07 5135737.73 182.30
-9755074.31 5135736.34 181.03
-9755074.01 5135732.78 179.61
-9755074.11 5135734.14 182.43
-9755073.97 5135734.58 179.58
-9755067.34 5135727.44 180.85
-9755067.66 5135727.76 182.54
-9755069.02 5135729.27 178.39
-9755064.40 5135725.87 184.33
-9755064.35 5135729.12 182.23
-9755064.30 5135727.97 184.36
-9755064.58 5135727.53 181.30
-9755070.82 5135729.54 178.80
-9755069.33 5135729.64 181.25
-9755069.05 5135726.33 182.47
-9755072.26 5135727.77 179.10
-9755067.21 5135727.85 183.93
-9755067.52 5135729.51 178.15
-9755062.58 5135726.11 182.82
-9755070.77 5135726.01 178.84
-9755064.58 5135726.82 185.19
-9755064.70 5135729.42 181.70
-9755069.22 5135734.31 182.33
-9755071.02 5135737.76 181.10
-9755072.20 5135735.91 180.82
-9755070.81 5135736.18 184.23
-9755069.07 5135732.81 182.55
-9755070.99 5135731.40 182.40
-9755067.48 5135731.33 181.18
-9755067.32 5135734.29 181.13
-9755066.09 5135731.31 181.21
-9755070.77 5135732.82 182.52
-9755067.50 5135737.80 183.88
-9755072.45 5135737.65 180.76
-9755072.38 5135737.74 182.65
-9755072.63 5135736.11 184.14
-9755067.46 5135736.22 180.81
-9755072.88 5135733.01 180.83
-9755067.94 5135736.10 184.36
-9755067.54 5135730.91 179.50
-9755072.51 5135734.62 180.94
-9755069.29 5135736.06 181.09
-9755069.22 5135732.51 179.83
-9755065.84 5135731.14 182.03
-9755069.42 5135732.21 184.29
-9755070.99 5135737.78 182.35
-9755072.25 5135734.29 179.14
-9755068.92 5135734.59 178.41
-9755067.55 5135736.14 182.51
-9755067.60 5135734.44 179.70
-9755069.79 5135737.80 178.54
-9755069.27 5135736.09 178.44
-9755067.47 5135737.53 178.12
-9755064.18 5135736.07 177.42
-9755064.23 5135737.86 177.45
-9755068.91 5135733.04 178.41
-9755069.40 5135734.64 184.07
-9755067.81 5135736.27 179.20
-9755073.51 5135733.61 182.07
-9755072.54 5135732.78 179.22
-9755064.25 5135732.59 177.47
-9755067.50 5135736.10 178.12
-9755066.37 5135735.49 182.92
-9755071.97 5135731.29 181.08
-9755071.97 5135731.25 181.91
-9755062.74 5135737.84 177.11
-9755070.44 5135738.63 181.33
-9755070.78 5135732.83 178.84
-9755067.91 5135738.20 179.70
-9755067.92 5135731.60 183.77
-9755066.44 5135735.64 179.98
-9755066.27 5135735.18 179.83
-9755076.07 5135724.97 182.72
-9755075.52 5135724.47 180.00
-9755074.41 5135725.95 183.94
-9755067.58 5135724.66 181.22
-9755064.05 5135724.66 182.62
-9755065.94 5135724.64 181.23
-9755064.31 5135724.41 181.47
-9755072.58 5135724.83 179.29
-9755065.78 5135724.98 179.21
-9755067.25 5135721.25 178.13
-9755070.82 5135721.54 178.87
-9755067.54 5135724.79 178.17
-9755064.27 5135724.50 177.46
-9755064.31 5135721.27 177.49
-9755070.82 5135724.77 178.89
-9755072.57 5135720.98 179.25
-9755062.54 5135724.84 177.10
-9755069.02 5135722.72 178.50
-9755062.88 5135723.19 182.14
-9755068.69 5135723.02 178.42
-9755064.14 5135723.39 183.99
-9755063.23 5135724.22 183.48
-9755064.23 5135719.67 178.91
-9755080.69 5135718.14 182.81
-9755079.08 5135717.81 184.34
-9755077.38 5135719.70 180.46
-9755077.35 5135719.56 182.40
-9755080.68 5135719.32 181.04
-9755075.56 5135717.89 182.37
-9755074.99 5135719.72 179.93
-9755073.86 5135717.74 184.06
-9755075.11 5135718.16 179.96
-9755064.30 5135719.79 177.49
-9755067.65 5135717.70 182.61
-9755072.88 5135719.25 183.42
-9755071.13 5135718.04 178.89
-9755063.43 5135718.05 185.19
-9755064.35 5135717.74 177.42
-9755068.74 5135718.93 182.01
-9755062.61 5135718.09 183.50
-9755067.42 5135716.44 180.99
-9755069.03 5135717.55 181.23
-9755060.93 5135741.05 177.00
-9755060.98 5135742.88 176.27
-9755059.19 5135739.33 176.23
-9755060.98 5135739.38 176.99
-9755060.93 5135739.70 176.22
-9755054.17 5135741.39 176.32
-9755052.98 5135740.80 176.34
-9755056.20 5135741.17 176.29
-9755050.91 5135739.34 176.32
-9755052.75 5135739.60 176.32
-9755054.48 5135739.65 176.31
-9755046.16 5135742.54 176.33
-9755046.17 5135739.27 176.31
-9755044.44 5135741.07 176.30
-9755041.14 5135742.85 176.25
-9755041.20 5135741.05 176.24
-9755041.21 5135739.26 176.24
-9755036.22 5135742.46 177.31
-9755037.93 5135742.83 176.18
-9755037.06 5135741.18 176.87
-9755037.70 5135741.06 176.17
-9755060.75 5135729.31 176.88
-9755060.76 5135727.81 176.88
-9755059.86 5135728.13 176.93
-9755059.52 5135727.81 176.13
-9755060.58 5135727.87 176.18
-9755059.84 5135729.93 176.97
-9755059.76 5135726.25 176.90
-9755060.37 5135729.68 176.31
-9755059.22 5135729.60 176.17
-9755059.52 5135736.10 176.19
-9755060.98 5135737.58 176.99
-9755060.68 5135731.05 176.95
-9755059.21 5135732.87 176.17
-9755060.58 5135737.48 176.19
-9755057.39 5135736.08 176.24
-9755057.77 5135731.34 176.19
-9755059.64 5135721.61 176.93
-9755059.66 5135723.08 176.91
-9755061.09 5135721.00 176.81
-9755059.57 5135724.73 176.96
-9755059.37 5135721.31 182.58
-9755057.77 5135726.05 176.17
-9755059.39 5135719.53 182.59
-9755059.22 5135722.12 182.58
-9755061.09 5135719.53 176.79
-9755052.76 5135726.30 176.23
-9755055.78 5135725.99 176.19
-9755055.69 5135727.82 176.20
-9755050.96 5135729.26 176.26
-9755047.74 5135728.03 176.24
-9755047.75 5135729.27 176.26
-9755045.70 5135727.74 176.22
-9755047.76 5135725.96 176.23
-9755051.00 5135732.52 176.28
-9755055.97 5135737.88 176.28
-9755054.52 5135731.35 176.24
-9755049.20 5135737.85 176.34
-9755055.98 5135734.35 176.25
-9755054.17 5135734.62 176.27
-9755054.21 5135736.39 176.30
-9755049.50 5135734.54 176.32
-9755045.98 5135734.28 176.26
-9755046.24 5135736.03 176.28
-9755045.99 5135731.29 176.24
-9755042.71 5135729.75 176.20
-9755039.50 5135729.46 176.14
-9755041.20 5135737.79 176.23
-9755044.50 5135733.00 176.25
-9755042.70 5135731.26 176.21
-9755039.46 5135733.05 176.17
-9755042.67 5135736.27 176.23
-9755041.18 5135734.55 176.19
-9755039.77 5135730.98 176.15
-9755054.26 5135724.54 176.20
-9755049.27 5135721.26 176.23
-9755055.78 5135721.14 185.88
-9755055.74 5135724.82 176.17
-9755047.77 5135724.50 176.23
-9755052.65 5135720.84 186.09
-9755054.28 5135721.07 182.65
-9755050.70 5135724.53 176.24
-9755056.11 5135719.54 176.14
-9755047.80 5135721.51 176.20
-9755057.53 5135719.48 176.11
-9755047.49 5135722.72 176.21
-9755056.21 5135722.88 186.23
-9755046.00 5135724.47 176.21
-9755044.54 5135723.00 176.19
-9755046.09 5135719.46 176.17
-9755044.26 5135721.48 176.18
-9755042.47 5135722.95 176.14
-9755042.79 5135721.51 176.14
-9755039.21 5135722.69 176.08
-9755042.74 5135719.44 176.14
-9755041.07 5135719.43 176.11
-9755039.86 5135719.74 176.09
-9755037.73 5135729.78 176.08
-9755036.25 5135729.41 177.22
-9755036.04 5135726.17 177.18
-9755036.19 5135737.73 177.28
-9755036.24 5135731.19 177.23
-9755038.05 5135722.96 176.06
-9755038.01 5135724.74 176.07
-9755036.24 5135724.40 176.23
-9755038.11 5135721.20 176.06
-9755036.31 5135721.38 177.15
-9755038.10 5135719.69 176.05
-9755036.33 5135719.67 177.15
-9755062.01 5135718.06 178.51
-9755059.37 5135719.43 183.57
-9755060.89 5135717.81 183.52
-9755057.81 5135718.08 176.12
-9755061.28 5135717.98 177.66
-9755059.32 5135718.01 176.10
-9755059.52 5135718.06 176.85
-9755057.83 5135717.98 183.57
-9755059.32 5135716.33 176.08
-9755055.88 5135717.92 183.58
-9755052.52 5135718.02 176.18
-9755049.29 5135718.05 176.21
-9755054.31 5135717.76 176.16
-9755051.03 5135716.23 176.17
-9755057.55 5135716.28 176.10
-9755055.45 5135716.94 185.53
-9755046.04 5135717.97 176.16
-9755042.81 5135717.94 176.13
-9755039.31 5135717.94 176.07
-9755042.85 5135716.46 176.12
-9755041.07 5135716.20 176.09
-9755039.85 5135716.48 176.07
-9755037.08 5135718.33 176.91
-9755036.20 5135718.30 176.09
-9755036.35 5135717.88 177.13
-9755036.35 5135716.06 176.02
-9755029.40 5135740.99 176.64
-9755022.91 5135742.70 176.73
-9755026.46 5135740.92 176.67
-9755024.69 5135739.46 176.69
-9755032.97 5135739.23 176.55
-9755021.41 5135740.89 176.71
-9755026.12 5135742.74 176.68
-9755019.98 5135742.66 176.70
-9755017.94 5135739.40 176.68
-9755010.21 5135742.61 176.56
-9755009.67 5135739.32 176.57
-9755008.39 5135741.14 177.27
-9755008.29 5135742.86 177.93
-9755009.30 5135741.10 177.60
-9755011.39 5135742.64 176.59
-9755008.25 5135739.43 177.93
-9755014.31 5135741.74 177.77
-9755014.68 5135743.19 178.26
-9755008.30 5135742.73 186.17
-9755013.60 5135743.47 177.68
-9755034.79 5135727.98 176.42
-9755034.80 5135729.42 176.44
-9755034.78 5135726.49 176.41
-9755029.46 5135727.60 176.54
-9755021.19 5135729.38 176.64
-9755024.76 5135729.39 176.61
-9755021.23 5135726.07 176.61
-9755034.76 5135732.69 176.46
-9755034.76 5135736.22 176.49
-9755022.90 5135737.69 176.69
-9755026.16 5135736.20 176.65
-9755023.25 5135736.19 176.67
-9755022.94 5135734.43 176.67
-9755031.48 5135737.72 176.59
-9755031.18 5135733.00 176.55
-9755027.99 5135736.19 176.63
-9755021.46 5135734.42 176.67
-9755028.26 5135731.18 176.58
-9755021.45 5135737.64 176.69
-9755027.97 5135732.96 176.60
-9755029.44 5135734.46 176.58
-9755031.20 5135736.18 176.57
-9755024.75 5135731.15 176.62
-9755032.72 5135730.90 176.50
-9755020.00 5135737.65 176.68
-9755034.79 5135721.42 176.38
-9755034.81 5135724.73 176.40
-9755034.23 5135722.91 176.39
-9755023.03 5135724.64 176.60
-9755028.06 5135724.60 176.53
-9755026.29 5135724.37 176.56
-9755024.51 5135724.60 176.58
-9755029.53 5135721.12 176.49
-9755033.02 5135724.68 176.46
-9755029.55 5135724.39 176.51
-9755029.52 5135723.18 176.49
-9755027.77 5135721.44 176.52
-9755021.50 5135722.87 176.59
-9755019.83 5135722.87 176.58
-9755018.28 5135726.37 176.57
-9755017.96 5135729.33 176.59
-9755017.91 5135737.62 176.66
-9755016.47 5135731.43 176.61
-9755011.55 5135726.32 176.51
-9755011.49 5135729.62 176.53
-9755013.28 5135729.62 176.54
-9755013.03 5135726.38 176.52
-9755009.72 5135726.04 176.44
-9755009.72 5135729.29 176.45
-9755015.05 5135729.64 176.56
-9755008.24 5135726.29 177.81
-9755008.01 5135729.55 177.82
-9755008.21 5135727.72 177.83
-9755008.59 5135726.34 176.70
-9755009.37 5135737.55 177.37
-9755008.24 5135732.73 177.66
-9755009.94 5135737.60 176.51
-9755014.99 5135734.66 176.60
-9755012.95 5135736.15 176.58
-9755009.97 5135731.39 176.48
-9755011.45 5135732.88 176.54
-9755008.16 5135737.50 177.88
-9755009.34 5135734.38 177.34
-9755012.97 5135732.87 176.56
-9755014.96 5135737.62 176.61
-9755010.00 5135734.59 176.50
-9755008.28 5135731.31 177.85
-9755014.71 5135736.07 176.60
-9755009.36 5135735.98 177.43
-9755012.93 5135734.35 176.57
-9755009.06 5135729.81 177.41
-9755009.12 5135733.01 177.51
-9755009.03 5135731.41 177.25
-9755018.33 5135722.82 176.57
-9755018.01 5135721.36 176.56
-9755008.25 5135724.50 177.80
-9755014.73 5135724.30 176.52
-9755011.25 5135722.79 176.48
-9755015.06 5135722.84 176.53
-9755009.72 5135724.54 176.42
-9755013.29 5135724.58 176.52
-9755011.53 5135724.55 176.49
-9755013.00 5135719.82 176.48
-9755013.27 5135723.10 176.52
-9755014.51 5135719.60 176.50
-9755008.65 5135721.04 176.49
-9755015.05 5135721.04 176.51
-9755007.99 5135722.98 177.80
-9755009.80 5135719.83 176.39
-9755008.06 5135719.16 176.27
-9755036.04 5135716.38 177.11
-9755034.83 5135717.92 176.34
-9755026.35 5135716.37 176.51
-9755021.28 5135718.09 176.57
-9755016.29 5135716.32 176.49
-9755010.08 5135718.06 176.39
-9755008.38 5135718.04 176.51
-9755009.77 5135716.25 176.37
-9755013.05 5135716.29 176.45
-9755007.61 5135742.36 184.34
-9755007.35 5135740.46 183.77
-9755007.90 5135741.40 182.81
-9755007.62 5135740.79 183.76
-9755008.29 5135740.95 186.57
-9755006.75 5135741.11 177.26
-9755007.31 5135739.59 183.73
-9755007.90 5135739.23 182.78
-9755006.52 5135742.49 177.88
-9755006.47 5135740.93 186.65
-9755001.46 5135742.68 186.70
-9755005.01 5135742.72 186.65
-9755006.49 5135739.45 186.64
-9755003.58 5135739.44 186.65
-9755002.96 5135742.67 186.67
-9754995.29 5135739.37 186.61
-9754998.26 5135740.91 186.66
-9754995.01 5135742.65 186.64
-9754993.59 5135739.14 186.70
-9754995.01 5135741.21 186.63
-9754998.23 5135739.41 186.66
-9754998.82 5135742.34 186.67
-9754996.73 5135742.64 186.62
-9754993.15 5135740.05 186.64
-9754994.43 5135742.91 186.67
-9754986.66 5135741.30 176.64
-9754986.63 5135742.52 176.66
-9754990.16 5135739.51 176.57
-9754986.66 5135739.20 176.63
-9754989.89 5135741.33 176.59
-9754993.22 5135741.78 186.60
-9754983.42 5135740.97 176.70
-9754984.87 5135740.95 176.67
-9754981.93 5135742.78 176.73
-9754981.95 5135739.54 176.71
-9754985.15 5135742.72 176.67
-9755006.21 5135727.88 177.28
-9755007.39 5135727.75 183.76
-9755007.57 5135729.63 182.83
-9755007.62 5135729.30 183.74
-9755005.10 5135727.91 186.62
-9755004.80 5135729.39 186.62
-9755006.90 5135727.68 183.78
-9755001.56 5135727.89 186.71
-9755006.59 5135726.39 186.62
-9755006.94 5135727.85 182.99
-9755003.04 5135727.90 186.67
-9755005.47 5135727.74 176.47
-9755001.56 5135729.33 186.70
-9755007.20 5135726.14 186.68
-9755003.35 5135729.36 186.65
-9755005.25 5135726.60 176.60
-9755007.11 5135725.95 182.93
-9755000.10 5135727.87 186.70
-9755007.17 5135729.66 186.68
-9755008.38 5135736.14 186.81
-9755008.31 5135733.19 186.52
-9755007.83 5135736.19 182.83
-9755006.48 5135732.86 177.23
-9755006.53 5135737.53 177.28
-9755007.65 5135732.77 182.82
-9755006.79 5135735.87 177.59
-9755007.64 5135730.96 182.83
-9755008.26 5135738.03 186.68
-9755007.74 5135734.57 183.72
-9755007.69 5135732.47 183.76
-9755008.21 5135736.34 186.56
-9755007.06 5135733.01 183.76
-9755007.61 5135730.99 183.76
-9755006.84 5135734.54 177.60
-9755007.35 5135738.14 182.95
-9755007.11 5135735.88 186.67
-9755001.50 5135737.65 186.69
-9755001.53 5135731.14 186.70
-9755005.06 5135734.39 186.62
-9755006.47 5135737.69 186.64
-9755001.26 5135736.18 187.14
-9755006.54 5135732.63 186.61
-9755005.87 5135731.68 176.65
-9755003.29 5135734.72 186.66
-9755005.26 5135734.37 176.76
-9755005.03 5135737.68 186.62
-9755000.05 5135729.64 186.69
-9755005.37 5135729.62 176.64
-9755003.02 5135731.14 186.68
-9755005.28 5135736.03 176.72
-9755003.57 5135737.65 186.65
-9755005.21 5135731.02 176.74
-9755007.15 5135729.56 183.78
-9755005.38 5135732.65 176.66
-9755000.08 5135731.43 186.70
-9755007.34 5135737.19 183.75
-9755007.49 5135723.93 183.75
-9755007.45 5135723.34 183.73
-9755006.43 5135724.76 177.49
-9755007.50 5135723.02 182.88
-9755007.55 5135721.59 182.81
-9755008.34 5135720.71 186.16
-9755007.53 5135725.49 183.73
-9755007.00 5135721.31 182.96
-9754999.82 5135726.11 186.70
-9755006.33 5135721.39 186.63
-9755003.35 5135721.38 186.65
-9755006.53 5135722.82 177.23
-9755006.87 5135722.82 182.93
-9755001.62 5135722.83 186.69
-9755003.09 5135722.85 186.67
-9755006.55 5135719.79 177.20
-9755006.92 5135724.55 183.73
-9755000.14 5135722.87 186.71
-9755008.38 5135718.01 177.71
-9755005.11 5135721.24 176.38
-9755005.05 5135724.54 176.53
-9755005.33 5135723.04 176.40
-9755007.37 5135721.19 183.76
-9755006.87 5135719.53 183.73
-9755007.01 5135719.68 182.98
-9755006.89 5135719.30 186.67
-9755000.12 5135721.33 186.71
-9754996.85 5135727.84 186.62
-9754998.33 5135726.38 186.67
-9754995.06 5135726.06 186.58
-9754998.31 5135729.64 186.67
-9754993.06 5135726.20 186.60
-9754988.20 5135729.76 176.54
-9754986.76 5135727.69 176.55
-9754988.19 5135726.24 176.52
-9754986.72 5135726.50 176.53
-9754993.32 5135726.37 186.70
-9754989.97 5135729.51 176.50
-9754996.55 5135731.12 186.61
-9754995.02 5135732.86 186.59
-9754995.06 5135736.13 186.60
-9754993.55 5135737.90 186.72
-9754994.16 5135733.16 186.64
-9754997.97 5135736.44 186.66
-9754993.34 5135734.52 186.69
-9754993.54 5135736.04 186.70
-9754994.17 5135731.65 186.62
-9754989.95 5135731.23 176.51
-9754990.23 5135733.01 176.52
-9754988.47 5135732.73 176.55
-9754986.75 5135729.73 176.56
-9754986.70 5135735.97 176.60
-9754986.69 5135732.73 176.58
-9754986.68 5135734.53 176.60
-9754985.29 5135727.67 176.57
-9754981.74 5135727.95 176.63
-9754983.49 5135726.50 176.59
-9754983.43 5135737.70 176.66
-9754984.93 5135737.74 176.66
-9754981.99 5135731.21 176.64
-9754981.99 5135737.71 176.69
-9754983.72 5135736.26 176.65
-9754983.44 5135734.48 176.64
-9754981.99 5135733.01 176.66
-9754985.22 5135730.95 176.59
-9754996.86 5135724.58 186.63
-9754995.08 5135724.58 186.59
-9754995.08 5135721.30 186.60
-9754998.34 5135722.83 186.68
-9754996.61 5135719.86 186.63
-9754993.83 5135724.02 185.94
-9754997.75 5135724.63 186.66
-9754995.47 5135721.28 187.21
-9754986.77 5135724.69 176.53
-9754988.25 5135722.66 176.49
-9754988.52 5135721.22 176.47
-9754990.29 5135722.68 176.46
-9754988.24 5135724.40 176.49
-9754993.32 5135722.74 186.70
-9754993.07 5135721.06 186.73
-9754988.29 5135719.42 176.46
-9754981.74 5135724.67 176.60
-9754983.54 5135721.13 176.54
-9754985.00 5135719.65 176.52
-9754981.77 5135719.65 176.57
-9755005.23 5135719.15 176.38
-9755008.31 5135716.25 177.75
-9755007.76 5135717.74 186.77
-9755006.35 5135716.35 186.64
-9755006.93 5135718.13 186.68
-9755001.62 5135718.06 186.70
-9755006.89 5135717.97 182.94
-9755003.12 5135716.65 186.67
-9755005.36 5135718.05 176.40
-9755007.01 5135717.92 183.74
-9755007.37 5135719.58 182.01
-9755005.17 5135716.91 176.58
-9755006.95 5135716.38 186.68
-9755006.97 5135716.22 183.00
-9754999.83 5135718.10 186.71
-9755007.38 5135718.62 183.73
-9755007.37 5135716.20 182.81
-9754996.61 5135718.08 186.63
-9754988.29 5135717.90 176.45
-9754993.39 5135718.02 186.70
-9754990.35 5135716.19 176.41
-9754986.82 5135716.11 176.45
-9754983.54 5135717.89 176.53
-9754985.32 5135717.88 176.49
-9754980.50 5135742.73 176.74
-9754980.44 5135740.97 176.73
-9754968.64 5135742.37 176.60
-9754976.94 5135739.19 176.69
-9754973.42 5135740.96 176.66
-9754978.72 5135740.94 176.74
-9754975.17 5135743.01 176.70
-9754971.90 5135742.39 176.65
-9754976.93 5135742.97 176.73
-9754960.40 5135741.15 176.26
-9754960.39 5135739.68 176.24
-9754958.92 5135742.67 176.29
-9754960.41 5135742.94 176.28
-9754957.16 5135742.94 176.33
-9754980.27 5135729.38 176.66
-9754970.22 5135727.60 176.53
-9754977.01 5135727.91 176.64
-9754976.99 5135729.42 176.64
-9754970.21 5135729.34 176.54
-9754973.47 5135726.12 176.56
-9754968.76 5135727.88 176.51
-9754978.21 5135726.16 176.64
-9754966.95 5135726.12 176.44
-9754963.76 5135726.39 176.07
-9754963.73 5135729.65 176.09
-9754964.93 5135726.29 177.20
-9754980.22 5135732.67 176.68
-9754980.17 5135734.44 176.70
-9754980.18 5135737.76 176.71
-9754973.45 5135731.20 176.60
