-9755290.02 5135424.44 188.37
-9755289.90 5135430.44 186.65
-9755284.83 5135425.19 187.91
-9755285.21 5135426.22 188.61
-9755283.42 5135428.05 187.78
-9755286.73 5135419.73 189.04
-9755284.95 5135423.10 189.06
-9755286.71 5135426.28 187.79
-9755288.14 5135431.31 187.23
-9755281.58 5135424.64 189.08
-9755281.66 5135429.77 187.63
-9755285.05 5135432.78 187.22
-9755279.90 5135438.12 186.79
-9755274.59 5135441.26 186.98
-9755276.55 5135444.66 185.58
-9755273.29 5135441.21 187.26
-9755276.60 5135438.06 187.30
-9755275.07 5135444.59 185.79
-9755276.85 5135439.94 186.25
-9755278.37 5135437.87 187.00
-9755273.60 5135442.47 186.77
-9755270.96 5135443.03 187.01
-9755270.13 5135437.69 187.56
-9755280.49 5135435.20 186.65
-9755271.89 5135434.78 187.77
-9755261.89 5135441.13 189.06
-9755265.11 5135436.13 189.04
-9755265.11 5135439.64 190.45
-9755263.31 5135443.15 190.28
-9755261.88 5135439.67 189.06
-9755261.84 5135442.96 189.05
-9755263.63 5135438.15 189.05
-9755260.06 5135437.95 188.94
-9755258.70 5135436.40 189.04
-9755265.13 5135437.88 190.40
-9755255.07 5135442.71 192.27
-9755257.07 5135441.13 189.06
-9755265.11 5135441.41 190.44
-9755256.90 5135439.64 189.05
-9755258.64 5135441.13 189.06
-9755255.66 5135442.85 189.20
-9755264.96 5135442.75 189.06
-9755256.85 5135444.55 191.20
-9755258.59 5135442.87 189.04
-9755263.59 5135436.18 189.06
-9755261.86 5135436.14 189.03
-9755266.57 5135436.24 189.07
-9755266.75 5135437.91 188.54
-9755268.33 5135444.85 190.56
-9755256.59 5135441.45 190.29
-9755259.24 5135437.92 189.98
-9755256.50 5135443.08 192.63
-9755266.25 5135439.90 190.41
-9755264.71 5135441.59 189.09
-9755257.81 5135444.04 192.14
-9755264.49 5135436.37 190.77
-9755268.39 5135435.07 188.03
-9755269.96 5135434.28 188.74
-9755263.65 5135434.67 189.03
-9755256.93 5135433.13 189.03
-9755263.78 5135434.23 190.49
-9755279.89 5135429.78 187.78
-9755279.87 5135428.27 188.59
-9755280.05 5135433.12 187.67
-9755273.33 5135428.19 189.07
-9755278.51 5135428.05 188.72
-9755271.94 5135424.66 189.03
-9755271.65 5135426.44 189.03
-9755271.97 5135429.62 189.21
-9755273.47 5135426.13 189.02
-9755275.23 5135424.67 189.03
-9755279.10 5135427.16 188.26
-9755271.91 5135431.51 188.93
-9755276.67 5135419.95 189.01
-9755274.93 5135421.42 189.00
-9755279.63 5135421.07 190.13
-9755278.13 5135430.59 188.35
-9755278.21 5135421.49 191.70
-9755279.40 5135420.30 193.11
-9755276.64 5135433.05 187.55
-9755274.94 5135431.60 188.49
-9755274.48 5135432.62 188.39
-9755269.91 5135427.90 189.02
-9755268.45 5135423.15 189.01
-9755268.40 5135431.40 189.14
-9755268.45 5135428.13 189.04
-9755265.19 5135426.38 189.00
-9755265.20 5135423.12 189.02
-9755260.18 5135426.34 188.95
-9755263.44 5135431.39 189.03
-9755263.70 5135424.88 188.98
-9755260.19 5135427.83 188.98
-9755260.15 5135424.84 188.93
-9755265.15 5135428.10 189.01
-9755255.43 5135426.38 188.99
-9755263.98 5135429.58 190.27
-9755266.95 5135424.88 189.03
-9755265.21 5135419.88 189.02
-9755255.45 5135428.08 189.03
-9755266.92 5135427.88 189.02
-9755270.44 5135432.96 188.24
-9755261.64 5135431.03 190.29
-9755258.71 5135431.35 189.01
-9755262.05 5135432.25 193.16
-9755255.43 5135432.80 189.01
-9755263.18 5135430.97 191.64
-9755261.92 5135432.03 193.08
-9755252.27 5135442.92 193.98
-9755252.11 5135444.46 193.33
-9755251.91 5135443.11 195.58
-9755252.23 5135434.58 189.01
-9755251.89 5135433.11 188.97
-9755250.38 5135439.60 189.05
-9755250.89 5135444.71 195.39
-9755242.14 5135442.83 188.98
-9755247.74 5135441.74 193.33
-9755245.58 5135444.37 189.01
-9755248.59 5135442.83 189.03
-9755247.69 5135442.48 192.49
-9755248.32 5135441.37 192.42
-9755248.64 5135436.41 188.99
-9755247.13 5135444.39 189.03
-9755249.41 5135440.01 193.23
-9755248.63 5135443.71 189.06
-9755234.03 5135436.19 208.74
-9755232.35 5135437.70 213.89
-9755232.22 5135436.13 208.76
-9755232.23 5135437.88 208.87
-9755245.68 5135444.60 193.89
-9755246.72 5135445.99 189.03
-9755245.60 5135444.89 192.45
-9755233.84 5135434.96 193.45
-9755232.00 5135434.69 208.64
-9755232.46 5135434.73 213.52
-9755233.66 5135433.16 193.11
-9755232.72 5135435.06 210.74
-9755234.83 5135435.40 209.04
-9755231.90 5135434.26 192.59
-9755233.61 5135433.72 211.30
-9755232.13 5135436.35 194.85
-9755235.60 5135432.91 208.83
-9755233.17 5135433.82 217.41
-9755233.83 5135435.56 220.29
-9755233.67 5135434.18 210.01
-9755233.79 5135433.27 219.01
-9755233.72 5135432.99 208.63
-9755232.43 5135434.39 193.80
-9755233.56 5135433.77 221.09
-9755229.04 5135439.58 223.37
-9755230.45 5135437.90 193.19
-9755227.58 5135439.47 208.65
-9755228.98 5135443.05 208.97
-9755228.85 5135439.76 218.38
-9755230.58 5135437.92 208.65
-9755230.56 5135436.22 208.64
-9755228.87 5135439.27 193.05
-9755229.11 5135437.84 192.91
-9755228.37 5135440.99 211.68
-9755230.57 5135436.28 192.87
-9755229.21 5135441.36 193.38
-9755227.52 5135442.96 208.71
-9755227.39 5135439.61 192.80
-9755229.03 5135437.92 208.66
-9755228.38 5135440.80 210.77
-9755228.46 5135442.98 214.68
-9755231.07 5135438.40 193.31
-9755229.05 5135439.75 208.70
-9755232.03 5135439.23 208.96
-9755229.89 5135438.87 220.41
-9755229.01 5135439.50 220.29
-9755227.52 5135441.76 210.69
-9755229.02 5135436.18 208.62
-9755230.39 5135439.90 194.12
-9755231.59 5135439.48 214.09
-9755231.83 5135438.90 193.83
-9755232.22 5135436.18 212.73
-9755230.21 5135440.93 194.30
-9755229.03 5135441.04 223.09
-9755227.31 5135436.18 208.61
-9755229.58 5135439.84 194.01
-9755227.33 5135442.99 193.27
-9755227.39 5135440.98 192.99
-9755230.54 5135439.20 208.86
-9755230.24 5135440.99 209.03
-9755230.28 5135438.57 223.09
-9755228.37 5135444.19 209.03
-9755227.30 5135443.01 214.75
-9755226.88 5135445.52 193.55
-9755227.98 5135441.35 212.32
-9755227.32 5135442.13 214.67
-9755229.96 5135442.12 208.98
-9755227.02 5135442.77 193.15
-9755232.32 5135432.89 208.62
-9755229.19 5135434.61 192.46
-9755230.74 5135434.69 192.72
-9755232.42 5135435.43 212.30
-9755230.52 5135433.20 208.60
-9755232.15 5135432.87 192.78
-9755230.71 5135432.88 192.42
-9755231.20 5135436.46 194.71
-9755227.72 5135434.83 200.81
-9755228.86 5135433.09 192.35
-9755227.49 5135434.59 192.37
-9755227.45 5135435.11 202.24
-9755227.93 5135434.93 206.08
-9755228.11 5135434.86 203.41
-9755228.32 5135434.43 200.88
-9755228.22 5135434.53 205.83
-9755253.66 5135431.35 189.00
-9755245.48 5135421.34 192.36
-9755242.07 5135426.32 212.18
-9755245.25 5135419.90 192.37
-9755242.38 5135423.22 208.66
-9755245.71 5135421.26 198.26
-9755242.10 5135421.53 196.84
-9755243.53 5135421.78 197.10
-9755248.72 5135419.87 204.88
-9755243.60 5135424.52 211.91
-9755242.04 5135424.77 208.69
-9755243.98 5135421.59 192.38
-9755242.06 5135423.05 197.10
-9755246.97 5135419.85 192.37
-9755243.90 5135422.96 208.74
-9755243.73 5135419.54 192.36
-9755248.86 5135423.19 191.62
-9755245.72 5135422.50 212.58
-9755247.23 5135419.31 203.75
-9755242.06 5135420.06 195.73
-9755243.39 5135422.60 197.07
-9755243.82 5135422.12 208.83
-9755243.77 5135424.36 208.82
-9755242.04 5135425.85 208.80
-9755242.09 5135424.58 210.55
-9755249.12 5135420.56 197.98
-9755247.75 5135420.41 208.49
-9755245.79 5135422.39 210.57
-9755248.71 5135419.98 198.29
-9755237.28 5135419.46 195.56
-9755234.25 5135422.04 194.39
-9755233.80 5135422.99 195.82
-9755233.99 5135423.04 192.46
-9755233.51 5135421.12 191.08
-9755233.67 5135422.98 194.14
-9755233.89 5135424.42 192.46
-9755234.34 5135419.92 185.56
-9755240.49 5135423.20 196.87
-9755233.92 5135420.16 190.94
-9755234.28 5135419.87 187.07
-9755234.04 5135419.99 182.25
-9755234.39 5135421.96 195.80
-9755233.82 5135428.20 208.60
-9755235.77 5135429.70 192.92
-9755235.48 5135421.18 195.91
-9755235.27 5135419.15 190.75
-9755235.30 5135419.50 186.00
-9755235.31 5135421.53 194.29
-9755233.74 5135420.95 184.18
-9755238.85 5135423.12 196.68
-9755239.54 5135429.78 208.93
-9755238.81 5135427.99 208.75
-9755234.24 5135420.04 184.22
-9755233.94 5135426.32 193.60
-9755232.53 5135421.48 187.41
-9755234.00 5135429.60 192.65
-9755240.55 5135426.48 208.73
-9755237.34 5135429.63 208.71
-9755236.15 5135420.35 195.76
-9755233.95 5135421.31 192.43
-9755240.35 5135419.98 208.54
-9755235.59 5135429.68 208.63
-9755235.34 5135419.72 181.45
-9755235.35 5135419.42 189.11
-9755235.30 5135419.57 182.24
-9755233.32 5135421.33 185.63
-9755235.06 5135424.78 195.87
-9755237.01 5135419.83 194.07
-9755240.40 5135426.30 212.30
-9755237.46 5135430.02 218.93
-9755237.48 5135424.94 196.72
-9755234.89 5135424.83 192.37
-9755237.32 5135427.91 208.66
-9755238.98 5135424.60 196.86
-9755233.41 5135421.34 186.92
-9755240.91 5135421.30 196.61
-9755237.22 5135429.89 216.95
-9755235.50 5135421.30 192.48
-9755232.42 5135421.61 185.85
-9755236.24 5135430.10 212.10
-9755234.79 5135425.49 200.14
-9755235.42 5135425.09 193.75
-9755237.03 5135426.74 196.94
-9755232.20 5135421.90 189.14
-9755238.60 5135419.06 192.47
-9755238.55 5135425.78 196.98
-9755235.14 5135419.55 184.68
-9755237.29 5135424.24 196.53
-9755237.18 5135428.15 209.86
-9755236.08 5135425.65 196.59
-9755237.37 5135427.83 193.76
-9755236.89 5135429.33 193.07
-9755237.61 5135423.15 196.58
-9755235.42 5135419.81 193.32
-9755234.95 5135426.00 193.63
-9755232.63 5135421.46 191.03
-9755237.47 5135428.08 219.36
-9755237.21 5135427.89 215.90
-9755232.31 5135421.56 192.51
-9755232.58 5135421.42 182.58
-9755232.22 5135424.61 192.34
-9755232.15 5135426.63 192.33
-9755234.91 5135419.55 187.79
-9755234.06 5135424.65 197.60
-9755233.35 5135421.22 182.27
-9755236.14 5135427.58 210.71
-9755240.22 5135427.53 208.78
-9755233.83 5135420.90 181.46
-9755234.58 5135426.23 200.73
-9755237.10 5135427.40 217.01
-9755235.61 5135425.62 196.53
-9755236.47 5135427.01 210.59
-9755232.54 5135421.46 183.94
-9755236.63 5135430.06 210.59
-9755234.70 5135425.50 200.28
-9755236.16 5135423.90 208.56
-9755237.03 5135428.09 192.99
-9755239.34 5135428.05 218.27
-9755240.31 5135424.22 197.00
-9755232.25 5135421.65 193.29
-9755235.78 5135425.50 209.92
-9755236.39 5135420.64 192.48
-9755250.41 5135431.34 188.95
-9755233.77 5135431.39 208.83
-9755237.09 5135430.79 208.76
-9755232.17 5135431.28 192.49
-9755233.68 5135431.10 192.80
-9755237.37 5135431.27 212.96
-9755234.75 5135432.55 212.05
-9755235.52 5135431.40 211.76
-9755235.27 5135431.90 210.78
-9755234.08 5135431.05 194.21
-9755230.87 5135423.17 189.20
-9755231.63 5135422.69 187.31
-9755228.93 5135429.54 192.33
-9755230.50 5135423.10 192.31
-9755231.60 5135422.98 190.41
-9755229.08 5135425.22 188.94
-9755231.03 5135423.15 184.05
-9755230.13 5135424.38 184.40
-9755229.37 5135424.96 184.06
-9755227.43 5135426.93 190.73
-9755231.74 5135422.84 185.98
-9755230.58 5135423.45 190.86
-9755232.16 5135422.47 184.66
-9755228.55 5135426.42 181.47
-9755230.74 5135426.32 192.31
-9755229.02 5135428.20 192.30
-9755228.82 5135425.96 185.89
-9755230.72 5135428.06 192.34
-9755230.04 5135424.51 182.64
-9755230.76 5135423.27 193.30
-9755228.98 5135422.71 181.28
-9755228.84 5135425.10 185.65
-9755230.20 5135424.42 187.51
-9755229.05 5135425.23 187.71
-9755228.90 5135424.77 181.40
-9755230.97 5135423.06 187.57
-9755230.75 5135423.17 186.36
-9755229.02 5135425.09 182.61
-9755229.11 5135426.60 193.65
-9755228.81 5135425.88 182.46
-9755228.74 5135426.04 183.83
-9755229.02 5135425.17 190.38
-9755230.10 5135424.53 185.71
-9755228.54 5135426.17 189.05
-9755230.65 5135423.00 181.35
-9755228.98 5135429.22 193.69
-9755227.50 5135426.63 189.06
-9755227.69 5135427.02 184.08
-9755232.07 5135422.60 181.41
-9755227.62 5135426.77 182.95
-9755227.16 5135428.05 192.34
-9755232.17 5135422.35 189.02
-9755230.22 5135424.44 181.39
-9755227.83 5135426.68 186.20
-9755229.28 5135424.75 193.26
-9755227.44 5135424.69 181.34
-9755229.88 5135429.40 193.73
-9755227.40 5135426.19 181.43
-9755230.35 5135427.78 193.69
-9755227.58 5135426.70 187.55
-9755230.51 5135431.41 208.59
-9755228.93 5135431.35 192.35
-9755227.51 5135431.30 192.53
-9755222.20 5135444.43 208.62
-9755224.37 5135439.54 202.05
-9755225.79 5135437.90 208.60
-9755225.26 5135442.85 192.90
-9755224.91 5135439.02 202.31
-9755226.07 5135437.71 207.10
-9755225.51 5135438.06 200.39
-9755225.78 5135442.67 208.65
-9755225.86 5135444.36 208.92
-9755223.52 5135440.81 201.97
-9755222.05 5135442.77 203.50
-9755225.63 5135437.86 192.37
-9755223.08 5135441.25 203.65
-9755222.39 5135439.62 192.35
-9755225.71 5135436.55 192.41
-9755227.29 5135442.44 212.50
-9755225.66 5135438.02 202.24
-9755222.31 5135442.82 207.12
-9755226.98 5135436.15 201.17
-9755222.41 5135441.07 192.36
-9755227.28 5135436.01 205.99
-9755222.77 5135441.69 202.64
-9755224.89 5135438.83 203.96
-9755224.32 5135439.53 200.98
-9755225.75 5135437.98 205.16
-9755223.86 5135441.11 192.40
-9755222.32 5135443.09 192.40
-9755222.17 5135442.71 205.88
-9755222.68 5135441.60 200.60
-9755222.24 5135442.66 200.34
-9755222.21 5135442.60 202.20
-9755226.90 5135442.95 210.23
-9755227.30 5135436.12 202.01
-9755222.92 5135441.34 207.67
-9755223.89 5135439.58 192.36
-9755222.41 5135437.80 192.34
-9755223.30 5135441.19 200.52
-9755224.84 5135438.96 201.03
-9755223.97 5135442.67 208.63
-9755224.35 5135439.51 204.74
-9755224.23 5135439.88 199.30
-9755224.21 5135442.74 192.62
-9755223.81 5135440.42 205.47
-9755225.46 5135438.12 199.47
-9755223.56 5135440.82 203.47
-9755225.90 5135436.32 198.89
-9755225.88 5135437.05 200.56
-9755225.68 5135437.90 203.34
-9755224.29 5135439.51 206.92
-9755223.82 5135444.31 192.77
-9755224.03 5135440.01 205.23
-9755224.53 5135443.91 213.04
-9755227.53 5135435.70 207.32
-9755225.05 5135438.94 206.94
-9755225.37 5135444.35 193.06
-9755222.35 5135444.59 192.56
-9755222.35 5135443.07 209.90
-9755223.38 5135441.31 199.61
-9755222.95 5135441.43 206.20
-9755227.65 5135437.52 210.64
-9755222.67 5135441.63 199.34
-9755224.74 5135443.86 220.00
-9755224.03 5135444.49 218.87
-9755224.21 5135443.65 213.03
-9755225.29 5135443.43 213.04
-9755225.11 5135436.09 197.39
-9755226.38 5135436.71 202.33
-9755225.21 5135444.86 214.37
-9755225.49 5135444.66 209.97
-9755225.10 5135445.85 193.24
-9755224.45 5135445.55 220.83
-9755221.31 5135443.05 208.54
-9755217.34 5135441.33 192.34
-9755219.47 5135436.46 185.98
-9755215.73 5135441.17 192.30
-9755219.28 5135436.28 192.20
-9755217.33 5135439.28 190.85
-9755219.48 5135436.47 187.34
-9755217.90 5135437.97 190.78
-9755219.41 5135436.23 190.69
-9755219.47 5135436.23 189.00
-9755220.65 5135439.57 192.34
-9755220.85 5135444.64 192.37
-9755215.80 5135441.32 187.10
-9755215.84 5135441.12 188.98
-9755214.34 5135443.07 192.37
-9755214.03 5135437.97 181.60
-9755219.09 5135441.34 192.33
-9755217.24 5135439.14 188.94
-9755219.18 5135439.54 192.32
-9755218.08 5135438.03 187.83
-9755214.16 5135442.79 191.19
-9755221.76 5135443.06 199.78
-9755217.35 5135439.55 187.24
-9755214.20 5135443.09 193.29
-9755215.71 5135440.97 193.29
-9755218.77 5135437.54 190.59
-9755221.38 5135443.15 201.31
-9755217.61 5135437.77 181.63
-9755214.09 5135442.63 189.60
-9755219.15 5135444.35 192.35
-9755220.58 5135442.85 192.35
-9755218.80 5135437.55 189.20
-9755220.56 5135444.64 207.33
-9755219.06 5135436.27 182.36
-9755219.45 5135436.12 184.12
-9755221.32 5135443.52 205.30
-9755217.01 5135439.58 185.84
-9755219.98 5135436.02 185.75
-9755215.58 5135436.21 181.61
-9755215.71 5135441.22 184.57
-9755218.87 5135437.99 193.32
-9755215.48 5135441.21 181.61
-9755215.91 5135441.37 186.00
-9755218.42 5135437.84 186.14
-9755215.45 5135442.20 190.91
-9755217.47 5135438.57 189.05
-9755220.78 5135444.40 202.19
-9755220.95 5135444.62 200.54
-9755214.06 5135439.44 181.62
-9755219.21 5135438.41 181.77
-9755221.11 5135443.51 202.02
-9755218.98 5135437.99 181.64
-9755214.93 5135441.67 192.04
-9755216.64 5135440.89 191.08
-9755216.32 5135441.81 181.80
-9755220.40 5135437.11 181.81
-9755220.69 5135444.79 205.64
-9755216.33 5135440.37 191.71
-9755219.94 5135436.10 187.76
-9755219.99 5135436.09 189.49
-9755216.15 5135440.38 187.21
-9755221.38 5135443.51 207.73
-9755216.53 5135439.98 190.02
-9755220.08 5135436.19 183.57
-9755221.33 5135443.49 203.85
-9755218.59 5135439.13 181.71
-9755216.91 5135440.60 181.66
-9755216.70 5135440.49 189.09
-9755213.51 5135444.35 189.65
-9755220.51 5135444.45 208.60
-9755220.69 5135444.42 204.02
-9755221.58 5135443.71 206.07
-9755218.87 5135438.78 181.77
-9755213.99 5135444.32 191.03
-9755220.14 5135445.59 203.94
-9755220.41 5135445.39 207.33
-9755220.31 5135445.36 200.80
-9755220.06 5135445.50 205.39
-9755220.05 5135445.70 202.19
-9755226.60 5135436.63 199.43
-9755227.58 5135435.24 199.25
-9755227.53 5135435.34 207.26
-9755225.71 5135433.11 192.35
-9755222.40 5135432.82 185.54
-9755224.89 5135435.32 196.43
-9755222.41 5135432.81 187.32
-9755220.29 5135435.60 182.82
-9755220.70 5135434.49 193.30
-9755220.87 5135434.66 190.59
-9755221.58 5135433.97 187.36
-9755222.41 5135432.95 189.24
-9755221.59 5135434.03 184.41
-9755221.56 5135434.14 188.54
-9755214.09 5135434.74 181.62
-9755220.86 5135432.73 181.59
-9755219.09 5135434.71 181.70
-9755220.72 5135434.61 182.55
-9755215.57 5135434.75 181.61
-9755221.71 5135433.90 182.64
-9755222.47 5135432.82 190.77
-9755220.95 5135434.35 184.06
-9755217.31 5135434.38 181.75
-9755222.33 5135432.96 182.68
-9755220.82 5135434.50 181.65
-9755221.44 5135433.72 184.44
-9755220.71 5135434.76 187.41
-9755219.09 5135433.01 181.68
-9755221.58 5135434.07 191.18
-9755221.52 5135433.67 185.62
-9755222.40 5135432.98 181.67
-9755221.55 5135434.22 193.32
-9755218.48 5135434.49 181.73
-9755221.58 5135434.00 186.14
-9755221.73 5135434.01 181.60
-9755216.78 5135435.00 181.65
-9755221.50 5135433.57 182.75
-9755212.30 5135439.72 189.53
-9755202.68 5135441.33 188.56
-9755200.71 5135439.40 189.23
-9755207.35 5135437.87 189.46
-9755205.86 5135443.06 188.56
-9755210.92 5135441.19 188.49
-9755205.59 5135441.09 188.56
-9755209.05 5135442.95 188.56
-9755207.55 5135436.16 181.56
-9755210.29 5135438.62 188.12
-9755209.29 5135437.67 181.55
-9755209.12 5135438.49 189.45
-9755210.86 5135439.69 181.63
-9755212.33 5135444.74 189.16
-9755205.59 5135444.36 188.58
-9755202.34 5135444.48 188.61
-9755212.88 5135444.71 192.39
-9755213.03 5135444.98 190.85
-9755212.03 5135434.68 181.59
-9755202.83 5135434.34 181.50
-9755204.35 5135434.64 181.51
-9755205.80 5135432.62 181.56
-9755209.07 5135433.23 181.58
-9755200.83 5135432.88 181.52
-9755201.83 5135434.59 189.47
-9755224.19 5135422.93 181.23
-9755223.85 5135424.74 181.30
-9755227.01 5135427.99 182.59
-9755225.25 5135429.69 182.38
-9755227.07 5135428.13 190.75
-9755224.10 5135429.68 181.46
-9755225.55 5135429.68 189.36
-9755227.01 5135427.94 181.52
-9755224.45 5135430.21 184.95
-9755226.09 5135428.10 192.16
-9755225.45 5135429.32 185.85
-9755224.54 5135430.30 187.96
-9755226.13 5135428.55 187.56
-9755227.03 5135427.60 184.03
-9755226.29 5135428.27 189.01
-9755222.42 5135423.25 181.27
-9755227.06 5135427.74 189.24
-9755224.23 5135430.49 189.53
-9755225.27 5135429.51 187.65
-9755224.49 5135430.07 186.44
-9755226.99 5135427.95 186.07
-9755225.71 5135420.07 183.96
-9755225.92 5135428.45 190.85
-9755225.65 5135423.33 181.25
-9755225.92 5135428.75 184.22
-9755222.12 5135421.49 181.26
-9755225.78 5135429.53 181.53
-9755222.32 5135429.43 181.45
-9755224.47 5135430.20 190.81
-9755225.96 5135428.13 193.30
-9755225.58 5135429.54 183.96
-9755225.42 5135430.40 193.93
-9755224.64 5135430.08 182.46
-9755222.91 5135431.77 183.86
-9755223.94 5135431.28 190.45
-9755223.78 5135431.15 182.46
-9755223.65 5135431.17 187.51
-9755223.97 5135431.31 185.70
-9755224.12 5135431.34 183.95
-9755222.79 5135431.93 193.30
-9755222.76 5135431.84 190.16
-9755222.06 5135431.27 181.51
-9755222.77 5135431.88 192.64
-9755222.96 5135432.03 182.38
-9755223.13 5135431.61 188.96
-9755222.82 5135431.79 187.23
-9755226.59 5135431.48 194.01
-9755215.62 5135419.77 184.03
-9755219.10 5135429.78 181.51
-9755218.85 5135426.20 181.44
-9755217.50 5135419.80 183.90
-9755218.81 5135427.95 181.49
-9755214.33 5135420.12 186.00
-9755214.18 5135419.80 184.18
-9755217.40 5135427.92 181.51
-9755219.24 5135418.24 185.80
-9755215.59 5135426.45 181.67
-9755214.27 5135423.20 187.51
-9755220.95 5135426.20 181.37
-9755215.63 5135421.42 187.13
-9755213.69 5135423.05 189.08
-9755214.28 5135424.72 182.28
-9755220.71 5135418.03 183.92
-9755217.63 5135429.44 181.55
-9755215.90 5135427.94 181.55
-9755213.88 5135421.34 189.01
-9755215.57 5135429.75 181.58
-9755220.63 5135424.68 181.35
-9755213.82 5135419.24 183.16
-9755214.19 5135425.89 186.85
-9755214.75 5135420.62 184.97
-9755217.28 5135418.01 184.20
-9755214.08 5135425.97 185.98
-9755215.01 5135422.31 188.41
-9755220.89 5135431.54 181.52
-9755217.33 5135431.18 181.65
-9755207.61 5135426.68 181.59
-9755209.13 5135425.20 181.71
-9755205.86 5135421.32 181.77
-9755204.42 5135423.14 181.63
-9755212.49 5135421.37 187.67
-9755212.64 5135421.52 186.01
-9755203.87 5135421.67 181.68
-9755211.01 5135420.03 184.43
-9755209.10 5135422.76 181.64
-9755212.46 5135424.48 182.66
-9755209.16 5135419.81 182.35
-9755212.30 5135430.00 181.71
-9755211.51 5135427.38 181.71
-9755204.35 5135429.65 181.53
-9755202.64 5135424.52 183.11
-9755202.50 5135423.14 183.60
-9755208.98 5135422.81 185.39
-9755201.48 5135422.92 183.48
-9755210.69 5135419.87 183.01
-9755206.20 5135422.83 181.73
-9755209.08 5135427.88 181.65
-9755202.32 5135429.61 181.54
-9755210.89 5135424.67 181.67
-9755205.63 5135419.89 181.68
-9755207.41 5135418.12 182.32
-9755200.89 5135419.92 181.63
-9755205.62 5135427.88 181.54
-9755204.41 5135419.84 181.69
-9755207.34 5135419.62 181.72
-9755209.64 5135427.61 181.95
-9755207.64 5135429.92 181.54
-9755210.54 5135429.38 181.73
-9755212.35 5135429.37 181.73
-9755209.67 5135419.01 187.03
-9755208.83 5135418.02 187.27
-9755212.74 5135420.33 187.52
-9755212.36 5135421.62 182.40
-9755209.13 5135418.57 184.13
-9755200.95 5135421.53 183.54
-9755202.89 5135424.57 183.61
-9755204.81 5135422.68 185.36
-9755201.19 5135426.37 181.53
-9755209.12 5135418.74 182.36
-9755211.29 5135418.59 184.58
-9755203.52 5135424.51 183.63
-9755199.45 5135439.63 189.66
-9755197.59 5135437.88 188.54
-9755194.36 5135439.23 189.16
-9755196.19 5135439.48 188.81
-9755194.34 5135436.28 188.53
-9755197.44 5135442.77 189.55
-9755199.14 5135444.62 189.45
-9755197.55 5135444.46 180.55
-9755196.36 5135444.31 189.45
-9755198.80 5135445.23 185.25
-9755195.73 5135444.45 180.45
-9755197.60 5135434.61 188.49
-9755194.49 5135434.90 181.87
-9755195.79 5135434.99 182.06
-9755199.47 5135433.48 188.26
-9755196.36 5135432.73 182.36
-9755194.35 5135432.41 182.49
-9755194.37 5135432.63 181.64
-9755195.82 5135433.25 181.39
-9755200.23 5135434.24 188.10
-9755199.24 5135433.45 189.45
-9755193.95 5135436.05 181.86
-9755192.61 5135442.68 189.44
-9755192.74 5135441.40 189.42
-9755193.70 5135436.31 181.62
-9755192.57 5135436.32 181.67
-9755192.75 5135437.88 181.73
-9755192.82 5135444.44 180.62
-9755190.86 5135439.54 182.91
-9755189.24 5135440.46 182.29
-9755191.03 5135438.11 181.65
-9755191.05 5135439.50 183.87
-9755191.01 5135437.95 184.14
-9755190.89 5135439.02 187.46
-9755187.84 5135437.82 181.53
-9755192.28 5135436.44 187.66
-9755191.37 5135437.96 185.89
-9755191.45 5135439.33 181.48
-9755189.57 5135439.60 181.62
-9755191.02 5135436.09 181.64
-9755190.66 5135439.62 185.90
-9755192.57 5135436.17 183.91
-9755187.81 5135439.64 181.16
-9755192.31 5135436.44 185.72
-9755189.31 5135436.40 181.59
-9755187.44 5135436.67 182.19
-9755190.18 5135440.55 185.59
-9755192.02 5135437.23 187.20
-9755191.84 5135437.01 184.17
-9755190.21 5135440.54 188.19
-9755191.90 5135437.31 184.45
-9755192.04 5135436.95 182.62
-9755186.34 5135437.82 181.27
-9755190.22 5135440.17 186.91
-9755190.17 5135440.34 184.73
-9755190.20 5135440.23 185.22
-9755191.08 5135441.61 185.30
-9755188.90 5135438.10 181.93
-9755189.48 5135439.79 182.36
-9755181.06 5135436.03 181.56
-9755182.74 5135442.81 181.37
-9755183.10 5135441.08 181.37
-9755178.12 5135441.37 181.67
-9755178.05 5135442.82 181.72
-9755179.27 5135438.03 181.58
-9755178.14 5135435.96 181.53
-9755176.32 5135438.08 181.55
-9755174.26 5135441.31 181.58
-9755176.35 5135436.05 181.51
-9755174.56 5135438.11 181.54
-9755187.80 5135444.34 180.97
-9755181.13 5135444.71 182.77
-9755181.28 5135444.60 181.45
-9755179.90 5135444.21 181.58
-9755177.74 5135444.58 181.69
-9755174.79 5135444.62 181.58
-9755192.59 5135434.66 184.03
-9755192.94 5135434.71 187.13
-9755192.69 5135434.88 186.04
-9755192.93 5135434.55 182.81
-9755193.85 5135433.16 186.95
-9755194.12 5135432.55 186.11
-9755193.94 5135432.94 184.04
-9755193.45 5135433.62 183.83
-9755193.50 5135433.39 185.79
-9755193.45 5135433.78 187.36
-9755193.69 5135433.90 183.87
-9755187.86 5135434.91 181.50
-9755189.59 5135434.58 181.57
-9755187.84 5135433.09 181.47
-9755181.35 5135434.85 181.52
-9755184.33 5135434.87 181.48
-9755184.32 5135433.04 181.48
-9755178.13 5135432.76 181.47
-9755176.07 5135433.04 181.45
-9755173.02 5135437.97 181.51
-9755172.78 5135444.27 181.58
-9755172.77 5135434.77 181.42
-9755199.38 5135427.83 181.50
-9755199.40 5135421.34 181.61
-9755199.47 5135420.02 183.49
-9755197.65 5135421.63 181.57
-9755195.92 5135420.00 184.11
-9755195.96 5135418.25 184.31
-9755195.85 5135427.81 181.51
-9755195.85 5135426.64 181.51
-9755197.70 5135419.85 183.42
-9755194.67 5135429.88 181.46
-9755194.42 5135426.62 181.48
-9755197.35 5135419.45 181.97
-9755195.39 5135418.18 185.22
-9755194.15 5135422.62 185.11
-9755199.94 5135421.04 182.42
-9755199.20 5135418.79 181.62
-9755195.51 5135421.15 185.04
-9755199.36 5135431.11 181.52
-9755194.37 5135431.63 186.06
-9755194.35 5135431.06 181.56
-9755194.39 5135431.46 182.29
-9755196.98 5135432.25 182.29
-9755194.33 5135431.61 184.30
-9755192.71 5135419.70 185.60
-9755192.61 5135421.34 181.42
-9755193.03 5135422.28 185.09
-9755192.60 5135421.60 186.85
-9755191.11 5135424.81 181.45
-9755189.09 5135420.01 182.57
-9755189.18 5135418.08 185.40
-9755191.16 5135421.51 182.44
-9755191.38 5135420.48 182.41
-9755191.01 5135418.30 184.50
-9755189.78 5135421.77 181.29
-9755191.14 5135426.31 181.47
-9755189.52 5135418.25 183.94
-9755190.50 5135419.85 184.31
-9755192.99 5135420.24 186.98
-9755187.23 5135421.45 181.41
-9755187.92 5135423.07 181.40
-9755187.73 5135422.59 182.33
-9755189.34 5135424.49 181.43
-9755191.21 5135421.43 184.71
-9755187.65 5135418.25 182.57
-9755184.71 5135419.80 181.44
-9755181.14 5135424.49 181.38
-9755182.62 5135421.50 181.41
-9755179.63 5135429.78 181.44
-9755176.07 5135429.49 181.39
-9755181.41 5135423.03 181.40
-9755186.19 5135417.93 182.09
-9755184.66 5135427.77 181.45
-9755186.75 5135419.71 182.67
-9755181.34 5135429.49 181.44
-9755185.83 5135422.98 181.39
-9755184.35 5135423.00 181.41
-9755182.84 5135428.08 181.44
-9755184.37 5135426.28 181.43
-9755176.36 5135426.17 181.38
-9755176.43 5135417.86 182.29
-9755177.60 5135424.77 181.37
-9755178.25 5135419.12 181.75
-9755191.09 5135431.05 181.52
-9755184.57 5135431.36 181.46
-9755174.64 5135421.74 181.36
-9755174.67 5135420.02 181.40
-9755174.62 5135419.12 181.78
-9755172.83 5135429.48 181.34
-9755166.32 5135442.72 181.48
-9755168.05 5135441.27 181.49
-9755169.52 5135442.79 181.53
-9755164.85 5135438.00 181.35
-9755171.32 5135436.27 181.44
-9755169.49 5135444.53 181.53
-9755166.56 5135444.53 181.50
-9755163.30 5135441.23 181.41
-9755162.74 5135437.99 181.35
-9755161.59 5135434.72 181.30
-9755162.99 5135439.47 181.37
-9755163.35 5135436.49 181.31
-9755161.26 5135442.70 181.41
-9755161.25 5135436.52 181.33
-9755159.49 5135437.95 181.33
-9755159.80 5135436.48 181.30
-9755156.55 5135437.67 181.34
-9755158.04 5135437.65 181.32
-9755156.25 5135441.19 181.37
-9755158.29 5135444.44 181.41
-9755156.57 5135444.49 181.40
-9755169.55 5135434.45 181.35
-9755164.52 5135434.73 181.27
-9755166.29 5135434.77 181.32
-9755156.28 5135434.74 181.30
-9755151.26 5135442.91 182.88
-9755153.31 5135442.80 182.69
-9755153.04 5135441.08 182.65
-9755151.56 5135441.08 182.91
-9755152.92 5135439.73 182.66
-9755149.83 5135437.92 181.35
-9755154.53 5135439.68 181.35
-9755151.46 5135439.40 182.38
-9755149.87 5135441.33 182.76
-9755150.11 5135442.92 182.61
-9755148.09 5135436.39 181.37
-9755151.25 5135439.71 181.35
-9755151.53 5135437.90 181.34
-9755146.57 5135436.42 181.39
-9755153.25 5135444.38 182.46
-9755146.50 5135444.41 181.37
-9755154.76 5135444.44 181.35
-9755148.00 5135434.69 181.36
-9755172.85 5135419.58 182.47
-9755167.89 5135421.55 182.52
-9755169.61 5135429.75 181.28
-9755170.87 5135418.21 182.27
-9755164.73 5135420.02 182.50
-9755169.61 5135422.91 181.33
-9755171.44 5135420.17 181.38
-9755164.66 5135417.80 182.38
-9755171.36 5135431.22 181.34
-9755169.58 5135431.54 181.28
-9755161.44 5135421.31 182.49
-9755161.61 5135426.41 181.27
-9755162.88 5135421.32 182.49
-9755163.11 5135427.89 181.24
-9755162.92 5135419.93 182.50
-9755161.23 5135429.44 181.24
-9755159.59 5135426.12 181.26
-9755161.67 5135418.12 182.34
-9755158.39 5135427.97 181.26
-9755158.13 5135423.16 181.32
-9755156.70 5135421.49 181.34
-9755156.29 5135429.68 181.25
-9755157.81 5135419.91 181.43
-9755156.32 5135420.13 181.64
-9755149.92 5135424.58 181.33
-9755151.79 5135420.11 181.37
-9755153.15 5135427.86 181.29
-9755151.63 5135429.58 181.31
-9755148.33 5135419.85 182.20
-9755150.14 5135421.56 182.48
-9755146.63 5135424.60 181.34
-9755148.06 5135426.36 181.32
-9755149.80 5135427.90 181.31
-9755146.55 5135426.32 181.34
-9755154.66 5135418.11 182.28
-9755141.81 5135439.79 185.40
-9755139.71 5135442.92 181.54
-9755138.23 5135441.15 181.42
-9755138.25 5135437.96 183.83
-9755145.29 5135442.63 182.16
-9755139.78 5135442.89 182.43
-9755138.53 5135439.50 183.89
-9755144.39 5135438.21 182.59
-9755139.64 5135436.27 182.68
-9755143.33 5135441.13 181.65
-9755141.57 5135436.50 184.32
-9755138.61 5135437.86 182.54
-9755140.04 5135441.31 184.11
-9755138.29 5135437.84 181.49
-9755141.58 5135442.97 184.11
-9755140.04 5135436.33 181.48
-9755138.27 5135440.99 183.88
-9755141.86 5135434.64 181.54
-9755136.58 5135436.36 181.45
-9755143.02 5135434.60 181.54
-9755145.81 5135442.32 182.31
-9755139.50 5135438.11 181.55
-9755136.58 5135438.13 182.20
-9755141.26 5135438.62 185.02
-9755137.11 5135440.10 182.30
-9755138.56 5135444.59 183.86
-9755139.75 5135444.52 184.12
-9755144.47 5135444.29 184.10
-9755141.79 5135444.34 181.65
-9755141.26 5135444.84 184.08
-9755142.99 5135444.36 181.66
-9755142.23 5135445.09 182.18
-9755135.10 5135436.38 181.40
-9755135.29 5135440.77 182.20
-9755133.36 5135436.54 182.69
-9755133.25 5135439.54 181.28
-9755131.47 5135442.85 182.76
-9755131.78 5135436.72 184.03
-9755130.02 5135436.33 181.30
-9755129.92 5135441.23 182.65
-9755130.03 5135443.07 182.91
-9755121.79 5135441.05 181.29
-9755122.10 5135436.28 181.32
-9755122.02 5135442.79 181.31
-9755126.80 5135439.58 181.33
-9755128.56 5135434.56 181.33
-9755120.31 5135439.75 181.28
-9755130.06 5135439.37 181.36
-9755129.69 5135438.46 182.52
-9755118.84 5135442.76 181.28
-9755125.06 5135433.01 181.33
-9755143.10 5135423.06 181.36
-9755141.63 5135420.08 181.38
-9755145.15 5135421.30 181.36
-9755139.85 5135419.79 181.40
-9755144.95 5135418.07 182.23
-9755139.86 5135427.81 181.38
-9755136.90 5135424.53 181.37
-9755139.84 5135421.27 181.38
-9755138.33 5135424.53 181.38
-9755141.64 5135417.80 181.96
-9755136.88 5135426.61 181.36
-9755136.89 5135423.07 181.37
-9755135.14 5135423.05 181.37
-9755135.13 5135424.52 181.36
-9755135.15 5135421.56 181.38
-9755135.08 5135431.29 181.51
-9755133.66 5135423.06 181.36
-9755131.57 5135428.32 181.33
-9755131.63 5135423.04 181.35
-9755131.62 5135419.76 181.38
-9755131.87 5135429.85 181.33
-9755125.08 5135421.52 181.34
-9755128.35 5135426.30 181.34
-9755126.87 5135421.20 181.33
-9755123.42 5135421.51 181.34
-9755126.57 5135427.98 181.33
-9755130.19 5135419.74 181.36
-9755120.34 5135426.32 186.14
-9755120.04 5135424.79 190.83
-9755130.08 5135425.04 181.34
-9755128.36 5135421.53 181.34
-9755121.60 5135418.28 181.34
-9755123.43 5135428.04 187.59
-9755126.88 5135419.72 181.34
-9755123.57 5135426.25 181.32
-9755121.84 5135424.74 181.31
-9755121.85 5135426.65 190.48
-9755120.10 5135423.00 190.75
-9755128.59 5135427.99 181.33
-9755120.14 5135425.00 181.30
-9755120.07 5135428.29 185.20
-9755126.69 5135418.52 181.36
-9755121.32 5135422.74 189.18
-9755121.11 5135421.85 190.02
-9755130.07 5135431.29 181.31
-9755125.38 5135431.28 181.30
-9755126.84 5135431.53 181.31
-9755121.57 5135430.89 186.88
-9755120.32 5135430.23 185.76
-9755118.30 5135438.32 182.57
-9755118.53 5135432.89 184.22
-9755118.04 5135434.34 188.25
-9755110.15 5135442.77 181.30
-9755108.75 5135439.74 181.26
-9755108.49 5135441.21 181.26
-9755116.74 5135442.79 181.26
-9755113.54 5135442.73 181.25
-9755110.25 5135439.42 181.37
-9755115.29 5135441.27 181.26
-9755116.70 5135436.55 182.62
-9755109.99 5135434.76 181.32
-9755107.26 5135436.51 181.32
-9755111.72 5135437.89 182.55
-9755115.55 5135442.76 181.25
-9755106.03 5135436.37 189.16
-9755107.06 5135439.40 181.32
-9755111.76 5135437.67 183.75
-9755111.96 5135436.19 183.84
-9755105.23 5135437.94 181.38
-9755111.85 5135441.21 183.82
-9755106.91 5135434.63 187.60
-9755105.34 5135434.73 187.45
-9755115.08 5135436.45 183.85
-9755111.68 5135442.88 183.82
-9755111.83 5135434.96 183.69
-9755112.08 5135434.48 181.44
-9755116.14 5135438.86 182.62
-9755105.25 5135436.45 181.38
-9755108.76 5135444.46 181.29
-9755105.52 5135438.01 190.31
-9755100.39 5135434.27 189.19
-9755098.93 5135438.11 187.15
-9755098.53 5135437.67 189.55
-9755100.54 5135434.79 187.65
-9755102.17 5135438.14 189.15
-9755100.30 5135439.58 190.32
-9755103.35 5135441.35 184.26
-9755103.52 5135439.42 190.42
-9755102.11 5135439.52 190.83
-9755102.08 5135439.19 187.00
-9755100.36 5135434.54 190.72
-9755100.52 5135440.66 186.43
-9755100.53 5135436.20 181.40
-9755103.86 5135434.51 185.94
-9755102.03 5135434.41 181.47
-9755100.28 5135437.91 181.41
-9755099.08 5135434.67 181.37
-9755101.08 5135435.06 185.74
-9755098.73 5135441.15 181.36
-9755098.81 5135437.93 181.37
-9755103.93 5135439.28 184.97
-9755100.23 5135435.57 186.57
-9755101.42 5135440.46 186.70
-9755100.44 5135438.58 184.76
-9755102.28 5135444.42 181.44
-9755107.10 5135433.24 181.32
-9755116.81 5135432.90 184.08
-9755115.36 5135434.69 188.14
-9755105.28 5135432.78 191.91
-9755105.06 5135434.54 190.74
-9755106.25 5135432.73 191.87
-9755103.94 5135432.78 190.71
-9755103.69 5135432.79 189.13
-9755100.62 5135432.90 187.42
-9755100.79 5135433.16 185.34
-9755098.55 5135432.85 181.35
-9755102.05 5135433.06 186.26
-9755103.60 5135433.24 187.26
-9755104.54 5135432.53 191.87
-9755104.88 5135433.25 185.97
-9755097.06 5135436.22 185.61
-9755093.49 5135439.67 181.33
-9755097.31 5135437.92 181.34
-9755095.24 5135437.91 181.32
-9755096.77 5135435.01 186.45
-9755097.08 5135436.47 181.34
-9755091.97 5135437.88 181.37
-9755095.29 5135439.37 181.29
-9755091.99 5135436.42 181.40
-9755095.24 5135434.58 181.32
-9755097.06 5135433.27 185.69
-9755118.42 5135426.33 186.10
-9755118.01 5135427.85 187.42
-9755118.71 5135424.88 190.42
-9755118.41 5135426.08 189.06
-9755118.47 5135426.41 190.89
-9755118.33 5135418.21 181.31
-9755118.74 5135429.64 185.50
-9755118.58 5135427.92 181.48
-9755118.24 5135424.80 185.73
-9755118.56 5135424.79 187.57
-9755118.90 5135429.45 181.40
-9755118.85 5135431.25 181.41
-9755113.85 5135422.89 186.11
-9755115.25 5135421.36 187.39
-9755113.65 5135421.54 185.89
-9755111.54 5135424.45 187.28
-9755115.24 5135423.25 187.49
-9755115.42 5135419.64 183.99
-9755116.93 5135423.18 189.04
-9755111.90 5135426.45 189.06
-9755113.52 5135419.69 187.57
-9755108.62 5135427.96 181.33
-9755110.58 5135426.23 186.21
-9755110.16 5135423.20 187.63
-9755110.41 5135426.45 188.98
-9755105.38 5135428.18 181.39
-9755110.17 5135428.33 185.61
-9755106.83 5135419.68 185.43
-9755115.10 5135420.18 185.76
-9755106.37 5135424.36 188.84
-9755113.68 5135419.65 181.48
-9755113.60 5135422.87 181.46
-9755115.32 5135423.11 188.82
-9755107.09 5135427.84 187.71
-9755106.85 5135423.64 185.99
-9755110.34 5135424.66 182.24
-9755105.30 5135424.66 189.27
-9755110.27 5135428.23 181.41
-9755115.50 5135427.96 189.19
-9755116.97 5135426.70 185.66
-9755115.33 5135424.96 181.52
-9755106.98 5135427.89 181.36
-9755113.71 5135424.87 185.80
-9755106.90 5135421.53 186.17
-9755113.42 5135424.59 187.33
-9755111.85 5135421.39 181.44
-9755107.14 5135421.32 181.37
-9755116.93 5135423.25 187.47
-9755117.15 5135422.88 181.50
-9755107.37 5135423.06 188.61
-9755110.36 5135426.33 182.23
-9755111.77 5135426.33 185.43
-9755116.75 5135426.39 187.79
-9755112.30 5135428.00 187.95
-9755109.18 5135428.37 189.26
-9755117.13 5135421.13 181.51
-9755117.10 5135428.25 181.52
-9755111.94 5135419.90 182.22
-9755113.56 5135419.79 182.28
-9755115.18 5135419.68 181.46
-9755110.14 5135419.67 181.35
-9755113.90 5135427.77 184.21
-9755115.12 5135428.48 187.85
-9755113.52 5135429.65 190.80
-9755113.64 5135421.64 181.48
-9755116.82 5135424.71 181.51
-9755112.24 5135420.77 184.08
-9755110.65 5135421.53 184.89
-9755113.82 5135423.66 185.00
-9755112.17 5135418.13 181.47
-9755114.83 5135421.17 186.36
-9755111.52 5135424.33 181.93
-9755111.85 5135419.64 181.44
-9755105.40 5135426.30 185.82
-9755116.65 5135426.57 192.27
-9755112.25 5135423.71 188.97
-9755110.13 5135430.04 186.14
-9755105.39 5135424.85 185.89
-9755113.89 5135426.24 185.85
-9755113.82 5135427.92 181.57
-9755105.65 5135421.42 186.22
-9755105.34 5135424.69 181.39
-9755111.36 5135428.99 181.92
-9755112.21 5135429.80 187.77
-9755105.28 5135429.47 185.85
-9755113.69 5135431.34 190.87
-9755110.43 5135431.47 181.40
-9755113.64 5135431.19 181.49
-9755114.24 5135432.59 187.62
-9755113.67 5135431.32 189.68
-9755115.37 5135431.17 181.48
-9755107.15 5135431.55 187.07
-9755105.14 5135431.41 187.78
-9755105.12 5135423.87 185.80
-9755103.71 5135424.72 189.35
-9755101.98 5135421.53 189.23
-9755102.11 5135427.99 190.89
-9755103.46 5135418.39 189.20
-9755102.01 5135424.65 189.60
-9755103.91 5135429.54 190.70
-9755100.42 5135424.75 189.10
-9755100.45 5135419.92 188.97
-9755101.76 5135429.73 189.49
-9755102.34 5135421.40 187.47
-9755098.83 5135424.64 187.39
-9755098.58 5135426.23 189.06
-9755100.46 5135423.28 190.85
-9755100.32 5135421.14 186.01
-9755103.81 5135421.78 185.68
-9755100.50 5135429.41 189.13
-9755100.59 5135428.12 181.40
-9755102.15 5135423.13 185.80
-9755098.87 5135424.90 181.38
-9755102.11 5135428.16 187.08
-9755100.73 5135429.68 190.62
-9755102.07 5135422.00 185.83
-9755100.36 5135418.11 187.51
-9755100.33 5135421.36 181.42
-9755098.63 5135421.35 181.39
-9755098.58 5135426.65 181.37
-9755103.80 5135429.58 185.51
-9755098.58 5135429.59 181.38
-9755098.95 5135427.03 184.64
-9755102.09 5135429.69 181.42
-9755098.93 5135429.51 187.79
-9755098.96 5135431.51 189.02
-9755100.30 5135431.48 187.72
-9755102.44 5135431.60 189.21
-9755102.00 5135431.44 181.44
-9755098.64 5135431.09 186.12
-9755095.35 5135424.85 181.33
-9755097.00 5135429.47 187.69
-9755095.53 5135422.90 181.33
-9755097.14 5135421.33 181.38
-9755097.00 5135424.63 185.97
-9755097.12 5135422.84 185.68
-9755097.37 5135422.83 181.36
-9755097.15 5135419.85 181.42
-9755095.64 5135419.83 181.33
-9755097.07 5135424.86 181.36
-9755092.05 5135429.63 181.40
-9755097.07 5135426.65 181.38
-9755098.40 5135424.29 184.87
-9755094.11 5135429.90 181.36
-9755097.04 5135431.38 181.35
-9755094.09 5135431.38 181.35
-9755095.41 5135431.85 186.09
-9755097.01 5135430.97 185.79
-9755095.26 5135431.34 181.32
-9755097.74 5135429.57 184.68
-9755081.94 5135437.79 182.69
-9755084.09 5135436.29 181.45
-9755081.92 5135441.05 182.61
-9755088.70 5135439.67 181.42
-9755088.98 5135441.15 181.41
-9755081.90 5135437.37 183.67
-9755090.50 5135434.62 181.41
-9755088.81 5135433.05 181.41
-9755087.30 5135428.02 181.43
-9755087.36 5135426.61 181.42
-9755081.82 5135425.00 182.50
-9755082.04 5135423.04 181.63
-9755090.84 5135429.58 181.41
-9755081.84 5135428.30 182.67
-9755087.41 5135420.03 181.45
-9755082.02 5135419.67 182.53
-9755084.18 5135417.97 181.46
-9755087.33 5135424.83 181.46
-9755089.17 5135423.09 181.43
-9755081.72 5135430.36 183.41
-9755085.28 5135431.58 181.44
-9755087.35 5135431.02 181.42
-9755285.01 5135414.96 189.01
-9755288.26 5135414.97 189.03
-9755285.02 5135418.18 189.04
-9755288.24 5135418.23 189.03
-9755281.79 5135418.15 189.02
-9755289.76 5135409.90 188.99
-9755290.02 5135413.19 189.02
-9755289.77 5135408.16 188.97
-9755291.30 5135401.66 189.00
-9755291.79 5135396.28 192.57
-9755289.99 5135396.95 203.00
-9755291.68 5135395.60 203.74
-9755289.78 5135396.75 192.52
-9755289.86 5135395.22 192.37
-9755291.84 5135395.56 207.15
-9755291.45 5135394.80 202.85
-9755290.05 5135394.82 202.77
-9755286.54 5135408.11 189.03
-9755285.01 5135411.64 189.00
-9755283.29 5135406.64 189.00
-9755288.34 5135396.66 192.28
-9755286.64 5135400.03 192.61
-9755283.14 5135396.74 192.33
-9755286.63 5135396.77 192.39
-9755283.45 5135399.76 232.25
-9755285.12 5135396.73 192.36
-9755286.62 5135398.16 192.33
-9755285.18 5135398.42 192.36
-9755282.85 5135398.55 232.01
-9755282.72 5135399.64 230.31
-9755283.43 5135395.20 192.32
-9755288.20 5135397.42 203.64
-9755284.96 5135398.45 230.22
-9755285.18 5135397.22 230.26
-9755284.86 5135398.29 227.92
-9755288.13 5135394.99 192.36
-9755285.41 5135398.52 232.14
-9755281.60 5135399.97 192.70
-9755284.73 5135397.10 227.94
-9755288.24 5135395.35 202.81
-9755284.16 5135400.67 198.04
-9755284.89 5135398.92 210.88
-9755286.74 5135395.08 203.55
-9755283.62 5135397.38 232.13
-9755284.69 5135399.42 210.53
-9755283.30 5135404.89 189.01
-9755291.67 5135393.48 192.36
-9755291.41 5135391.71 192.32
-9755284.94 5135394.86 194.13
-9755286.64 5135393.49 192.34
-9755288.16 5135393.19 192.34
-9755284.92 5135393.43 192.32
-9755284.86 5135391.68 192.30
-9755288.10 5135391.98 192.31
-9755283.16 5135394.22 194.00
-9755279.98 5135418.15 189.01
-9755276.74 5135416.36 189.02
-9755272.02 5135416.35 188.95
-9755276.73 5135418.15 189.03
-9755274.96 5135418.11 188.99
-9755271.72 5135418.16 188.94
-9755269.97 5135416.33 188.95
-9755256.68 5135416.73 192.88
-9755255.92 5135414.84 200.80
-9755265.24 5135416.34 188.99
-9755259.49 5135414.53 192.86
-9755257.86 5135414.81 193.98
-9755266.73 5135418.07 188.96
-9755255.14 5135417.90 192.60
-9755280.04 5135411.68 188.97
-9755276.48 5135413.13 189.00
-9755276.78 5135408.40 188.99
-9755271.74 5135411.31 189.00
-9755276.82 5135409.86 189.01
-9755273.26 5135411.67 189.01
-9755271.79 5135413.37 188.98
-9755281.60 5135395.18 192.71
-9755280.15 5135395.21 192.33
-9755281.57 5135401.48 192.61
-9755280.20 5135398.44 192.35
-9755281.49 5135397.28 223.17
-9755280.44 5135397.34 203.60
-9755281.89 5135396.64 192.41
-9755281.41 5135402.54 192.56
-9755280.49 5135400.64 232.13
-9755283.02 5135400.12 213.34
-9755281.17 5135398.40 203.63
-9755281.12 5135400.42 218.20
-9755280.11 5135396.70 192.34
-9755281.71 5135397.31 213.38
-9755281.35 5135398.13 198.30
-9755279.83 5135399.97 203.80
-9755280.31 5135399.82 213.36
-9755280.45 5135399.66 218.24
-9755280.18 5135398.95 230.36
-9755280.43 5135401.94 229.98
-9755273.27 5135401.97 192.38
-9755276.62 5135399.87 193.98
-9755277.16 5135398.69 192.40
-9755273.32 5135398.16 192.33
-9755273.37 5135396.64 192.31
-9755276.93 5135399.93 192.36
-9755273.29 5135403.46 192.39
-9755278.34 5135399.94 192.37
-9755275.17 5135396.88 193.98
-9755276.95 5135398.86 203.61
-9755271.88 5135395.14 192.31
-9755276.84 5135401.72 192.39
-9755273.03 5135403.13 203.60
-9755279.85 5135401.10 216.05
-9755279.54 5135397.96 203.63
-9755279.77 5135401.17 208.63
-9755278.32 5135403.48 192.68
-9755278.39 5135401.50 203.58
-9755271.76 5135401.46 203.59
-9755277.03 5135402.15 203.02
-9755276.63 5135395.16 193.97
-9755274.93 5135401.86 203.70
-9755279.90 5135400.97 211.66
-9755279.83 5135401.20 210.63
-9755274.95 5135400.04 203.63
-9755275.85 5135399.47 193.94
-9755280.17 5135401.10 216.77
-9755276.88 5135402.13 203.49
-9755273.73 5135400.90 203.67
-9755279.49 5135401.34 203.01
-9755272.56 5135400.78 203.62
-9755277.83 5135399.27 193.98
-9755271.79 5135404.89 192.42
-9755273.41 5135406.47 192.72
-9755276.56 5135404.90 192.69
-9755273.57 5135403.83 202.99
-9755278.08 5135404.59 192.77
-9755271.84 5135405.08 208.51
-9755269.63 5135408.06 192.72
-9755266.67 5135407.13 203.06
-9755256.71 5135411.27 192.38
-9755257.07 5135411.60 193.42
-9755260.46 5135413.09 192.58
-9755266.69 5135409.94 192.59
-9755260.27 5135409.93 192.37
-9755256.75 5135411.41 203.77
-9755263.59 5135408.42 192.39
-9755261.45 5135408.06 194.00
-9755260.36 5135406.56 193.98
-9755262.05 5135408.12 192.38
-9755255.26 5135413.14 192.38
-9755257.49 5135413.27 203.09
-9755262.12 5135409.91 192.41
-9755262.20 5135407.86 203.60
-9755255.29 5135411.65 192.38
-9755260.04 5135408.43 193.60
-9755257.02 5135413.15 192.39
-9755257.24 5135413.14 208.49
-9755268.33 5135407.58 204.72
-9755255.34 5135408.36 192.36
-9755262.01 5135406.59 192.46
-9755263.51 5135408.19 203.73
-9755255.47 5135412.81 193.66
-9755266.49 5135408.24 208.48
-9755264.93 5135410.84 192.37
-9755267.70 5135409.79 192.76
-9755265.29 5135406.71 192.39
-9755256.88 5135410.00 203.56
-9755255.97 5135412.43 205.97
-9755268.31 5135406.75 204.85
-9755263.03 5135410.19 203.71
-9755266.28 5135407.99 203.69
-9755264.96 5135409.18 208.42
-9755259.18 5135408.93 193.58
-9755270.14 5135396.65 192.33
-9755270.08 5135401.93 193.99
-9755268.62 5135401.58 193.98
-9755270.62 5135394.79 187.49
-9755270.34 5135395.19 190.94
-9755269.22 5135395.67 190.74
-9755270.09 5135395.05 185.63
-9755268.25 5135396.45 187.21
-9755269.97 5135395.26 182.55
-9755270.28 5135394.78 181.62
-9755268.60 5135403.38 193.99
-9755270.12 5135395.13 184.25
-9755270.36 5135395.08 189.29
-9755270.16 5135402.08 203.64
-9755268.99 5135395.70 188.73
-9755268.20 5135396.37 185.95
-9755269.12 5135395.62 183.93
-9755268.01 5135396.39 183.95
-9755269.52 5135400.41 193.96
-9755268.64 5135395.76 185.65
-9755268.84 5135395.60 182.62
-9755266.81 5135403.12 192.38
-9755263.34 5135398.48 190.95
-9755264.67 5135398.19 182.13
-9755258.47 5135401.76 186.28
-9755258.86 5135401.66 184.40
-9755258.53 5135401.81 182.28
-9755266.86 5135400.15 192.36
-9755261.90 5135399.83 192.38
-9755261.78 5135399.89 191.00
-9755260.37 5135401.60 192.34
-9755265.02 5135398.19 181.60
-9755260.39 5135400.86 191.21
-9755261.85 5135401.61 192.33
-9755266.72 5135396.89 185.78
-9755263.59 5135398.60 192.56
-9755261.78 5135400.06 181.66
-9755267.13 5135396.69 191.20
-9755260.59 5135400.32 185.96
-9755257.11 5135402.22 185.64
-9755261.13 5135399.99 183.86
-9755268.39 5135396.30 189.24
-9755258.69 5135401.57 189.27
-9755261.77 5135399.76 182.32
-9755266.80 5135396.67 187.52
-9755266.77 5135396.62 182.65
-9755263.52 5135398.54 189.54
-9755258.76 5135401.59 190.66
-9755262.40 5135399.13 185.27
-9755263.64 5135398.43 182.48
-9755263.62 5135400.15 192.35
-9755265.08 5135400.10 192.51
-9755262.03 5135399.65 185.72
-9755266.91 5135396.84 192.41
-9755260.00 5135400.75 184.24
-9755258.51 5135396.78 181.31
-9755260.04 5135400.93 188.04
-9755256.89 5135402.59 184.22
-9755262.71 5135399.19 187.30
-9755255.32 5135396.80 181.31
-9755258.51 5135400.00 181.47
-9755257.03 5135402.92 182.68
-9755256.46 5135402.85 191.35
-9755265.11 5135398.34 193.41
-9755259.92 5135401.05 189.19
-9755263.79 5135398.47 187.41
-9755257.50 5135402.08 190.49
-9755267.20 5135396.44 189.05
-9755261.82 5135399.72 187.04
-9755265.16 5135397.74 185.84
-9755261.77 5135399.75 189.01
-9755263.23 5135395.02 181.38
-9755262.26 5135398.99 192.12
-9755258.57 5135401.88 193.31
-9755260.28 5135400.64 187.41
-9755255.27 5135398.26 181.30
-9755261.84 5135403.43 192.32
-9755262.92 5135399.51 181.56
-9755261.85 5135400.11 193.30
-9755255.45 5135403.61 182.21
-9755266.47 5135396.90 184.85
-9755256.46 5135402.84 189.01
-9755266.78 5135396.88 181.62
-9755259.94 5135401.47 181.61
-9755256.76 5135403.02 185.69
-9755265.01 5135397.85 188.84
-9755257.26 5135402.32 184.36
-9755265.65 5135397.16 188.95
-9755264.57 5135398.20 191.53
-9755258.57 5135403.40 192.34
-9755260.13 5135400.55 189.09
-9755255.37 5135403.61 192.48
-9755257.38 5135402.49 187.07
-9755257.15 5135402.72 187.06
-9755265.05 5135397.78 187.71
-9755257.34 5135402.14 189.03
-9755262.65 5135399.00 182.22
-9755260.94 5135400.13 190.70
-9755268.55 5135396.53 181.59
-9755267.66 5135396.56 190.96
-9755266.80 5135394.78 181.51
-9755265.34 5135397.91 184.19
-9755259.36 5135401.40 187.93
-9755259.86 5135400.95 186.09
-9755262.75 5135399.20 188.59
-9755263.28 5135398.81 185.70
