-9755349.34 5135495.64 181.40
-9755349.36 5135488.55 181.37
-9755350.88 5135485.60 181.36
-9755349.35 5135492.37 181.39
-9755350.84 5135488.82 181.37
-9755347.56 5135492.35 181.39
-9755347.55 5135497.12 181.41
-9755347.59 5135488.80 181.38
-9755347.59 5135493.86 181.38
-9755345.82 5135487.31 181.35
-9755346.10 5135492.35 181.38
-9755346.06 5135495.62 181.39
-9755347.61 5135485.58 181.35
-9755349.22 5135510.43 181.45
-9755349.29 5135502.13 181.41
-9755350.76 5135502.14 181.42
-9755349.26 5135508.64 181.45
-9755349.29 5135503.62 181.42
-9755349.25 5135506.90 181.44
-9755349.27 5135505.71 181.43
-9755347.77 5135508.66 181.45
-9755346.00 5135510.46 181.44
-9755346.03 5135500.90 181.42
-9755346.04 5135507.15 181.44
-9755346.07 5135505.40 181.42
-9755336.06 5135497.33 181.38
-9755336.04 5135498.80 181.38
-9755342.82 5135495.64 181.38
-9755342.51 5135497.10 181.39
-9755339.64 5135489.08 181.36
-9755337.83 5135495.57 181.38
-9755339.30 5135492.02 181.37
-9755337.87 5135487.29 181.35
-9755339.36 5135490.54 181.38
-9755344.33 5135492.36 181.37
-9755340.79 5135493.82 181.38
-9755342.58 5135494.14 181.38
-9755339.59 5135495.60 181.38
-9755342.90 5135487.31 181.35
-9755344.35 5135488.78 181.36
-9755340.78 5135492.32 181.37
-9755335.77 5135494.09 181.37
-9755337.57 5135492.32 181.37
-9755337.86 5135485.82 181.34
-9755340.76 5135498.86 181.39
-9755336.12 5135485.80 181.34
-9755334.28 5135498.79 181.38
-9755326.04 5135494.05 181.36
-9755329.31 5135488.98 181.35
-9755332.85 5135489.02 181.34
-9755324.57 5135494.06 181.36
-9755324.62 5135485.74 181.32
-9755327.78 5135497.30 181.36
-9755329.28 5135487.52 181.34
-9755329.31 5135490.74 181.37
-9755323.14 5135490.76 181.35
-9755322.54 5135488.98 181.35
-9755331.12 5135487.52 181.34
-9755326.36 5135490.46 181.36
-9755334.34 5135490.51 181.36
-9755324.61 5135488.97 181.35
-9755324.27 5135499.03 181.38
-9755324.55 5135492.55 181.37
-9755331.01 5135498.80 181.37
-9755327.78 5135498.48 181.38
-9755331.07 5135494.06 181.37
-9755327.86 5135485.72 181.34
-9755341.00 5135508.92 181.43
-9755339.26 5135502.09 181.41
-9755337.79 5135503.89 181.42
-9755342.78 5135506.86 181.43
-9755340.98 5135510.10 181.44
-9755342.50 5135503.88 181.42
-9755336.03 5135500.32 181.39
-9755342.79 5135500.63 181.40
-9755337.79 5135500.91 181.41
-9755337.47 5135506.79 181.42
-9755337.48 5135508.59 181.43
-9755339.24 5135503.59 181.41
-9755344.26 5135507.13 181.44
-9755341.04 5135500.60 181.40
-9755336.02 5135505.58 181.42
-9755334.28 5135500.59 181.39
-9755342.74 5135510.36 181.44
-9755334.53 5135507.04 181.42
-9755335.96 5135508.57 181.42
-9755322.73 5135501.99 181.38
-9755329.54 5135503.77 181.39
-9755329.56 5135500.52 181.39
-9755326.29 5135505.61 181.39
-9755327.77 5135502.00 181.38
-9755326.28 5135503.81 181.39
-9755331.00 5135500.53 181.40
-9755330.98 5135508.83 181.41
-9755332.75 5135505.59 181.41
-9755322.97 5135505.52 181.38
-9755327.75 5135508.52 181.41
-9755327.74 5135506.75 181.41
-9755329.52 5135502.30 181.40
-9755332.75 5135503.82 181.41
-9755328.03 5135503.77 181.40
-9755321.24 5135510.59 181.40
-9755319.46 5135512.01 181.40
-9755311.23 5135510.23 181.39
-9755318.00 5135512.04 181.39
-9755312.97 5135512.02 181.39
-9755316.19 5135512.04 181.40
-9755307.91 5135512.30 181.36
-9755319.72 5135510.57 181.39
-9755316.50 5135510.26 181.39
-9755316.21 5135513.84 181.40
-9755314.42 5135513.79 181.40
-9755321.28 5135495.43 181.36
-9755321.34 5135489.25 181.35
-9755321.04 5135494.00 181.35
-9755321.04 5135490.42 181.35
-9755319.55 5135493.71 181.36
-9755321.22 5135503.74 181.39
-9755319.51 5135502.29 181.38
-9755319.73 5135508.47 181.38
-9755314.60 5135487.14 181.33
-9755311.28 5135495.45 181.36
-9755311.30 5135488.88 181.33
-9755318.16 5135487.46 181.34
-9755309.55 5135489.16 181.33
-9755316.34 5135488.91 181.34
-9755317.81 5135493.69 181.36
-9755311.32 5135497.18 181.35
-9755318.06 5135498.98 181.37
-9755311.09 5135485.65 181.31
-9755314.82 5135495.45 181.36
-9755311.33 5135492.19 181.34
-9755311.27 5135490.66 181.34
-9755317.81 5135492.18 181.36
-9755314.51 5135497.20 181.36
-9755318.12 5135497.23 181.36
-9755311.25 5135505.46 181.37
-9755311.26 5135502.20 181.37
-9755309.74 5135508.72 181.37
-9755314.51 5135503.72 181.37
-9755311.52 5135508.76 181.37
-9755312.73 5135501.92 181.37
-9755311.29 5135500.45 181.36
-9755314.78 5135500.41 181.37
-9755502.56 5135477.34 204.48
-9755495.81 5135485.67 203.53
-9755490.79 5135485.90 203.50
-9755489.26 5135485.66 196.15
-9755487.78 5135485.67 196.21
-9755487.55 5135485.60 203.56
-9755479.23 5135485.69 193.26
-9755470.89 5135486.25 207.17
-9755470.66 5135485.06 203.81
-9755497.39 5135470.85 203.46
-9755495.85 5135472.61 203.45
-9755499.14 5135472.32 203.45
-9755495.87 5135474.07 203.44
-9755489.13 5135470.85 203.48
-9755492.66 5135470.83 203.48
-9755492.62 5135474.10 203.45
-9755485.81 5135474.04 203.45
-9755479.38 5135472.24 203.46
-9755495.88 5135477.37 203.43
-9755494.36 5135484.14 203.49
-9755494.12 5135475.85 203.44
-9755499.16 5135477.41 203.45
-9755487.56 5135479.06 203.43
-9755482.58 5135479.08 203.45
-9755490.86 5135480.56 203.44
-9755485.95 5135481.17 204.29
-9755487.32 5135481.20 204.00
-9755487.57 5135484.17 203.49
-9755481.13 5135475.76 203.43
-9755485.48 5135482.63 202.97
-9755482.60 5135484.00 204.43
-9755486.73 5135484.87 203.61
-9755479.31 5135475.79 203.45
-9755479.60 5135482.35 199.92
-9755479.90 5135483.39 203.62
-9755474.44 5135472.62 181.61
-9755476.37 5135472.33 185.28
-9755475.93 5135470.72 185.29
-9755476.28 5135472.80 188.96
-9755477.57 5135472.43 199.81
-9755475.98 5135470.39 186.67
-9755476.20 5135472.04 192.58
-9755477.26 5135470.75 199.83
-9755474.73 5135470.58 181.65
-9755477.38 5135472.38 181.65
-9755476.07 5135472.74 199.94
-9755475.93 5135472.59 181.67
-9755476.41 5135472.25 196.25
-9755477.57 5135472.49 192.51
-9755477.16 5135472.48 185.17
-9755477.29 5135470.98 181.67
-9755472.81 5135472.76 181.57
-9755476.62 5135473.01 199.78
-9755475.06 5135473.28 199.99
-9755475.23 5135470.14 184.69
-9755477.16 5135472.85 196.16
-9755476.05 5135470.38 199.76
-9755477.16 5135472.55 188.79
-9755476.13 5135474.28 203.49
-9755475.93 5135474.11 181.65
-9755477.00 5135473.50 199.84
-9755474.61 5135473.23 189.03
-9755475.64 5135473.86 196.17
-9755476.36 5135473.88 192.48
-9755474.57 5135474.09 196.19
-9755477.89 5135482.30 203.56
-9755474.50 5135474.07 188.91
-9755471.30 5135475.50 199.80
-9755474.45 5135473.25 196.33
-9755472.61 5135475.71 203.53
-9755471.10 5135479.01 203.56
-9755476.08 5135479.03 203.51
-9755474.63 5135475.76 203.52
-9755474.43 5135475.64 181.61
-9755474.61 5135474.04 199.80
-9755471.32 5135474.44 196.35
-9755470.85 5135475.43 196.23
-9755474.23 5135474.15 181.64
-9755473.31 5135473.84 181.60
-9755472.81 5135474.43 199.83
-9755476.12 5135473.76 199.82
-9755474.40 5135483.78 203.69
-9755472.24 5135475.12 192.52
-9755471.51 5135474.20 192.63
-9755474.26 5135474.05 192.47
-9755470.91 5135475.55 189.02
-9755472.87 5135480.75 203.56
-9755471.42 5135474.32 199.94
-9755472.51 5135475.04 199.82
-9755472.62 5135474.14 189.06
-9755475.68 5135474.99 181.63
-9755471.29 5135474.42 189.00
-9755475.53 5135473.78 188.86
-9755470.69 5135475.30 192.51
-9755457.96 5135485.73 220.67
-9755456.18 5135485.80 220.72
-9755446.36 5135485.60 208.87
-9755442.17 5135485.79 206.83
-9755458.02 5135470.70 220.59
-9755464.67 5135470.77 207.08
-9755466.08 5135472.36 204.07
-9755466.45 5135474.13 204.08
-9755469.64 5135477.47 203.59
-9755469.37 5135475.96 199.80
-9755469.59 5135474.78 203.69
-9755469.61 5135484.73 207.09
-9755469.27 5135475.30 199.90
-9755469.81 5135475.80 196.20
-9755469.93 5135474.84 192.62
-9755467.64 5135475.99 204.15
-9755469.54 5135474.96 196.35
-9755469.94 5135475.09 192.64
-9755462.63 5135477.77 220.74
-9755459.77 5135474.01 220.74
-9755459.48 5135480.80 220.65
-9755462.97 5135483.98 220.59
-9755462.96 5135480.84 220.71
-9755461.27 5135477.55 220.65
-9755463.03 5135479.26 220.76
-9755464.13 5135482.77 220.77
-9755453.03 5135475.97 220.89
-9755444.77 5135472.68 220.82
-9755448.09 5135470.70 220.76
-9755446.51 5135472.35 220.80
-9755448.05 5135471.19 227.04
-9755441.65 5135472.31 208.53
-9755449.62 5135472.12 233.34
-9755441.07 5135473.01 207.98
-9755442.45 5135484.11 220.49
-9755446.53 5135475.61 220.82
-9755442.95 5135479.07 221.13
-9755441.50 5135477.35 220.93
-9755441.65 5135474.13 208.52
-9755443.24 5135482.43 220.97
-9755444.74 5135475.68 220.83
-9755441.62 5135480.71 207.39
-9755447.99 5135479.13 220.84
-9755449.76 5135480.71 220.81
-9755441.31 5135484.06 206.30
-9755441.01 5135475.95 207.40
-9755447.96 5135477.44 221.00
-9755444.53 5135482.47 207.98
-9755448.22 5135483.88 220.87
-9755443.04 5135475.86 208.54
-9755444.86 5135484.00 207.98
-9755446.41 5135479.19 220.93
-9755443.54 5135480.60 208.54
-9755444.79 5135484.17 208.53
-9755441.44 5135480.56 220.56
-9755442.15 5135483.30 218.99
-9755442.47 5135482.80 219.02
-9755444.22 5135481.12 208.01
-9755442.46 5135476.45 207.95
-9755442.15 5135483.34 221.12
-9755445.77 5135484.81 208.52
-9755441.05 5135482.51 206.32
-9755438.10 5135485.66 205.68
-9755431.30 5135485.49 197.37
-9755439.81 5135485.59 205.70
-9755434.78 5135485.50 197.93
-9755429.87 5135485.50 187.10
-9755431.38 5135485.97 187.33
-9755434.92 5135485.86 198.55
-9755428.42 5135485.74 186.83
-9755427.80 5135486.35 186.65
-9755424.87 5135485.77 186.14
-9755418.40 5135485.81 184.92
-9755425.58 5135485.16 186.82
-9755431.60 5135470.71 204.02
-9755434.73 5135470.97 205.73
-9755436.37 5135472.78 206.30
-9755439.87 5135472.71 207.40
-9755433.43 5135471.02 205.09
-9755430.13 5135472.67 198.68
-9755429.86 5135470.99 204.01
-9755431.47 5135472.26 203.97
-9755436.39 5135470.95 206.27
-9755429.77 5135471.06 198.60
-9755438.16 5135472.43 207.16
-9755429.79 5135472.45 197.93
-9755439.60 5135470.93 208.03
-9755440.00 5135470.88 220.91
-9755436.67 5135472.58 203.63
-9755429.91 5135472.55 204.01
-9755428.39 5135470.83 197.49
-9755436.93 5135470.93 206.82
-9755428.32 5135472.53 197.47
-9755426.66 5135472.24 197.16
-9755428.45 5135483.81 187.42
-9755434.81 5135474.03 203.55
-9755428.22 5135484.14 196.14
-9755434.51 5135484.03 204.01
-9755439.53 5135484.01 205.72
-9755436.29 5135473.99 205.70
-9755437.75 5135482.45 203.48
-9755429.63 5135484.28 196.13
-9755432.96 5135484.06 197.52
-9755434.06 5135483.99 197.95
-9755432.24 5135480.29 203.38
-9755435.12 5135475.81 205.66
-9755433.59 5135484.01 203.36
-9755435.16 5135475.79 203.52
-9755437.76 5135476.08 205.78
-9755438.47 5135475.72 206.81
-9755431.50 5135483.97 197.48
-9755429.99 5135476.12 197.70
-9755439.59 5135474.18 207.40
-9755432.91 5135479.07 203.99
-9755434.84 5135479.04 203.45
-9755428.25 5135482.30 196.12
-9755428.71 5135482.37 187.68
-9755436.26 5135479.29 205.65
-9755433.28 5135482.29 197.93
-9755434.51 5135484.24 198.67
-9755428.48 5135476.47 197.00
-9755439.38 5135474.08 220.56
-9755428.21 5135480.73 187.10
-9755433.01 5135480.79 197.97
-9755438.01 5135477.29 205.73
-9755436.33 5135474.03 203.59
-9755431.50 5135474.35 196.36
-9755431.83 5135478.97 198.55
-9755433.31 5135480.71 198.52
-9755429.82 5135476.78 196.26
-9755439.86 5135477.44 206.85
-9755428.25 5135477.50 187.33
-9755430.08 5135475.83 196.29
-9755428.23 5135477.25 196.22
-9755434.45 5135483.76 199.85
-9755430.47 5135474.08 203.99
-9755434.85 5135474.50 205.78
-9755430.93 5135474.19 199.82
-9755436.27 5135479.05 203.45
-9755431.44 5135475.74 196.35
-9755430.28 5135475.84 198.56
-9755428.27 5135480.92 196.11
-9755440.03 5135480.31 206.91
-9755429.85 5135476.81 198.23
-9755430.37 5135475.15 203.38
-9755439.36 5135474.48 218.57
-9755429.20 5135482.93 196.13
-9755432.45 5135479.22 197.93
-9755426.92 5135479.18 187.47
-9755426.39 5135483.95 186.46
-9755427.08 5135484.15 187.12
-9755426.67 5135479.01 196.72
-9755426.43 5135482.22 186.64
-9755427.16 5135477.20 197.12
-9755426.34 5135480.99 186.66
-9755425.03 5135472.52 196.71
-9755419.92 5135470.92 186.22
-9755421.43 5135470.94 186.53
-9755424.64 5135470.85 196.13
-9755418.50 5135470.92 185.99
-9755423.23 5135472.70 186.65
-9755411.69 5135472.39 185.19
-9755421.43 5135475.71 186.21
-9755424.81 5135479.34 186.50
-9755416.60 5135484.06 184.73
-9755420.22 5135483.87 185.82
-9755423.19 5135474.15 186.65
-9755419.91 5135479.22 185.71
-9755415.17 5135479.24 184.75
-9755418.43 5135478.88 185.91
-9755419.95 5135482.55 185.92
-9755425.22 5135480.77 186.44
-9755423.19 5135475.67 186.45
-9755424.68 5135477.75 186.66
-9755423.50 5135475.51 187.14
-9755421.72 5135479.22 186.05
-9755416.64 5135481.05 184.98
-9755421.66 5135482.16 185.79
-9755418.42 5135480.75 185.33
-9755420.17 5135477.47 185.82
-9755414.76 5135477.44 184.86
-9755418.37 5135484.29 185.57
-9755415.14 5135481.04 184.71
-9755417.38 5135481.23 185.85
-9755425.39 5135477.21 196.27
-9755423.58 5135482.56 186.70
-9755415.12 5135477.47 185.44
-9755417.79 5135482.63 184.98
-9755416.63 5135482.58 185.34
-9755420.36 5135474.15 186.69
-9755426.04 5135479.89 186.66
-9755413.81 5135475.95 185.37
-9755411.67 5135473.94 184.52
-9755413.12 5135478.50 185.18
-9755411.92 5135479.01 184.30
-9755411.87 5135484.13 184.44
-9755413.38 5135480.49 184.36
-9755413.50 5135477.46 184.55
-9755411.89 5135476.04 184.40
-9755390.34 5135485.52 181.37
-9755406.98 5135470.99 183.92
-9755408.43 5135472.45 184.08
-9755403.46 5135470.97 183.35
-9755410.25 5135472.75 184.33
-9755403.47 5135472.42 183.74
-9755401.76 5135470.96 182.85
-9755401.69 5135472.50 182.97
-9755401.86 5135472.46 183.58
-9755410.84 5135472.39 185.04
-9755401.55 5135470.87 183.50
-9755400.20 5135470.95 182.86
-9755410.13 5135477.45 183.95
-9755406.88 5135476.03 184.16
-9755408.38 5135479.20 184.27
-9755403.37 5135474.26 183.14
-9755401.94 5135475.72 182.77
-9755408.36 5135474.01 184.31
-9755408.89 5135477.18 184.24
-9755406.23 5135483.58 183.51
-9755408.42 5135475.75 183.86
-9755403.39 5135477.55 182.92
-9755405.04 5135482.56 182.86
-9755403.41 5135479.02 182.83
-9755405.16 5135480.81 182.96
-9755401.83 5135474.30 183.41
-9755406.99 5135479.23 183.91
-9755405.15 5135477.53 183.23
-9755406.95 5135480.80 183.75
-9755404.91 5135479.02 183.03
-9755405.10 5135476.00 183.22
-9755406.64 5135478.05 183.36
-9755403.78 5135476.65 183.58
-9755398.64 5135477.55 182.21
-9755398.69 5135480.50 182.04
-9755398.70 5135470.95 182.64
-9755390.47 5135470.79 181.24
-9755391.89 5135472.48 181.54
-9755397.22 5135472.44 182.32
-9755398.69 5135472.78 182.45
-9755393.34 5135472.73 181.70
-9755384.01 5135471.01 181.34
-9755383.94 5135472.72 181.34
-9755387.23 5135470.68 181.31
-9755382.21 5135470.96 181.36
-9755395.53 5135474.03 182.43
-9755396.95 5135476.11 182.50
-9755398.78 5135482.44 182.39
-9755397.00 5135477.45 182.59
-9755388.64 5135473.97 181.32
-9755398.71 5135479.17 182.64
-9755396.92 5135484.06 181.51
-9755393.25 5135477.28 181.31
-9755393.63 5135480.51 181.28
-9755396.94 5135482.59 182.27
-9755395.31 5135482.64 181.27
-9755390.40 5135477.50 181.34
-9755393.93 5135475.97 182.09
-9755395.13 5135480.76 181.51
-9755388.62 5135483.76 181.37
-9755390.43 5135474.23 181.30
-9755392.73 5135477.12 181.73
-9755394.15 5135480.17 181.74
-9755397.12 5135483.46 182.09
-9755381.90 5135474.16 181.36
-9755387.17 5135475.70 181.35
-9755385.36 5135477.47 181.39
-9755383.67 5135474.20 181.37
-9755385.39 5135483.71 181.40
-9755387.15 5135477.49 181.37
-9755385.40 5135475.68 181.35
-9755385.40 5135480.75 181.39
-9755381.88 5135477.48 181.38
-9755373.87 5135484.18 181.39
-9755367.39 5135483.90 181.37
-9755372.07 5135483.92 181.38
-9755360.58 5135483.84 181.36
-9755354.06 5135484.12 181.36
-9755359.10 5135483.84 181.36
-9755378.96 5135470.67 181.35
-9755376.92 5135470.94 181.34
-9755375.39 5135472.41 181.34
-9755377.14 5135474.20 181.36
-9755375.63 5135478.94 181.37
-9755378.90 5135480.68 181.39
-9755377.45 5135480.71 181.38
-9755375.72 5135474.19 181.35
-9755375.66 5135475.98 181.35
-9755380.64 5135482.22 181.41
-9755377.41 5135482.49 181.40
-9755378.61 5135477.44 181.37
-9755380.36 5135480.70 181.39
-9755373.87 5135480.69 181.38
-9755372.44 5135475.92 181.34
-9755373.92 5135477.42 181.37
-9755372.12 5135482.45 181.37
-9755372.40 5135480.65 181.37
-9755372.10 5135479.18 181.36
-9755370.68 5135472.67 181.34
-9755360.67 5135470.81 181.33
-9755355.65 5135471.11 181.31
-9755359.19 5135472.62 181.32
-9755365.90 5135482.38 181.37
-9755367.40 5135478.84 181.35
-9755363.89 5135480.63 181.35
-9755362.67 5135479.14 181.34
-9755365.68 5135473.81 181.33
-9755367.43 5135474.12 181.34
-9755363.86 5135479.14 181.35
-9755369.14 5135482.46 181.37
-9755364.23 5135474.12 181.34
-9755368.59 5135475.90 181.34
-9755367.39 5135477.42 181.35
-9755365.96 5135475.88 181.34
-9755365.96 5135477.37 181.33
-9755354.16 5135477.28 181.34
-9755357.67 5135479.09 181.34
-9755355.87 5135480.89 181.35
-9755352.43 5135474.03 181.32
-9755355.58 5135479.08 181.35
-9755354.38 5135480.56 181.35
-9755360.64 5135474.10 181.32
-9755360.91 5135480.62 181.35
-9755355.63 5135482.36 181.35
-9755357.41 5135475.85 181.32
-9755349.11 5135483.75 181.36
-9755336.11 5135484.01 181.34
-9755345.88 5135484.37 181.35
-9755337.93 5135484.00 181.34
-9755342.91 5135484.04 181.34
-9755329.33 5135483.99 181.33
-9755334.35 5135483.97 181.34
-9755322.86 5135483.93 181.33
-9755327.89 5135484.23 181.34
-9755350.64 5135470.76 181.30
-9755349.19 5135470.79 181.29
-9755345.94 5135470.76 181.29
-9755349.41 5135482.30 181.35
-9755350.91 5135477.61 181.33
-9755350.92 5135480.53 181.35
-9755349.11 5135477.55 181.32
-9755349.20 5135474.01 181.30
-9755347.63 5135480.80 181.34
-9755347.67 5135474.31 181.32
-9755347.65 5135477.58 181.33
-9755346.16 5135480.83 181.34
-9755339.48 5135471.02 181.29
-9755342.94 5135472.52 181.31
-9755334.46 5135470.95 181.29
-9755324.68 5135470.64 181.28
-9755332.69 5135470.97 181.30
-9755322.96 5135472.38 181.28
-9755340.91 5135476.05 181.31
-9755341.17 5135479.02 181.31
-9755335.85 5135482.51 181.34
-9755339.40 5135479.32 181.32
-9755337.70 5135474.23 181.31
-9755344.11 5135482.31 181.34
-9755344.44 5135474.31 181.32
-9755337.90 5135479.26 181.32
-9755334.38 5135475.73 181.31
-9755332.64 5135475.67 181.31
-9755327.84 5135482.47 181.33
-9755334.65 5135479.01 181.31
-9755326.11 5135482.19 181.33
-9755327.91 5135474.18 181.31
-9755322.92 5135474.15 181.29
-9755326.15 5135474.17 181.30
-9755332.62 5135477.45 181.32
-9755324.62 5135480.68 181.32
-9755321.41 5135480.69 181.32
-9755314.38 5135470.84 181.27
-9755314.66 5135472.59 181.27
-9755316.38 5135472.64 181.28
-9755317.90 5135474.09 181.29
-9755311.07 5135480.59 181.30
-9755318.20 5135475.88 181.30
-9755312.85 5135482.70 181.31
-9755314.67 5135475.90 181.30
-9755311.42 5135479.16 181.31
-9755317.91 5135477.37 181.30
-9755311.39 5135475.87 181.28
-9755307.79 5135584.49 181.41
-9755307.92 5135515.23 181.37
-9755307.89 5135633.61 203.84
-9755307.89 5135571.49 181.41
-9755308.06 5135541.86 181.40
-9755306.38 5135675.41 181.16
-9755299.58 5135675.10 181.17
-9755299.65 5135673.58 181.17
-9755301.36 5135673.61 181.18
-9755296.36 5135673.57 181.15
-9755298.07 5135675.09 181.17
-9755302.81 5135676.89 181.05
-9755298.15 5135673.63 181.17
-9755296.34 5135676.87 181.03
-9755301.34 5135676.90 181.11
-9755293.41 5135673.61 181.13
-9755301.40 5135680.16 181.12
-9755299.88 5135678.11 181.04
-9755294.82 5135680.31 181.09
-9755301.63 5135678.63 181.05
-9755306.69 5135680.18 181.12
-9755303.42 5135678.37 181.05
-9755293.39 5135680.13 181.08
-9755304.56 5135678.70 181.05
-9755293.44 5135678.60 181.01
-9755294.84 5135665.26 207.03
-9755301.36 5135666.72 207.05
-9755296.74 5135668.21 207.04
-9755294.86 5135666.69 207.07
-9755306.34 5135666.81 207.04
-9755306.33 5135668.49 207.15
-9755301.41 5135668.55 207.18
-9755293.42 5135666.99 207.11
-9755296.46 5135648.86 220.81
-9755298.00 5135647.11 220.85
-9755304.79 5135645.35 220.89
-9755294.90 5135645.61 220.90
-9755303.17 5135647.22 220.83
-9755299.83 5135647.07 220.86
-9755296.62 5135645.46 220.93
-9755292.99 5135645.66 220.76
-9755301.36 5135652.25 231.02
-9755304.70 5135658.68 220.64
-9755297.99 5135650.41 220.79
-9755306.39 5135653.84 233.32
-9755294.74 5135655.41 220.63
-9755306.36 5135651.78 233.40
-9755306.32 5135660.26 220.63
-9755298.35 5135652.21 231.00
-9755297.91 5135650.65 233.31
-9755294.98 5135650.04 231.65
-9755292.57 5135649.79 231.67
-9755304.84 5135656.85 220.63
-9755299.53 5135650.61 220.78
-9755303.69 5135653.61 233.33
-9755296.79 5135658.70 220.62
-9755297.97 5135658.57 220.62
-9755298.16 5135652.38 233.34
-9755304.64 5135653.50 231.01
-9755299.69 5135660.45 220.61
-9755294.77 5135660.13 220.60
-9755296.38 5135650.43 233.85
-9755304.74 5135660.19 220.60
-9755298.03 5135661.90 220.64
-9755303.16 5135652.21 220.79
-9755294.80 5135656.92 220.64
-9755294.78 5135657.45 221.82
-9755296.40 5135652.73 228.44
-9755298.09 5135655.13 220.70
-9755298.79 5135655.30 224.37
-9755299.45 5135651.71 233.47
-9755293.20 5135661.84 220.69
-9755304.70 5135653.57 233.32
-9755301.40 5135651.57 233.34
-9755306.38 5135651.80 220.90
-9755301.50 5135663.35 220.79
-9755296.36 5135650.07 232.56
-9755294.68 5135652.13 233.36
-9755302.86 5135653.35 228.41
-9755298.05 5135663.07 220.80
-9755299.84 5135650.91 233.36
-9755298.87 5135650.49 228.56
-9755305.32 5135651.16 233.87
-9755298.04 5135650.27 231.63
-9755306.68 5135651.03 231.55
-9755299.36 5135663.30 220.79
-9755304.50 5135651.53 226.06
-9755299.39 5135650.46 229.51
-9755293.07 5135655.36 220.66
-9755302.99 5135653.89 226.93
-9755294.63 5135662.79 220.73
-9755299.32 5135650.06 228.65
-9755298.94 5135655.59 224.58
-9755293.14 5135650.47 220.82
-9755293.17 5135652.25 228.48
-9755293.14 5135651.90 231.01
-9755306.18 5135642.30 207.35
-9755300.03 5135642.12 207.37
-9755303.51 5135643.63 207.40
-9755301.27 5135643.86 220.92
-9755306.49 5135640.39 205.75
-9755306.22 5135643.58 207.42
-9755304.75 5135642.28 207.42
-9755295.09 5135642.20 207.43
-9755296.47 5135642.41 207.41
-9755305.30 5135644.67 208.00
-9755296.27 5135644.10 220.89
-9755297.99 5135643.86 207.97
-9755303.26 5135642.21 207.38
-9755298.02 5135640.65 206.83
-9755294.80 5135642.32 221.01
-9755299.94 5135643.85 220.96
-9755299.69 5135640.46 206.79
-9755308.79 5135640.39 206.56
-9755294.70 5135642.97 208.14
-9755299.33 5135640.10 205.81
-9755301.44 5135640.96 206.81
-9755296.44 5135640.47 206.80
-9755303.31 5135642.18 218.98
-9755302.89 5135640.44 205.75
-9755301.92 5135642.37 219.04
-9755306.11 5135644.74 207.97
-9755306.85 5135644.57 208.54
-9755304.70 5135640.18 205.75
-9755305.16 5135638.34 204.67
-9755306.22 5135637.00 204.05
-9755296.52 5135638.63 205.73
-9755304.66 5135638.79 205.68
-9755304.81 5135637.86 205.13
-9755298.27 5135640.40 206.28
-9755303.30 5135638.25 204.62
-9755296.17 5135637.21 205.50
-9755301.23 5135637.51 205.17
-9755295.58 5135640.12 206.30
-9755298.25 5135637.29 204.58
-9755301.14 5135636.93 204.05
-9755296.25 5135638.72 203.75
-9755299.73 5135637.27 204.60
-9755296.21 5135637.18 204.10
-9755306.58 5135638.36 204.62
-9755303.17 5135637.07 204.16
-9755294.85 5135639.83 203.67
-9755299.64 5135628.88 187.12
-9755303.27 5135629.09 196.12
-9755297.97 5135635.47 204.03
-9755299.79 5135635.51 204.01
-9755299.74 5135634.03 204.03
-9755296.73 5135632.00 197.70
-9755299.69 5135633.75 197.91
-9755306.06 5135630.36 187.12
-9755298.18 5135627.17 187.27
-9755301.47 5135633.80 198.54
-9755304.70 5135630.79 197.08
-9755294.22 5135632.20 198.49
-9755301.48 5135634.00 204.02
-9755306.64 5135635.63 203.98
-9755294.72 5135633.98 203.47
-9755306.48 5135630.85 196.99
-9755306.49 5135625.88 186.26
-9755299.70 5135629.11 196.10
-9755299.74 5135630.55 197.00
-9755296.48 5135628.99 196.15
-9755303.01 5135635.52 203.99
-9755304.79 5135633.44 197.48
-9755303.30 5135629.08 187.57
-9755299.73 5135627.94 196.04
-9755296.29 5135633.97 204.02
-9755304.67 5135628.93 187.01
-9755300.10 5135633.83 198.64
-9755302.99 5135634.04 198.56
-9755295.02 5135632.33 196.27
-9755304.71 5135634.13 204.02
-9755294.58 5135633.03 204.01
-9755299.72 5135632.50 197.49
-9755294.99 5135629.05 196.14
-9755298.26 5135634.02 204.02
-9755306.19 5135629.21 187.05
-9755296.37 5135629.18 187.21
-9755294.39 5135629.27 197.25
-9755304.65 5135627.20 186.64
-9755302.94 5135627.80 187.28
-9755294.75 5135635.49 203.50
-9755303.14 5135633.87 204.02
-9755296.50 5135632.34 196.28
-9755295.02 5135627.27 187.43
-9755298.64 5135633.11 198.51
-9755298.31 5135629.06 196.10
-9755296.87 5135633.35 197.92
-9755306.66 5135630.33 196.10
-9755301.36 5135627.42 186.66
-9755298.33 5135633.78 197.98
-9755298.59 5135632.45 203.56
-9755294.65 5135625.66 186.47
-9755296.57 5135633.12 203.97
-9755296.52 5135627.30 196.71
-9755296.36 5135633.99 196.36
-9755304.41 5135630.02 196.13
-9755296.78 5135629.35 197.25
-9755301.20 5135628.03 196.07
-9755299.68 5135625.97 187.02
-9755298.17 5135633.54 198.61
-9755297.92 5135627.49 196.69
-9755301.50 5135633.68 197.91
-9755299.91 5135627.18 186.66
-9755294.67 5135627.23 196.70
-9755298.16 5135627.10 186.66
-9755299.58 5135632.55 203.66
-9755303.21 5135630.03 187.10
-9755301.43 5135627.85 196.71
-9755299.67 5135625.71 186.44
-9755305.06 5135628.14 196.67
-9755300.50 5135630.12 187.13
-9755293.22 5135630.76 197.30
-9755293.20 5135629.23 196.65
-9755293.15 5135627.31 196.08
-9755293.80 5135631.09 198.23
-9755293.51 5135633.34 199.70
-9755293.18 5135636.28 205.31
-9755306.51 5135614.31 184.14
-9755299.67 5135615.70 184.53
-9755301.47 5135612.42 183.91
-9755299.83 5135612.74 184.33
-9755302.94 5135622.44 185.77
-9755304.64 5135619.13 185.60
-9755299.64 5135620.55 185.96
-9755294.69 5135614.23 184.33
-9755294.97 5135617.37 185.44
-9755301.45 5135619.12 185.60
-9755306.17 5135612.53 183.81
-9755294.98 5135615.65 184.53
-9755303.02 5135612.50 184.43
-9755299.74 5135614.17 184.16
-9755295.00 5135612.70 184.10
-9755296.46 5135617.14 184.80
-9755294.67 5135617.05 184.80
-9755298.77 5135619.18 185.76
-9755304.67 5135618.70 184.92
-9755302.92 5135614.20 184.12
-9755299.86 5135618.91 185.59
-9755301.41 5135617.47 184.73
-9755302.88 5135617.49 184.72
-9755299.64 5135617.17 184.73
-9755304.56 5135612.49 184.32
-9755298.58 5135617.64 185.35
-9755298.87 5135615.70 185.11
-9755297.93 5135615.95 184.61
-9755304.37 5135617.61 185.22
-9755306.68 5135617.66 185.25
-9755296.39 5135616.29 185.26
-9755299.85 5135611.08 184.25
-9755304.50 5135611.29 184.01
-9755293.51 5135617.68 185.53
-9755293.22 5135615.76 184.69
-9755293.16 5135615.83 185.09
-9755293.38 5135610.99 184.40
-9755299.73 5135624.16 186.06
-9755303.22 5135623.95 186.00
-9755294.95 5135623.90 186.22
-9755301.15 5135624.44 186.75
-9755301.46 5135610.82 184.13
-9755306.49 5135611.04 183.55
-9755304.78 5135610.21 183.35
-9755302.95 5135607.44 182.96
-9755301.50 5135607.50 182.97
-9755298.27 5135607.49 183.09
-9755296.50 5135607.63 183.69
-9755306.22 5135607.49 182.95
-9755294.89 5135607.52 182.82
-9755305.63 5135608.21 183.60
-9755301.49 5135609.24 183.84
-9755293.24 5135607.78 183.72
-9755304.40 5135609.50 183.87
-9755297.40 5135609.32 183.90
-9755302.97 5135608.96 183.16
-9755296.47 5135609.26 183.37
-9755293.26 5135608.92 183.36
-9755306.28 5135592.80 181.36
-9755296.28 5135590.98 181.34
-9755296.58 5135589.48 181.38
-9755303.32 5135591.03 181.37
-9755299.84 5135591.28 181.35
-9755298.07 5135591.26 181.35
-9755306.31 5135594.29 181.36
-9755301.32 5135594.29 181.36
-9755303.07 5135588.07 181.40
-9755299.77 5135592.77 181.36
-9755303.04 5135592.74 181.36
-9755303.07 5135589.52 181.40
-9755301.58 5135589.49 181.40
-9755304.80 5135592.54 181.37
-9755293.05 5135591.24 181.35
-9755293.04 5135589.49 181.34
-9755296.47 5135606.10 182.62
-9755305.93 5135600.93 182.41
-9755303.00 5135606.31 182.79
-9755296.47 5135597.78 181.51
-9755298.05 5135597.26 181.36
-9755301.51 5135606.04 182.77
-9755296.50 5135599.51 182.31
-9755301.48 5135602.88 182.75
-9755298.22 5135606.01 182.84
-9755301.52 5135604.26 182.43
-9755296.72 5135605.61 183.39
-9755306.27 5135597.82 181.32
-9755302.99 5135604.28 182.43
-9755304.61 5135601.17 182.49
-9755294.73 5135604.17 182.60
-9755302.98 5135600.99 182.47
-9755299.79 5135596.02 181.33
-9755299.77 5135597.54 181.99
-9755294.98 5135599.39 182.30
-9755304.82 5135597.84 181.30
-9755304.50 5135604.28 182.41
-9755295.01 5135602.77 182.30
-9755294.81 5135596.28 181.32
-9755298.34 5135596.29 181.34
-9755296.57 5135597.83 182.14
-9755296.51 5135599.25 181.71
-9755302.57 5135597.51 182.06
-9755304.76 5135600.42 181.72
-9755305.73 5135600.68 181.62
-9755302.87 5135606.24 183.38
-9755293.27 5135605.67 182.80
-9755293.28 5135595.97 181.32
-9755293.21 5135599.08 181.56
-9755293.33 5135597.43 181.52
-9755293.27 5135602.71 182.40
-9755299.84 5135586.25 181.40
-9755301.63 5135585.99 181.39
-9755301.34 5135584.47 181.40
-9755306.36 5135586.02 181.42
-9755306.34 5135584.25 181.41
-9755294.56 5135584.72 181.38
-9755298.42 5135582.96 181.39
-9755303.13 5135582.71 181.40
-9755303.22 5135569.71 181.37
-9755306.40 5135567.94 181.40
-9755306.40 5135574.41 181.41
-9755306.68 5135578.00 181.41
-9755298.11 5135576.51 181.37
-9755304.64 5135574.75 181.39
-9755298.19 5135569.66 181.36
-9755296.64 5135576.17 181.36
-9755304.34 5135579.76 181.40
-9755301.36 5135576.19 181.39
-9755299.65 5135574.69 181.37
-9755301.35 5135574.73 181.38
-9755306.37 5135576.50 181.41
-9755296.71 5135568.13 181.36
-9755304.68 5135567.89 181.40
-9755295.17 5135581.18 181.37
-9755298.11 5135581.47 181.40
-9755293.17 5135569.64 181.35
-9755293.40 5135579.40 181.36
-9755306.48 5135558.17 181.39
-9755306.44 5135559.90 181.40
-9755304.76 5135556.36 181.39
-9755301.53 5135556.35 181.37
-9755304.72 5135563.18 181.40
-9755304.68 5135566.44 181.39
-9755299.96 5135561.63 181.37
-9755302.96 5135559.91 181.39
-9755302.93 5135556.34 181.37
-9755301.47 5135563.18 181.38
-9755294.70 5135561.62 181.35
-9755296.72 5135566.40 181.36
-9755296.17 5135559.87 181.35
-9755303.20 5135563.17 181.38
-9755299.68 5135564.64 181.38
-9755300.00 5135559.61 181.37
-9755297.91 5135561.62 181.36
-9755301.40 5135564.96 181.38
-9755298.19 5135566.42 181.35
-9755296.44 5135563.13 181.36
-9755301.46 5135557.85 181.37
-9755306.42 5135566.44 181.41
-9755299.98 5135562.86 181.37
-9755298.18 5135563.16 181.37
-9755297.94 5135559.59 181.36
-9755294.96 5135558.12 181.34
-9755294.73 5135556.34 181.34
-9755292.95 5135556.60 181.34
-9755292.92 5135559.83 181.34
-9755293.15 5135564.86 181.36
-9755293.26 5135558.42 181.34
-9755304.72 5135553.42 181.39
-9755306.22 5135554.61 181.40
-9755304.47 5135554.87 181.37
-9755298.01 5135549.79 181.36
-9755296.21 5135551.62 181.35
-9755298.02 5135551.32 181.36
-9755303.27 5135549.79 181.38
-9755301.53 5135551.36 181.37
-9755304.77 5135550.12 181.37
-9755295.01 5135551.30 181.34
-9755306.61 5135535.06 181.40
-9755299.84 5135536.81 181.37
-9755298.10 5135531.76 181.36
-9755298.06 5135536.78 181.36
-9755301.30 5135536.80 181.37
-9755304.83 5135538.29 181.39
-9755304.54 5135536.53 181.39
-9755303.14 5135531.77 181.37
-9755301.65 5135533.56 181.38
-9755301.66 5135530.03 181.37
-9755299.80 5135538.58 181.37
-9755302.78 5135538.62 181.38
-9755299.59 5135532.04 181.37
-9755303.12 5135533.25 181.37
-9755306.37 5135530.32 181.39
-9755306.34 5135533.55 181.39
-9755295.12 5135535.26 181.35
-9755295.12 5135538.53 181.34
-9755294.85 5135536.76 181.35
-9755304.63 5135530.29 181.38
-9755293.07 5135536.49 181.34
-9755293.38 5135533.51 181.35
-9755293.08 5135532.05 181.35
-9755293.42 5135529.98 181.36
-9755293.05 5135539.71 181.34
-9755299.81 5135546.55 181.37
-9755296.60 5135541.80 181.35
-9755306.28 5135546.63 181.40
-9755303.02 5135546.56 181.38
-9755299.77 5135548.37 181.35
-9755301.55 5135546.56 181.37
-9755306.33 5135541.58 181.39
-9755301.26 5135548.35 181.38
-9755306.25 5135545.11 181.39
-9755296.24 5135548.34 181.35
-9755298.03 5135543.29 181.35
-9755301.51 5135545.38 181.37
-9755303.35 5135543.34 181.37
-9755299.57 5135528.53 181.37
-9755296.37 5135528.47 181.37
-9755304.90 5135528.27 181.37
-9755298.41 5135528.52 181.36
-9755306.38 5135525.01 181.38
-9755301.64 5135525.28 181.38
-9755302.88 5135525.25 181.38
-9755299.92 5135523.44 181.37
-9755296.69 5135523.46 181.38
-9755304.98 5135524.99 181.38
-9755299.89 5135526.74 181.38
-9755298.16 5135526.73 181.37
-9755306.43 5135523.52 181.39
-9755306.40 5135526.82 181.39
-9755304.64 5135523.51 181.38
-9755301.65 5135523.53 181.37
-9755293.14 5135525.21 181.36
-9755304.69 5135511.97 181.36
-9755301.78 5135510.47 181.34
-9755299.74 5135510.18 181.32
-9755295.00 5135510.43 181.32
-9755303.25 5135510.21 181.34
-9755304.75 5135510.50 181.35
-9755293.20 5135511.88 181.33
-9755303.20 5135522.01 181.37
-9755299.92 5135520.25 181.35
-9755298.22 5135516.68 181.35
-9755296.42 5135520.21 181.36
-9755306.42 5135520.24 181.37
-9755304.64 5135522.29 181.38
-9755303.21 5135515.53 181.36
-9755301.17 5135513.72 181.35
-9755306.44 5135522.03 181.38
-9755299.69 5135513.43 181.35
-9755301.41 5135522.01 181.37
-9755305.00 5135515.21 181.36
-9755296.72 5135515.46 181.35
-9755294.64 5135518.71 181.35
-9755293.14 5135520.47 181.35
-9755293.16 5135521.98 181.34
-9755306.50 5135507.24 181.36
-9755308.03 5135502.19 181.35
-9755306.57 5135501.92 181.35
-9755302.99 5135503.94 181.34
-9755301.49 5135505.73 181.33
-9755301.50 5135508.63 181.34
-9755302.96 5135508.67 181.34
-9755303.00 5135502.18 181.34
-9755303.27 5135506.93 181.34
-9755304.49 5135508.73 181.34
-9755296.21 5135503.62 181.32
-9755301.52 5135502.43 181.33
-9755304.48 5135505.45 181.36
-9755301.50 5135506.90 181.34
-9755298.00 5135500.36 181.32
-9755299.76 5135500.34 181.32
-9755296.54 5135500.40 181.30
-9755306.54 5135497.48 181.34
-9755300.09 5135497.16 181.31
-9755301.56 5135497.10 181.31
-9755306.63 5135495.67 181.34
-9755308.04 5135497.21 181.34
-9755298.03 5135497.11 181.31
-9755296.51 5135497.10 181.30
-9755298.27 5135498.91 181.32
-9755296.56 5135498.59 181.31
-9755308.07 5135492.43 181.34
-9755301.58 5135492.40 181.30
-9755302.84 5135482.34 181.27
-9755302.88 5135475.83 181.26
-9755304.90 5135480.55 181.29
-9755308.11 5135482.39 181.30
-9755298.13 5135480.80 181.29
-9755296.39 5135475.77 181.27
-9755301.36 5135482.36 181.28
-9755306.36 5135483.82 181.30
-9755299.85 5135480.54 181.28
-9755299.58 5135482.31 181.29
-9755296.38 5135479.36 181.28
-9755299.55 5135477.31 181.27
-9755303.18 5135474.02 181.26
-9755296.34 5135482.59 181.28
-9755301.70 5135475.82 181.27
-9755301.40 5135474.06 181.25
-9755307.89 5135475.87 181.27
-9755294.56 5135482.31 181.29
-9755302.85 5135477.29 181.28
-9755308.07 5135485.64 181.31
-9755301.67 5135485.59 181.30
-9755294.89 5135480.53 181.28
-9755293.12 5135477.52 181.27
-9755293.35 5135484.09 181.28
-9755293.14 5135479.32 181.27
-9755293.10 5135480.80 181.28
-9755301.29 5135488.87 181.30
-9755303.08 5135489.16 181.31
-9755308.06 5135490.64 181.32
-9755296.33 5135487.35 181.30
-9755301.63 5135487.34 181.31
-9755306.33 5135490.33 181.32
-9755301.30 5135490.63 181.30
-9755298.36 5135490.89 181.30
-9755303.09 5135487.39 181.30
-9755293.39 5135489.08 181.27
-9755304.68 5135472.29 181.25
-9755294.93 5135472.55 181.26
-9755301.47 5135470.52 181.24
-9755304.66 5135470.79 181.25
-9755306.43 5135471.13 181.25
-9755293.19 5135471.00 181.24
-9755307.85 5135577.98 181.41
-9755308.15 5135530.05 181.38
-9755308.02 5135551.66 181.41
-9755307.85 5135522.05 181.38
-9755499.20 5135675.07 181.01
-9755499.18 5135679.84 181.09
-9755500.93 5135678.35 181.07
-9755500.94 5135679.84 181.08
-9755499.20 5135676.88 181.04
-9755499.19 5135673.61 180.99
-9755502.49 5135670.35 181.13
-9755500.66 5135671.83 181.17
-9755501.00 5135670.33 181.17
-9755502.56 5135667.02 181.93
-9755502.72 5135671.80 181.12
-9755500.71 5135668.52 181.18
-9755500.73 5135667.08 181.19
-9755495.68 5135673.57 180.99
-9755492.42 5135671.80 181.13
-9755480.94 5135673.45 181.00
-9755489.47 5135673.51 180.98
-9755484.15 5135673.50 180.97
-9755484.48 5135671.74 181.12
-9755487.73 5135671.74 181.12
-9755482.66 5135671.75 181.10
-9755480.01 5135673.01 183.92
-9755495.93 5135678.25 181.06
-9755492.67 5135675.05 180.99
-9755492.43 5135680.31 181.09
-9755490.69 5135674.99 180.96
-9755485.88 5135678.52 181.05
-9755484.07 5135679.98 181.05
-9755481.20 5135680.29 181.05
-9755480.86 5135676.75 180.98
-9755482.69 5135676.78 181.01
-9755482.92 5135678.58 181.05
-9755479.42 5135678.53 181.01
-9755489.48 5135676.76 181.02
-9755477.61 5135679.99 181.05
-9755477.96 5135678.50 181.01
-9755477.68 5135674.92 180.88
-9755477.73 5135671.99 181.03
-9755474.47 5135671.98 181.03
-9755476.21 5135671.69 181.04
-9755472.64 5135673.44 180.96
-9755472.68 5135680.19 181.04
-9755474.10 5135675.25 180.88
-9755469.64 5135680.21 181.05
-9755474.40 5135676.72 180.93
-9755474.44 5135679.96 181.04
-9755497.48 5135668.80 181.17
-9755497.71 5135670.28 181.16
-9755493.95 5135670.27 181.15
-9755492.47 5135668.50 181.17
-9755492.44 5135666.97 181.94
-9755497.44 5135671.55 181.16
-9755485.90 5135668.36 182.52
-9755480.90 5135668.39 181.12
-9755488.95 5135668.45 181.15
-9755482.43 5135666.66 181.27
-9755485.96 5135668.77 181.14
-9755483.04 5135668.44 181.14
-9755489.21 5135665.24 181.21
-9755482.67 5135670.20 181.12
-9755485.99 5135669.91 181.13
-9755489.00 5135666.00 181.89
-9755491.36 5135665.50 182.01
-9755483.04 5135668.41 182.52
-9755484.26 5135668.58 184.71
-9755487.72 5135670.28 181.15
-9755491.00 5135667.87 181.91
-9755479.50 5135670.21 181.09
-9755482.75 5135665.17 181.33
-9755478.87 5135668.42 182.50
-9755472.99 5135666.95 187.35
-9755472.70 5135666.76 189.11
-9755471.38 5135666.81 187.55
-9755471.27 5135670.14 185.96
-9755476.19 5135668.66 181.11
-9755471.25 5135668.48 188.92
-9755470.85 5135667.02 183.99
-9755472.76 5135668.78 187.14
-9755474.18 5135670.21 181.08
-9755469.42 5135668.72 181.08
-9755471.32 5135669.78 187.32
-9755469.34 5135668.22 190.64
-9755469.60 5135670.15 186.26
-9755476.24 5135668.34 182.53
-9755469.27 5135668.35 186.01
-9755469.21 5135667.40 184.37
-9755469.63 5135666.92 187.77
-9755469.46 5135669.90 184.35
-9755472.84 5135666.66 191.88
-9755469.55 5135665.41 187.17
-9755469.14 5135669.03 184.65
-9755474.03 5135667.10 190.30
-9755470.68 5135667.94 191.19
-9755473.90 5135665.77 190.70
-9755470.30 5135667.96 191.63
-9755474.05 5135665.77 188.75
-9755476.30 5135666.39 184.69
-9755471.45 5135669.24 184.14
-9755467.99 5135673.45 180.98
-9755464.40 5135673.40 180.95
-9755456.16 5135671.84 180.93
-9755456.15 5135673.33 180.91
-9755464.41 5135671.93 181.00
-9755455.03 5135672.62 183.48
-9755461.22 5135671.92 180.97
-9755467.63 5135676.63 180.94
-9755467.61 5135678.42 181.01
-9755466.13 5135676.63 180.93
-9755465.92 5135678.38 180.99
-9755464.67 5135676.68 180.91
-9755453.13 5135680.11 181.02
-9755458.25 5135676.60 180.89
-9755461.17 5135678.37 180.98
-9755454.65 5135678.40 180.96
-9755456.43 5135675.16 180.81
-9755457.87 5135675.09 180.81
-9755453.19 5135675.06 180.76
-9755454.70 5135675.10 180.76
-9755451.11 5135678.64 180.95
-9755449.99 5135673.61 180.91
-9755448.21 5135673.57 180.91
-9755446.13 5135673.62 180.91
-9755443.18 5135671.80 180.96
-9755442.92 5135673.56 180.93
-9755448.23 5135671.79 180.93
-9755447.90 5135680.06 181.01
-9755449.63 5135675.39 180.81
-9755446.15 5135678.35 180.95
-9755441.40 5135678.24 180.98
-9755442.94 5135676.85 180.92
-9755441.43 5135676.54 180.91
-9755444.67 5135676.78 180.89
-9755446.40 5135675.10 180.81
-9755447.86 5135676.50 180.87
-9755444.60 5135680.02 181.03
-9755439.90 5135680.06 181.04
-9755439.93 5135676.80 180.91
-9755467.96 5135667.07 188.81
-9755467.97 5135666.87 185.62
-9755467.74 5135670.17 186.00
-9755467.85 5135670.35 187.20
-9755467.80 5135665.38 189.17
-9755467.97 5135667.13 184.52
-9755467.72 5135669.07 184.79
-9755467.70 5135668.65 181.07
-9755467.63 5135670.18 181.03
-9755466.10 5135666.88 184.54
-9755467.72 5135665.28 190.49
-9755466.36 5135666.70 191.12
-9755466.26 5135668.57 182.40
-9755466.31 5135667.02 187.71
-9755466.00 5135665.14 186.26
-9755466.18 5135665.27 184.07
-9755468.01 5135665.22 185.72
-9755466.69 5135668.37 184.58
-9755465.99 5135665.38 188.76
-9755466.18 5135665.17 187.25
-9755468.45 5135669.43 188.71
-9755466.26 5135667.69 182.41
-9755466.28 5135668.49 186.16
-9755466.16 5135667.16 181.36
-9755466.31 5135665.25 190.64
-9755467.71 5135665.20 184.16
-9755459.75 5135670.39 187.88
-9755461.28 5135668.43 185.69
-9755462.62 5135668.63 189.27
-9755462.67 5135666.97 190.61
-9755457.75 5135667.13 187.55
-9755461.28 5135666.89 192.03
-9755462.59 5135666.58 192.54
-9755457.99 5135670.10 180.97
-9755464.44 5135665.13 187.40
-9755459.43 5135670.19 185.68
-9755457.98 5135666.79 181.48
-9755459.36 5135668.58 186.11
-9755459.71 5135668.51 188.81
-9755454.76 5135667.19 181.33
-9755463.01 5135669.88 186.15
-9755461.19 5135670.14 185.95
-9755461.81 5135668.54 184.36
-9755455.93 5135665.32 181.44
-9755466.98 5135669.40 185.20
-9755457.94 5135668.35 186.06
-9755462.99 5135670.21 184.14
-9755462.74 5135670.50 187.06
-9755464.45 5135667.07 189.10
-9755457.99 5135666.80 189.08
-9755457.99 5135668.34 190.76
-9755463.03 5135668.51 187.33
-9755459.58 5135664.97 190.71
-9755461.03 5135665.37 192.20
-9755458.10 5135666.94 191.66
-9755464.30 5135668.55 187.50
-9755456.26 5135666.80 181.41
-9755458.25 5135666.89 191.15
-9755462.61 5135669.67 189.58
-9755456.13 5135665.31 182.46
-9755457.97 5135668.37 187.58
-9755458.29 5135668.74 184.77
-9755454.66 5135670.40 180.96
-9755461.40 5135665.34 189.37
-9755462.82 5135665.13 192.13
-9755457.88 5135665.55 187.52
-9755458.22 5135670.14 186.37
-9755459.96 5135666.76 192.89
-9755459.50 5135665.04 187.80
-9755452.93 5135668.56 180.98
-9755452.97 5135670.36 180.95
-9755456.81 5135667.25 186.33
-9755456.64 5135666.72 187.36
-9755457.00 5135665.94 184.38
-9755463.77 5135670.23 184.14
-9755458.47 5135664.75 190.84
-9755456.80 5135665.31 187.52
-9755461.17 5135669.57 191.87
-9755464.23 5135668.39 190.17
-9755460.37 5135669.95 190.61
-9755458.70 5135668.35 191.91
-9755457.07 5135667.74 186.95
-9755458.67 5135669.76 187.77
-9755451.10 5135668.62 180.97
-9755444.97 5135670.34 180.98
-9755443.17 5135670.30 180.98
-9755441.53 5135667.13 190.91
-9755441.29 5135666.71 192.26
-9755444.68 5135667.02 181.41
-9755444.72 5135668.52 181.11
-9755439.55 5135669.93 186.99
-9755439.84 5135666.81 192.33
-9755441.19 5135668.62 190.96
-9755441.03 5135665.33 192.10
-9755442.63 5135666.54 189.13
-9755448.21 5135668.33 181.11
-9755440.04 5135665.25 187.71
-9755442.50 5135666.93 190.47
-9755439.87 5135670.39 184.50
-9755442.93 5135665.26 189.10
-9755442.66 5135668.04 188.34
-9755438.24 5135671.72 180.99
-9755433.50 5135671.73 181.04
-9755429.62 5135671.99 181.06
-9755428.45 5135674.97 180.89
-9755428.11 5135676.95 180.96
-9755436.66 5135676.77 180.93
-9755436.67 5135678.54 181.01
-9755434.90 5135676.77 180.94
-9755431.69 5135673.49 181.02
-9755426.67 5135678.23 181.01
-9755430.19 5135678.48 181.01
-9755433.46 5135676.79 180.96
-9755426.40 5135674.98 180.90
-9755424.92 5135673.46 181.10
-9755413.40 5135672.18 181.09
-9755410.20 5135671.90 181.11
-9755413.39 5135679.92 181.05
-9755419.91 5135673.41 181.08
-9755421.63 5135675.22 180.90
-9755418.41 5135676.69 180.94
-9755420.14 5135676.70 180.95
-9755416.64 5135673.40 181.09
-9755418.45 5135675.22 180.91
-9755415.15 5135678.46 181.00
-9755410.20 5135673.38 181.08
-9755411.91 5135673.39 181.09
-9755410.43 5135678.37 181.01
-9755410.38 5135679.88 181.05
-9755411.96 5135676.64 180.95
-9755438.03 5135671.28 184.04
-9755438.35 5135665.40 190.74
-9755434.92 5135670.35 181.05
-9755438.26 5135669.99 187.79
-9755427.95 5135668.44 186.42
-9755433.50 5135670.27 181.06
-9755437.80 5135671.84 185.04
-9755436.49 5135670.22 189.10
-9755436.57 5135671.36 186.02
-9755436.44 5135667.13 187.76
-9755436.50 5135665.40 189.07
-9755436.46 5135665.26 190.80
-9755435.02 5135665.10 187.40
-9755437.96 5135665.16 189.29
-9755436.56 5135668.40 189.26
-9755438.05 5135666.86 191.01
-9755435.42 5135668.66 189.03
-9755429.61 5135668.27 189.02
-9755436.60 5135667.30 189.59
-9755437.92 5135671.94 188.96
-9755426.52 5135667.08 187.10
-9755428.52 5135670.27 187.42
-9755434.92 5135668.38 185.91
-9755431.44 5135668.39 187.01
-9755433.31 5135667.12 184.68
-9755435.08 5135666.72 192.60
-9755436.46 5135666.76 192.28
-9755438.50 5135669.96 185.98
-9755434.82 5135668.74 184.19
-9755434.59 5135665.70 184.66
-9755435.36 5135668.41 192.23
-9755434.95 5135668.61 182.44
-9755436.51 5135668.44 187.56
-9755434.94 5135668.54 181.15
-9755426.62 5135668.40 184.77
-9755438.15 5135670.26 188.85
-9755434.70 5135666.75 181.37
-9755433.49 5135667.54 185.19
-9755426.76 5135668.18 192.34
-9755436.70 5135668.72 185.96
-9755434.72 5135670.18 185.95
-9755426.74 5135670.24 188.87
-9755429.94 5135665.42 188.04
-9755426.75 5135670.18 187.41
-9755434.00 5135665.34 184.52
-9755429.39 5135671.68 186.03
-9755428.44 5135670.23 185.80
-9755438.18 5135668.79 184.52
-9755430.13 5135669.64 190.60
-9755437.90 5135666.71 187.70
-9755430.04 5135665.81 188.77
-9755436.89 5135666.96 185.64
-9755433.84 5135668.41 187.39
-9755433.14 5135666.91 181.27
-9755426.82 5135671.30 188.94
-9755426.42 5135671.07 185.71
-9755429.91 5135670.22 184.25
-9755430.06 5135666.86 187.66
-9755436.60 5135665.07 184.11
-9755439.21 5135671.85 189.87
-9755433.05 5135665.55 187.95
-9755431.49 5135667.95 183.98
-9755436.81 5135671.33 184.23
-9755434.80 5135667.07 190.49
-9755433.19 5135668.67 182.45
-9755429.45 5135666.76 190.37
-9755426.73 5135668.37 181.21
-9755426.66 5135666.58 181.36
-9755427.99 5135669.56 192.61
-9755435.05 5135665.09 190.20
-9755426.50 5135665.57 190.45
-9755426.90 5135671.86 187.65
-9755432.87 5135669.56 182.44
-9755426.43 5135667.15 191.98
-9755437.23 5135671.17 190.58
-9755435.33 5135670.19 188.80
-9755434.37 5135669.60 184.18
-9755430.84 5135666.33 186.57
-9755433.83 5135668.21 185.20
-9755426.47 5135670.36 192.02
-9755426.68 5135671.55 184.91
-9755424.93 5135670.47 187.42
-9755424.65 5135669.82 186.01
-9755425.36 5135671.34 189.13
-9755425.17 5135666.82 184.15
-9755424.88 5135668.32 185.89
-9755424.96 5135666.95 186.03
-9755424.77 5135665.57 190.54
-9755424.73 5135668.78 184.04
-9755424.89 5135668.43 181.25
-9755424.94 5135670.14 189.16
-9755425.19 5135668.74 187.11
-9755424.95 5135666.94 187.21
-9755425.43 5135668.48 189.50
-9755425.32 5135666.79 188.60
-9755424.73 5135670.47 184.63
-9755424.78 5135668.31 182.49
-9755425.12 5135665.31 187.26
-9755426.14 5135665.35 186.20
-9755425.21 5135670.21 181.12
-9755424.98 5135665.09 181.30
-9755425.22 5135671.35 185.05
-9755425.64 5135671.24 187.40
-9755425.60 5135667.66 192.04
-9755421.93 5135670.22 181.14
-9755423.72 5135668.67 181.19
-9755421.67 5135668.37 181.18
-9755421.61 5135666.83 182.51
-9755415.25 5135668.69 181.16
-9755422.94 5135668.38 182.51
-9755423.60 5135668.52 184.72
-9755423.20 5135666.94 181.25
-9755422.56 5135667.12 182.51
-9755416.68 5135666.66 181.21
-9755423.41 5135665.06 184.11
-9755418.45 5135665.08 181.22
-9755423.19 5135670.12 186.03
-9755418.45 5135666.88 181.20
-9755413.45 5135670.14 181.14
-9755415.22 5135666.88 181.19
-9755416.67 5135670.17 181.15
-9755415.21 5135665.41 181.21
-9755413.45 5135668.63 181.15
-9755423.62 5135670.07 186.70
-9755413.17 5135666.89 181.18
-9755423.22 5135667.01 186.11
-9755423.28 5135667.76 186.20
-9755422.98 5135665.42 181.24
-9755424.13 5135666.52 183.94
-9755423.32 5135668.71 186.75
-9755423.72 5135670.37 183.88
-9755422.14 5135669.61 182.50
-9755411.98 5135666.93 181.17
-9755410.17 5135670.10 181.15
-9755411.65 5135670.07 181.13
-9755411.95 5135668.68 181.16
-9755411.72 5135665.08 181.21
-9755410.22 5135666.83 181.17
-9755410.41 5135665.16 204.06
-9755410.27 5135665.25 193.26
-9755411.81 5135665.03 193.26
-9755405.45 5135671.84 181.10
-9755406.65 5135671.87 181.11
-9755405.13 5135678.36 181.01
-9755405.43 5135675.39 180.89
-9755408.43 5135675.15 180.91
-9755407.19 5135678.36 181.01
-9755408.38 5135678.74 181.01
-9755398.01 5135676.94 207.74
-9755388.61 5135671.95 207.54
-9755390.36 5135671.98 207.53
-9755393.63 5135672.01 207.54
-9755392.13 5135671.69 207.55
-9755387.28 5135672.00 189.15
-9755388.91 5135671.77 181.14
-9755387.06 5135671.84 196.49
-9755386.88 5135671.78 181.15
-9755385.67 5135671.72 181.15
-9755383.64 5135671.98 181.17
-9755382.14 5135672.06 181.17
-9755397.13 5135676.75 207.60
-9755395.34 5135680.01 207.60
-9755396.81 5135675.28 207.56
-9755387.22 5135678.53 189.16
-9755386.89 5135675.26 181.00
-9755390.28 5135678.49 207.59
-9755390.71 5135672.10 181.37
